ply
format ascii 1.0
element vertex 583
property float32 x
property float32 y
property float32 z
property float32 CosAngle
property uint32 ObjIdx
property uint32 ObjTag
end_header
3.1691014766693115 -0.42677733302116394 -1.8113415241241455 0.49090883135795593 0 1
3.167167901992798 -0.44091796875 -1.8113373517990112 0.49090972542762756 0 1
3.165156126022339 -0.45505857467651367 -1.811333179473877 0.490911066532135 0 1
3.1630859375 -0.4691796898841858 -1.811328649520874 0.4909120798110962 0 1
3.16094708442688 -0.4832812249660492 -1.811324119567871 0.4909135401248932 0 1
3.158759593963623 -0.497382789850235 -1.8113195896148682 0.4909147024154663 0 1
3.156503915786743 -0.5114843845367432 -1.8113147020339966 0.4909151792526245 0 1
3.154179573059082 -0.5255468487739563 -1.811309576034546 0.49091649055480957 0 1
3.151787042617798 -0.5396289229393005 -1.8113045692443848 0.49091824889183044 0 1
3.149345636367798 -0.5536718368530273 -1.811299204826355 0.49091970920562744 0 1
3.1468260288238525 -0.5677343606948853 -1.8112939596176147 0.49092161655426025 0 1
3.1442480087280273 -0.5817577838897705 -1.8112882375717163 0.4909232556819916 0 1
3.1416211128234863 -0.5957812070846558 -1.8112826347351074 0.4909241795539856 0 1
3.138916015625 -0.6098046898841858 -1.8112767934799194 0.49092593789100647 0 1
3.1361522674560547 -0.6238085627555847 -1.8112707138061523 0.49092698097229004 0 1
3.1333301067352295 -0.6377929449081421 -1.8112646341323853 0.49092885851860046 0 1
3.130439281463623 -0.6517577767372131 -1.811258316040039 0.4909304976463318 0 1
3.127490282058716 -0.6657421588897705 -1.8112519979476929 0.49093252420425415 0 1
3.1244726181030273 -0.6796875 -1.8112454414367676 0.49093425273895264 0 1
3.12139630317688 -0.6936132907867432 -1.8112386465072632 0.49093690514564514 0 1
3.1182615756988525 -0.7075390219688416 -1.8112319707870483 0.49093765020370483 0 1
3.115068197250366 -0.7214453220367432 -1.8112249374389648 0.49093928933143616 0 1
3.1117968559265137 -0.7353320121765137 -1.8112177848815918 0.49094173312187195 0 1
3.108476400375366 -0.749218761920929 -1.8112106323242188 0.49094346165657043 0 1
3.1050779819488525 -0.7630859017372131 -1.811203122138977 0.49094605445861816 0 1
3.101640462875366 -0.7769140601158142 -1.8111956119537354 0.49094730615615845 0 1
3.0981249809265137 -0.7907421588897705 -1.8111878633499146 0.490949422121048 0 1
3.094550609588623 -0.8045703172683716 -1.8111801147460938 0.4909518361091614 0 1
3.0909178256988525 -0.818359375 -1.8111721277236938 0.49095457792282104 0 1
3.08721661567688 -0.8321288824081421 -1.8111639022827148 0.49095654487609863 0 1
3.0834569931030273 -0.8459179401397705 -1.8111556768417358 0.4909588098526001 0 1
3.079638719558716 -0.859667956829071 -1.8111472129821777 0.4909614324569702 0 1
3.075751781463623 -0.8733788728713989 -1.8111388683319092 0.49096381664276123 0 1
3.0718164443969727 -0.8871093392372131 -1.811130166053772 0.4909653663635254 0 1
3.067812442779541 -0.9008007645606995 -1.8111213445663452 0.4909678101539612 0 1
3.0637500286102295 -0.9144726395606995 -1.8111122846603394 0.49097004532814026 0 1
3.0596094131469727 -0.9281445145606995 -1.8111032247543335 0.4909731447696686 0 1
3.055429697036743 -0.9417773485183716 -1.811094045639038 0.49097490310668945 0 1
3.0511815547943115 -0.9554101228713989 -1.8110847473144531 0.49097752571105957 0 1
3.046875 -0.9690038561820984 -1.811075210571289 0.49097999930381775 0 1
3.0425000190734863 -0.9825780987739563 -1.811065673828125 0.4909832775592804 0 1
3.0380663871765137 -0.9961523413658142 -1.8110558986663818 0.4909856915473938 0 1
3.033574104309082 -1.0096874237060547 -1.81104576587677 0.49098852276802063 0 1
3.0290234088897705 -1.0232031345367432 -1.8110357522964478 0.4909912347793579 0 1
3.0244140625 -1.0366991758346558 -1.811025619506836 0.4909937083721161 0 1
3.0197362899780273 -1.0501757860183716 -1.811015248298645 0.4909970462322235 0 1
3.0149998664855957 -1.0636522769927979 -1.8110047578811646 0.4909994602203369 0 1
3.010205030441284 -1.077089786529541 -1.810994267463684 0.4910023510456085 0 1
3.0053515434265137 -1.0904687643051147 -1.8109835386276245 0.4910050332546234 0 1
3.000429630279541 -1.1038280725479126 -1.8109725713729858 0.49100860953330994 0 1
2.9954686164855957 -1.1172070503234863 -1.8109616041183472 0.4910108745098114 0 1
2.990429639816284 -1.1305468082427979 -1.8109502792358398 0.4910147786140442 0 1
2.9853320121765137 -1.1438671350479126 -1.8109391927719116 0.4910176694393158 0 1
2.980175733566284 -1.1571874618530273 -1.8109277486801147 0.4910203814506531 0 1
2.974970579147339 -1.1704686880111694 -1.8109160661697388 0.49102360010147095 0 1
2.9696972370147705 -1.1837109327316284 -1.8109045028686523 0.49102672934532166 0 1
2.964365243911743 -1.1969530582427979 -1.8108925819396973 0.4910295307636261 0 1
2.958974599838257 -1.2101757526397705 -1.8108806610107422 0.4910332262516022 0 1
2.9535253047943115 -1.2233397960662842 -1.810868501663208 0.49103641510009766 0 1
2.948007822036743 -1.2365038394927979 -1.8108563423156738 0.4910396635532379 0 1
2.94244122505188 -1.2496484518051147 -1.8108439445495605 0.49104347825050354 0 1
2.936816453933716 -1.2627538442611694 -1.8108314275741577 0.4910460412502289 0 1
2.9311327934265137 -1.2758398056030273 -1.8108187913894653 0.4910503327846527 0 1
2.9253904819488525 -1.288906216621399 -1.8108059167861938 0.49105343222618103 0 1
2.9195897579193115 -1.3019335269927979 -1.810793161392212 0.4910561740398407 0 1
2.9137303829193115 -1.31494140625 -1.8107800483703613 0.49105972051620483 0 1
2.9078123569488525 -1.3279296159744263 -1.8107668161392212 0.4910639226436615 0 1
2.9018261432647705 -1.3408788442611694 -1.810753583908081 0.49106791615486145 0 1
2.8957910537719727 -1.3538085222244263 -1.8107401132583618 0.4910716116428375 0 1
2.88970685005188 -1.36669921875 -1.8107266426086426 0.4910750091075897 0 1
2.883554697036743 -1.3795702457427979 -1.8107128143310547 0.4910792112350464 0 1
2.8773436546325684 -1.392421841621399 -1.8106991052627563 0.4910820722579956 0 1
2.8710741996765137 -1.4052343368530273 -1.8106850385665894 0.4910866618156433 0 1
2.864755868911743 -1.4180272817611694 -1.810671091079712 0.4910900294780731 0 1
2.8583788871765137 -1.4307812452316284 -1.8106566667556763 0.49109405279159546 0 1
2.851943254470825 -1.4435155391693115 -1.8106423616409302 0.4910978376865387 0 1
1.633154273033142 -0.8358007669448853 -1.0392205715179443 0.42688292264938354 2915 14
1.6353319883346558 -0.8461523056030273 -1.0429869890213013 0.42534178495407104 2915 14
1.6375097036361694 -0.8565624952316284 -1.0468127727508545 0.4237865209579468 2915 14
1.639746069908142 -0.8670703172683716 -1.0506995916366577 0.4222193658351898 2915 14
1.6420018672943115 -0.8776953220367432 -1.054650902748108 0.4206364154815674 2915 14
1.64431631565094 -0.8883593678474426 -1.0586639642715454 0.41904371976852417 2915 14
1.6466405391693115 -0.8991405963897705 -1.0627413988113403 0.4174348711967468 2915 14
1.649023413658142 -0.9100195169448853 -1.066884994506836 0.4158150553703308 2915 14
1.6514354944229126 -0.9209765195846558 -1.0710939168930054 0.4141819477081299 2915 14
1.6538866758346558 -0.9320507645606995 -1.0753716230392456 0.41253262758255005 2915 14
1.6563671827316284 -0.9432226419448853 -1.0797168016433716 0.41087275743484497 2915 14
1.6589062213897705 -0.9545117020606995 -1.0841320753097534 0.40919798612594604 2915 14
1.661474585533142 -0.9658593535423279 -1.0886194705963135 0.40751349925994873 2915 14
1.664101481437683 -0.977343738079071 -1.093178391456604 0.4058144688606262 2915 14
1.666748046875 -0.9889453053474426 -1.097810983657837 0.4041004180908203 2915 14
1.6694531440734863 -1.000644564628601 -1.1025185585021973 0.40237557888031006 2915 14
1.6721874475479126 -1.0124609470367432 -1.1073020696640015 0.4006360173225403 2915 14
1.6749706268310547 -1.0243945121765137 -1.1121631860733032 0.39888641238212585 2915 14
1.6778124570846558 -1.0364452600479126 -1.1171040534973145 0.3971219062805176 2915 14
1.6806836128234863 -1.0486133098602295 -1.1221235990524292 0.395345538854599 2915 14
1.68362295627594 -1.0608984231948853 -1.1272263526916504 0.3935565948486328 2915 14
1.6865819692611694 -1.073281168937683 -1.1324121952056885 0.3917538821697235 2915 14
1.6870019435882568 -1.0841015577316284 -1.1359217166900635 0.6771561503410339 2915 14
1.687343716621399 -1.0950194597244263 -1.1394470930099487 0.6750596761703491 2915 14
1.6877343654632568 -1.105996012687683 -1.1430193185806274 0.6729502081871033 2915 14
1.6880956888198853 -1.117031216621399 -1.1466388702392578 0.6708269715309143 2915 14
1.6884863376617432 -1.1281640529632568 -1.1503050327301025 0.6686872243881226 2915 14
1.6888768672943115 -1.1393554210662842 -1.1540206670761108 0.6665331125259399 2915 14
1.6892577409744263 -1.1506054401397705 -1.1577848196029663 0.6643678545951843 2915 14
1.6896679401397705 -1.1619726419448853 -1.1615992784500122 0.6621858477592468 2915 14
1.6900585889816284 -1.173378825187683 -1.1654633283615112 0.6599909663200378 2915 14
1.690468668937683 -1.1848632097244263 -1.1693781614303589 0.657782793045044 2915 14
1.6908690929412842 -1.1964647769927979 -1.1733444929122925 0.6555564403533936 2915 14
1.6912988424301147 -1.208105444908142 -1.1773648262023926 0.6533197164535522 2915 14
1.6917089223861694 -1.2198632955551147 -1.1814367771148682 0.6510674953460693 2915 14
1.44021475315094 -1.048378825187683 -1.0090751647949219 0.018979191780090332 2915 14
1.3760350942611694 -1.0110546350479126 -0.9672290086746216 0.5151968002319336 2915 14
1.3632421493530273 -1.0110546350479126 -0.9613988995552063 0.5183170437812805 2915 14
1.3506054878234863 -1.0110546350479126 -0.955659031867981 0.5214361548423767 2915 14
1.3381054401397705 -1.0110546350479126 -0.9500049948692322 0.5245370864868164 2915 14
1.3257616758346558 -1.0110546350479126 -0.9444369077682495 0.5276283621788025 2915 14
1.3161718845367432 -1.0130664110183716 -0.9408175349235535 0.34888434410095215 2915 14
1.309902310371399 -1.017578125 -0.939569354057312 0.34934449195861816 2915 14
1.303613305091858 -1.0220507383346558 -0.9383177161216736 0.34981149435043335 2915 14
1.297304630279541 -1.0264843702316284 -0.9370623826980591 0.35028111934661865 2915 14
1.2909765243530273 -1.0308789014816284 -0.9358030557632446 0.35075098276138306 2915 14
1.284609317779541 -1.0352343320846558 -0.9345400929450989 0.3512257933616638 2915 14
1.278261661529541 -1.03955078125 -0.9332737326622009 0.3517012596130371 2915 14
1.2718554735183716 -1.0438085794448853 -0.9320034384727478 0.352181613445282 2915 14
1.2654491662979126 -1.0480272769927979 -0.9307301044464111 0.3526647984981537 2915 14
1.2590429782867432 -1.0522265434265137 -0.9294530749320984 0.3531489372253418 2915 14
1.2526171207427979 -1.0563867092132568 -0.9281731843948364 0.3536362648010254 2915 14
1.2461522817611694 -1.0605077743530273 -0.9268900752067566 0.35412442684173584 2915 14
1.239687442779541 -1.0645312070846558 -0.925603449344635 0.35461562871932983 2915 14
1.2332030534744263 -1.068515658378601 -0.9243136644363403 0.35511213541030884 2915 14
1.2266992330551147 -1.0725195407867432 -0.9230208992958069 0.3556099534034729 2915 14
1.2201952934265137 -1.0764453411102295 -0.9217252731323242 0.35611093044281006 2915 14
1.2136718034744263 -1.0803710222244263 -0.9204264879226685 0.3566109538078308 2915 14
1.207128882408142 -1.0842382907867432 -0.9191253185272217 0.3571167588233948 2915 14
1.2005664110183716 -1.0880858898162842 -0.9178208708763123 0.3576239347457886 2915 14
1.1939843893051147 -1.0918554067611694 -0.9165142774581909 0.3581347167491913 2915 14
1.187402367591858 -1.095605492591858 -0.9152045845985413 0.3586468994617462 2915 14
1.1808007955551147 -1.0993359088897705 -0.9138923287391663 0.3591606020927429 2915 14
1.1760741472244263 -1.1047461032867432 -0.91404128074646 0.6071213483810425 2915 14
1.1721289157867432 -1.1109570264816284 -0.9148246645927429 0.6065995097160339 2915 14
1.1681835651397705 -1.117128849029541 -0.915613055229187 0.6060770750045776 2915 14
1.1641796827316284 -1.1233203411102295 -0.9164066910743713 0.6055513024330139 2915 14
1.1601758003234863 -1.1294726133346558 -0.9172051548957825 0.6050259470939636 2915 14
1.1561328172683716 -1.1356250047683716 -0.9180086851119995 0.6044962406158447 2915 14
1.1520702838897705 -1.1417968273162842 -0.918817400932312 0.6039631962776184 2915 14
2.236943244934082 2.236992120742798 -1.8091694116592407 0.49505746364593506 0 1
2.2469334602355957 2.2270116806030273 -1.8091922998428345 0.49505099654197693 0 1
2.256884813308716 2.2170116901397705 -1.8092150688171387 0.4950436055660248 0 1
2.266787052154541 2.2069334983825684 -1.8092378377914429 0.4950377643108368 0 1
2.2766308784484863 2.1968164443969727 -1.809260368347168 0.4950317442417145 0 1
2.286445379257202 2.186660051345825 -1.8092827796936035 0.49502652883529663 0 1
2.296211004257202 2.176464796066284 -1.809305191040039 0.4950196444988251 0 1
2.3059277534484863 2.1662304401397705 -1.809327483177185 0.49501338601112366 0 1
2.315605401992798 2.155937433242798 -1.8093496561050415 0.4950070381164551 0 1
2.3252246379852295 2.1456053256988525 -1.8093717098236084 0.49500223994255066 0 1
2.3348143100738525 2.1352343559265137 -1.8093937635421753 0.4949949383735657 0 1
2.3443455696105957 2.124824285507202 -1.809415578842163 0.49498915672302246 0 1
2.353827953338623 2.1143553256988525 -1.8094373941421509 0.4949832558631897 0 1
2.3632616996765137 2.1038670539855957 -1.8094590902328491 0.49497732520103455 0 1
2.3726658821105957 2.093320369720459 -1.8094805479049683 0.4949720501899719 0 1
2.381972551345825 2.0827343463897705 -1.8095018863677979 0.49496516585350037 0 1
2.3912694454193115 2.0721092224121094 -1.8095232248306274 0.4949597120285034 0 1
2.400527238845825 2.0614452362060547 -1.8095446825027466 0.49495336413383484 0 1
2.409726619720459 2.050722599029541 -1.8095656633377075 0.4949493706226349 0 1
2.418886661529541 2.039980411529541 -1.809586763381958 0.49494290351867676 0 1
2.4279980659484863 2.029179573059082 -1.8096076250076294 0.49493637681007385 0 1
2.4370508193969727 2.0183398723602295 -1.8096283674240112 0.49493131041526794 0 1
2.4460644721984863 2.0074803829193115 -1.8096489906311035 0.4949246942996979 0 1
2.455029249191284 1.9965624809265137 -1.8096697330474854 0.4949195384979248 0 1
2.463935375213623 1.9856054782867432 -1.809690237045288 0.49491429328918457 0 1
2.4728026390075684 1.974609375 -1.8097105026245117 0.49490904808044434 0 1
2.4816112518310547 1.9635741710662842 -1.8097307682037354 0.49490365386009216 0 1
2.4903807640075684 1.9524999856948853 -1.8097509145736694 0.4948982894420624 0 1
2.499101400375366 1.94140625 -1.8097708225250244 0.4948919713497162 0 1
2.5077733993530273 1.9302538633346558 -1.8097907304763794 0.49488648772239685 0 1
2.5163867473602295 1.9190624952316284 -1.8098106384277344 0.49488094449043274 0 1
2.524951219558716 1.9077929258346558 -1.8098303079605103 0.49487540125846863 0 1
2.5334668159484863 1.896523356437683 -1.8098498582839966 0.49486976861953735 0 1
2.541943311691284 1.8852343559265137 -1.8098692893981934 0.4948640465736389 0 1
2.550351619720459 1.873867154121399 -1.8098886013031006 0.4948606789112091 0 1
2.558720588684082 1.8624804019927979 -1.8099077939987183 0.4948548972606659 0 1
2.567031145095825 1.85107421875 -1.809926986694336 0.4948499798774719 0 1
2.5752928256988525 1.8396093845367432 -1.8099459409713745 0.4948449730873108 0 1
2.583505868911743 1.8281444311141968 -1.809964895248413 0.4948385953903198 0 1
2.5916600227355957 1.8166015148162842 -1.8099836111068726 0.49483349919319153 0 1
2.5997655391693115 1.8050390481948853 -1.8100024461746216 0.49482929706573486 0 1
2.6078319549560547 1.7934374809265137 -1.810020923614502 0.49482277035713196 0 1
2.6158299446105957 1.7817968130111694 -1.8100391626358032 0.4948193430900574 0 1
2.623779296875 1.770117163658142 -1.8100576400756836 0.49481356143951416 0 1
2.6316795349121094 1.7584179639816284 -1.8100756406784058 0.49480876326560974 0 1
2.639521360397339 1.746679663658142 -1.8100937604904175 0.49480384588241577 0 1
2.6473240852355957 1.7348828315734863 -1.81011164188385 0.494798868894577 0 1
2.6550683975219727 1.7230663299560547 -1.8101296424865723 0.49479377269744873 0 1
2.6627635955810547 1.71121084690094 -1.8101474046707153 0.49478957056999207 0 1
2.6703906059265137 1.6993359327316284 -1.8101648092269897 0.49478498101234436 0 1
2.677978515625 1.6874217987060547 -1.8101823329925537 0.4947803020477295 0 1
2.6855077743530273 1.6754686832427979 -1.8101997375488281 0.49477553367614746 0 1
2.6929783821105957 1.6634960174560547 -1.8102169036865234 0.4947704076766968 0 1
2.7004003524780273 1.651464819908142 -1.8102340698242188 0.4947664439678192 0 1
2.707773447036743 1.6394140720367432 -1.810250997543335 0.4947611391544342 0 1
2.715087890625 1.6273242235183716 -1.8102679252624512 0.49475669860839844 0 1
2.722353458404541 1.6152539253234863 -1.8102847337722778 0.4947519302368164 0 1
2.729560375213623 1.6031445264816284 -1.8103011846542358 0.49474701285362244 0 1
2.7367186546325684 1.5909570455551147 -1.8103176355361938 0.4947420656681061 0 1
2.7437987327575684 1.5787304639816284 -1.8103340864181519 0.494738906621933 0 1
2.750849485397339 1.5664843320846558 -1.8103502988815308 0.4947334825992584 0 1
2.7578418254852295 1.5542187690734863 -1.8103665113449097 0.4947289228439331 0 1
2.764775276184082 1.541894555091858 -1.81038236618042 0.49472522735595703 0 1
2.7716503143310547 1.5295507907867432 -1.8103982210159302 0.4947212338447571 0 1
2.7784667015075684 1.517187476158142 -1.8104140758514404 0.4947171211242676 0 1
2.785234212875366 1.504785180091858 -1.8104296922683716 0.4947127103805542 0 1
2.7919530868530273 1.4923436641693115 -1.8104451894760132 0.49470818042755127 0 1
2.7986035346984863 1.4799022674560547 -1.8104604482650757 0.4947033226490021 0 1
2.8052148818969727 1.467382788658142 -1.8104757070541382 0.4946994185447693 0 1
2.8117480278015137 1.4548827409744263 -1.8104909658432007 0.4946952164173126 0 1
2.8182225227355957 1.4423437118530273 -1.810505986213684 0.494690865278244 0 1
2.8246288299560547 1.4297460317611694 -1.8105207681655884 0.4946872889995575 0 1
2.8310155868530273 1.4171483516693115 -1.8105355501174927 0.4946824908256531 0 1
1.6357909440994263 0.80970698595047 -1.043837547302246 0.4280710518360138 2915 14
1.6337401866912842 0.799609363079071 -1.0402308702468872 0.42955654859542847 2915 14
1.6316992044448853 0.7896288633346558 -1.0366817712783813 0.4310262203216553 2915 14
1.6297069787979126 0.7796874642372131 -1.033189058303833 0.4324856698513031 2915 14
1.627724528312683 0.7698437571525574 -1.0297513008117676 0.43392741680145264 2915 14
1.6257811784744263 0.760058581829071 -1.0263680219650269 0.43535879254341125 2915 14
1.6238867044448853 0.7503515481948853 -1.0230399370193481 0.43677571415901184 2915 14
1.6220018863677979 0.7407421469688416 -1.0197645425796509 0.4381761848926544 2915 14
1.6201659440994263 0.7312109470367432 -1.016540765762329 0.439566433429718 2915 14
1.6183397769927979 0.7217382788658142 -1.013369083404541 0.44094377756118774 2915 14
1.616552710533142 0.7123046517372131 -1.0102488994598389 0.44230663776397705 2915 14
1.6147948503494263 0.7029492259025574 -1.0071789026260376 0.4436527490615845 2915 14
1.6130566596984863 0.693652331829071 -1.0041593313217163 0.4449857473373413 2915 14
1.61135733127594 0.6844140291213989 -1.0011879205703735 0.44630852341651917 2915 14
1.6096874475479126 0.6752343773841858 -0.9982644319534302 0.44761592149734497 2915 14
1.6080273389816284 0.6661132574081421 -0.9953891038894653 0.4489077031612396 2915 14
1.6064062118530273 0.6570702791213989 -0.9925610423088074 0.4501875936985016 2915 14
1.604824185371399 0.6480664014816284 -0.9897786974906921 0.4514535367488861 2915 14
1.6032421588897705 0.6391210556030273 -0.9870431423187256 0.452703595161438 2915 14
1.6016992330551147 0.6302343606948853 -0.9843518137931824 0.45394086837768555 2915 14
1.600195288658142 0.6214062571525574 -0.9817062020301819 0.4551647901535034 2915 14
1.5987011194229126 0.6126366853713989 -0.97910475730896 0.4563755393028259 2915 14
1.5972265005111694 0.6039257645606995 -0.9765461683273315 0.4575684666633606 2915 14
1.595800757408142 0.5952538847923279 -0.9740309119224548 0.458751916885376 2915 14
1.5943750143051147 0.5866405963897705 -0.9715589880943298 0.4599170386791229 2915 14
1.5929784774780273 0.5780468583106995 -0.9691287279129028 0.46107280254364014 2915 14
1.5916014909744263 0.569531261920929 -0.9667396545410156 0.46221062541007996 2915 14
1.590273380279541 0.5610546469688416 -0.9643918871879578 0.46333640813827515 2915 14
1.5889354944229126 0.5526366829872131 -0.9620855450630188 0.46444612741470337 2915 14
1.5876367092132568 0.5442578196525574 -0.9598185420036316 0.46554431319236755 2915 14
1.5863573551177979 0.5359179377555847 -0.9575907588005066 0.4666280746459961 2915 14
1.5851171016693115 0.5276171565055847 -0.9554044604301453 0.467695415019989 2915 14
1.5838769674301147 0.5193749666213989 -0.9532546997070312 0.4687490463256836 2915 14
1.582666039466858 0.5111718773841858 -0.9511449933052063 0.46978989243507385 2915 14
1.5814647674560547 0.5029882788658142 -0.9490728378295898 0.470814049243927 2915 14
1.580322265625 0.49486327171325684 -0.9470388293266296 0.4718257784843445 2915 14
3.026201009750366 0.9327343702316284 -1.8109887838363647 0.4945591390132904 0 1
3.030351400375366 0.9192187190055847 -1.8109984397888184 0.49455738067626953 0 1
3.0344433784484863 0.9057226181030273 -1.8110079765319824 0.49455368518829346 0 1
3.038466691970825 0.8921679258346558 -1.811017394065857 0.49455156922340393 0 1
3.042431592941284 0.8785937428474426 -1.811026692390442 0.49454939365386963 0 1
3.046337842941284 0.8650000095367432 -1.8110358715057373 0.494547039270401 0 1
3.050185441970825 0.8514257669448853 -1.8110449314117432 0.4945438504219055 0 1
3.053964853286743 0.8377929329872131 -1.81105375289917 0.49454230070114136 0 1
3.057695150375366 0.8241601586341858 -1.8110625743865967 0.4945388436317444 0 1
3.061357259750366 0.8105077743530273 -1.8110711574554443 0.49453696608543396 0 1
3.0649609565734863 0.7968358993530273 -1.8110796213150024 0.49453431367874146 0 1
3.068495988845825 0.7831640243530273 -1.811087965965271 0.49453261494636536 0 1
3.071972608566284 0.7694726586341858 -1.81109619140625 0.4945307672023773 0 1
3.075390577316284 0.7557421922683716 -1.8111040592193604 0.494527667760849 0 1
3.078749895095825 0.7420312166213989 -1.8111120462417603 0.49452492594718933 0 1
3.082041025161743 0.7282617092132568 -1.811119794845581 0.49452367424964905 0 1
3.085273265838623 0.7145116925239563 -1.8111274242401123 0.49452173709869385 0 1
3.088447093963623 0.70082026720047 -1.811134934425354 0.49451959133148193 0 1
3.091562509536743 0.6870312094688416 -1.8111422061920166 0.49451732635498047 0 1
3.094599485397339 0.6732421517372131 -1.8111495971679688 0.49451547861099243 0 1
3.097587823867798 0.6594336032867432 -1.8111566305160522 0.4945134222507477 0 1
3.100517511367798 0.6456054449081421 -1.8111634254455566 0.4945112466812134 0 1
3.1033689975738525 0.6317577958106995 -1.8111703395843506 0.4945099353790283 0 1
3.1061718463897705 0.6179101467132568 -1.8111768960952759 0.4945079982280731 0 1
3.1089160442352295 0.6040429472923279 -1.8111834526062012 0.4945058226585388 0 1
3.111582040786743 0.5901562571525574 -1.811189889907837 0.4945046603679657 0 1
3.114199161529541 0.5762695074081421 -1.811195969581604 0.4945027530193329 0 1
3.11675763130188 0.5623632669448853 -1.811202049255371 0.49450069665908813 0 1
3.1192381381988525 0.5484374761581421 -1.8112080097198486 0.494499534368515 0 1
3.1216697692871094 0.5345312356948853 -1.8112138509750366 0.49449774622917175 0 1
3.1240234375 0.5205859541893005 -1.8112194538116455 0.4944969117641449 0 1
3.1263279914855957 0.506640613079071 -1.8112249374389648 0.4944954216480255 0 1
3.1285643577575684 0.49269530177116394 -1.8112304210662842 0.494493693113327 0 1
3.130751848220825 0.47871091961860657 -1.8112356662750244 0.4944917559623718 0 1
3.132861375808716 0.4647460877895355 -1.8112406730651855 0.49449029564857483 0 1
3.1349120140075684 0.45076170563697815 -1.8112456798553467 0.4944894015789032 0 1
3.136894464492798 0.4367773234844208 -1.8112504482269287 0.49448826909065247 0 1
3.1388280391693115 0.4227539002895355 -1.8112550973892212 0.49448683857917786 0 1
3.14068341255188 0.4087499976158142 -1.8112597465515137 0.4944860339164734 0 1
3.1424901485443115 0.3947460949420929 -1.8112640380859375 0.4944846034049988 0 1
3.144228458404541 0.3807031214237213 -1.8112683296203613 0.4944829046726227 0 1
3.1459081172943115 0.36666014790534973 -1.8112722635269165 0.4944821000099182 0 1
3.14751935005188 0.3526367247104645 -1.8112761974334717 0.4944803714752197 0 1
3.149062395095825 0.33857420086860657 -1.8112801313400269 0.49447983503341675 0 1
3.1505565643310547 0.3245312571525574 -1.811283826828003 0.49447840452194214 0 1
3.151972532272339 0.31046873331069946 -1.8112871646881104 0.4944778382778168 0 1
3.153330087661743 0.29638671875 -1.8112905025482178 0.4944767653942108 0 1
3.1546287536621094 0.2823242247104645 -1.8112939596176147 0.49447640776634216 0 1
3.1558592319488525 0.2682421803474426 -1.8112969398498535 0.4944756329059601 0 1
3.157031297683716 0.2541601359844208 -1.8113000392913818 0.4944742023944855 0 1
3.158144474029541 0.24005858600139618 -1.8113027811050415 0.4944736361503601 0 1
3.159189462661743 0.2259570211172104 -1.8113055229187012 0.4944725036621094 0 1
3.160166025161743 0.2118554711341858 -1.8113079071044922 0.4944719970226288 0 1
3.161083936691284 0.19775390625 -1.8113104104995728 0.4944722652435303 0 1
3.161943197250366 0.1836523413658142 -1.8113125562667847 0.49447065591812134 0 1
3.162724494934082 0.16953124105930328 -1.8113147020339966 0.4944710433483124 0 1
3.163466691970825 0.1554296910762787 -1.8113166093826294 0.49446967244148254 0 1
3.164130687713623 0.14128905534744263 -1.811318278312683 0.4944690763950348 0 1
3.164726495742798 0.1271679699420929 -1.8113199472427368 0.49446895718574524 0 1
3.1652636528015137 0.11304686963558197 -1.81132173538208 0.49446848034858704 0 1
3.1657421588897705 0.09892577677965164 -1.8113229274749756 0.4944685697555542 0 1
3.166152238845825 0.08478515595197678 -1.811324119567871 0.49446818232536316 0 1
3.16650390625 0.07066406309604645 -1.8113253116607666 0.49446722865104675 0 1
3.166796922683716 0.05654296651482582 -1.811326265335083 0.4944669306278229 0 1
3.1670117378234863 0.04238281026482582 -1.8113269805908203 0.4944673478603363 0 1
3.167167901992798 0.028261717408895493 -1.811327576637268 0.4944671392440796 0 1
3.1672656536102295 0.014121093787252903 -1.8113280534744263 0.4944664537906647 0 1
3.167304515838623 -0.0 -1.8113285303115845 0.4944663941860199 0 1
3.1672656536102295 -0.014140624552965164 -1.811328649520874 0.49446696043014526 0 1
3.167167901992798 -0.02828124910593033 -1.8113288879394531 0.4944670498371124 0 1
3.1670117378234863 -0.04240234196186066 -1.811328649520874 0.4944666028022766 0 1
3.166796922683716 -0.05654296651482582 -1.8113285303115845 0.4944668114185333 0 1
3.166513681411743 -0.07068359106779099 -1.8113282918930054 0.4944664239883423 0 1
3.1661620140075684 -0.08480468392372131 -1.8113278150558472 0.49446675181388855 0 1
3.1657519340515137 -0.09894531220197678 -1.8113269805908203 0.49446651339530945 0 1
3.165283203125 -0.1130664050579071 -1.811326265335083 0.49446696043014526 0 1
3.164736270904541 -0.12720702588558197 -1.8113253116607666 0.49446797370910645 0 1
3.164140462875366 -0.14130859076976776 -1.8113242387771606 0.4944673478603363 0 1
3.163466691970825 -0.1554296910762787 -1.8113230466842651 0.4944685697555542 0 1
3.1627538204193115 -0.16955077648162842 -1.81132173538208 0.4944680631160736 0 1
3.1619529724121094 -0.1836523413658142 -1.811320185661316 0.49446937441825867 0 1
3.1611034870147705 -0.1976953148841858 -1.8113186359405518 0.4944689869880676 0 1
3.1601758003234863 -0.2117968648672104 -1.8113168478012085 0.49447038769721985 0 1
3.1592090129852295 -0.22589842975139618 -1.8113148212432861 0.4944702088832855 0 1
3.1581640243530273 -0.23999999463558197 -1.8113127946853638 0.4944705367088318 0 1
3.157050609588623 -0.25410154461860657 -1.8113105297088623 0.49447157979011536 0 1
3.155888557434082 -0.2681835889816284 -1.8113082647323608 0.4944721460342407 0 1
3.1546483039855957 -0.28224608302116394 -1.8113056421279907 0.49447348713874817 0 1
3.1533496379852295 -0.29634764790534973 -1.8113030195236206 0.4944740831851959 0 1
3.151992082595825 -0.31041014194488525 -1.811300277709961 0.494474321603775 0 1
3.150576114654541 -0.3244726359844208 -1.8112972974777222 0.4944751560688019 0 1
3.1490917205810547 -0.33851560950279236 -1.8112941980361938 0.49447566270828247 0 1
3.147538900375366 -0.35255858302116394 -1.811290979385376 0.4944767951965332 0 1
3.145927667617798 -0.3666015565395355 -1.8112876415252686 0.4944784939289093 0 1
3.1442577838897705 -0.3806445300579071 -1.8112841844558716 0.4944785237312317 0 1
3.142529249191284 -0.39466795325279236 -1.8112804889678955 0.49447935819625854 0 1
3.1407225131988525 -0.40869140625 -1.8112766742706299 0.49448078870773315 0 1
3.138857364654541 -0.42271482944488525 -1.8112727403640747 0.4944816827774048 0 1
3.1369335651397705 -0.43671873211860657 -1.8112685680389404 0.4944833815097809 0 1
3.134941339492798 -0.4507226347923279 -1.8112645149230957 0.494484543800354 0 1
3.132890462875366 -0.4646874964237213 -1.8112599849700928 0.4944853186607361 0 1
3.1307811737060547 -0.4786718785762787 -1.8112555742263794 0.4944867491722107 0 1
3.128603458404541 -0.49263671040534973 -1.811250925064087 0.4944879412651062 0 1
3.1263670921325684 -0.5066015720367432 -1.8112460374832153 0.4944896101951599 0 1
3.1240625381469727 -0.5205273032188416 -1.8112411499023438 0.4944910705089569 0 1
3.121708869934082 -0.534472644329071 -1.811236023902893 0.49449193477630615 0 1
3.119277238845825 -0.5483984351158142 -1.8112308979034424 0.494493305683136 0 1
3.1167967319488525 -0.5623242259025574 -1.8112255334854126 0.4944944977760315 0 1
3.1142382621765137 -0.5762109160423279 -1.8112200498580933 0.49449655413627625 0 1
3.11163067817688 -0.5900976657867432 -1.8112144470214844 0.4944979250431061 0 1
3.108954906463623 -0.6039843559265137 -1.8112086057662964 0.494499146938324 0 1
3.1062207221984863 -0.6178515553474426 -1.8112026453018188 0.4945008158683777 0 1
3.1034178733825684 -0.6316992044448853 -1.8111965656280518 0.49450233578681946 0 1
3.1005566120147705 -0.6455468535423279 -1.8111904859542847 0.49450477957725525 0 1
3.0976366996765137 -0.659375011920929 -1.811184048652649 0.4945065677165985 0 1
3.0946483612060547 -0.6731835603713989 -1.8111776113510132 0.49450817704200745 0 1
3.09161114692688 -0.6869921684265137 -1.8111709356307983 0.4945090711116791 0 1
3.088495969772339 -0.7007812261581421 -1.8111642599105835 0.49451205134391785 0 1
3.085322141647339 -0.714550793170929 -1.8111572265625 0.49451372027397156 0 1
3.082099437713623 -0.728320300579071 -1.8111501932144165 0.49451470375061035 0 1
3.078808546066284 -0.7420507669448853 -1.8111430406570435 0.49451711773872375 0 1
3.075439453125 -0.7557812333106995 -1.8111356496810913 0.494519978761673 0 1
3.072031259536743 -0.7695116996765137 -1.8111281394958496 0.49452102184295654 0 1
3.068554639816284 -0.783203125 -1.8111205101013184 0.4945235550403595 0 1
3.065019369125366 -0.796875 -1.811112880706787 0.49452537298202515 0 1
3.061406135559082 -0.810546875 -1.8111050128936768 0.4945281445980072 0 1
3.057744026184082 -0.8241991996765137 -1.8110969066619873 0.49453070759773254 0 1
3.054033041000366 -0.8378320336341858 -1.8110888004302979 0.4945314824581146 0 1
3.050244092941284 -0.8514453172683716 -1.8110804557800293 0.49453485012054443 0 1
3.0464062690734863 -0.8650586009025574 -1.8110719919204712 0.4945363998413086 0 1
3.0425000190734863 -0.8786327838897705 -1.811063289642334 0.4945388734340668 0 1
3.0385351181030273 -0.8922070264816284 -1.8110547065734863 0.4945412278175354 0 1
3.0345115661621094 -0.9057421684265137 -1.81104576587677 0.4945434331893921 0 1
3.0304198265075684 -0.9192773103713989 -1.8110368251800537 0.49454593658447266 0 1
3.0262694358825684 -0.9327929615974426 -1.8110276460647583 0.4945489168167114 0 1
3.0220603942871094 -0.9462695121765137 -1.8110183477401733 0.49455177783966064 0 1
3.0177929401397705 -0.9597460627555847 -1.8110089302062988 0.494553804397583 0 1
3.0134668350219727 -0.9732031226158142 -1.8109993934631348 0.49455633759498596 0 1
3.0090723037719727 -0.9866406321525574 -1.8109898567199707 0.4945591986179352 0 1
3.0046191215515137 -1.0000585317611694 -1.8109798431396484 0.49456191062927246 0 1
3.0001072883605957 -1.0134375095367432 -1.8109699487686157 0.4945651590824127 0 1
2.995537042617798 -1.0268163681030273 -1.8109599351882935 0.49456754326820374 0 1
2.990917921066284 -1.0401757955551147 -1.810949683189392 0.4945698082447052 0 1
2.9862303733825684 -1.0534961223602295 -1.8109393119812012 0.49457263946533203 0 1
2.9814746379852295 -1.0668163299560547 -1.8109285831451416 0.4945756494998932 0 1
2.9766600131988525 -1.0800976753234863 -1.8109180927276611 0.4945793151855469 0 1
2.971806526184082 -1.0932812690734863 -1.810907244682312 0.4945817291736603 0 1
2.966874837875366 -1.106542944908142 -1.810896396636963 0.4945843517780304 0 1
2.9618945121765137 -1.1197656393051147 -1.8108854293823242 0.49458757042884827 0 1
2.95684552192688 -1.1329492330551147 -1.810874104499817 0.4945906102657318 0 1
2.951738119125366 -1.1461328268051147 -1.8108628988265991 0.4945935606956482 0 1
2.946582078933716 -1.1592968702316284 -1.8108514547348022 0.49459636211395264 0 1
2.941357374191284 -1.1724218130111694 -1.8108397722244263 0.4945998191833496 0 1
2.9360742568969727 -1.1855273246765137 -1.8108282089233398 0.49460336565971375 0 1
2.930732250213623 -1.1986132860183716 -1.8108162879943848 0.49460652470588684 0 1
2.9253320693969727 -1.2116601467132568 -1.8108042478561401 0.49461060762405396 0 1
2.9198827743530273 -1.224707007408142 -1.8107922077178955 0.4946134686470032 0 1
2.91436505317688 -1.2377147674560547 -1.8107800483703613 0.49461615085601807 0 1
2.9087889194488525 -1.2507030963897705 -1.8107675313949585 0.4946206510066986 0 1
2.9031639099121094 -1.263671875 -1.8107550144195557 0.49462300539016724 0 1
2.897470712661743 -1.2765820026397705 -1.8107424974441528 0.4946269690990448 0 1
2.891728401184082 -1.2895116806030273 -1.8107296228408813 0.4946299195289612 0 1
2.885917901992798 -1.3024022579193115 -1.8107166290283203 0.4946337044239044 0 1
2.880058526992798 -1.3152538537979126 -1.8107037544250488 0.4946371912956238 0 1
2.874140501022339 -1.328066349029541 -1.8106904029846191 0.49464142322540283 0 1
2.8681640625 -1.3408788442611694 -1.810677170753479 0.4946445822715759 0 1
2.862138509750366 -1.3536717891693115 -1.8106637001037598 0.49464744329452515 0 1
2.8560447692871094 -1.3664257526397705 -1.810650110244751 0.4946511387825012 0 1
2.8498926162719727 -1.3791406154632568 -1.8106364011764526 0.49465563893318176 0 1
2.843691349029541 -1.3918359279632568 -1.8106225728988647 0.49465885758399963 0 1
2.8374218940734863 -1.4044921398162842 -1.8106086254119873 0.4946639835834503 0 1
2.831103563308716 -1.4171289205551147 -1.8105945587158203 0.4946678578853607 0 1
2.8247265815734863 -1.429726481437683 -1.8105803728103638 0.494671493768692 0 1
1.6422070264816284 -0.8404492139816284 -1.0550098419189453 0.42353880405426025 2915 14
1.6444238424301147 -0.8508593440055847 -1.058854341506958 0.4220009744167328 2915 14
1.6466503143310547 -0.8613671660423279 -1.062760591506958 0.42044931650161743 2915 14
1.6489355564117432 -0.8719335794448853 -1.0667294263839722 0.4188857674598694 2915 14
1.6512402296066284 -0.882617175579071 -1.0707626342773438 0.41730839014053345 2915 14
1.65359365940094 -0.8933789134025574 -1.0748608112335205 0.41571739315986633 2915 14
1.6559765338897705 -0.9042382836341858 -1.0790233612060547 0.414114773273468 2915 14
1.6584081649780273 -0.9151952862739563 -1.0832542181015015 0.41249579191207886 2915 14
1.6608593463897705 -0.9262499809265137 -1.0875519514083862 0.4108660817146301 2915 14
1.663369059562683 -0.9374023079872131 -1.091920256614685 0.4092209041118622 2915 14
1.6659082174301147 -0.9486523270606995 -1.0963575839996338 0.4075666069984436 2915 14
1.6685057878494263 -0.9600195288658142 -1.1008683443069458 0.40589696168899536 2915 14
1.6711230278015137 -0.971484363079071 -1.10545015335083 0.40421420335769653 2915 14
1.6738085746765137 -0.9830663800239563 -1.1101069450378418 0.40251854062080383 2915 14
1.6765038967132568 -0.9947460889816284 -1.114838719367981 0.40080976486206055 2915 14
1.6792773008346558 -1.0065233707427979 -1.119647741317749 0.3990882933139801 2915 14
1.682070255279541 -1.0184375047683716 -1.1245336532592773 0.3973546624183655 2915 14
1.684902310371399 -1.0304687023162842 -1.1294995546340942 0.3956059217453003 2915 14
1.6867773532867432 -1.0419921875 -1.1338527202606201 0.6833015084266663 2915 14
1.6871386766433716 -1.0526171922683716 -1.1372345685958862 0.6812720894813538 2915 14
1.6874804496765137 -1.0633398294448853 -1.1406614780426025 0.6792221069335938 2915 14
1.687841773033142 -1.0740429162979126 -1.144134521484375 0.6771623492240906 2915 14
1.6882030963897705 -1.0848827362060547 -1.1476521492004395 0.6750876307487488 2915 14
1.688574194908142 -1.095800757408142 -1.151216983795166 0.6729957461357117 2915 14
1.68896484375 -1.1067968606948853 -1.154828429222107 0.6708918213844299 2915 14
1.6893261671066284 -1.1178514957427979 -1.158488392829895 0.6687712073326111 2915 14
1.68972647190094 -1.129003882408142 -1.1621955633163452 0.6666384935379028 2915 14
1.6901073455810547 -1.1401952505111694 -1.1659525632858276 0.6644899845123291 2915 14
1.690517544746399 -1.151464819908142 -1.1697584390640259 0.6623296141624451 2915 14
1.6908984184265137 -1.1628320217132568 -1.173614263534546 0.6601513624191284 2915 14
1.6913084983825684 -1.174257755279541 -1.177521824836731 0.657961368560791 2915 14
1.6917089223861694 -1.1857616901397705 -1.181479573249817 0.6557561755180359 2915 14
1.4419628381729126 -1.020410180091858 -1.0102425813674927 0.019094616174697876 2915 14
1.4153612852096558 -1.0110546350479126 -0.9947248697280884 0.5045839548110962 2915 14
1.4020898342132568 -1.011074185371399 -0.9885587692260742 0.5077338814735413 2915 14
1.3889745473861694 -1.0110546350479126 -0.9824895858764648 0.510864794254303 2915 14
1.3760350942611694 -1.0110546350479126 -0.976512610912323 0.5139943361282349 2915 14
1.3632421493530273 -1.0110546350479126 -0.9706265330314636 0.517107367515564 2915 14
1.3506054878234863 -1.0110546350479126 -0.9648316502571106 0.5202190279960632 2915 14
1.3381054401397705 -1.0110546350479126 -0.9591227769851685 0.5233128666877747 2915 14
1.325781226158142 -1.0110546350479126 -0.9535024762153625 0.5263949632644653 2915 14
1.3135546445846558 -1.0110546350479126 -0.9479643106460571 0.5294706225395203 2915 14
1.3015038967132568 -1.0110546350479126 -0.9425097703933716 0.5325353145599365 2915 14
1.2896093130111694 -1.0110546350479126 -0.9371355772018433 0.5355885028839111 2915 14
1.2803319692611694 -1.0130664110183716 -0.9336889386177063 0.3540925979614258 2915 14
1.2741014957427979 -1.017421841621399 -0.9324502348899841 0.3545626997947693 2915 14
1.2678515911102295 -1.0217382907867432 -0.931208610534668 0.3550359308719635 2915 14
1.261621117591858 -1.0259960889816284 -0.9299630522727966 0.35550951957702637 2915 14
1.2553319931030273 -1.0302343368530273 -0.9287139773368835 0.35598844289779663 2915 14
1.2490429878234863 -1.0344336032867432 -0.9274616837501526 0.3564680814743042 2915 14
1.242714762687683 -1.0385937690734863 -0.9262058734893799 0.3569530248641968 2915 14
1.2363866567611694 -1.0427148342132568 -0.9249462485313416 0.3574385941028595 2915 14
1.2300390005111694 -1.046777367591858 -0.9236840605735779 0.35792744159698486 2915 14
1.223671793937683 -1.050820231437683 -0.9224186539649963 0.3584197759628296 2915 14
1.2173047065734863 -1.0548046827316284 -0.9211502075195312 0.3589131236076355 2915 14
1.2109179496765137 -1.0587694644927979 -0.9198781847953796 0.3594074547290802 2915 14
1.204492211341858 -1.0626952648162842 -0.9186033606529236 0.3599075675010681 2915 14
1.1980663537979126 -1.0665429830551147 -0.917326033115387 0.3604068458080292 2915 14
1.1916210651397705 -1.0703320503234863 -0.9160454869270325 0.3609117865562439 2915 14
1.1851757764816284 -1.074121117591858 -0.9147619605064392 0.361420214176178 2915 14
1.178749918937683 -1.0779296159744263 -0.9135088920593262 0.6118731498718262 2915 14
1.1749218702316284 -1.084082007408142 -0.9142727255821228 0.6113607287406921 2915 14
1.1710351705551147 -1.090234398841858 -0.9150418043136597 0.6108489632606506 2915 14
1.167148470878601 -1.0963671207427979 -0.915815532207489 0.6103326678276062 2915 14
1.163242220878601 -1.1025195121765137 -0.9165945053100586 0.6098120212554932 2915 14
1.1592968702316284 -1.1086328029632568 -0.9173785448074341 0.6092929244041443 2915 14
1.1553319692611694 -1.1147656440734863 -0.9181675314903259 0.608769416809082 2915 14
1.1513476371765137 -1.1208789348602295 -0.9189614653587341 0.6082415580749512 2915 14
1.1473242044448853 -1.126992106437683 -0.9197602868080139 0.607714056968689 2915 14
1.1433007717132568 -1.1330859661102295 -0.9205644130706787 0.6071822643280029 2915 14
2.215712785720825 2.2157812118530273 -1.8091216087341309 0.4986204206943512 0 1
2.2256152629852295 2.205878973007202 -1.8091442584991455 0.4986145496368408 0 1
2.2354588508605957 2.195976495742798 -1.8091667890548706 0.49860772490501404 0 1
2.2452635765075684 2.1859960556030273 -1.8091894388198853 0.4986017644405365 0 1
2.2550292015075684 2.175956964492798 -1.8092117309570312 0.4985966086387634 0 1
2.2647459506988525 2.1659178733825684 -1.8092340230941772 0.49858981370925903 0 1
2.274423837661743 2.1558008193969727 -1.8092561960220337 0.49858376383781433 0 1
2.284052610397339 2.1456639766693115 -1.8092782497406006 0.498577743768692 0 1
2.2936229705810547 2.135488271713257 -1.809300184249878 0.49857163429260254 0 1
2.303164005279541 2.125253915786743 -1.8093221187591553 0.498564749956131 0 1
2.3126463890075684 2.114980459213257 -1.8093438148498535 0.49855947494506836 0 1
2.322099447250366 2.1046483516693115 -1.8093655109405518 0.4985532760620117 0 1
2.331494092941284 2.094296932220459 -1.809386968612671 0.49854716658592224 0 1
2.3408496379852295 2.0839061737060547 -1.8094085454940796 0.4985409677028656 0 1
2.350146532058716 2.0734570026397705 -1.8094298839569092 0.4985364079475403 0 1
2.3594043254852295 2.0629687309265137 -1.8094511032104492 0.4985293745994568 0 1
2.3686132431030273 2.052441358566284 -1.8094723224639893 0.4985239803791046 0 1
2.377734422683716 2.041874885559082 -1.8094931840896606 0.49851855635643005 0 1
2.3868651390075684 2.0312695503234863 -1.8095141649246216 0.49851223826408386 0 1
2.395927667617798 2.020624876022339 -1.8095349073410034 0.4985068738460541 0 1
2.4049510955810547 2.009941339492798 -1.8095556497573853 0.49850061535835266 0 1
2.4139256477355957 1.9991991519927979 -1.8095762729644775 0.4984959065914154 0 1
2.422841787338257 1.9884374141693115 -1.8095967769622803 0.4984896779060364 0 1
2.431718587875366 1.9776171445846558 -1.8096171617507935 0.4984849989414215 0 1
2.440556526184082 1.9667773246765137 -1.809637427330017 0.4984779357910156 0 1
2.449335813522339 1.9558788537979126 -1.8096575736999512 0.49847325682640076 0 1
2.458066463470459 1.9449414014816284 -1.8096777200698853 0.49846771359443665 0 1
2.466747999191284 1.9339842796325684 -1.8096975088119507 0.4984615743160248 0 1
2.4753808975219727 1.9229687452316284 -1.8097174167633057 0.49845612049102783 0 1
2.483964681625366 1.9118750095367432 -1.809737205505371 0.4984515607357025 0 1
2.492499828338623 1.900820255279541 -1.8097567558288574 0.4984446167945862 0 1
2.500986337661743 1.889687418937683 -1.8097763061523438 0.49844008684158325 0 1
2.5094237327575684 1.878515601158142 -1.809795618057251 0.4984346628189087 0 1
2.5178027153015137 1.8673242330551147 -1.8098149299621582 0.49843013286590576 0 1
2.5261425971984863 1.8560937643051147 -1.8098341226577759 0.498424232006073 0 1
2.534423828125 1.8448046445846558 -1.809853196144104 0.49841976165771484 0 1
2.542656183242798 1.8335155248641968 -1.8098721504211426 0.49841392040252686 0 1
2.550839900970459 1.8221484422683716 -1.809890866279602 0.4984095096588135 0 1
2.558974504470825 1.8107812404632568 -1.8099095821380615 0.4984036684036255 0 1
2.5670604705810547 1.799355387687683 -1.809928297996521 0.4983978569507599 0 1
2.575087785720825 1.7879101037979126 -1.8099465370178223 0.4983930289745331 0 1
2.583066463470459 1.776406168937683 -1.809964895248413 0.4983882009983063 0 1
2.590996026992798 1.7648828029632568 -1.8099831342697144 0.49838337302207947 0 1
2.598876953125 1.7533202171325684 -1.8100013732910156 0.49837857484817505 0 1
2.606699228286743 1.74169921875 -1.8100193738937378 0.49837374687194824 0 1
2.6144726276397705 1.730078101158142 -1.8100371360778809 0.4983685314655304 0 1
2.622197151184082 1.7184178829193115 -1.8100550174713135 0.4983633756637573 0 1
2.6298632621765137 1.7067186832427979 -1.8100725412368774 0.49835821986198425 0 1
2.6374804973602295 1.6949803829193115 -1.8100903034210205 0.4983539581298828 0 1
2.6450390815734863 1.6832226514816284 -1.810107707977295 0.4983484745025635 0 1
2.6525585651397705 1.67138671875 -1.8101248741149902 0.49834421277046204 0 1
2.6600096225738525 1.6595507860183716 -1.810142159461975 0.4983396828174591 0 1
2.667421817779541 1.6476757526397705 -1.8101592063903809 0.498335063457489 0 1
2.6747655868530273 1.635781168937683 -1.8101760149002075 0.4983302056789398 0 1
2.682060480117798 1.6238280534744263 -1.8101928234100342 0.49832653999328613 0 1
2.6893162727355957 1.6119531393051147 -1.8102096319198608 0.49832162261009216 0 1
2.6965038776397705 1.5999609231948853 -1.8102260828018188 0.4983164072036743 0 1
2.7036426067352295 1.5879101753234863 -1.8102425336837769 0.498312383890152 0 1
2.7107226848602295 1.5758397579193115 -1.8102591037750244 0.4983081519603729 0 1
2.7177538871765137 1.56374990940094 -1.8102751970291138 0.4983026087284088 0 1
2.724736213684082 1.5516210794448853 -1.8102914094924927 0.49829819798469543 0 1
2.7316503524780273 1.539453148841858 -1.810307264328003 0.4982946217060089 0 1
2.738515615463257 1.5272655487060547 -1.8103231191635132 0.49828973412513733 0 1
2.7453320026397705 1.515039086341858 -1.8103388547897339 0.49828600883483887 0 1
2.752089738845825 1.5027929544448853 -1.810354471206665 0.4982808828353882 0 1
2.758798837661743 1.4904882907867432 -1.810369849205017 0.49827685952186584 0 1
2.765439510345459 1.4781835079193115 -1.8103852272033691 0.4982725977897644 0 1
2.772031307220459 1.4658203125 -1.8104004859924316 0.49826928973197937 0 1
2.778574228286743 1.4534765481948853 -1.8104156255722046 0.4982636272907257 0 1
2.7850584983825684 1.4410741329193115 -1.8104305267333984 0.4982599914073944 0 1
2.7914745807647705 1.4286327362060547 -1.8104453086853027 0.49825623631477356 0 1
2.7978515625 1.4161717891693115 -1.8104602098464966 0.4982523024082184 0 1
2.8041601181030273 1.4036914110183716 -1.8104748725891113 0.49824824929237366 0 1
2.810429573059082 1.391152262687683 -1.8104891777038574 0.498244047164917 0 1
1.642763614654541 0.8040234446525574 -1.0559653043746948 0.4261929392814636 2915 14
1.640663981437683 0.7939648032188416 -1.0523409843444824 0.42765843868255615 2915 14
1.6386425495147705 0.7839648127555847 -1.048776388168335 0.4291139245033264 2915 14
1.6366209983825684 0.7740429639816284 -1.045267105102539 0.4305533468723297 2915 14
1.6346582174301147 0.7641991972923279 -1.0418152809143066 0.4319804310798645 2915 14
1.6326953172683716 0.7544335722923279 -1.0384174585342407 0.43339258432388306 2915 14
1.6307713985443115 0.7447460889816284 -1.035075306892395 0.4347911477088928 2915 14
1.6288964748382568 0.7350976467132568 -1.0317858457565308 0.436178594827652 2915 14
1.627040982246399 0.7256249785423279 -1.028550386428833 0.4375498592853546 2915 14
1.6252245903015137 0.7161328196525574 -1.0253660678863525 0.43890857696533203 2915 14
1.6234179735183716 0.7066991925239563 -1.0222336053848267 0.4402541518211365 2915 14
