ply
format ascii 1.0
element vertex 611
property float32 x
property float32 y
property float32 z
property float32 CosAngle
property uint32 ObjIdx
property uint32 ObjTag
end_header
9.979628562927246 -7.885458946228027 4.1790876388549805 0.7445388436317444 0 3
9.769648551940918 -7.863007545471191 4.120547294616699 0.49141448736190796 0 3
9.585810661315918 -7.857890605926514 4.072604179382324 0.7550643086433411 0 3
9.450185775756836 -7.889570236206055 4.044898509979248 0.7602356672286987 0 3
9.316347122192383 -7.920829772949219 4.017892360687256 0.7653465270996094 0 3
9.184296607971191 -7.95166015625 3.991558074951172 0.7703954577445984 0 3
9.053945541381836 -7.982099533081055 3.9658830165863037 0.7753828167915344 0 3
8.659794807434082 -7.773886680603027 3.8236498832702637 0.7803074717521667 0 3
8.536474227905273 -7.802685260772705 3.799974203109741 0.7851696610450745 0 3
8.414668083190918 -7.831122875213623 3.776888370513916 0.7899690270423889 0 3
8.294316291809082 -7.859199047088623 3.7543792724609375 0.7947049140930176 0 3
8.232802391052246 -7.942363262176514 3.758648633956909 0.5159966349601746 0 3
8.276259422302246 -8.128984451293945 3.8116490840911865 0.5088216662406921 0 3
17.06514549255371 17.065135955810547 7.709758758544922 0.38763126730918884 0 9
9.377158164978027 9.210341453552246 4.1989288330078125 0.09590163826942444 0 9
9.676054000854492 9.334765434265137 4.29506778717041 0.1637561321258545 0 9
9.830810546875 9.315155982971191 4.326476573944092 0.16256728768348694 0 9
9.989228248596191 9.296523094177246 4.35929536819458 0.161343514919281 0 9
10.151406288146973 9.27880859375 4.393545627593994 0.16008570790290833 0 9
10.317597389221191 9.26211929321289 4.429309368133545 0.1587931513786316 0 9
16.538543701171875 0.5197656154632568 5.285986423492432 0.8318591713905334 0 6
16.589521408081055 0.3723437488079071 5.300997734069824 0.6147302389144897 0 6
16.62344741821289 0.07459960877895355 5.310555934906006 0.8847843408584595 0 6
19.41939353942871 -4.70828104019165 6.383432388305664 0.5147965550422668 0 3
19.11699104309082 -4.817040920257568 6.297985076904297 0.5217760801315308 0 3
18.822187423706055 -4.922861099243164 6.215179920196533 0.5287257432937622 0 3
18.534696578979492 -5.025849342346191 6.134894371032715 0.535646915435791 0 3
18.25419807434082 -5.126093864440918 6.0570292472839355 0.5425326228141785 0 3
18.055253982543945 -5.245527267456055 6.006402015686035 0.8300853967666626 0 3
18.099306106567383 -5.434950828552246 6.037044048309326 0.8258727192878723 0 3
18.016748428344727 -5.586962699890137 6.0259928703308105 0.4827294945716858 0 3
17.69595718383789 -5.662079811096191 5.935458660125732 0.49009251594543457 0 3
16.952714920043945 -5.592509746551514 5.702767848968506 0.5808725357055664 0 3
16.716073989868164 -5.681308269500732 5.64009428024292 0.5873277187347412 0 3
16.717050552368164 -5.849550724029541 5.657907962799072 0.8038120865821838 0 3
16.501190185546875 -5.94079065322876 5.60267448425293 0.5191532969474792 0 3
16.223417282104492 -6.005820274353027 5.526446342468262 0.5263141393661499 0 3
15.953095436096191 -6.06912088394165 5.452698707580566 0.5334324836730957 0 3
15.596435546875 -6.094257831573486 5.349277019500732 0.6137692928314209 0 3
15.377753257751465 -6.16845703125 5.293046951293945 0.6202899813652039 0 3
15.1633882522583 -6.241025447845459 5.238326072692871 0.626769483089447 0 3
15.016816139221191 -6.338925838470459 5.207145690917969 0.30250272154808044 0 3
14.962607383728027 -6.474892616271973 5.208292007446289 0.30243608355522156 0 3
14.907167434692383 -6.61038064956665 5.209437370300293 0.3023696541786194 0 3
14.483104705810547 -6.578525066375732 5.08167839050293 0.30230340361595154 0 3
14.426640510559082 -6.709726333618164 5.082790374755859 0.3022371828556061 0 3
14.228046417236328 -6.773368835449219 5.034045696258545 0.5955057144165039 0 3
14.009882926940918 -6.824413776397705 4.978326797485352 0.602171003818512 0 3
13.79647445678711 -6.874335765838623 4.924210548400879 0.6087881326675415 0 3
13.61937427520752 -6.939384460449219 4.8830437660217285 0.8347641825675964 0 3
13.52457046508789 -7.04470682144165 4.871545314788818 0.6218999028205872 0 3
13.339003562927246 -7.101005554199219 4.827460289001465 0.6283437013626099 0 3
13.140498161315918 -7.147431373596191 4.77864408493042 0.6347622275352478 0 3
12.94594669342041 -7.192949295043945 4.731182098388672 0.6411299109458923 0 3
12.75521469116211 -7.237558364868164 4.685029029846191 0.6474456191062927 0 3
12.552294731140137 -7.272109031677246 4.6342878341674805 0.6537114977836609 0 3
12.23965835571289 -7.238495826721191 4.54266357421875 0.6599218845367432 0 3
12.061640739440918 -7.280126571655273 4.500667572021484 0.6660799384117126 0 3
11.886845588684082 -7.320986270904541 4.459786891937256 0.6721851229667664 0 3
11.715166091918945 -7.361132621765137 4.419994354248047 0.6782369613647461 0 3
11.546552658081055 -7.400556564331055 4.381258964538574 0.6842330694198608 0 3
11.380829811096191 -7.439296722412109 4.343538761138916 0.6901751160621643 0 3
11.217939376831055 -7.477392196655273 4.30681037902832 0.6960610747337341 0 3
11.057744026184082 -7.514823913574219 4.271036148071289 0.7018913626670837 0 3
10.930869102478027 -7.572890281677246 4.248109817504883 0.8892498016357422 0 3
10.858691215515137 -7.668056488037109 4.246627330780029 0.7134045958518982 0 3
10.718027114868164 -7.713818073272705 4.218535900115967 0.7190415263175964 0 3
10.566015243530273 -7.749335765838623 4.185920715332031 0.7246440649032593 0 3
10.416337966918945 -7.784316062927246 4.154139995574951 0.7301878333091736 0 3
10.268916130065918 -7.818759441375732 4.123167037963867 0.7356732487678528 0 3
10.123641967773438 -7.852694988250732 4.092977046966553 0.7410997152328491 0 3
9.980478286743164 -7.886152267456055 4.063552379608154 0.7464659214019775 0 3
9.771024703979492 -7.864120960235596 4.0068511962890625 0.49265968799591064 0 3
9.586630821228027 -7.858554363250732 3.9600048065185547 0.7570199370384216 0 3
9.450976371765137 -7.890244007110596 3.9330644607543945 0.7622051239013672 0 3
9.317138671875 -7.921483993530273 3.906799793243408 0.7673294544219971 0 3
9.18505859375 -7.952333927154541 3.881195068359375 0.7723919153213501 0 3
9.054677963256836 -7.982773303985596 3.856229782104492 0.7773926854133606 0 3
8.660517692565918 -7.774521350860596 3.717926502227783 0.7823307514190674 0 3
8.537187576293945 -7.803310394287109 3.694899797439575 0.7872058153152466 0 3
8.415350914001465 -7.831757545471191 3.6724510192871094 0.7920176386833191 0 3
8.2949800491333 -7.85986328125 3.6505656242370605 0.796766459941864 0 3
8.232382774353027 -7.941953182220459 3.6542351245880127 0.5174033641815186 0 3
8.275830268859863 -8.128554344177246 3.7057604789733887 0.5102092027664185 0 3
16.78267478942871 16.782665252685547 7.367025375366211 0.3094799816608429 0 9
16.99396514892578 16.691572189331055 7.393698692321777 0.3937547206878662 0 9
17.20448112487793 16.597625732421875 7.420182704925537 0.3923494219779968 0 9
9.539599418640137 8.878066062927246 4.044965744018555 0.16938728094100952 0 9
16.537822723388672 0.519726574420929 5.1357903480529785 0.8340861797332764 0 6
16.62335968017578 0.07460937649011612 5.159858703613281 0.8870898485183716 0 6
19.864530563354492 -4.627812385559082 6.330968379974365 0.5056431293487549 0 3
19.55022430419922 -4.739990234375 6.244109153747559 0.5126769542694092 0 3
19.244043350219727 -4.849071979522705 6.159971237182617 0.5196788907051086 0 3
18.945634841918945 -4.955156326293945 6.078447341918945 0.5266491770744324 0 3
18.82826042175293 -5.105429649353027 6.055243015289307 0.2631300687789917 0 3
18.38751983642578 -5.163525104522705 5.928167819976807 0.5456401109695435 0 3
18.12007713317871 -5.264365196228027 5.856945037841797 0.5522750616073608 0 3
18.09872055053711 -5.434794902801514 5.865577220916748 0.828046441078186 0 3
18.019149780273438 -5.587705135345459 5.855800628662109 0.4839203655719757 0 3
17.698270797729492 -5.662831783294678 5.767816066741943 0.4913025498390198 0 3
17.06987190246582 -5.631162166595459 5.579261779785156 0.578384280204773 0 3
16.830322265625 -5.720146179199219 5.5175299644470215 0.5848579406738281 0 3
16.716493606567383 -5.849365234375 5.497208118438721 0.8059282898902893 0 3
16.50324249267578 -5.941513538360596 5.444393634796143 0.5204387307167053 0 3
16.133886337280273 -5.972675800323486 5.3400139808654785 0.5989437699317932 0 3
15.903905868530273 -6.050380706787109 5.281655311584473 0.6055614948272705 0 3
15.678642272949219 -6.12633752822876 5.224903583526611 0.6121395826339722 0 3
15.565536499023438 -6.243779182434082 5.205681800842285 0.29476746916770935 0 3
15.512392044067383 -6.384677410125732 5.2068657875061035 0.2947005331516266 0 3
15.409101486206055 -6.504521369934082 5.191583156585693 0.6309658288955688 0 3
15.195096969604492 -6.575488090515137 5.139153957366943 0.6374027729034424 0 3
14.914813995361328 -6.613779067993164 5.064233779907227 0.5766565799713135 0 3
14.681102752685547 -6.66845703125 5.005001544952393 0.5834812521934509 0 3
14.452763557434082 -6.721874713897705 4.9475297927856445 0.5902592539787292 0 3
14.22957992553711 -6.774091720581055 4.891750812530518 0.5969898700714111 0 3
14.011366844177246 -6.825136661529541 4.837594509124756 0.6036727428436279 0 3
13.797900199890137 -6.875058650970459 4.785008907318115 0.6103072762489319 0 3
13.620184898376465 -6.93981409072876 4.744786739349365 0.8368843793869019 0 3
13.525957107543945 -7.045429706573486 4.733782768249512 0.6234531402587891 0 3
13.340371131896973 -7.101728439331055 4.690972805023193 0.629913330078125 0 3
13.14183521270752 -7.148163795471191 4.64353609085083 0.6363484263420105 0 3
12.947236061096191 -7.193652153015137 4.597411632537842 0.6427326798439026 0 3
12.756464958190918 -7.238271236419678 4.552559852600098 0.6490649580955505 0 3
12.553534507751465 -7.27282190322876 4.5032477378845215 0.6553469300270081 0 3
12.240849494934082 -7.239199161529541 4.414210319519043 0.6615734100341797 0 3
12.062792778015137 -7.280820369720459 4.373397350311279 0.6677476763725281 0 3
11.887988090515137 -7.321669578552246 4.333667278289795 0.673868715763092 0 3
11.716288566589355 -7.36181640625 4.294998645782471 0.6799359917640686 0 3
11.547636032104492 -7.40123987197876 4.257354259490967 0.6859480738639832 0 3
11.381884574890137 -7.439990043640137 4.220699310302734 0.6919050216674805 0 3
11.218974113464355 -7.47805643081665 4.185004711151123 0.697806715965271 0 3
11.05873966217041 -7.515507698059082 4.150239944458008 0.7036519646644592 0 3
10.931474685668945 -7.573329925537109 4.1278181076049805 0.8915114998817444 0 3
10.8596773147583 -7.668749809265137 4.126520156860352 0.7151951193809509 0 3
10.718974113464355 -7.714491844177246 4.099215030670166 0.7208471298217773 0 3
10.566962242126465 -7.75002908706665 4.067522048950195 0.7264637351036072 0 3
10.417264938354492 -7.784989833831787 4.036635875701904 0.732022225856781 0 3
10.269784927368164 -7.819443225860596 4.006534099578857 0.7375221252441406 0 3
10.111767768859863 -7.843456745147705 3.972182035446167 0.7429629564285278 0 3
9.96875 -7.876884460449219 3.9436235427856445 0.7483435869216919 0 3
9.772392272949219 -7.865234375 3.893717050552368 0.49387118220329285 0 3
9.587450981140137 -7.859218597412109 3.8479814529418945 0.7589239478111267 0 3
9.451766967773438 -7.89089822769165 3.8217992782592773 0.7641229629516602 0 3
9.317910194396973 -7.92214822769165 3.796274423599243 0.7692606449127197 0 3
9.185839653015137 -7.952978134155273 3.771392822265625 0.7743359804153442 0 3
9.055438995361328 -7.98342752456665 3.74712872505188 0.7793495655059814 0 3
8.661211013793945 -7.775156021118164 3.6127398014068604 0.7843005061149597 0 3
8.537880897521973 -7.803945064544678 3.590362548828125 0.7891884446144104 0 3
8.416034698486328 -7.832382678985596 3.568545341491699 0.7940130233764648 0 3
8.295644760131836 -7.860487937927246 3.5472776889801025 0.7987738847732544 0 3
8.231952667236328 -7.941552639007568 3.55037784576416 0.5187752842903137 0 3
8.275409698486328 -8.128125190734863 3.6004369258880615 0.5115622878074646 0 3
8.366952896118164 8.366972923278809 3.566105365753174 0.060725122690200806 0 9
8.461865425109863 8.3113374710083 3.5746171474456787 0.06058049201965332 0 9
8.560332298278809 8.258398056030273 3.5847527980804443 0.06040918827056885 0 9
8.662489891052246 8.208114624023438 3.596536159515381 0.060211360454559326 0 9
8.768525123596191 8.160478591918945 3.6099963188171387 0.05998691916465759 0 9
8.878602981567383 8.115419387817383 3.625185966491699 0.059735387563705444 0 9
8.992919921875 8.072949409484863 3.6421306133270264 0.05945757031440735 0 9
9.111689567565918 8.033056259155273 3.6608757972717285 0.059153079986572266 0 9
9.235087394714355 7.995673656463623 3.6814727783203125 0.058822184801101685 0 9
19.655057907104492 15.246005058288574 7.496769905090332 0.0197601318359375 0 9
16.537078857421875 0.5197167992591858 4.9863786697387695 0.8362289071083069 0 6
16.623260498046875 0.07460937649011612 5.009932041168213 0.8893352746963501 0 6
20.663564682006836 -4.424462795257568 6.368696212768555 0.4892770051956177 0 3
20.32746124267578 -4.543671607971191 6.277427673339844 0.49639344215393066 0 3
20.000457763671875 -4.659472465515137 6.189115524291992 0.5034748315811157 0 3
19.682147979736328 -4.771982192993164 6.103627681732178 0.510526180267334 0 3
19.463232040405273 -4.904286861419678 6.049144268035889 0.25638899207115173 0 3
19.230459213256836 -5.029609203338623 5.990583896636963 0.40894651412963867 0 3
19.08121109008789 -5.174013614654541 5.958323001861572 0.4111606478691101 0 3
18.523193359375 -5.201650142669678 5.798425674438477 0.5430107712745667 0 3
18.251327514648438 -5.302480220794678 5.727989196777344 0.5489875674247742 0 3
18.098154067993164 -5.434609413146973 5.69499397277832 0.8301640152931213 0 3
18.02153205871582 -5.588427543640137 5.686438083648682 0.4850783944129944 0 3
17.70057487487793 -5.663544654846191 5.600987911224365 0.49247920513153076 0 3
17.387226104736328 -5.73583984375 5.517892837524414 0.4998474717140198 0 3
16.945547103881836 -5.759286880493164 5.393913269042969 0.5823463201522827 0 3
16.7005558013916 -5.843759536743164 5.332414627075195 0.583369255065918 0 3
16.457948684692383 -5.925224304199219 5.271723747253418 0.5905672311782837 0 3
16.22079086303711 -6.004853248596191 5.21281099319458 0.5972392559051514 0 3
16.139266967773438 -6.13992166519165 5.2041168212890625 0.287013441324234 0 3
16.087284088134766 -6.286035060882568 5.2053399085998535 0.2869458496570587 0 3
15.93075180053711 -6.390283107757568 5.173043727874756 0.6163837313652039 0 3
15.706181526184082 -6.464452743530273 5.118755340576172 0.6229208111763 0 3
15.486044883728027 -6.536992073059082 5.065927028656006 0.6294166445732117 0 3
15.31600570678711 -6.627812385559082 5.029561519622803 0.5711700320243835 0 3
14.916464805603027 -6.614511489868164 4.917662143707275 0.5780486464500427 0 3
14.68270492553711 -6.669189453125 4.86013126373291 0.5848910212516785 0 3
14.454316139221191 -6.722617149353027 4.804319858551025 0.5916857719421387 0 3
14.23110294342041 -6.774804592132568 4.750146389007568 0.5984336137771606 0 3
14.01285171508789 -6.825859069824219 4.69755744934082 0.6051331758499146 0 3
13.799355506896973 -6.875800609588623 4.646487236022949 0.6117841005325317 0 3
13.621015548706055 -6.940224647521973 4.607226848602295 0.8389471769332886 0 3
13.52734375 -7.046162128448486 4.596747398376465 0.6249635219573975 0 3
13.341718673706055 -7.102460861206055 4.555152893066406 0.6314402222633362 0 3
13.14315414428711 -7.148867130279541 4.509092330932617 0.6378913521766663 0 3
12.948534965515137 -7.19436502456665 4.464296817779541 0.6442916393280029 0 3
12.757743835449219 -7.238964557647705 4.420741081237793 0.6506398320198059 0 3
12.554765701293945 -7.273534774780273 4.3728532791137695 0.6569377183914185 0 3
12.242021560668945 -7.239902019500732 4.286388874053955 0.6631802916526794 0 3
12.06395435333252 -7.28152322769165 4.246750831604004 0.6693701148033142 0 3
11.889101028442383 -7.322372913360596 4.2081708908081055 0.6755067110061646 0 3
11.717391967773438 -7.362509727478027 4.170617580413818 0.6815890669822693 0 3
11.548720359802246 -7.401933193206787 4.134057998657227 0.6876163482666016 0 3
11.382948875427246 -7.440673828125 4.098464488983154 0.6935886144638062 0 3
11.219989776611328 -7.478749752044678 4.063797950744629 0.6995047926902771 0 3
11.059745788574219 -7.516191005706787 4.030038833618164 0.7053652405738831 0 3
10.932108879089355 -7.573740005493164 4.008129119873047 0.8937123417854309 0 3
10.860634803771973 -7.669443130493164 4.00703239440918 0.7169368863105774 0 3
10.706396102905273 -7.705458641052246 3.975464344024658 0.7226044535636902 0 3
10.554550170898438 -7.740947246551514 3.944722890853882 0.7282349467277527 0 3
10.349863052368164 -7.734619140625 3.894010543823242 0.5836845636367798 0 3
10.189716339111328 -7.758456707000732 3.859806537628174 0.588857114315033 0 3
10.032509803771973 -7.782001972198486 3.8265624046325684 0.5939731001853943 0 3
9.87808609008789 -7.805253505706787 3.794236898422241 0.5990332365036011 0 3
9.726386070251465 -7.828212738037109 3.762805700302124 0.6040371656417847 0 3
9.528398513793945 -7.81082010269165 3.713186502456665 0.24569407105445862 0 3
9.389384269714355 -7.838798522949219 3.686281681060791 0.6968095898628235 0 3
9.27694320678711 -7.887304306030273 3.669780731201172 0.6999425888061523 0 3
9.1865816116333 -7.95364236831665 3.662132978439331 0.7762276530265808 0 3
9.056181907653809 -7.984072208404541 3.63857102394104 0.7812536358833313 0 3
8.6619234085083 -7.775781154632568 3.5080718994140625 0.7862172722816467 0 3
8.53857421875 -7.804570198059082 3.486342668533325 0.7911173105239868 0 3
8.416708946228027 -7.833017349243164 3.465156078338623 0.7959542274475098 0 3
8.296318054199219 -7.861093521118164 3.44450306892395 0.8007269501686096 0 3
8.231542587280273 -7.941152095794678 3.4470646381378174 0.5201114416122437 0 3
8.274970054626465 -8.127715110778809 3.49566388130188 0.5128803849220276 0 3
16.6231632232666 0.07461913675069809 4.860751628875732 0.8915201425552368 0 6
21.15959930419922 -4.332441329956055 6.315548419952393 0.4798790216445923 0 3
20.809326171875 -4.455693244934082 6.222684383392334 0.48704034090042114 0 3
20.468788146972656 -4.575283050537109 6.132887840270996 0.49417388439178467 0 3
20.137548446655273 -4.691415786743164 6.046020984649658 0.5012727975845337 0 3
19.96839714050293 -4.841386795043945 6.008036136627197 0.8566783666610718 0 3
20.01249885559082 -5.042675495147705 6.034677505493164 0.44089019298553467 0 3
19.626142501831055 -5.133115291595459 5.931828022003174 0.44853368401527405 0 3
19.252704620361328 -5.220517635345459 5.832892417907715 0.45614805817604065 0 3
18.92764663696289 -5.315205097198486 5.748638153076172 0.2797880172729492 0 3
18.380956649780273 -5.340175628662109 5.596933364868164 0.54645174741745 0 3
18.110702514648438 -5.438378810882568 5.529274940490723 0.5531378984451294 0 3
18.023895263671875 -5.589169979095459 5.517868995666504 0.4862034320831299 0 3
17.702850341796875 -5.664296627044678 5.434935092926025 0.4936227798461914 0 3
17.389442443847656 -5.736562252044678 5.354300498962402 0.5010067820549011 0 3
17.042715072631836 -5.792314529418945 5.263341426849365 0.5752189755439758 0 3
16.79237174987793 -5.875898361206055 5.2021050453186035 0.5819920897483826 0 3
16.740028381347656 -6.026767253875732 5.202441215515137 0.2792409062385559 0 3
16.689334869384766 -6.178290843963623 5.203705787658691 0.2791728973388672 0 3
16.447988510131836 -6.257382869720459 5.145763874053955 0.5372916460037231 0 3
16.243223190307617 -6.346962928771973 5.09932279586792 0.608165979385376 0 3
16.011981964111328 -6.4228515625 5.044625759124756 0.6147602796554565 0 3
15.81966781616211 -6.511142253875732 5.002241134643555 0.5585576891899109 0 3
15.585233688354492 -6.57888650894165 4.946593284606934 0.5655445456504822 0 3
15.337040901184082 -6.636923789978027 4.886533260345459 0.5724955797195435 0 3
14.918105125427246 -6.615234375 4.771781921386719 0.5794015526771545 0 3
14.684306144714355 -6.669921875 4.715958595275879 0.5862603187561035 0 3
14.455888748168945 -6.723320007324219 4.66179084777832 0.5930721163749695 0 3
14.232626914978027 -6.775527000427246 4.609222888946533 0.5998361110687256 0 3
14.014326095581055 -6.826562404632568 4.5581841468811035 0.6065525412559509 0 3
13.800790786743164 -6.876503944396973 4.508627891540527 0.6132197380065918 0 3
13.621826171875 -6.940634727478027 4.470326900482178 0.8409532904624939 0 3
13.52872085571289 -7.046864986419678 4.4603800773620605 0.6264311075210571 0 3
13.343066215515137 -7.103163719177246 4.419990062713623 0.6329240798950195 0 3
13.144462585449219 -7.149580001831055 4.375283241271973 0.6393914222717285 0 3
12.949813842773438 -7.195077896118164 4.331818580627441 0.6458068490028381 0 3
12.758974075317383 -7.239696979522705 4.289548397064209 0.6521708369255066 0 3
12.5559663772583 -7.274247646331787 4.243077278137207 0.6584843397140503 0 3
12.243203163146973 -7.240605354309082 4.159176349639893 0.6647415161132812 0 3
12.06509780883789 -7.282216548919678 4.12071418762207 0.6709465384483337 0 3
11.890243530273438 -7.323066234588623 4.083274841308594 0.6770980954170227 0 3
11.71849536895752 -7.363193035125732 4.046829700469971 0.6831961274147034 0 3
11.549775123596191 -7.402607440948486 4.0113525390625 0.6892378926277161 0 3
11.384003639221191 -7.441357135772705 3.976811408996582 0.6952245831489563 0 3
11.221014976501465 -7.479423522949219 3.94317364692688 0.7011552453041077 0 3
11.060761451721191 -7.516865253448486 3.910411834716797 0.7070300579071045 0 3
10.932714462280273 -7.574179649353027 3.889019012451172 0.8958527445793152 0 3
10.791699409484863 -7.620761394500732 3.863037586212158 0.5722470283508301 0 3
10.623574256896973 -7.645829677581787 3.827263593673706 0.5775958895683289 0 3
10.458632469177246 -7.670566082000732 3.792499303817749 0.5828908085823059 0 3
10.295341491699219 -7.69387674331665 3.758181095123291 0.23610267043113708 0 3
10.082646369934082 -7.676952838897705 3.705544948577881 0.7410699725151062 0 3
9.945976257324219 -7.714892387390137 3.6806182861328125 0.6787643432617188 0 3
9.8286714553833 -7.766201019287109 3.6628599166870117 0.6820549964904785 0 3
9.712236404418945 -7.816825866699219 3.6454718112945557 0.685308575630188 0 3
9.589052200317383 -7.860537052154541 3.625570058822632 0.762577474117279 0 3
9.453349113464355 -7.89220666885376 3.600898265838623 0.7678021788597107 0 3
9.319462776184082 -7.92345666885376 3.576846122741699 0.7729652523994446 0 3
9.187353134155273 -7.954277038574219 3.553396463394165 0.7780659198760986 0 3
9.056914329528809 -7.98473596572876 3.5305352210998535 0.783104658126831 0 3
8.662627220153809 -7.776425838470459 3.40390682220459 0.788080096244812 0 3
8.539267539978027 -7.805195331573486 3.382821559906006 0.7929922938346863 0 3
8.41738224029541 -7.833652019500732 3.3622632026672363 0.7978413105010986 0 3
8.296992301940918 -7.861728191375732 3.342219114303589 0.8026255369186401 0 3
8.231122970581055 -7.940751552581787 3.344268798828125 0.5214127898216248 0 3
8.27455997467041 -8.127294540405273 3.39141845703125 0.5141637921333313 0 3
18.66590690612793 17.371463775634766 7.228287220001221 0.059262484312057495 0 9
16.623075485229492 0.07460937649011612 4.712287902832031 0.8936445116996765 0 6
22.053417205810547 -4.104394435882568 6.358969688415527 0.463146448135376 0 3
21.67696189880371 -4.236005783081055 6.261133670806885 0.4703836441040039 0 3
21.31148338317871 -4.363515377044678 6.166628360748291 0.477591872215271 0 3
20.95645523071289 -4.487177848815918 6.075313568115234 0.48477038741111755 0 3
20.733173370361328 -4.634394645690918 6.022397994995117 0.8663570880889893 0 3
20.781278610229492 -4.841386795043945 6.048746585845947 0.8625827431678772 0 3
20.415508270263672 -4.949775218963623 5.954980850219727 0.43417662382125854 0 3
20.015390396118164 -5.043427467346191 5.851238250732422 0.44186657667160034 0 3
19.628925323486328 -5.133837699890137 5.751503944396973 0.44953569769859314 0 3
19.4158878326416 -5.264765739440918 5.702696323394775 0.4571651816368103 0 3
19.051570892333984 -5.350009441375732 5.60957145690918 0.4647548794746399 0 3
18.5118350982666 -5.378193378448486 5.464648246765137 0.5438781976699829 0 3
18.235088348388672 -5.475732326507568 5.39724588394165 0.5476760864257812 0 3
18.026248931884766 -5.589902400970459 5.350069046020508 0.4872935712337494 0 3
17.70514678955078 -5.665019512176514 5.269643306732178 0.4947342872619629 0 3
17.39164924621582 -5.737294673919678 5.191452503204346 0.5021342039108276 0 3
17.19074249267578 -5.842627048492432 5.1469292640686035 0.5467607975006104 0 3
16.983495712280273 -5.942763328552246 5.100646018981934 0.5517222881317139 0 3
16.84319305419922 -6.063915729522705 5.074653625488281 0.2718908190727234 0 3
16.728797912597656 -6.192910194396973 5.056730270385742 0.5313155055046082 0 3
16.449941635131836 -6.258124828338623 4.98922061920166 0.5385050177574158 0 3
16.2520694732666 -6.350419998168945 4.946293830871582 0.7927990555763245 0 3
16.102313995361328 -6.459111213684082 4.918168067932129 0.5527536273002625 0 3
15.841415405273438 -6.520116806030273 4.856162071228027 0.5598116517066956 0 3
15.586992263793945 -6.57961893081665 4.796075820922852 0.5668250322341919 0 3
15.338749885559082 -6.637656211853027 4.737832546234131 0.5737927556037903 0 3
14.919755935668945 -6.615956783294678 4.626570224761963 0.580715000629425 0 3
14.685888290405273 -6.670634746551514 4.57243537902832 0.5875904560089111 0 3
14.45743179321289 -6.724062442779541 4.5199127197265625 0.5944183468818665 0 3
14.234149932861328 -6.776230335235596 4.46893835067749 0.6011984348297119 0 3
14.015800476074219 -6.827284812927246 4.4194536209106445 0.6079304218292236 0 3
13.80223560333252 -6.877216815948486 4.371397018432617 0.61461341381073 0 3
13.6226167678833 -6.941064357757568 4.334073543548584 0.8429020643234253 0 3
13.530077934265137 -7.047597408294678 4.324587345123291 0.6278569102287292 0 3
13.344423294067383 -7.103867053985596 4.2854413986206055 0.6343646049499512 0 3
13.145771026611328 -7.150302410125732 4.242095947265625 0.640847384929657 0 3
12.951093673706055 -7.195790767669678 4.199946880340576 0.6472783088684082 0 3
12.760224342346191 -7.240390300750732 4.158960342407227 0.6536574959754944 0 3
12.557196617126465 -7.274950981140137 4.113901138305664 0.6599856019020081 0 3
12.24437427520752 -7.241289138793945 4.032551288604736 0.6662580370903015 0 3
12.066229820251465 -7.282909870147705 3.995253324508667 0.6724778413772583 0 3
11.891337394714355 -7.323769569396973 3.958951950073242 0.6786442995071411 0 3
11.719579696655273 -7.363896369934082 3.9236156940460205 0.6847561597824097 0 3
11.550848960876465 -7.403290748596191 3.889216184616089 0.690812349319458 0 3
11.385038375854492 -7.442040920257568 3.8557207584381104 0.6968134641647339 0 3
11.222030639648438 -7.48009729385376 3.8231048583984375 0.7027587294578552 0 3
11.061747550964355 -7.517548561096191 3.791337251663208 0.7086468935012817 0 3
10.905478477478027 -7.555302619934082 3.7608635425567627 0.571198582649231 0 3
10.676230430603027 -7.539208889007568 3.705000638961792 0.7202531099319458 0 3
10.531630516052246 -7.579677581787109 3.6782782077789307 0.6600201725959778 0 3
10.408818244934082 -7.634072303771973 3.6591808795928955 0.6634648442268372 0 3
10.287040710449219 -7.687685489654541 3.6404802799224854 0.666873037815094 0 3
10.152226448059082 -7.729911804199219 3.6171770095825195 0.7427670359611511 0 3
10.008584022521973 -7.76345682144165 3.5906829833984375 0.7482476234436035 0 3
9.867021560668945 -7.796494007110596 3.564859628677368 0.7536680698394775 0 3
9.727460861206055 -7.829082012176514 3.539687395095825 0.7590274214744568 0 3
9.589853286743164 -7.86120080947876 3.515148162841797 0.7643261551856995 0 3
9.454140663146973 -7.892861366271973 3.491225004196167 0.769563615322113 0 3
9.320234298706055 -7.924111366271973 3.467904567718506 0.774738609790802 0 3
9.188085556030273 -7.954941272735596 3.4451653957366943 0.7798523306846619 0 3
9.057656288146973 -7.985371112823486 3.42299747467041 0.7849025130271912 0 3
8.663330078125 -7.777040958404541 3.300224542617798 0.789889931678772 0 3
8.53994083404541 -7.805830001831055 3.2797813415527344 0.794813871383667 0 3
8.41805648803711 -7.834267616271973 3.259845495223999 0.7996737957000732 0 3
8.297636985778809 -7.862353324890137 3.2404136657714844 0.8044695854187012 0 3
8.230712890625 -7.940341472625732 3.241981029510498 0.5226782560348511 0 3
8.274140357971191 -8.126884460449219 3.287687301635742 0.5154120326042175 0 3
17.72201156616211 17.72201156616211 6.88194465637207 0.292514443397522 0 9
18.582372665405273 16.681337356567383 6.856879711151123 0.028130173683166504 0 9
16.622987747192383 0.07461913675069809 4.564520359039307 0.8957080245018005 0 6
22.61064338684082 -3.998476505279541 6.304956436157227 0.4535110890865326 0 3
22.217079162597656 -4.134853363037109 6.205310344696045 0.4607938230037689 0 3
21.8353214263916 -4.266943454742432 6.109137535095215 0.4680478274822235 0 3
21.55746078491211 -4.413906097412109 6.042239189147949 0.23553761839866638 0 3
21.122255325317383 -4.522705078125 5.931394100189209 0.48710864782333374 0 3
20.785526275634766 -4.646093845367432 5.8483123779296875 0.4940287470817566 0 3
20.78065299987793 -4.841239929199219 5.858928680419922 0.8645955324172974 0 3
20.418476104736328 -4.950507640838623 5.769118309020996 0.4351133108139038 0 3
20.185096740722656 -5.086181640625 5.715847492218018 0.44282636046409607 0 3
19.79530143737793 -5.177382469177246 5.618408203125 0.45050883293151855 0 3
19.4185733795166 -5.265498161315918 5.524672508239746 0.45815473794937134 0 3
18.931894302368164 -5.316415786743164 5.399567604064941 0.5225383043289185 0 3
18.634014129638672 -5.413691520690918 5.328253269195557 0.5295320749282837 0 3
18.348251342773438 -5.509726524353027 5.26047420501709 0.5455518364906311 0 3
18.028593063354492 -5.590634822845459 5.183000564575195 0.48835664987564087 0 3
17.70741081237793 -5.665732383728027 5.105090618133545 0.49581047892570496 0 3
17.393836975097656 -5.738017559051514 5.029321670532227 0.5032272338867188 0 3
17.207294464111328 -5.848251819610596 4.9903669357299805 0.818443238735199 0 3
17.25102424621582 -6.036396503448486 5.018563747406006 0.8138447999954224 0 3
17.017362594604492 -6.126640319824219 4.966383457183838 0.525226891040802 0 3
16.73078155517578 -6.19363260269165 4.898773193359375 0.5324760675430298 0 3
16.451873779296875 -6.258867263793945 4.833371639251709 0.5396818518638611 0 3
16.253095626831055 -6.350810527801514 4.791514873504639 0.7945754528045654 0 3
16.104188919067383 -6.459843635559082 4.764518737792969 0.5539629459381104 0 3
15.843222618103027 -6.520839691162109 4.704444408416748 0.5610373020172119 0 3
15.588749885559082 -6.580331802368164 4.6462225914001465 0.5680670738220215 0 3
15.340438842773438 -6.638388633728027 4.589797496795654 0.575050950050354 0 3
14.921366691589355 -6.61669921875 4.482002258300781 0.5819894075393677 0 3
14.68748950958252 -6.671367168426514 4.429556846618652 0.5888800621032715 0 3
14.45897388458252 -6.724765300750732 4.378669738769531 0.5957239866256714 0 3
14.235634803771973 -6.776962757110596 4.329283237457275 0.602519690990448 0 3
14.017255783081055 -6.82799768447876 4.281336784362793 0.6092673540115356 0 3
13.803632736206055 -6.877939224243164 4.234778881072998 0.6159659028053284 0 3
13.623417854309082 -6.941474437713623 4.198436737060547 0.8447937965393066 0 3
13.531444549560547 -7.048310279846191 4.189416885375977 0.6292393207550049 0 3
13.345742225646973 -7.104589462280273 4.151504993438721 0.6357622742652893 0 3
13.14706039428711 -7.151015281677246 4.109501361846924 0.642259955406189 0 3
12.952363014221191 -7.196494102478027 4.06866979598999 0.6487057209014893 0 3
12.761445045471191 -7.241103172302246 4.028955459594727 0.6550998091697693 0 3
12.558398246765137 -7.275654315948486 3.985305070877075 0.6614420413970947 0 3
12.245536804199219 -7.24197244644165 3.906492233276367 0.667729377746582 0 3
12.0673828125 -7.283574104309082 3.8703558444976807 0.6739634871482849 0 3
11.892470359802246 -7.324443340301514 3.835186004638672 0.6801434755325317 0 3
11.720654487609863 -7.364579677581787 3.8009533882141113 0.6862697601318359 0 3
11.55191421508789 -7.403984069824219 3.7676267623901367 0.6923400163650513 0 3
11.32706069946289 -7.404130458831787 3.715816020965576 0.22529485821723938 0 3
11.149950981140137 -7.432070255279541 3.679457426071167 0.6405943036079407 0 3
11.020966529846191 -7.489833831787109 3.6589274406433105 0.6441882848739624 0 3
10.893105506896973 -7.54674768447876 3.638824462890625 0.647747278213501 0 3
10.749931335449219 -7.591259479522705 3.613609552383423 0.7218483090400696 0 3
10.597235679626465 -7.626894474029541 3.5851519107818604 0.7275780439376831 0 3
10.44692325592041 -7.66198205947876 3.557424783706665 0.7332490682601929 0 3
10.298906326293945 -7.696533203125 3.530402183532715 0.738861620426178 0 3
10.153095245361328 -7.73058557510376 3.5040667057037354 0.7444143295288086 0 3
10.009443283081055 -7.764101505279541 3.4784014225006104 0.7499074339866638 0 3
9.867851257324219 -7.797158241271973 3.4533817768096924 0.7553403377532959 0 3
9.728281021118164 -7.829726219177246 3.4289934635162354 0.760712206363678 0 3
9.59066390991211 -7.861835956573486 3.405219554901123 0.7660229802131653 0 3
9.454912185668945 -7.893515586853027 3.382044553756714 0.771272599697113 0 3
9.320985794067383 -7.924765586853027 3.3594493865966797 0.7764600515365601 0 3
9.188827514648438 -7.955605506896973 3.337423086166382 0.7815847396850586 0 3
9.058368682861328 -7.986034870147705 3.315946578979492 0.7866470217704773 0 3
8.664023399353027 -7.777675628662109 3.197014808654785 0.7916457653045654 0 3
8.540624618530273 -7.806455135345459 3.1772046089172363 0.796580970287323 0 3
8.418730735778809 -7.834892272949219 3.157892942428589 0.8014522194862366 0 3
8.298291206359863 -7.862978458404541 3.139063596725464 0.8062593340873718 0 3
8.230292320251465 -7.939950942993164 3.1401774883270264 0.5239086747169495 0 3
8.273720741271973 -8.12646484375 3.1844451427459717 0.5166256427764893 0 3
17.335224151611328 17.335205078125 6.5148444175720215 0.29970794916152954 0 9
17.690399169921875 17.375635147094727 6.589443206787109 0.29631489515304565 0 9
16.62287139892578 0.07460937649011612 4.417423725128174 0.8977105617523193 0 6
23.61898422241211 -3.7408690452575684 6.354772090911865 0.436428964138031 0 3
23.193613052368164 -3.88720703125 6.249459743499756 0.44378340244293213 0 3
22.78166961669922 -4.028701305389404 6.147955417633057 0.4511105418205261 0 3
22.382431030273438 -4.165634632110596 6.050065040588379 0.4584096670150757 0 3
22.344188690185547 -4.366396427154541 6.050081253051758 0.22816026210784912 0 3
21.94881820678711 -4.494033336639404 5.953714370727539 0.3662295639514923 0 3
21.712900161743164 -4.649150371551514 5.900794506072998 0.4126148223876953 0 3
20.953153610229492 -4.683583736419678 5.7055206298828125 0.49103879928588867 0 3
20.780029296875 -4.841103553771973 5.669979572296143 0.8665498495101929 0 3
20.59164047241211 -4.992509841918945 5.630587100982666 0.4360203742980957 0 3
20.187978744506836 -5.086923599243164 5.532465934753418 0.4437507092952728 0 3
19.667430877685547 -5.143906116485596 5.402244567871094 0.5138348937034607 0 3
19.352880477905273 -5.247675895690918 5.328569412231445 0.5209413766860962 0 3
19.04645538330078 -5.348583698272705 5.257211685180664 0.528012752532959 0 3
18.95521354675293 -5.506991863250732 5.245457172393799 0.25588735938072205 0 3
18.559755325317383 -5.5732421875 5.149656772613525 0.5165681838989258 0 3
18.03093719482422 -5.591357231140137 5.0166497230529785 0.48938220739364624 0 3
17.709686279296875 -5.666464805603027 4.941223621368408 0.4968503713607788 0 3
17.396015167236328 -5.738749980926514 4.8678812980651855 0.5042862296104431 0 3
17.20674705505371 -5.848075866699219 4.829415798187256 0.8202946782112122 0 3
17.250478744506836 -6.036201000213623 4.856705665588379 0.8156858682632446 0 3
17.019433975219727 -6.127372741699219 4.80694580078125 0.5263345837593079 0 3
16.7327823638916 -6.194384574890137 4.741499423980713 0.5335995554924011 0 3
16.453798294067383 -6.259589672088623 4.678182125091553 0.5408219695091248 0 3
16.254100799560547 -6.351230144500732 4.637415885925293 0.7962974905967712 0 3
16.10600471496582 -6.460585594177246 4.6115264892578125 0.5551355481147766 0 3
15.845019340515137 -6.521581649780273 4.553371429443359 0.562225341796875 0 3
15.59047794342041 -6.581074237823486 4.497018337249756 0.5692704916000366 0 3
15.34212875366211 -6.639121055603027 4.442397594451904 0.5762702226638794 0 3
14.922978401184082 -6.617402076721191 4.338061809539795 0.5832241773605347 0 3
14.68905258178711 -6.672070026397705 4.287294864654541 0.5901299715042114 0 3
14.460516929626465 -6.725478172302246 4.238034725189209 0.5969890356063843 0 3
14.237138748168945 -6.777675628662109 4.190229892730713 0.6037999987602234 0 3
14.018720626831055 -6.828720569610596 4.143819332122803 0.6105625629425049 0 3
13.805068016052246 -6.878623008728027 4.098751068115234 0.6172760725021362 0 3
13.624228477478027 -6.941884517669678 4.063398838043213 0.8466278910636902 0 3
13.53280258178711 -7.049033164978027 4.054871082305908 0.6305792927742004 0 3
13.34706974029541 -7.105292797088623 4.018126964569092 0.6371167898178101 0 3
13.131786346435547 -7.14269495010376 3.9724676609039307 0.6436294913291931 0 3
12.937304496765137 -7.188115119934082 3.932990074157715 0.650089681148529 0 3
12.671679496765137 -7.190136432647705 3.871708869934082 0.5224931240081787 0 3
12.464462280273438 -7.221230506896973 3.8280460834503174 0.5284529328346252 0 3
12.246708869934082 -7.242665767669678 3.780978202819824 0.6691548228263855 0 3
12.044599533081055 -7.269843578338623 3.7385809421539307 0.2171911746263504 0 3
11.893573760986328 -7.325117111206055 3.7119598388671875 0.6815969944000244 0 3
11.721747398376465 -7.365243911743164 3.6788220405578613 0.6877366900444031 0 3
11.552958488464355 -7.40465784072876 3.646559953689575 0.6938212513923645 0 3
11.387099266052246 -7.443398475646973 3.6151530742645264 0.699849009513855 0 3
11.224072456359863 -7.481454849243164 3.5845654010772705 0.7058204412460327 0 3
11.063720703125 -7.518896102905273 3.554774045944214 0.7117360234260559 0 3
10.906034469604492 -7.55569314956665 3.5257537364959717 0.7175940275192261 0 3
10.750849723815918 -7.591933250427246 3.4974827766418457 0.7233949899673462 0 3
10.598163604736328 -7.627548694610596 3.469937562942505 0.7291369438171387 0 3
10.447821617126465 -7.662646293640137 3.4430999755859375 0.7348210215568542 0 3
10.299784660339355 -7.697196960449219 3.4169414043426514 0.740445613861084 0 3
10.15396499633789 -7.73123025894165 3.3914506435394287 0.7460110783576965 0 3
10.010272979736328 -7.76476526260376 3.366605043411255 0.7515167593955994 0 3
9.868680953979492 -7.797812461853027 3.3423924446105957 0.7569613456726074 0 3
9.729101181030273 -7.830370903015137 3.31878399848938 0.7623452544212341 0 3
9.591444969177246 -7.862490177154541 3.295774459838867 0.7676679491996765 0 3
9.455693244934082 -7.894150257110596 3.273341655731201 0.772929310798645 0 3
9.321757316589355 -7.92540979385376 3.2514734268188477 0.7781280279159546 0 3
9.18959903717041 -7.956230163574219 3.230149507522583 0.7832639813423157 0 3
9.059121131896973 -7.986669540405273 3.2093615531921387 0.7883376479148865 0 3
8.664716720581055 -7.778300762176514 3.094249725341797 0.7933478951454163 0 3
8.541289329528809 -7.807079792022705 3.0750749111175537 0.7982940673828125 0 3
8.419374465942383 -7.835517406463623 3.056382894515991 0.8031764030456543 0 3
8.298934936523438 -7.863593578338623 3.038161039352417 0.8079940676689148 0 3
8.22989273071289 -7.939560413360596 3.038849353790283 0.5251029133796692 0 3
8.273310661315918 -8.12606430053711 3.08168625831604 0.5178037285804749 0 3
16.96651268005371 16.96651268005371 6.164913654327393 0.30688154697418213 0 9
17.30994987487793 17.001953125 6.233999729156494 0.303480863571167 0 9
17.662078857421875 17.039072036743164 6.3054728507995605 0.30004069209098816 0 9
16.622783660888672 0.07459960877895355 4.270969867706299 0.8996521830558777 0 6
24.250497817993164 -3.6180760860443115 6.299703121185303 0.426567018032074 0 3
23.804277420043945 -3.770195245742798 6.192320823669434 0.43396610021591187 0 3
23.372509002685547 -3.917177677154541 6.088908672332764 0.441336452960968 0 3
23.15321159362793 -4.094433307647705 6.041114807128906 0.22140131890773773 0 3
22.821229934692383 -4.247294902801514 5.9641947746276855 0.35423001646995544 0 3
22.662479400634766 -4.428584098815918 5.932859897613525 0.3976374864578247 0 3
22.180126190185547 -4.541386604309082 5.817020893096924 0.40555599331855774 0 3
21.844608306884766 -4.677363395690918 5.739807605743408 0.24846382439136505 0 3
21.122020721435547 -4.721327781677246 5.560852527618408 0.4881635308265686 0 3
20.78362274169922 -4.841943264007568 5.48298454284668 0.49509647488594055 0 3
20.452449798583984 -4.958749771118164 5.407139778137207 0.4974253475666046 0 3
20.116474151611328 -5.068896293640137 5.330124378204346 0.5046079158782959 0 3
19.789588928222656 -5.175879001617432 5.255616188049316 0.5117642879486084 0 3
19.69562530517578 -5.34060525894165 5.243180274963379 0.2480466067790985 0 3
19.644969940185547 -5.516679763793945 5.242671489715576 0.5253917574882507 0 3
19.334228515625 -5.617109298706055 5.172989845275879 0.5324686765670776 0 3
18.927431106567383 -5.683632850646973 5.07759428024292 0.4828464984893799 0 3
18.03325080871582 -5.592080116271973 4.850976467132568 0.4903748631477356 0 3
17.711923599243164 -5.667187213897705 4.778041362762451 0.49785903096199036 0 3
17.398212432861328 -5.739452838897705 4.70711088180542 0.5053107142448425 0 3
17.20621109008789 -5.847880840301514 4.669185161590576 0.822090208530426 0 3
17.249940872192383 -6.03600549697876 4.6955671310424805 0.8174713253974915 0 3
17.021474838256836 -6.128105163574219 4.648160934448242 0.5274065732955933 0 3
16.734745025634766 -6.195116996765137 4.584861755371094 0.5346879959106445 0 3
16.45572280883789 -6.260332107543945 4.523635387420654 0.541925311088562 0 3
16.255126953125 -6.351611137390137 4.483977794647217 0.7979653477668762 0 3
16.107860565185547 -6.461308479309082 4.45917272567749 0.5562692880630493 0 3
15.846786499023438 -6.522314071655273 4.402930736541748 0.5633749961853027 0 3
15.592206954956055 -6.581806659698486 4.3484392166137695 0.570435106754303 0 3
15.343828201293945 -6.639823913574219 4.295614719390869 0.57744961977005 0 3
14.924609184265137 -6.618124961853027 4.1947150230407715 0.5844188928604126 0 3
14.690634727478027 -6.672792911529541 4.145620822906494 0.591339647769928 0 3
14.462050437927246 -6.72619104385376 4.097985744476318 0.5982135534286499 0 3
14.238622665405273 -6.778378963470459 4.051757335662842 0.6050390005111694 0 3
14.02016544342041 -6.829423904418945 4.006870746612549 0.6118165850639343 0 3
13.80648422241211 -6.879335880279541 3.963289737701416 0.6185442805290222 0 3
13.625048637390137 -6.942294597625732 3.928933620452881 0.848404049873352 0 3
13.472030639648438 -7.017343521118164 3.9028215408325195 0.5022273063659668 0 3
13.245829582214355 -7.051396369934082 3.855473041534424 0.5083951950073242 0 3
13.025214195251465 -7.084736347198486 3.8096184730529785 0.514514684677124 0 3
12.80997085571289 -7.117362976074219 3.7651922702789307 0.5205851793289185 0 3
12.534111022949219 -7.112109184265137 3.7027299404144287 0.21248236298561096 0 3
12.35831069946289 -7.159726619720459 3.6696324348449707 0.6036479473114014 0 3
12.215693473815918 -7.224316120147705 3.646388530731201 0.6074957251548767 0 3
12.069647789001465 -7.28494119644165 3.62216854095459 0.6767966151237488 0 3
11.89467716217041 -7.32580041885376 3.589247465133667 0.6830039024353027 0 3
11.72281265258789 -7.365927696228027 3.5572009086608887 0.6891571879386902 0 3
11.554033279418945 -7.405322074890137 3.526005744934082 0.6952540278434753 0 3
11.388134956359863 -7.444062232971191 3.4956328868865967 0.7012950778007507 0 3
11.225058555603027 -7.482119083404541 3.4660515785217285 0.7072799801826477 0 3
11.064697265625 -7.51956033706665 3.4372429847717285 0.7132081985473633 0 3
10.906982421875 -7.556376934051514 3.409182548522949 0.7190788984298706 0 3
10.75179672241211 -7.592587947845459 3.381842613220215 0.7248919606208801 0 3
10.599072456359863 -7.628222465515137 3.3552050590515137 0.7306467890739441 0 3
10.448720932006836 -7.663310527801514 3.3292534351348877 0.73634272813797 0 3
10.300673484802246 -7.697841644287109 3.3039586544036865 0.7419798374176025 0 3
10.154824256896973 -7.731884479522705 3.2793078422546387 0.7475572228431702 0 3
10.01113224029541 -7.76540994644165 3.255284309387207 0.7530741095542908 0 3
9.869502067565918 -7.798466682434082 3.231868267059326 0.758530855178833 0 3
9.72989273071289 -7.831025123596191 3.2090399265289307 0.7639267444610596 0 3
9.592236518859863 -7.863134384155273 3.186785936355591 0.769260585308075 0 3
9.456474304199219 -7.894794940948486 3.165095090866089 0.7745330333709717 0 3
9.322500228881836 -7.92605447769165 3.1439452171325684 0.7797433733940125 0 3
9.19033145904541 -7.956874847412109 3.1233274936676025 0.7848905324935913 0 3
9.059844017028809 -7.987314224243164 3.1032257080078125 0.7899748682975769 0 3
8.665419578552246 -7.778905868530273 2.9919183254241943 0.7949957251548767 0 3
8.541982650756836 -7.807694911956787 2.9733800888061523 0.7999527454376221 0 3
8.420048713684082 -7.836122989654541 2.955303192138672 0.8048455119132996 0 3
8.299590110778809 -7.864208698272705 2.9376819133758545 0.8096736073493958 0 3
8.2294921875 -7.939159870147705 2.9379711151123047 0.5262618660926819 0 3
8.272890090942383 -8.125654220581055 2.979384183883667 0.5189468860626221 0 3
16.61465835571289 16.61465835571289 5.830961227416992 0.3140338361263275 0 9
16.947011947631836 16.64546775817871 5.894922256469727 0.31062638759613037 0 9
17.287607192993164 16.67780303955078 5.961084842681885 0.3071788251399994 0 9
17.636816024780273 16.711669921875 6.02952766418457 0.3036918640136719 0 9
17.99504852294922 16.747129440307617 6.1003642082214355 0.300165593624115 0 9
20.078182220458984 15.287519454956055 6.262524127960205 0.05126357078552246 0 9
20.90858268737793 15.62533187866211 6.477524280548096 0.049562081694602966 0 9
16.62269401550293 0.07460937649011612 4.125137805938721 0.9015325307846069 0 6
25.398954391479492 -3.3244824409484863 6.35678768157959 0.4091576933860779 0 3
24.91355323791504 -3.4886815547943115 6.242888450622559 0.4166225790977478 0 3
24.44475555419922 -3.647040843963623 6.133370876312256 0.42406165599823 0 3
24.004364013671875 -3.8019042015075684 6.031191825866699 0.214641273021698 0 3
23.57137680053711 -3.950507640838623 5.931072235107422 0.4431059956550598 0 3
23.452627182006836 -4.147382736206055 5.9103240966796875 0.8920657634735107 0 3
23.16819190979004 -4.311884880065918 5.84815788269043 0.3904368281364441 0 3
22.68807601928711 -4.433583736419678 5.7367844581604 0.24060820043087006 0 3
22.36847686767578 -4.579960823059082 5.666135787963867 0.40633806586265564 0 3
21.900556564331055 -4.689326286315918 5.558044910430908 0.41424044966697693 0 3
21.450098037719727 -4.794658184051514 5.454433917999268 0.422109454870224 0 3
20.93317413330078 -4.876806735992432 5.333904266357422 0.48805320262908936 0 3
20.583446502685547 -4.99050760269165 5.255990028381348 0.49529001116752625 0 3
20.47820281982422 -5.160068035125732 5.240736484527588 0.24018973112106323 0 3
20.415048599243164 -5.339453220367432 5.236624240875244 0.5090997219085693 0 3
20.083797454833984 -5.445859432220459 5.1639862060546875 0.5162610411643982 0 3
19.76127815246582 -5.54931640625 5.093662738800049 0.5233883261680603 0 3
19.48604393005371 -5.661201000213623 5.035618782043457 0.4762170910835266 0 3
18.929901123046875 -5.684384822845459 4.904887676239014 0.4837897717952728 0 3
18.03557586669922 -5.592782974243164 4.685969352722168 0.4913339614868164 0 3
17.71415901184082 -5.667910099029541 4.615505695343018 0.4988338053226471 0 3
