ply
format ascii 1.0
element vertex 596
property float32 x
property float32 y
property float32 z
property float32 CosAngle
property uint32 ObjIdx
property uint32 ObjTag
end_header
12.203531265258789 -6.218017578125 0.28237807750701904 0.18182818591594696 0 9
12.155802726745605 -6.331777095794678 0.28257766366004944 0.15379497408866882 0 9
12.38964557647705 -6.595624923706055 0.2893774211406708 0.8597275614738464 0 9
12.491315841674805 -6.794355392456055 0.2931649684906006 0.8386252522468567 0 9
12.483177185058594 -6.935849666595459 0.294422447681427 0.8350411057472229 0 9
10.450966835021973 -5.930097579956055 0.2477404773235321 0.7017075419425964 0 9
10.310986518859863 -5.973652362823486 0.2456846535205841 0.7075828909873962 0 9
10.203226089477539 -6.03420877456665 0.24439696967601776 0.841133713722229 0 9
10.098246574401855 -6.095126628875732 0.24318145215511322 0.8453323245048523 0 9
9.993988037109375 -6.155253887176514 0.24199233949184418 0.8371474742889404 0 9
9.888877868652344 -6.213632583618164 0.24078719317913055 0.8413344621658325 0 9
9.808237075805664 -6.286455154418945 0.24018828570842743 0.9705711603164673 0 9
9.736831665039062 -6.364706993103027 0.23982924222946167 0.9720251560211182 0 9
9.665633201599121 -6.442734241485596 0.23949050903320312 0.9734005928039551 0 9
9.594635963439941 -6.520546913146973 0.23917190730571747 0.9746971130371094 0 9
9.53472900390625 -6.605712890625 0.23914718627929688 0.9922727942466736 0 9
9.485918045043945 -6.698700904846191 0.23941954970359802 0.9911363124847412 0 9
9.436986923217773 -6.791913986206055 0.239715576171875 0.9899197220802307 0 9
9.387944221496582 -6.885361194610596 0.24003158509731293 0.9886236190795898 0 9
9.337494850158691 -6.978105545043945 0.24033141136169434 0.9865850210189819 0 9
9.270453453063965 -7.058574199676514 0.24022674560546875 0.98701411485672 0 9
9.203471183776855 -7.138964653015137 0.24014128744602203 0.9873634576797485 0 9
9.1365327835083 -7.219335556030273 0.24007797241210938 0.9876672625541687 0 9
9.0696382522583 -7.299657821655273 0.24003127217292786 0.9878556132316589 0 9
9.002763748168945 -7.379970550537109 0.24000351130962372 0.9879641532897949 0 9
8.937685012817383 -7.461747646331787 0.24004606902599335 0.9900283217430115 0 9
8.873395919799805 -7.544267177581787 0.24012847244739532 0.9896877408027649 0 9
8.808772087097168 -7.626601219177246 0.240223228931427 0.9903566241264343 0 9
8.740046501159668 -7.705390453338623 0.24022430181503296 0.9903475046157837 0 9
8.671303749084473 -7.784257411956787 0.2402462661266327 0.9902583956718445 0 9
8.602553367614746 -7.863114833831787 0.24028778076171875 0.9900892972946167 0 9
8.533783912658691 -7.94201135635376 0.2403469830751419 0.9898403286933899 0 9
8.464967727661133 -8.020947456359863 0.24042846262454987 0.989511251449585 0 9
8.396108627319336 -8.099950790405273 0.24052749574184418 0.9891023635864258 0 9
8.42086124420166 -8.2710542678833 0.24335357546806335 0.3855191171169281 0 9
21.430683135986328 21.430673599243164 0.3748762309551239 0.5202004313468933 0 9
6.745195388793945 6.625146389007568 0.1169445738196373 0.6874092221260071 1053 8
6.811115741729736 6.57082986831665 0.11706084758043289 0.7217337489128113 1053 8
6.811479568481445 6.454150199890137 0.1160665899515152 0.7279155254364014 1053 8
6.717031002044678 6.251191139221191 0.1135084480047226 0.6788983941078186 1053 6
6.812180042266846 6.226582050323486 0.11415557563304901 0.7401034235954285 1053 8
6.812521934509277 6.115566253662109 0.11323623359203339 0.7461081743240356 1053 8
6.751696586608887 5.952392578125 0.1113334596157074 0.6532637476921082 1053 8
14.067819595336914 12.179814338684082 0.23016081750392914 0.3771480321884155 0 9
22.597074508666992 19.21220588684082 0.366869181394577 0.617389440536499 0 9
22.73931312561035 18.984140396118164 0.36639875173568726 0.6025004386901855 0 9
22.801063537597656 18.690946578979492 0.364675909280777 0.44078370928764343 0 9
22.823530197143555 18.369335174560547 0.36238402128219604 0.3508049547672272 0 9
22.81821060180664 18.02996063232422 0.35971084237098694 0.35340750217437744 0 9
22.813039779663086 17.695585250854492 0.35711410641670227 0.3559803366661072 0 9
22.807994842529297 17.36601448059082 0.35458189249038696 0.3585238456726074 0 9
22.80307388305664 17.0411319732666 0.35211241245269775 0.36103737354278564 0 9
22.798274993896484 16.720741271972656 0.34970763325691223 0.36352109909057617 0 9
22.793596267700195 16.404766082763672 0.3473617434501648 0.3659746050834656 0 9
22.789037704467773 16.092958450317383 0.3450767397880554 0.36839771270751953 0 9
22.687868118286133 15.718222618103027 0.34139618277549744 0.3408021330833435 0 9
24.211576461791992 15.517997741699219 0.3557073771953583 0.941078245639801 0 9
21.72892951965332 13.653203010559082 0.3174206614494324 0.28597959876060486 0 9
21.6668701171875 13.344432830810547 0.3147503733634949 0.9745969176292419 0 9
21.79911994934082 13.157470703125 0.31494370102882385 0.6732614636421204 0 9
45.68799591064453 20.259735107421875 0.6181831359863281 0.9152823090553284 0 3
45.689510345458984 19.771581649780273 0.6157795786857605 0.9188581705093384 0 3
45.69101333618164 19.287216186523438 0.6134446859359741 0.9223597645759583 0 3
45.692508697509766 18.80644416809082 0.6111711263656616 0.9257872104644775 0 3
45.69398880004883 18.329179763793945 0.6089649796485901 0.9291396737098694 0 3
45.40281677246094 17.740957260131836 0.6029371619224548 0.9324184656143188 0 3
46.38872146606445 17.647890090942383 0.6139051914215088 0.35262274742126465 0 3
44.354007720947266 14.631903648376465 0.5776936411857605 0.9504949450492859 0 3
44.355369567871094 14.192167282104492 0.5760371088981628 0.9532433748245239 0 3
44.356727600097656 13.754980087280273 0.5744236707687378 0.9559126496315002 0 3
44.358070373535156 13.320165634155273 0.5728697180747986 0.9585055708885193 0 3
44.359413146972656 12.887636184692383 0.5713697671890259 0.9610214233398438 0 3
44.36074447631836 12.457343101501465 0.5699223279953003 0.963459849357605 0 3
44.36207580566406 12.029159545898438 0.5685328841209412 0.9658204913139343 0 3
44.3633918762207 11.603066444396973 0.567188560962677 0.9681035876274109 0 3
44.36471176147461 11.178974151611328 0.5659074187278748 0.9703085422515869 0 3
44.366024017333984 10.756718635559082 0.5646601915359497 0.9724354147911072 0 3
44.36732482910156 10.33626937866211 0.5634788274765015 0.974483847618103 0 3
44.368621826171875 9.917558670043945 0.5623368620872498 0.9764537811279297 0 3
44.36991500854492 9.500516891479492 0.5612596273422241 0.9783449769020081 0 3
44.3712043762207 9.08504867553711 0.5602146983146667 0.9801573753356934 0 3
44.37248992919922 8.671073913574219 0.5592292547225952 0.9818907380104065 0 3
44.37377166748047 8.258544921875 0.5582850575447083 0.9835450649261475 0 3
44.37504959106445 7.847343444824219 0.5573957562446594 0.9851201772689819 0 3
44.37632369995117 7.437431335449219 0.5565516352653503 0.9866158962249756 0 3
44.37759017944336 7.028720378875732 0.5557502508163452 0.9880321621894836 0 3
44.37885665893555 6.621161937713623 0.5550007224082947 0.9893687963485718 0 3
44.38011932373047 6.214648246765137 0.5542905926704407 0.9906256794929504 0 3
44.38138198852539 5.809160232543945 0.5536384582519531 0.9918023347854614 0 3
44.38263702392578 5.404589653015137 0.5530259609222412 0.9929000735282898 0 3
45.467220306396484 5.122949123382568 0.5659440755844116 0.10885865986347198 0 3
44.63511657714844 4.623847484588623 0.5550517439842224 0.994854748249054 0 3
44.92929458618164 4.247060298919678 0.5582121014595032 0.9957118630409241 0 3
44.93056106567383 3.8405957221984863 0.5577744841575623 0.9964883923530579 0 3
37.36670684814453 2.8564746379852295 0.46353834867477417 0.6675747632980347 0 6
44.93309020996094 3.029472589492798 0.5570411682128906 0.9978007674217224 0 3
44.93435287475586 2.624628782272339 0.5567442178726196 0.9983363151550293 0 3
44.93561553955078 2.2201855182647705 0.5564872622489929 0.9987914562225342 0 3
44.9368782043457 1.8160547018051147 0.5562800765037537 0.9991661310195923 0 3
44.938133239746094 1.4122265577316284 0.5561164617538452 0.9994602799415588 0 3
44.93939971923828 1.008583903312683 0.555998682975769 0.9996739625930786 0 3
44.94065856933594 0.6050976514816284 0.5559251308441162 0.9998070597648621 0 3
44.941917419433594 0.2017187476158142 0.5558958053588867 0.9998595714569092 0 3
44.94317626953125 -0.20172850787639618 0.5559101700782776 0.9998315572738647 0 3
44.25725555419922 -0.5959277153015137 0.547474205493927 0.4337226152420044 0 9
43.94639587402344 -0.9863476157188416 0.5437150597572327 0.29592469334602356 0 9
43.47495651245117 -1.3662694692611694 0.5380113124847412 0.29906123876571655 0 9
43.013389587402344 -1.7383495569229126 0.5324687361717224 0.3021729588508606 0 9
42.56131362915039 -2.1028904914855957 0.5270826816558838 0.30525949597358704 0 9
42.1183967590332 -2.460146427154541 0.5218574404716492 0.30832037329673767 0 9
41.68425369262695 -2.810429573059082 0.5167664885520935 0.31135571002960205 0 9
41.2380256652832 -3.152421712875366 0.511561393737793 0.30644258856773376 0 9
44.954559326171875 -3.8426952362060547 0.5580772161483765 0.9959565997123718 0 3
42.407196044921875 -4.008671760559082 0.5268742442131042 0.8849223852157593 0 9
41.251914978027344 -4.273378849029541 0.5129768252372742 0.9018313884735107 0 9
40.6014404296875 -4.574716567993164 0.5053776502609253 0.5699237585067749 0 9
41.04092788696289 -4.997656345367432 0.5113853216171265 0.6488006711006165 0 9
40.823402404785156 -5.343437194824219 0.5092555284500122 0.7631324529647827 0 9
39.52150344848633 -5.534286975860596 0.4936128258705139 0.40057507157325745 0 9
35.72726058959961 -5.330380916595459 0.4468013048171997 0.6750388741493225 0 9
34.54995346069336 -5.47219705581665 0.4326765239238739 0.8168013691902161 0 9
34.515174865722656 -5.784716606140137 0.4328745901584625 0.883020281791687 0 9
18.010234832763672 -3.184941291809082 0.22622619569301605 0.9767842292785645 0 6
34.26313400268555 -6.376835823059082 0.43108075857162476 0.5146377682685852 0 9
34.15947341918945 -6.675312519073486 0.4305119216442108 0.7993406653404236 0 9
33.889617919921875 -6.93896484375 0.4278770387172699 0.8042597770690918 0 9
32.59048080444336 -6.978349685668945 0.41224730014801025 0.35758188366889954 0 9
33.00520706176758 -7.377577781677246 0.41831526160240173 0.879568874835968 0 9
11.363408088684082 -2.6473240852355957 0.14425353705883026 0.7452093958854675 0 6
32.49625778198242 -7.878847599029541 0.41359221935272217 0.5934872031211853 0 9
15.149553298950195 -3.8173828125 0.19324371218681335 0.5992200374603271 0 9
15.214146614074707 -3.9792284965515137 0.19451293349266052 0.6874900460243225 0 9
15.272928237915039 -4.141416072845459 0.1957327276468277 0.6832086443901062 0 9
15.332446098327637 -4.3056640625 0.19698378443717957 0.6788727641105652 0 9
15.392722129821777 -4.472031116485596 0.1982661336660385 0.6744828820228577 0 9
14.229618072509766 -4.272988319396973 0.1837727278470993 0.7320040464401245 0 9
15.51563549041748 -4.811406135559082 0.20092818140983582 0.6655417680740356 0 9
14.789328575134277 -4.732099533081055 0.19206786155700684 0.08280330896377563 0 9
14.3743257522583 -4.741952896118164 0.1872216761112213 0.39128920435905457 0 9
21.42006492614746 -7.280126571655273 0.2798313796520233 0.9233364462852478 0 9
13.990513801574707 -4.895527362823486 0.1833367943763733 0.38879358768463135 0 9
6.408203125 -2.30712890625 0.0842437744140625 0.9396825432777405 1063 8
6.411865234375 -2.3736326694488525 0.08456817269325256 0.9365781545639038 1063 8
6.412070274353027 -2.4393651485443115 0.08485641330480576 0.9333984851837158 1063 8
6.412277698516846 -2.505566358566284 0.0851535052061081 0.9301431179046631 1063 8
6.412485122680664 -2.5722265243530273 0.08545897901058197 0.9268132448196411 1063 8
6.412702560424805 -2.6393749713897705 0.08577468991279602 0.9234086275100708 1063 8
6.412914752960205 -2.70703125 0.08609756082296371 0.9199293255805969 1063 8
6.413127422332764 -2.77520489692688 0.08643218874931335 0.9163759350776672 1063 8
6.413347244262695 -2.8439061641693115 0.08677642792463303 0.912749171257019 1063 8
6.410109519958496 -2.9116015434265137 0.08708160370588303 0.9090484976768494 1063 8
12.81319522857666 -5.95934534072876 0.17479003965854645 0.9518591165542603 0 9
12.731424331665039 -6.060898303985596 0.17440901696681976 0.9539349675178528 0 9
12.794988632202148 -6.232646465301514 0.17604109644889832 0.7530758380889893 0 9
12.010628700256348 -5.984550476074219 0.16597945988178253 0.1785370260477066 0 9
12.192028999328613 -6.212158203125 0.16925139725208282 0.4953168034553528 0 9
11.933754920959473 -6.216123104095459 0.1664334088563919 0.15667791664600372 0 9
12.327519416809082 -6.562558650970459 0.1727406233549118 0.4853132665157318 0 9
12.445754051208496 -6.76956033706665 0.1751856952905655 0.25234782695770264 0 9
10.693037986755371 -5.941210746765137 0.15130828320980072 0.10126125812530518 0 9
10.419254302978516 -5.912099361419678 0.1481809914112091 0.703938901424408 0 9
10.284215927124023 -5.958144187927246 0.14701354503631592 0.8390204906463623 0 9
10.178549766540527 -6.019599437713623 0.146270290017128 0.8432878851890564 0 9
10.073954582214355 -6.08043909072876 0.1455453485250473 0.8474863767623901 0 9
9.968266487121582 -6.139404296875 0.14481063187122345 0.839421808719635 0 9
9.866935729980469 -6.19982385635376 0.14414061605930328 0.9704411029815674 0 9
9.795414924621582 -6.278222560882568 0.14391417801380157 0.9719736576080322 0 9
9.724124908447266 -6.356386661529541 0.14369766414165497 0.9734277725219727 0 9
9.653038024902344 -6.434326171875 0.1434944123029709 0.9748033881187439 0 9
9.591562271118164 -6.518446922302246 0.1434449702501297 0.9991145730018616 0 9
9.53616714477539 -6.606689453125 0.14349807798862457 0.9987480640411377 0 9
9.485835075378418 -6.698632717132568 0.14363890886306763 0.9912796020507812 0 9
9.436906814575195 -6.791835784912109 0.14381667971611023 0.9900628328323364 0 9
9.387861251831055 -6.88528299331665 0.14400435984134674 0.9887664914131165 0 9
9.32702350616455 -6.970273494720459 0.14402282238006592 0.9878267049789429 0 9
9.260063171386719 -7.050644397735596 0.14396286010742188 0.9882914423942566 0 9
9.193171501159668 -7.13097620010376 0.14391067624092102 0.9886394143104553 0 9
9.126322746276855 -7.211240291595459 0.14387419819831848 0.9889075756072998 0 9
9.059501647949219 -7.291474342346191 0.14384399354457855 0.98909592628479 0 9
8.993212699890137 -7.372118949890137 0.14383849501609802 0.9913836717605591 0 9
8.929025650024414 -7.454501628875732 0.1438746601343155 0.9911229610443115 0 9
8.864802360534668 -7.536942958831787 0.14392562210559845 0.9907822012901306 0 9
8.800127029418945 -7.619091510772705 0.14397917687892914 0.9914649724960327 0 9
8.731462478637695 -7.697812557220459 0.14398178458213806 0.9914559125900269 0 9
8.662785530090332 -7.776591777801514 0.14399413764476776 0.9913666844367981 0 9
8.594103813171387 -7.855380535125732 0.1440190076828003 0.9911975860595703 0 9
8.525400161743164 -7.934189319610596 0.14405547082424164 0.990948498249054 0 9
8.456652641296387 -8.013056755065918 0.14410141110420227 0.9906195998191833 0 9
8.444091796875 -8.146230697631836 0.14512908458709717 0.38788530230522156 0 9
8.519047737121582 -8.367470741271973 0.14770278334617615 0.38112756609916687 0 9
21.1151065826416 21.1151065826416 0.12310989201068878 0.45585599541664124 0 9
21.33757209777832 20.957910537719727 0.12330642342567444 0.4551341235637665 0 9
6.810778617858887 6.570517539978027 0.03901657089591026 0.7218185067176819 1053 8
6.811142444610596 6.453837871551514 0.0386839285492897 0.7280012369155884 1053 8
6.716872215270996 6.251054763793945 0.03783584386110306 0.6789601445198059 1053 6
6.811848163604736 6.226288795471191 0.03804733231663704 0.7401897311210632 1053 8
6.81219482421875 6.115283012390137 0.03774246200919151 0.7461947798728943 1053 8
6.765041351318359 5.964159965515137 0.037182919681072235 0.6520190238952637 1053 8
14.065115928649902 12.177460670471191 0.07670364528894424 0.37724608182907104 0 9
22.363807678222656 19.01387596130371 0.12102431803941727 0.44274649024009705 0 9
22.362010955810547 18.66914939880371 0.12010177224874496 0.35283827781677246 0 9
22.36007308959961 18.329452514648438 0.11920211464166641 0.3554990291595459 0 9
22.358182907104492 17.99480438232422 0.11832732707262039 0.35813063383102417 0 9
22.356332778930664 17.66499900817871 0.11747238039970398 0.3607332408428192 0 9
22.354537963867188 17.33993148803711 0.11664367467164993 0.3633063733577728 0 9
22.3527774810791 17.01942253112793 0.11583022773265839 0.3658500909805298 0 9
22.351051330566406 16.703319549560547 0.11503585427999496 0.36836400628089905 0 9
22.34937858581543 16.391551971435547 0.1142660528421402 0.37084779143333435 0 9
22.347747802734375 16.083866119384766 0.11351699382066727 0.3733014464378357 0 9
22.3326416015625 15.77065372467041 0.11271316558122635 0.34407952427864075 0 9
24.208887100219727 15.516279220581055 0.11854827404022217 0.9412440061569214 0 9
21.720714569091797 13.64803695678711 0.10576049238443375 0.28610721230506897 0 9
21.664276123046875 13.3428316116333 0.10489989817142487 0.9747797846794128 0 9
21.796161651611328 13.155693054199219 0.10496276617050171 0.6733983159065247 0 9
45.39210891723633 20.618026733398438 0.2055436670780182 0.9117307662963867 0 3
45.39363098144531 20.129188537597656 0.20472487807273865 0.9153802394866943 0 3
45.3951416015625 19.64419937133789 0.2039283663034439 0.9189561605453491 0 3
45.39664077758789 19.1629581451416 0.2031526118516922 0.9224581122398376 0 3
45.398128509521484 18.68526268005371 0.20240889489650726 0.9258857369422913 0 3
45.39960861206055 18.211063385009766 0.2016720473766327 0.9292388558387756 0 3
45.40107345581055 17.740243911743164 0.20096373558044434 0.9325167536735535 0 3
46.3885383605957 17.647830963134766 0.2046261578798294 0.3526480793952942 0 3
44.35234451293945 14.631327629089355 0.19255034625530243 0.9505961537361145 0 3
44.35370635986328 14.191630363464355 0.1919931024312973 0.9533429741859436 0 3
44.35506820678711 13.7544527053833 0.19145843386650085 0.9560133218765259 0 3
44.35641860961914 13.3196382522583 0.1909414678812027 0.9586065411567688 0 3
44.35776138305664 12.887138366699219 0.19044113159179688 0.9611225724220276 0 3
44.359100341796875 12.456865310668945 0.18995803594589233 0.9635610580444336 0 3
44.36042785644531 12.028691291809082 0.18949156999588013 0.9659219980239868 0 3
44.36175537109375 11.60262680053711 0.18904617428779602 0.9682050943374634 0 3
44.363075256347656 11.17855453491211 0.1886151134967804 0.9704102277755737 0 3
44.364383697509766 10.756327629089355 0.1882077008485794 0.9725372195243835 0 3
44.36569595336914 10.335888862609863 0.18780791759490967 0.9745858907699585 0 3
44.367000579833984 9.917206764221191 0.1874290406703949 0.9765558838844299 0 3
44.36829376220703 9.500175476074219 0.18707138299942017 0.9784471988677979 0 3
44.369590759277344 9.084707260131836 0.1867234706878662 0.9802597165107727 0 3
44.37087631225586 8.67074203491211 0.18639159202575684 0.9819932579994202 0 3
44.37215805053711 8.258241653442383 0.18607604503631592 0.9836477041244507 0 3
44.373435974121094 7.847060203552246 0.18578001856803894 0.9852228164672852 0 3
44.37471389770508 7.437158107757568 0.18550048768520355 0.9867187738418579 0 3
44.37598419189453 7.028466701507568 0.18523651361465454 0.988135039806366 0 3
44.377254486083984 6.620917797088623 0.1849810779094696 0.9894717335700989 0 3
44.37852096557617 6.214423656463623 0.1847526580095291 0.9907287359237671 0 3
44.37977981567383 5.808945178985596 0.18452759087085724 0.9919059872627258 0 3
44.381038665771484 5.404375076293945 0.18432341516017914 0.9930031299591064 0 3
45.46664810180664 5.122870922088623 0.18863753974437714 0.10886743664741516 0 3
44.63351058959961 4.623672008514404 0.18500030040740967 0.9949585199356079 0 3
44.63477325439453 4.219228267669678 0.18484465777873993 0.9958152174949646 0 3
44.63603591918945 3.815419912338257 0.1846989393234253 0.9965919256210327 0 3
37.36309814453125 2.856201171875 0.154490664601326 0.6676846146583557 0 6
44.6385498046875 3.0096189975738525 0.18445540964603424 0.997904360294342 0 3
44.63980484008789 2.607412099838257 0.18435348570346832 0.9984399080276489 0 3
44.64105987548828 2.205625057220459 0.18427123129367828 0.9988950490951538 0 3
44.64231491088867 1.8041601181030273 0.1842033416032791 0.9992697834968567 0 3
44.64356231689453 1.4029589891433716 0.18415023386478424 0.999563992023468 0 3
44.64481735229492 1.0019824504852295 0.18411101400852203 0.9997776746749878 0 3
44.64607238769531 0.601123034954071 0.18408721685409546 0.9999107122421265 0 3
44.64732360839844 0.20039062201976776 0.1840774565935135 0.9999632239341736 0 3
43.81668472290039 -0.19666992127895355 0.18065154552459717 0.29689255356788635 0 9
43.34797286987305 -0.5836816430091858 0.1787327527999878 0.3000786006450653 0 9
44.65107727050781 -1.0021581649780273 0.18413497507572174 0.9996374845504761 0 3
44.6523323059082 -1.4032909870147705 0.18418791890144348 0.9993677735328674 0 3
44.65358352661133 -1.8046581745147705 0.18424484133720398 0.9990175366401672 0 3
44.654842376708984 -2.2063183784484863 0.18433304131031036 0.9985868334770203 0 3
44.656097412109375 -2.608388662338257 0.18442398309707642 0.9980756640434265 0 3
44.657352447509766 -3.0108983516693115 0.18453063070774078 0.9974840879440308 0 3
44.65861129760742 -3.4139158725738525 0.18465682864189148 0.9968121647834778 0 3
44.65987014770508 -3.817499876022339 0.1847975105047226 0.9960601329803467 0 3
42.23487091064453 -3.992382764816284 0.17490386962890625 0.7503105401992798 0 9
41.38334274291992 -4.287011623382568 0.17152495682239532 0.8990284204483032 0 9
40.94948196411133 -4.613945007324219 0.16989639401435852 0.6509785652160645 0 9
40.840999603271484 -4.973378658294678 0.1695874035358429 0.9129058718681335 0 9
40.90336990356445 -5.353915691375732 0.17007414996623993 0.31041672825813293 0 9
39.460853576660156 -5.525800704956055 0.16427825391292572 0.6535384654998779 0 9
35.43344497680664 -5.286542892456055 0.1477014124393463 0.7299383878707886 0 9
35.56004333496094 -5.632158279418945 0.14843551814556122 0.7263365387916565 0 9
34.62749099731445 -5.803534984588623 0.14475539326667786 0.8802159428596497 0 9
18.00845718383789 -3.184648275375366 0.07539641857147217 0.976947009563446 0 6
34.451934814453125 -6.411972522735596 0.14447569847106934 0.5118523836135864 0 9
34.16321563720703 -6.676034927368164 0.14350982010364532 0.34378549456596375 0 9
33.464256286621094 -6.851894378662109 0.14082901179790497 0.7012540698051453 0 9
32.626495361328125 -6.986064434051514 0.13755996525287628 0.6261335015296936 0 9
32.50243377685547 -7.265204906463623 0.1373080462217331 0.35787150263786316 0 9
11.36251449584961 -2.6471190452575684 0.04812637344002724 0.7453186511993408 0 6
32.84622573852539 -7.963700771331787 0.139342799782753 0.9061833024024963 0 9
32.67939376831055 -8.23452091217041 0.13894271850585938 0.6092630624771118 0 9
15.288674354553223 -3.998720645904541 0.06515152007341385 0.5924407243728638 0 9
15.376605033874512 -4.169531345367432 0.06568435579538345 0.6786483526229858 0 9
15.437195777893066 -4.335087776184082 0.06610702723264694 0.6743120551109314 0 9
15.498566627502441 -4.502783298492432 0.06654021888971329 0.6699219346046448 0 9
15.560752868652344 -4.672705173492432 0.06698425114154816 0.665477991104126 0 9
15.106060028076172 -4.684394359588623 0.06520690768957138 0.3132021129131317 0 9
14.331768035888672 -4.585693359375 0.06203857436776161 0.27539968490600586 0 9
14.49040699005127 -4.780253887176514 0.06290878355503082 0.38818079233169556 0 9
14.73377513885498 -5.007587909698486 0.0641574114561081 0.38062283396720886 0 9
14.31235408782959 -5.008095741271973 0.06251510232686996 0.7851436734199524 0 9
6.415378093719482 -2.309706926345825 0.02811019867658615 0.30813318490982056 1063 8
6.41162109375 -2.37353515625 0.02818649262189865 0.9366774559020996 1063 8
6.411826133728027 -2.439267635345459 0.028282471001148224 0.9334974884986877 1063 8
6.412033557891846 -2.5054588317871094 0.028382262215018272 0.9302421808242798 1063 8
6.412240982055664 -2.5721189975738525 0.028483428061008453 0.9269118905067444 1063 8
6.412453651428223 -2.6392674446105957 0.02858840860426426 0.9235069155693054 1063 8
6.412663459777832 -2.706913948059082 0.028696592897176743 0.9200276732444763 1063 8
6.412878036499023 -2.775078058242798 0.028807830065488815 0.916474461555481 1063 8
6.413090705871582 -2.8437891006469727 0.028923949226737022 0.9128468036651611 1063 8
6.409855842590332 -2.9114744663238525 0.029024962335824966 0.9091461300849915 1063 8
13.176902770996094 -6.128515720367432 0.0599130243062973 0.7276555895805359 0 9
12.833269119262695 -6.109384536743164 0.058598630130290985 0.7541333436965942 0 9
12.720853805541992 -6.196533203125 0.05833541601896286 0.7575165033340454 0 9
12.04813003540039 -6.003232479095459 0.05549682676792145 0.17799298465251923 0 9
12.058744430541992 -6.144237995147705 0.055798035115003586 0.5008257031440735 0 9
12.123705863952637 -6.31505823135376 0.05635879561305046 0.4958435893058777 0 9
12.142858505249023 -6.464257717132568 0.056713711470365524 0.18107293546199799 0 9
12.588249206542969 -6.847079753875732 0.0590791292488575 0.8323373794555664 0 9
10.52869987487793 -5.849902153015137 0.04966186359524727 0.7001890540122986 0 9
10.387739181518555 -5.894228458404541 0.04924224689602852 0.706122875213623 0 9
10.259278297424316 -5.943691253662109 0.04888458177447319 0.8411166667938232 0 9
10.153992652893066 -6.005077838897705 0.04863845556974411 0.8453841209411621 0 9
10.04806137084961 -6.06481409072876 0.04839080572128296 0.8373826742172241 0 9
9.942686080932617 -6.12365198135376 0.048145294189453125 0.8416386246681213 0 9
9.854031562805176 -6.191728591918945 0.047984618693590164 0.9717774987220764 0 9
9.782625198364258 -6.270039081573486 0.047906797379255295 0.973310112953186 0 9
9.71145248413086 -6.348105430603027 0.04783538728952408 0.9747642874717712 0 9
9.6495943069458 -6.432031154632568 0.04781509190797806 0.9991918206214905 0 9
9.594217300415039 -6.520253658294678 0.04782821610569954 0.9989058375358582 0 9
9.538805961608887 -6.608525276184082 0.04784393310546875 0.9985394477844238 0 9
9.485756874084473 -6.698583602905273 0.047877807170152664 0.9913553595542908 0 9
9.43682861328125 -6.79177713394165 0.04793746769428253 0.9901386499404907 0 9
9.383529663085938 -6.88210916519165 0.04797912389039993 0.9884923696517944 0 9
9.316581726074219 -6.962470531463623 0.04795287922024727 0.9890367984771729 0 9
9.249716758728027 -7.042773246765137 0.04793304204940796 0.989464521408081 0 9
9.182900428771973 -7.123007774353027 0.04791717603802681 0.9898122549057007 0 9
9.116129875183105 -7.203193187713623 0.047902677208185196 0.9900805950164795 0 9
9.049382209777832 -7.283349514007568 0.04789474233984947 0.9902689456939697 0 9
8.984511375427246 -7.364990234375 0.047898102551698685 0.9924108386039734 0 9
8.920388221740723 -7.44729471206665 0.04791061207652092 0.992150068283081 0 9
8.856223106384277 -7.52965784072876 0.04792938008904457 0.9918094873428345 0 9
8.791494369506836 -7.611620903015137 0.04794479161500931 0.9925058484077454 0 9
8.722895622253418 -7.690253734588623 0.04794479161500931 0.9924967885017395 0 9
8.654292106628418 -7.768964767456055 0.047949980944395065 0.9924076199531555 0 9
8.585673332214355 -7.847665786743164 0.04795776307582855 0.992238461971283 0 9
8.517030715942383 -7.926405906677246 0.04797103628516197 0.9919893741607666 0 9
8.467023849487305 -8.022890090942383 0.048092953860759735 0.39019522070884705 0 9
8.541937828063965 -8.24063491821289 0.048936765640974045 0.38346824049949646 0 9
8.619524002075195 -8.466171264648438 0.04981384053826332 0.3767102062702179 0 9
6.810441970825195 6.570175647735596 -0.03901840001344681 0.7218541502952576 1053 8
6.810808181762695 6.453515529632568 -0.03868347033858299 0.7280364632606506 1053 8
6.716711044311523 6.250907897949219 -0.03782638534903526 0.6789762377738953 1053 6
6.8115234375 6.225976467132568 -0.03804733231663704 0.7402252554893494 1053 8
6.811870098114014 6.114980220794678 -0.03774062916636467 0.7462301850318909 1053 8
6.805180549621582 5.99954080581665 -0.03740371763706207 0.5867953300476074 1053 8
14.0624361038208 12.175146102905273 -0.07668869197368622 0.3773179054260254 0 9
24.20618438720703 15.514540672302246 -0.11853881925344467 0.9413493871688843 0 9
21.712501525878906 13.6428804397583 -0.1057228073477745 0.28621548414230347 0 9
21.66168212890625 13.341230392456055 -0.10488616675138474 0.9748964905738831 0 9
21.793237686157227 13.153915405273438 -0.10494659096002579 0.6734889149665833 0 9
45.68443298339844 20.258153915405273 -0.206044003367424 0.9154160618782043 0 3
45.68595504760742 19.770048141479492 -0.2052355855703354 0.9189919829368591 0 3
45.68747329711914 19.285722732543945 -0.20445281267166138 0.9224939942359924 0 3
45.68898010253906 18.804988861083984 -0.20369979739189148 0.9259214997291565 0 3
45.69047164916992 18.327743530273438 -0.20296461880207062 0.9292745590209961 0 3
45.69195556640625 17.85391616821289 -0.2022515833377838 0.9325525760650635 0 3
46.38838577270508 17.647764205932617 -0.2046211212873459 0.3526492714881897 0 3
44.643348693847656 14.7273530960083 -0.19380386173725128 0.9506317377090454 0 3
44.64473342895508 14.284735679626465 -0.19325591623783112 0.9533789753913879 0 3
44.64610290527344 13.844706535339355 -0.1927143782377243 0.9560491442680359 0 3
44.64746856689453 13.407050132751465 -0.19219298660755157 0.9586423635482788 0 3
44.648826599121094 12.971689224243164 -0.19169020652770996 0.9611583948135376 0 3
44.65018081665039 12.538602828979492 -0.19120635092258453 0.9635969996452332 0 3
44.65152359008789 12.10765552520752 -0.19074127078056335 0.9659578204154968 0 3
44.65285873413086 11.678778648376465 -0.19028854370117188 0.9682409167289734 0 3
44.65419006347656 11.251874923706055 -0.1898544281721115 0.9704461693763733 0 3
44.655517578125 10.826923370361328 -0.18943969905376434 0.9725730419158936 0 3
44.65683364868164 10.403739929199219 -0.1890394538640976 0.974621593952179 0 3
44.65814971923828 9.982284545898438 -0.18866392970085144 0.9765917062759399 0 3
44.65945816040039 9.562519073486328 -0.18829971551895142 0.9784830212593079 0 3
44.66075897216797 9.144335746765137 -0.18794754147529602 0.9802955389022827 0 3
44.66205978393555 8.727675437927246 -0.18761809170246124 0.9820290207862854 0 3
44.66335678100586 8.312451362609863 -0.18730895221233368 0.9836835861206055 0 3
44.66464614868164 7.898564338684082 -0.18700316548347473 0.9852587580680847 0 3
44.665931701660156 7.485976219177246 -0.1867234706878662 0.9867545962333679 0 3
44.59201431274414 7.062685489654541 -0.18613524734973907 0.9881709218025208 0 3
44.59329605102539 6.653144359588623 -0.18588286638259888 0.9895076155662537 0 3
44.59456253051758 6.244687557220459 -0.1856520026922226 0.9907644987106323 0 3
44.67103958129883 5.847089767456055 -0.18574462831020355 0.9919416904449463 0 3
44.67230987548828 5.439863204956055 -0.1855345070362091 0.9930388331413269 0 3
45.46615982055664 5.122812271118164 -0.18863357603549957 0.10886859893798828 0 3
44.9247932434082 4.653857231140137 -0.18620818853378296 0.9949942231178284 0 3
44.92606735229492 4.246767520904541 -0.1860496550798416 0.9958510398864746 0 3
44.92733383178711 3.84033203125 -0.18590164184570312 0.9966277480125427 0 3
37.359493255615234 2.855908155441284 -0.15447601675987244 0.6677490472793579 0 6
44.92987060546875 3.0292675495147705 -0.18565703928470612 0.9979401230812073 0 3
44.93113708496094 2.624453067779541 -0.18556106090545654 0.9984757304191589 0 3
44.93239974975586 2.220019578933716 -0.1854800432920456 0.9989308714866638 0 3
44.93366241455078 1.8159373998641968 -0.1854037493467331 0.9993056654930115 0 3
44.93492126464844 1.4121191501617432 -0.18534789979457855 0.9995998740196228 0 3
44.93618392944336 1.0085351467132568 -0.18531325459480286 0.9998134970664978 0 3
44.93744659423828 0.6050488352775574 -0.18528853356838226 0.9999465346336365 0 3
44.93870544433594 0.20170897245407104 -0.1852787733078003 0.9999990463256836 0 3
44.939964294433594 -0.2017187476158142 -0.18527938425540924 0.9999710321426392 0 3
44.941219329833984 -0.6051464676856995 -0.1853002905845642 0.9998624920845032 0 3
44.94248580932617 -1.008691430091858 -0.18533645570278168 0.9996731877326965 0 3
44.943748474121094 -1.412441372871399 -0.18538802862167358 0.9994034767150879 0 3
44.94500732421875 -1.8164256811141968 -0.18544982373714447 0.9990533590316772 0 3
44.94626998901367 -2.2207226753234863 -0.18553267419338226 0.998622715473175 0 3
44.947532653808594 -2.6254003047943115 -0.18563003838062286 0.9981114864349365 0 3
44.94879913330078 -3.0305469036102295 -0.1857382208108902 0.9975199699401855 0 3
44.9500617980957 -3.4361913204193115 -0.18586745858192444 0.9968479871749878 0 3
44.951332092285156 -3.842411994934082 -0.1860012710094452 0.9960957765579224 0 3
42.49576950073242 -4.017060279846191 -0.1759825050830841 0.7457039952278137 0 9
42.64364242553711 -4.417587757110596 -0.1767570525407791 0.7424578070640564 0 9
41.63503646850586 -4.69119119644165 -0.17273925244808197 0.5490723848342896 0 9
40.74480438232422 -4.961601257324219 -0.16922500729560852 0.31197842955589294 0 9
40.02007293701172 -5.23831033706665 -0.1664041131734848 0.7452397346496582 0 9
40.235355377197266 -5.634267330169678 -0.16750015318393707 0.7403517961502075 0 9
35.65847396850586 -5.320127010345459 -0.14864180982112885 0.7253321409225464 0 9
35.787010192871094 -5.668115139007568 -0.14938659965991974 0.7217300534248352 0 9
35.9168586730957 -6.019658088684082 -0.15014693140983582 0.7180694341659546 0 9
18.006683349609375 -3.184335947036743 -0.07539138942956924 0.977043092250824 0 6
34.048770904541016 -6.336933612823486 -0.14278991520404816 0.3455321788787842 0 9
34.3078727722168 -6.704316139221191 -0.14411894977092743 0.3525351583957672 0 9
33.31052780151367 -6.820409774780273 -0.14018310606479645 0.7044904828071594 0 9
33.50252151489258 -7.173632621765137 -0.1412583887577057 0.6991375684738159 0 9
32.938175201416016 -7.362597465515137 -0.1391535848379135 0.24394747614860535 0 9
11.361616134643555 -2.646923780441284 -0.048092953860759735 0.7453774809837341 0 6
32.706565856933594 -7.929833889007568 -0.13874968886375427 0.6645072102546692 0 9
22.91402244567871 -5.773867130279541 -0.09742751717567444 0.5077574253082275 0 9
15.279013633728027 -3.9961912631988525 -0.06511260569095612 0.5928151607513428 0 9
15.431048393249512 -4.184287071228027 -0.06591766327619553 0.5855729579925537 0 9
15.543375015258789 -4.364902019500732 -0.06656097620725632 0.6697057485580444 0 9
15.605875015258789 -4.533955097198486 -0.06700210273265839 0.665315568447113 0 9
15.669219970703125 -4.705283164978027 -0.06745315343141556 0.6608715057373047 0 9
15.21461009979248 -4.718056678771973 -0.0656750500202179 0.31096720695495605 0 9
14.370157241821289 -4.597978591918945 -0.062204282730817795 0.39257240295410156 0 9
14.608366012573242 -4.819159984588623 -0.06342148035764694 0.3850463926792145 0 9
14.403962135314941 -4.895517349243164 -0.06272262334823608 0.7825692892074585 0 9
14.39898681640625 -5.038408279418945 -0.06289428472518921 0.7804198265075684 0 9
14.39399242401123 -5.182138442993164 -0.063074491918087 0.7782073616981506 0 9
6.407922267913818 -2.3721678256988525 -0.028171692043542862 0.9367135167121887 1063 8
6.411577224731445 -2.4391796588897705 -0.02828262187540531 0.9335334897041321 1063 8
6.411784648895264 -2.50537109375 -0.028381194919347763 0.9302780628204346 1063 8
6.411992073059082 -2.572031259536743 -0.0284840390086174 0.9269475936889648 1063 8
6.412204265594482 -2.639169931411743 -0.028588714078068733 0.9235429167747498 1063 8
6.41241455078125 -2.7068164348602295 -0.02869613654911518 0.9200634956359863 1063 8
6.41262674331665 -2.774980306625366 -0.028808746486902237 0.9165101051330566 1063 8
6.409387111663818 -2.842158079147339 -0.028906553983688354 0.912882387638092 1063 8
13.047892570495605 -5.926640510559082 -0.059083402156829834 0.554866373538971 0 9
13.133398056030273 -6.10827112197876 -0.059718016535043716 0.7300662398338318 0 9
12.759016036987305 -6.074033260345459 -0.05825866386294365 0.7585223913192749 0 9
12.647571563720703 -6.160839557647705 -0.05800125002861023 0.7619054913520813 0 9
12.085856437683105 -6.022040843963623 -0.05567153915762901 0.17743773758411407 0 9
12.161605834960938 -6.19665002822876 -0.056275174021720886 0.3821413218975067 0 9
12.31896686553955 -6.416757583618164 -0.05726562440395355 0.7716861367225647 0 9
12.2112398147583 -6.500654220581055 -0.057033080607652664 0.7748227119445801 0 9
10.701870918273926 -5.821034908294678 -0.05022277683019638 0.07180776447057724 0 9
10.496683120727539 -5.832118988037109 -0.04950607195496559 0.7023249864578247 0 9
10.356416702270508 -5.876454830169678 -0.049090880900621414 0.708258330821991 0 9
10.234467506408691 -5.929326057434082 -0.0487629696726799 0.8431558609008789 0 9
10.12825870513916 -5.989853382110596 -0.04851089417934418 0.8352192640304565 0 9
10.022212982177734 -6.049218654632568 -0.04826034605503082 0.83954256772995 0 9
9.917236328125 -6.107978343963623 -0.04801849275827408 0.8437983393669128 0 9
9.841165542602539 -6.183642387390137 -0.047916870564222336 0.9730477333068848 0 9
9.769877433776855 -6.261865139007568 -0.047840118408203125 0.9745803475379944 0 9
9.707630157470703 -6.345614910125732 -0.047811735421419144 0.9991207122802734 0 9
9.652266502380371 -6.433818340301514 -0.04782211035490036 0.9989151358604431 0 9
9.596877098083496 -6.522060394287109 -0.04783736914396286 0.9986292719841003 0 9
9.541449546813965 -6.610371112823486 -0.04785461351275444 0.9982626438140869 0 9
9.485979080200195 -6.698740005493164 -0.0478750616312027 0.9978158473968506 0 9
9.436745643615723 -6.791728496551514 -0.04793288931250572 0.9901471138000488 0 9
9.373031616210938 -6.874413967132568 -0.04792175069451332 0.9896349906921387 0 9
9.306181907653809 -6.954697132110596 -0.04789626970887184 0.9901424646377563 0 9
9.239394187927246 -7.034912109375 -0.047874756157398224 0.990570068359375 0 9
9.172656059265137 -7.115068435668945 -0.04785705357789993 0.9909180998802185 0 9
9.10595703125 -7.195156097412109 -0.04784515127539635 0.9911863207817078 0 9
9.039868354797363 -7.275702953338623 -0.04783996567130089 0.9935513734817505 0 9
8.975831985473633 -7.357880592346191 -0.0478486604988575 0.9933704733848572 0 9
8.91176700592041 -7.440107345581055 -0.04786041006445885 0.9931098818778992 0 9
8.847662925720215 -7.522372722625732 -0.047878265380859375 0.9927691221237183 0 9
8.782873153686523 -7.604169845581055 -0.047894436866045 0.9934792518615723 0 9
8.714350700378418 -7.682724475860596 -0.047893982380628586 0.9934702515602112 0 9
8.64581298828125 -7.761357307434082 -0.04789901524782181 0.9933810830116272 0 9
8.577262878417969 -7.839980125427246 -0.047907255589962006 0.9932119846343994 0 9
8.508681297302246 -7.918642520904541 -0.04791915789246559 0.9929627776145935 0 9
8.56454849243164 -8.1152925491333 -0.048641663044691086 0.38575220108032227 0 9
8.64206314086914 -8.33724594116211 -0.04950607195496559 0.37902480363845825 0 9
9.047533988952637 -8.88656234741211 -0.0522836297750473 0.3902904689311981 0 9
6.749301433563232 6.511191368103027 -0.11599960178136826 0.4957718253135681 1053 8
6.810471057891846 6.453183650970459 -0.11605086922645569 0.7280231714248657 1053 8
6.716562271118164 6.250751972198486 -0.11348861455917358 0.6789453029632568 1053 6
6.811191082000732 6.225664138793945 -0.1141386404633522 0.7402109503746033 1053 8
6.751269340515137 6.060566425323486 -0.11221877485513687 0.4642954468727112 1053 8
13.798956871032715 12.16543960571289 -0.22754165530204773 0.9918531775474548 0 9
14.059728622436523 12.172821998596191 -0.23003067076206207 0.3773651123046875 0 9
24.203475952148438 15.512802124023438 -0.35558897256851196 0.9413907527923584 0 9
21.704280853271484 13.637704849243164 -0.31705671548843384 0.2863043248653412 0 9
21.659088134765625 13.339638710021973 -0.3146357536315918 0.9749468564987183 0 9
21.790319442749023 13.152128219604492 -0.31481748819351196 0.6735334396362305 0 9
45.68264389038086 20.25737190246582 -0.618113100528717 0.9153895378112793 0 3
45.65842819213867 19.75812530517578 -0.6153556704521179 0.9189682006835938 0 3
45.659950256347656 19.274120330810547 -0.6130340695381165 0.9224669933319092 0 3
45.66145706176758 18.793670654296875 -0.6107508540153503 0.9258913993835449 0 3
45.68871307373047 18.32706069946289 -0.608896017074585 0.9292470216751099 0 3
45.69020462036133 17.853252410888672 -0.6067564487457275 0.9325247406959534 0 3
46.38818359375 17.647705078125 -0.613899827003479 0.3526268005371094 0 3
44.64167022705078 14.72679615020752 -0.5814380049705505 0.9506029486656189 0 3
44.6430549621582 14.284218788146973 -0.5797699093818665 0.953349769115448 0 3
44.644432067871094 13.844188690185547 -0.578154444694519 0.956019937992096 0 3
44.64580535888672 13.4065523147583 -0.5765846371650696 0.9586129188537598 0 3
44.64716720581055 12.971220016479492 -0.5750756859779358 0.961128830909729 0 3
44.64852523803711 12.538164138793945 -0.5736271739006042 0.9635670781135559 0 3
44.649871826171875 12.107187271118164 -0.5722218155860901 0.9659280776977539 0 3
44.65121078491211 11.678339958190918 -0.5708754062652588 0.9682109355926514 0 3
44.65254211425781 11.25146484375 -0.5695763826370239 0.9704158902168274 0 3
44.65386962890625 10.826522827148438 -0.5683311223983765 0.9725426435470581 0 3
44.65519332885742 10.403368949890137 -0.5671351552009583 0.974591076374054 0 3
44.65651321411133 9.981924057006836 -0.5659962296485901 0.9765610694885254 0 3
44.65782928466797 9.562177658081055 -0.5648922324180603 0.9784522652626038 0 3
44.65913009643555 9.144003868103027 -0.5638548135757446 0.9802646040916443 0 3
44.66043472290039 8.727362632751465 -0.562861442565918 0.9819980263710022 0 3
44.6617317199707 8.31216812133789 -0.561915397644043 0.9836523532867432 0 3
44.66302490234375 7.898271083831787 -0.561016857624054 0.9852275848388672 0 3
44.66431427001953 7.485702991485596 -0.5601632595062256 0.9867232441902161 0 3
35.28208923339844 5.588144302368164 -0.44184401631355286 0.03679131343960762 1145 14
44.6411018371582 6.66027307510376 -0.5582760572433472 0.9894760251045227 0 3
44.64237594604492 6.251376628875732 -0.5575738549232483 0.9907329082489014 0 3
44.66943359375 5.846884727478027 -0.5572385787963867 0.991909921169281 0 3
44.67070388793945 5.439667701721191 -0.5566232204437256 0.9930071234703064 0 3
45.46567153930664 5.122753620147705 -0.5659283399581909 0.10886237025260925 0 3
44.92318344116211 4.653681755065918 -0.5586355328559875 0.994962215423584 0 3
44.92445755004883 4.24661111831665 -0.5581502914428711 0.995819091796875 0 3
44.92572021484375 3.8401951789855957 -0.5577175617218018 0.9965957403182983 0 3
37.35590744018555 2.855654239654541 -0.463408499956131 0.6677677035331726 0 6
44.928260803222656 3.0291404724121094 -0.5569842457771301 0.9979080557823181 0 3
44.92953109741211 2.624345541000366 -0.556683361530304 0.9984435439109802 0 3
44.930789947509766 2.2199511528015137 -0.5564332604408264 0.9988986253738403 0 3
44.93205642700195 1.8158690929412842 -0.556223452091217 0.9992734789848328 0 3
44.933319091796875 1.4120702743530273 -0.5560586452484131 0.9995675683021545 0 3
44.93457794189453 1.0084764957427979 -0.5559391379356384 0.9997811317443848 0 3
44.93584060668945 0.6050390601158142 -0.5558598041534424 0.9999142289161682 0 3
44.93709945678711 0.20169921219348907 -0.555836021900177 0.9999668002128601 0 3
44.938358306884766 -0.20170897245407104 -0.5558466911315918 0.9999387264251709 0 3
44.93961715698242 -0.6051269173622131 -0.5559186935424805 0.9998302459716797 0 3
44.94087600708008 -1.0086621046066284 -0.5560199022293091 0.9996410012245178 0 3
44.942138671875 -1.412392497062683 -0.5561659336090088 0.9993712902069092 0 3
44.943397521972656 -1.8163671493530273 -0.5563676357269287 0.9990211725234985 0 3
44.94466018676758 -2.220644474029541 -0.5566003322601318 0.9985905289649963 0 3
44.92012405395508 -2.6238086223602295 -0.5565687417984009 0.9980788826942444 0 3
44.921390533447266 -3.028681516647339 -0.5568966269493103 0.9974878430366516 0 3
44.92265701293945 -3.4341015815734863 -0.5572760105133057 0.9968165755271912 0 3
44.94972229003906 -3.84228515625 -0.5580158829689026 0.996063768863678 0 3
42.559608459472656 -4.023086071014404 -0.5287716388702393 0.7147887349128723 0 9
42.899715423583984 -4.44412088394165 -0.5334707498550415 0.7084916830062866 0 9
41.70351791381836 -4.698905944824219 -0.5190948247909546 0.8100841045379639 0 9
41.69032669067383 -5.076747894287109 -0.5194828510284424 0.8094881772994995 0 9
40.45380401611328 -5.295068264007568 -0.5046433806419373 0.29891765117645264 0 9
40.06022262573242 -5.609745979309082 -0.5003437399864197 0.7435376644134521 0 9
37.98822784423828 -5.667734146118164 -0.4750678837299347 0.38573116064071655 0 9
35.97150421142578 -5.697333812713623 -0.45048201084136963 0.6695307493209839 0 9
34.696495056152344 -5.815107345581055 -0.43515029549598694 0.5051015019416809 0 9
18.004915237426758 -3.1840038299560547 -0.2261621057987213 0.9770727753639221 0 6
34.85934829711914 -6.48779296875 -0.4385821521282196 0.8034792542457581 0 9
34.060543060302734 -6.655986309051514 -0.42926299571990967 0.3550710082054138 0 9
33.34332275390625 -6.827109336853027 -0.4209849536418915 0.8558367490768433 0 9
33.12698745727539 -7.093242168426514 -0.4190694987773895 0.4233415722846985 0 9
33.1017951965332 -7.399159908294678 -0.41954129934310913 0.659280002117157 0 9
11.360722541809082 -2.646718740463257 -0.14430007338523865 0.7453855276107788 0 6
31.97637939453125 -7.752812385559082 -0.4070049822330475 0.3260723650455475 0 9
22.86423683166504 -5.761318206787109 -0.29165342450141907 0.4747754633426666 0 9
22.49578857421875 -5.883710861206055 -0.2876158058643341 0.6719258427619934 0 9
15.421183586120605 -4.181601524353027 -0.1976354867219925 0.5859079957008362 0 9
15.576812744140625 -4.374287128448486 -0.20012420415878296 0.578618586063385 0 9
15.714689254760742 -4.565566539764404 -0.20241378247737885 0.6606638431549072 0 9
21.825668334960938 -6.55398416519165 -0.28187164664268494 0.33442872762680054 0 9
15.324747085571289 -4.752206802368164 -0.19845427572727203 0.3087117075920105 0 9
14.48582649230957 -4.634990215301514 -0.18812544643878937 0.389411062002182 0 9
14.49617862701416 -4.782157897949219 -0.18880751729011536 0.7798783779144287 0 9
14.491436004638672 -4.925243854522705 -0.18931624293327332 0.7777923345565796 0 9
14.486675262451172 -5.069101333618164 -0.18983978033065796 0.7756428718566895 0 9
14.481900215148926 -5.213788986206055 -0.1903839111328125 0.7734306454658508 0 9
6.477619647979736 -2.3979687690734863 -0.08543563634157181 0.24162675440311432 1063 8
6.407880783081055 -2.4377636909484863 -0.08480148017406464 0.933505654335022 1063 8
6.411538124084473 -2.505263566970825 -0.08514571934938431 0.9302505254745483 1063 8
6.411747932434082 -2.5719237327575684 -0.08545013517141342 0.9269202351570129 1063 8
6.4119553565979 -2.6390624046325684 -0.08576537668704987 0.9235156178474426 1063 8
6.41216516494751 -2.7067089080810547 -0.08609039336442947 0.9200363159179688 1063 8
6.408923149108887 -2.773369073867798 -0.0863771066069603 0.916483461856842 1063 8
12.872989654541016 -5.70836877822876 -0.1741798371076584 0.5646370053291321 0 9
12.9722261428833 -5.892275333404541 -0.1762303113937378 0.5580648183822632 0 9
12.797070503234863 -5.951845645904541 -0.174571231007576 0.7594159841537476 0 9
12.685608863830566 -6.03909158706665 -0.17378386855125427 0.7628598213195801 0 9
12.575126647949219 -6.125546932220459 -0.17301620543003082 0.7662427425384521 0 9
12.1238374710083 -6.040956974029541 -0.16754485666751862 0.17686957120895386 0 9
11.967411041259766 -6.097704887390137 -0.1661343276500702 0.15696096420288086 0 9
12.249295234680176 -6.380478382110596 -0.17083542048931122 0.7760227918624878 0 9
12.142452239990234 -6.464042663574219 -0.17014694213867188 0.7791592478752136 0 9
10.618497848510742 -5.775683403015137 -0.1495104879140854 0.6786824464797974 0 9
