ply
format ascii 1.0
element vertex 606
property float32 x
property float32 y
property float32 z
property float32 CosAngle
property uint32 ObjIdx
property uint32 ObjTag
end_header
7.467878341674805 -2.7645506858825684 0.6911709308624268 0.2936045527458191 1050 7
7.472680568695068 -2.8428709506988525 0.6939510703086853 0.9768975973129272 1050 7
7.471081256866455 -2.9192967414855957 0.6962078809738159 0.7776482105255127 1050 7
7.479780197143555 -3.0003514289855957 0.6994991898536682 0.3840479850769043 1050 7
18.579267501831055 -7.64697265625 1.7438591718673706 0.9216473698616028 0 3
18.446849822998047 -7.786816120147705 1.7379207611083984 0.9936720132827759 0 3
18.36615753173828 -7.947734355926514 1.736968994140625 0.9942162036895752 0 3
18.285541534423828 -8.1084566116333 1.7361589670181274 0.9946802258491516 0 3
18.229896545410156 -8.280390739440918 1.737862229347229 0.9581199884414673 0 3
18.20181655883789 -8.465527534484863 1.7423598766326904 0.9556468725204468 0 3
18.14974021911621 -8.640312194824219 1.7447259426116943 0.4339766204357147 0 3
17.74309539794922 -8.64291000366211 1.7130248546600342 0.44200798869132996 0 3
17.35091781616211 -8.645429611206055 1.6825872659683228 0.45000407099723816 0 3
16.903905868530273 -8.61294937133789 1.6466692686080933 0.4503726363182068 0 3
16.53565788269043 -8.613163948059082 1.6182626485824585 0.4582783281803131 0 3
16.179922103881836 -8.6133394241333 1.59095299243927 0.4661451280117035 0 3
15.911478996276855 -8.65462875366211 1.5721343755722046 0.4816206693649292 0 3
15.516376495361328 -8.621112823486328 1.5406566858291626 0.4444446265697479 0 3
15.35824203491211 -8.714550971984863 1.53268301486969 0.4971977174282074 0 3
15.04552173614502 -8.716562271118164 1.5092217922210693 0.5049281716346741 0 3
12.18133544921875 -7.204003810882568 1.2283575534820557 0.9234330058097839 0 3
12.098244667053223 -7.30224609375 1.2265335321426392 0.521030068397522 0 3
11.90213394165039 -7.330410003662109 1.2132729291915894 0.5278671383857727 0 3
11.668684005737305 -7.331913948059082 1.1961376667022705 0.5354296565055847 0 3
11.358254432678223 -7.279862880706787 1.170965552330017 0.8627469539642334 0 3
11.234721183776855 -7.343789100646973 1.1649786233901978 0.8671802282333374 0 3
11.112436294555664 -7.407070159912109 1.1591458320617676 0.8715440034866333 0 3
10.991364479064941 -7.4697265625 1.1534658670425415 0.8758372068405151 0 3
10.85015869140625 -7.517011642456055 1.1456823348999023 0.9810149669647217 0 3
10.879655838012695 -7.682870864868164 1.1560317277908325 0.995819091796875 0 3
10.810014724731445 -7.780019283294678 1.1560043096542358 0.9958417415618896 0 3
10.740368843078613 -7.877206802368164 1.1560717821121216 0.9957840442657471 0 3
10.6707124710083 -7.97439432144165 1.1562328338623047 0.995646059513092 0 3
10.601022720336914 -8.07162094116211 1.1564867496490479 0.9954279065132141 0 3
10.5313081741333 -8.168886184692383 1.1568313837051392 0.9951294660568237 0 3
10.374164581298828 -8.197206497192383 1.1476070880889893 0.9751666784286499 0 3
10.390922546386719 -8.363046646118164 1.1577187776565552 0.8605524301528931 0 3
9.142719268798828 -7.494648456573486 1.0261038541793823 0.9916499853134155 0 3
8.666095733642578 -7.234960556030273 0.9798595905303955 0.5165034532546997 0 3
8.598041534423828 -7.310097694396973 0.979539155960083 0.8467897176742554 0 3
8.491989135742188 -7.352265357971191 0.9749413728713989 0.6569098830223083 0 3
8.340624809265137 -7.353241920471191 0.9651004076004028 0.6636066436767578 0 3
8.162672996520996 -7.327617168426514 0.9520840048789978 0.6695839166641235 0 3
8.017609596252441 -7.328417778015137 0.9427984356880188 0.6761781573295593 0 3
7.788810729980469 -7.248671531677246 0.9235045909881592 0.7882986664772034 0 3
7.735507488250732 -7.32970666885376 0.9249520897865295 0.9407385587692261 0 3
7.645844459533691 -7.376132488250732 0.9221093654632568 0.9436383247375488 0 3
7.556713581085205 -7.422245979309082 0.919358491897583 0.9464625716209412 0 3
29.422607421875 29.422576904296875 3.2660927772521973 0.7004092335700989 0 3
29.45159149169922 28.92755889892578 3.24039626121521 0.715235710144043 0 3
29.38502311706543 28.348495483398438 3.204928159713745 0.6875618696212769 0 3
29.457773208618164 27.91255760192871 3.1854350566864014 0.7275792360305786 0 3
29.852983474731445 27.782752990722656 3.201061964035034 0.6744924783706665 0 3
30.39937973022461 27.78626823425293 3.2327754497528076 0.6678757667541504 0 3
31.05674171447754 27.879608154296875 3.275939464569092 0.661205530166626 0 3
31.627342224121094 27.88326072692871 3.3095932006835938 0.6544820070266724 0 3
32.10614013671875 27.79720687866211 3.333451271057129 0.6477051973342896 0 3
32.6990852355957 27.801015853881836 3.368974208831787 0.6408767104148865 0 3
33.30485916137695 27.804882049560547 3.4055280685424805 0.6339964866638184 0 3
33.923988342285156 27.808847427368164 3.4431729316711426 0.6270650029182434 0 3
34.66863250732422 27.902753829956055 3.4931838512420654 0.6200830340385437 0 3
30.433290481567383 24.047088623046875 3.0445635318756104 0.12208003550767899 0 3
30.175878524780273 23.406795501708984 2.9976718425750732 0.7918336987495422 0 3
30.144731521606445 22.952245712280273 2.9739902019500732 0.7965753078460693 0 3
30.147323608398438 22.529647827148438 2.9541804790496826 0.8019181489944458 0 3
30.14988136291504 22.11259651184082 2.934863805770874 0.807196319103241 0 3
30.15241050720215 21.700937271118164 2.916036605834961 0.8124095797538757 0 3
30.154911041259766 21.294490814208984 2.8976662158966064 0.817557156085968 0 3
30.157377243041992 20.893085479736328 2.8797709941864014 0.8226390480995178 0 3
30.193769454956055 20.51968765258789 2.86554217338562 0.8270338773727417 0 3
30.195751190185547 20.127225875854492 2.848463296890259 0.831990659236908 0 3
30.36129379272461 19.846269607543945 2.8471691608428955 0.9741080403327942 0 3
30.73088264465332 19.69644546508789 2.86513090133667 0.5325690507888794 0 3
31.353036880493164 19.700429916381836 2.906531572341919 0.5249831080436707 0 3
31.993465423583984 19.704530715942383 2.949387550354004 0.5173550844192505 0 3
32.42641067504883 19.57191276550293 2.9729790687561035 0.9659202098846436 0 3
32.608924865722656 19.284862518310547 2.9737236499786377 0.8608729243278503 0 3
32.61134338378906 18.893301010131836 2.9583592414855957 0.8653436303138733 0 3
32.613739013671875 18.50568389892578 2.9433867931365967 0.8697449564933777 0 3
32.616111755371094 18.121932983398438 2.9288060665130615 0.8740761876106262 0 3
32.618465423583984 17.74199104309082 2.914600372314453 0.878336489200592 0 3
32.62079620361328 17.365644454956055 2.900761842727661 0.8825263381004333 0 3
32.62310791015625 16.992870330810547 2.887284994125366 0.8866448402404785 0 3
32.62540054321289 16.623456954956055 2.8741631507873535 0.8906922936439514 0 3
32.62767028808594 16.257383346557617 2.8613908290863037 0.8946676254272461 0 3
32.629920959472656 15.89453125 2.8489716053009033 0.8985708951950073 0 3
32.63215637207031 15.534785270690918 2.8368752002716064 0.9024015069007874 0 3
32.63437271118164 15.178046226501465 2.825108289718628 0.9061595797538757 0 3
32.63656997680664 14.824237823486328 2.8136630058288574 0.9098445773124695 0 3
32.63875961303711 14.473222732543945 2.8025405406951904 0.9134564399719238 0 3
32.640926361083984 14.124979972839355 2.791727304458618 0.9169943928718567 0 3
32.64308166503906 13.779394149780273 2.781219482421875 0.9204584360122681 0 3
32.64521789550781 13.436347007751465 2.7710158824920654 0.9238483905792236 0 3
32.647342681884766 13.095781326293945 2.7611067295074463 0.92716383934021 0 3
32.649452209472656 12.757636070251465 2.7514894008636475 0.930404543876648 0 3
32.780208587646484 12.470742225646973 2.7529520988464355 0.9065660238265991 0 3
33.107994079589844 12.2564058303833 2.7711269855499268 0.3401097059249878 0 3
34.143211364746094 12.29232406616211 2.8484411239624023 0.33168455958366394 0 3
35.147796630859375 12.298749923706055 2.9229185581207275 0.32323265075683594 0 3
36.206390380859375 12.305546760559082 3.0016448497772217 0.3147549033164978 0 3
36.76112747192383 12.12710952758789 3.0384881496429443 0.9482651352882385 0 3
36.76340866088867 11.76302719116211 3.029827833175659 0.9509758353233337 0 3
36.76567840576172 11.401015281677246 3.021458387374878 0.9536096453666687 0 3
36.767940521240234 11.040937423706055 3.013385057449341 0.956166684627533 0 3
36.77018356323242 10.682753562927246 3.0055806636810303 0.9586467146873474 0 3
36.77242660522461 10.326406478881836 2.99807071685791 0.9610495567321777 0 3
36.774658203125 9.971796989440918 2.9908370971679688 0.9633747339248657 0 3
36.77687454223633 9.618866920471191 2.9838714599609375 0.9656224250793457 0 3
36.880496978759766 9.293105125427246 2.985391139984131 0.3784504234790802 0 3
37.790565490722656 9.162480354309082 3.052278757095337 0.370156854391098 0 3
39.149925231933594 9.120800971984863 3.1553306579589844 0.21997542679309845 0 3
45.54825210571289 -7.21414041519165 3.6198322772979736 0.5909336805343628 0 3
42.09939956665039 -7.055800437927246 3.3506453037261963 0.9428280591964722 0 3
41.59099197387695 -7.355000019073486 3.315302848815918 0.5658673644065857 0 3
41.43553924560547 -7.711679458618164 3.308293104171753 0.43971967697143555 0 3
41.130428314208984 -8.037519454956055 3.289510726928711 0.2674156427383423 0 3
35.02680587768555 -7.171757698059082 2.8064393997192383 0.2062242329120636 0 3
33.97124481201172 -7.273945331573486 2.7269816398620605 0.6332919597625732 0 3
33.76715087890625 -7.5478515625 2.7159295082092285 0.9171122312545776 0 3
30.594051361083984 -7.127519607543945 2.465765953063965 0.9207090139389038 0 3
30.235980987548828 -7.330800533294678 2.442108392715454 0.6537854075431824 0 3
29.927406311035156 -7.541035175323486 2.4225544929504395 0.8587415814399719 0 3
29.747167587280273 -7.780253887176514 2.413522243499756 0.9748374223709106 0 3
29.620912551879883 -8.031972885131836 2.4090240001678467 0.9766476154327393 0 3
29.606401443481445 -8.3140230178833 2.4138214588165283 0.9889587163925171 0 3
23.10940933227539 -6.713906288146973 1.8889583349227905 0.9551537036895752 0 3
28.268774032592773 -8.488710403442383 2.316819906234741 0.2928248941898346 0 3
22.970815658569336 -7.123202800750732 1.8877757787704468 0.08368781208992004 0 3
22.653993606567383 -7.248476505279541 1.8670120239257812 0.7060633897781372 0 3
22.388662338256836 -7.3857421875 1.8505325317382812 0.7123500108718872 0 3
22.20680046081543 -7.547441005706787 1.8410292863845825 0.8967593908309937 0 3
22.043094635009766 -7.713202953338623 1.8331234455108643 0.9006265997886658 0 3
7.647799968719482 -2.753359317779541 0.6380259394645691 0.34789350628852844 1050 7
7.499597072601318 -2.776308536529541 0.6277168393135071 0.9697555303573608 1050 7
7.471042156219482 -2.842226505279541 0.6274363398551941 0.9952683448791504 1050 7
7.469191551208496 -2.918534994125366 0.6294553875923157 0.929484486579895 1050 7
7.506603717803955 -3.011113166809082 0.6348597407341003 0.9224063158035278 1050 7
18.52682113647461 -7.625370979309082 1.5726062059402466 0.9223058819770813 0 3
18.398218154907227 -7.766288757324219 1.5675448179244995 0.994391679763794 0 3
18.3177433013916 -7.926777362823486 1.5666866302490234 0.9949362277984619 0 3
18.23733901977539 -8.087109565734863 1.5659582614898682 0.9954006671905518 0 3
18.22900390625 -8.279980659484863 1.571560025215149 0.9588198661804199 0 3
18.200927734375 -8.465117454528809 1.5756243467330933 0.9563451409339905 0 3
18.149761199951172 -8.640312194824219 1.5778509378433228 0.43427199125289917 0 3
17.743085861206055 -8.64291000366211 1.5491750240325928 0.44230952858924866 0 3
17.350908279418945 -8.64540958404541 1.521639108657837 0.4503111243247986 0 3
17.081655502319336 -8.703535079956055 1.5048229694366455 0.45827633142471313 0 3
16.713701248168945 -8.70589828491211 1.4792343378067017 0.46620383858680725 0 3
16.358016967773438 -8.70816421508789 1.4546184539794922 0.4740941524505615 0 3
15.91148853302002 -8.65462875366211 1.4217596054077148 0.48194876313209534 0 3
15.516489028930664 -8.6211519241333 1.3933275938034058 0.44474413990974426 0 3
15.358237266540527 -8.714550971984863 1.3860818147659302 0.49753671884536743 0 3
15.045512199401855 -8.716543197631836 1.3648635149002075 0.5052660703659058 0 3
12.180790901184082 -7.203671932220459 1.1108068227767944 0.372974693775177 0 3
12.14239501953125 -7.32888650894165 1.113265037536621 0.5206174850463867 0 3
11.90212631225586 -7.330410003662109 1.097223162651062 0.5282272100448608 0 3
11.668685913085938 -7.331913948059082 1.081729769706726 0.5357945561408997 0 3
11.357966423034668 -7.279687404632568 1.0589364767074585 0.86335688829422 0 3
11.234448432922363 -7.343613147735596 1.0535231828689575 0.8677930235862732 0 3
11.112157821655273 -7.406874656677246 1.0482470989227295 0.8721593022346497 0 3
10.991095542907715 -7.469531059265137 1.0431082248687744 0.8764553666114807 0 3
10.8497896194458 -7.516757488250732 1.036062240600586 0.9817169904708862 0 3
10.87923812866211 -7.682558536529541 1.0454171895980835 0.9965362548828125 0 3
10.809601783752441 -7.779726505279541 1.0453921556472778 0.9965589642524719 0 3
10.739957809448242 -7.876894474029541 1.04545259475708 0.9965012073516846 0 3
10.670300483703613 -7.974081993103027 1.0455999374389648 0.9963630437850952 0 3
10.600617408752441 -8.071308135986328 1.0458288192749023 0.9961447715759277 0 3
10.530900955200195 -8.168574333190918 1.0461413860321045 0.995846152305603 0 3
10.37371826171875 -8.196855545043945 1.037793517112732 0.975873589515686 0 3
10.390358924865723 -8.362578392028809 1.0469268560409546 0.8611860871315002 0 3
9.142407417297363 -7.494394302368164 0.9279248118400574 0.992359459400177 0 3
8.66622543334961 -7.235058307647705 0.8861474394798279 0.516847550868988 0 3
8.597565650939941 -7.30968713760376 0.8858077526092529 0.8474137783050537 0 3
8.491994857788086 -7.352265357971191 0.8816903233528137 0.6573575735092163 0 3
8.340627670288086 -7.353241920471191 0.8727941513061523 0.6640589237213135 0 3
8.192277908325195 -7.354179382324219 0.8641424179077148 0.670706570148468 0 3
8.04684066772461 -7.355116844177246 0.8557302951812744 0.6772996783256531 0 3
7.788740158081055 -7.248593807220459 0.8351647853851318 0.7888429164886475 0 3
7.735332012176514 -7.329550743103027 0.8364617824554443 0.941401481628418 0 3
7.645666122436523 -7.375957012176514 0.8338906764984131 0.9443029761314392 0 3
7.556542873382568 -7.422070026397705 0.8314034938812256 0.9471290707588196 0 3
29.446455001831055 29.44644546508789 2.9235002994537354 0.7094599008560181 0 3
29.449642181396484 28.925643920898438 2.897921323776245 0.7157219052314758 0 3
29.452777862548828 28.413846969604492 2.873013496398926 0.7219258546829224 0 3
29.45585823059082 27.910741806030273 2.8487627506256104 0.7280728816986084 0 3
29.85297203063965 27.782772064208984 2.86293625831604 0.6749061942100525 0 3
30.39935874938965 27.78626823425293 2.891303300857544 0.6682855486869812 0 3
30.95673179626465 27.78984260559082 2.9204699993133545 0.6616109013557434 0 3
31.52549171447754 27.793476104736328 2.950472593307495 0.6548833250999451 0 3
32.10613250732422 27.79718780517578 2.981337547302246 0.6481025218963623 0 3
32.69907760620117 27.800994873046875 3.0130996704101562 0.641269862651825 0 3
33.30485916137695 27.80486297607422 3.0458056926727295 0.6343852877616882 0 3
33.92397689819336 27.808828353881836 3.0794763565063477 0.6274497509002686 0 3
34.48935317993164 27.75847625732422 3.108055353164673 0.6204637289047241 0 3
30.4249210357666 24.040449142456055 2.722221851348877 0.12218890339136124 0 3
30.174081802368164 23.40542984008789 2.680870294570923 0.7923665046691895 0 3
30.1429386138916 22.950897216796875 2.6596977710723877 0.7971110939979553 0 3
30.145545959472656 22.5283203125 2.641974925994873 0.8024572134017944 0 3
30.14811897277832 22.111328125 2.6246979236602783 0.8077385425567627 0 3
30.150657653808594 21.699687957763672 2.607856273651123 0.8129549622535706 0 3
30.15316390991211 21.29328155517578 2.5914406776428223 0.8181058168411255 0 3
30.155643463134766 20.89191436767578 2.5754294395446777 0.8231906890869141 0 3
30.192039489746094 20.51851463317871 2.5627083778381348 0.8275882005691528 0 3
30.194026947021484 20.1260929107666 2.5474417209625244 0.8325482606887817 0 3
30.360239028930664 19.845584869384766 2.5463247299194336 0.9747390747070312 0 3
30.73088264465332 19.69644546508789 2.5624873638153076 0.5328956842422485 0 3
31.35304069519043 19.700429916381836 2.5995187759399414 0.5253050327301025 0 3
31.99347496032715 19.704530715942383 2.637842893600464 0.5176722407341003 0 3
32.4252815246582 19.57124900817871 2.65885853767395 0.9665460586547852 0 3
32.60713195800781 19.28382682800293 2.65946626663208 0.8614480495452881 0 3
32.60955810546875 18.89224624633789 2.645720958709717 0.8659218549728394 0 3
32.61196517944336 18.50468635559082 2.6323416233062744 0.8703256249427795 0 3
32.614349365234375 18.120975494384766 2.619293689727783 0.8746594190597534 0 3
32.61670684814453 17.74103546142578 2.60659122467041 0.8789225220680237 0 3
32.61904525756836 17.36474609375 2.5942187309265137 0.8831148147583008 0 3
32.62136459350586 16.991952896118164 2.582166910171509 0.8872359395027161 0 3
32.62366485595703 16.622596740722656 2.570430278778076 0.8912857174873352 0 3
32.62594223022461 16.256542205810547 2.559015989303589 0.8952634334564209 0 3
32.62820053100586 15.893691062927246 2.5478978157043457 0.8991692066192627 0 3
32.63044357299805 15.533964157104492 2.537081480026245 0.9030024409294128 0 3
32.63267135620117 15.177265167236328 2.526560068130493 0.9067625999450684 0 3
32.6348762512207 14.823456764221191 2.516331195831299 0.9104499816894531 0 3
32.63706970214844 14.47249984741211 2.5063815116882324 0.9140637516975403 0 3
32.639244079589844 14.12425708770752 2.496708393096924 0.9176040887832642 0 3
32.64139938354492 13.778691291809082 2.487311363220215 0.9210702180862427 0 3
32.6435432434082 13.435664176940918 2.4781899452209473 0.9244623184204102 0 3
32.64567947387695 13.09511661529541 2.4693281650543213 0.9277797341346741 0 3
32.41708755493164 12.666854858398438 2.4433417320251465 0.15326356887817383 0 3
32.77900314331055 12.470293045043945 2.462050199508667 0.9071555137634277 0 3
33.10798645019531 12.2564058303833 2.478450298309326 0.34031835198402405 0 3
34.14319610595703 12.29232406616211 2.5475597381591797 0.3318880796432495 0 3
35.14776611328125 12.298749923706055 2.6141719818115234 0.3234311044216156 0 3
36.20639419555664 12.305526733398438 2.6845858097076416 0.31494787335395813 0 3
36.75929260253906 12.126483917236328 2.7174019813537598 0.9488939046859741 0 3
36.76157760620117 11.76244068145752 2.709652900695801 0.951606273651123 0 3
36.763851165771484 11.400409698486328 2.7021708488464355 0.9542418718338013 0 3
36.766117095947266 11.040390014648438 2.6949429512023926 0.9568003416061401 0 3
36.76837158203125 10.682226181030273 2.687976121902466 0.9592819213867188 0 3
36.77061462402344 10.325879096984863 2.68125581741333 0.9616861939430237 0 3
36.772850036621094 9.971288681030273 2.674783229827881 0.9640129804611206 0 3
36.77507400512695 9.618378639221191 2.6685593128204346 0.9662619233131409 0 3
36.879798889160156 9.292909622192383 2.6699981689453125 0.37868934869766235 0 3
37.789817810058594 9.162304878234863 2.729816198348999 0.37039095163345337 0 3
39.14995193481445 9.120800971984863 2.822039842605591 0.2201102077960968 0 3
45.54661560058594 -7.2138671875 3.237358570098877 0.5913171768188477 0 3
42.097312927246094 -7.055468559265137 2.996570348739624 0.9434528946876526 0 3
41.588523864746094 -7.354569911956787 2.9649369716644287 0.5662477016448975 0 3
41.43284225463867 -7.711171627044678 2.958669900894165 0.44001802802085876 0 3
41.12712478637695 -8.036874771118164 2.941873788833618 0.26760104298591614 0 3
35.026859283447266 -7.171757698059082 2.510002613067627 0.2063504010438919 0 3
33.970096588134766 -7.273691177368164 2.438852071762085 0.633701741695404 0 3
31.48871421813965 -7.038554668426514 2.265145778656006 0.06907165050506592 0 3
30.539159774780273 -7.114706993103027 2.2013461589813232 0.6474189162254333 0 3
30.158031463623047 -7.311933517456055 2.178520441055298 0.654203474521637 0 3
29.926097869873047 -7.540702819824219 2.1665685176849365 0.8592968583106995 0 3
29.745746612548828 -7.779862880706787 2.1584770679473877 0.9754723906517029 0 3
29.6195011138916 -8.03158187866211 2.15446400642395 0.9772902727127075 0 3
29.55435562133789 -8.299413681030273 2.1550567150115967 0.9897813200950623 0 3
28.6097412109375 -8.311894416809082 2.0915324687957764 0.6341021656990051 0 3
28.376327514648438 -8.52099609375 2.0799777507781982 0.29144731163978577 0 3
23.071136474609375 -7.154316425323486 1.695748209953308 0.4465482234954834 0 3
22.67044448852539 -7.253730297088623 1.6710115671157837 0.7065134048461914 0 3
22.404932022094727 -7.391132831573486 1.65626859664917 0.7128043174743652 0 3
22.219398498535156 -7.551718711853027 1.647495985031128 0.8973579406738281 0 3
22.05561065673828 -7.717577934265137 1.6404213905334473 0.9012273550033569 0 3
7.647802352905273 -2.753359317779541 0.5706327557563782 0.34810692071914673 1050 7
7.504692077636719 -2.7781834602355957 0.5617923140525818 0.9328434467315674 1050 7
7.487648963928223 -2.8485546112060547 0.5624082684516907 0.9295223355293274 1050 7
7.488393306732178 -2.926035165786743 0.5644134283065796 0.7481765151023865 1050 7
7.50622034072876 -3.010937452316284 0.5677722096443176 0.92302006483078 1050 7
18.673778533935547 -7.685878753662109 1.4176485538482666 0.9706196188926697 0 3
18.527910232543945 -7.821034908294678 1.4118493795394897 0.9682212471961975 0 3
18.457685470581055 -7.987343788146973 1.4119033813476562 0.9745701551437378 0 3
18.2365665435791 -8.08675765991211 1.4004861116409302 0.996053159236908 0 3
18.228118896484375 -8.279570579528809 1.4054898023605347 0.9594546556472778 0 3
18.20003890991211 -8.464706420898438 1.4091243743896484 0.9569782614707947 0 3
18.149761199951172 -8.64029312133789 1.4111782312393188 0.4345383048057556 0 3
17.74308967590332 -8.64291000366211 1.3855383396148682 0.4425806403160095 0 3
17.35091781616211 -8.64540958404541 1.3609222173690796 0.4505869448184967 0 3
17.08167839050293 -8.703535079956055 1.3458737134933472 0.4585568606853485 0 3
16.74019432067871 -8.719687461853027 1.3250811100006104 0.4664878845214844 0 3
16.358016967773438 -8.70816421508789 1.3009628057479858 0.4743950664997101 0 3
15.9114990234375 -8.65462875366211 1.2715810537338257 0.482244074344635 0 3
15.516551971435547 -8.621191024780273 1.2461236715316772 0.44501471519470215 0 3
15.358251571655273 -8.714550971984863 1.2396700382232666 0.49784141778945923 0 3
15.069369316101074 -8.730390548706055 1.2226312160491943 0.5055834650993347 0 3
12.181022644042969 -7.203827857971191 0.993495762348175 0.37319695949554443 0 3
12.1423921585083 -7.32888650894165 0.9956701397895813 0.5209366679191589 0 3
11.902135848999023 -7.330410003662109 0.9813253283500671 0.5285507440567017 0 3
11.668679237365723 -7.331913948059082 0.9674658179283142 0.5361233353614807 0 3
11.35768985748291 -7.279491901397705 0.9470577836036682 0.8639072775840759 0 3
11.234169960021973 -7.343417644500732 0.942218005657196 0.8683463335037231 0 3
11.111884117126465 -7.406699180603027 0.9374990463256836 0.8727158308029175 0 3
10.990827560424805 -7.46935510635376 0.9329046607017517 0.8770146369934082 0 3
10.849421501159668 -7.516503810882568 0.926591157913208 0.9823524951934814 0 3
10.847241401672363 -7.659999847412109 0.9322406053543091 0.9970746040344238 0 3
10.776874542236328 -7.756191253662109 0.9321392774581909 0.9971833825111389 0 3
10.70651626586914 -7.852363109588623 0.9321115016937256 0.9972116947174072 0 3
10.636161804199219 -7.948554515838623 0.9321603178977966 0.9971598386764526 0 3
10.565786361694336 -8.044804573059082 0.9322845339775085 0.9970275163650513 0 3
10.495392799377441 -8.141035079956055 0.9324843883514404 0.9968147873878479 0 3
10.373269081115723 -8.196484565734863 0.9281335473060608 0.9765143990516663 0 3
10.38979721069336 -8.362128257751465 0.9362902641296387 0.8617608547210693 0 3
9.142104148864746 -7.494121074676514 0.8298812508583069 0.9930012822151184 0 3
8.66635513305664 -7.235175609588623 0.7925631403923035 0.5171575546264648 0 3
8.597091674804688 -7.309296607971191 0.792191743850708 0.847980260848999 0 3
8.491991996765137 -7.352265357971191 0.7885562181472778 0.6577606201171875 0 3
8.340629577636719 -7.353241920471191 0.7805981040000916 0.6644659638404846 0 3
8.192282676696777 -7.354179382324219 0.7728625535964966 0.6711176037788391 0 3
8.046835899353027 -7.355116844177246 0.765340268611908 0.6777151823043823 0 3
7.788661956787109 -7.24853515625 0.7469503879547119 0.7893345952033997 0 3
7.735158443450928 -7.32937479019165 0.7480916976928711 0.9420000314712524 0 3
7.645497798919678 -7.375781059265137 0.7457910180091858 0.9449032545089722 0 3
7.556371688842773 -7.421914100646973 0.7435659766197205 0.9477308988571167 0 3
29.44449234008789 29.44447135925293 2.578447103500366 0.7098938226699829 0 3
29.44769859313965 28.923728942871094 2.5558853149414062 0.7161592245101929 0 3
29.450843811035156 28.411991119384766 2.5339248180389404 0.7223663926124573 0 3
29.45394515991211 27.908926010131836 2.5125396251678467 0.7285169363021851 0 3
29.852962493896484 27.782772064208984 2.5252084732055664 0.675274133682251 0 3
30.399364471435547 27.78626823425293 2.5502257347106934 0.6686496734619141 0 3
30.956727981567383 27.78984260559082 2.575946569442749 0.6619715094566345 0 3
31.525487899780273 27.793476104736328 2.6024093627929688 0.6552402377128601 0 3
32.106117248535156 27.79720687866211 2.6296396255493164 0.6484558582305908 0 3
32.69908142089844 27.800994873046875 2.657651662826538 0.6416192650794983 0 3
33.30485153198242 27.804882049560547 2.686497211456299 0.6347310543060303 0 3
33.923954010009766 27.808847427368164 2.7161834239959717 0.6277918815612793 0 3
34.55695724487305 27.812889099121094 2.7467715740203857 0.6208019852638245 0 3
30.4166259765625 24.033926010131836 2.400433301925659 0.12228856235742569 0 3
30.172279357910156 23.404003143310547 2.364470958709717 0.7928455471992493 0 3
30.141151428222656 22.94953155517578 2.3458011150360107 0.7975926995277405 0 3
30.143768310546875 22.5269718170166 2.330169677734375 0.8029419779777527 0 3
30.146352767944336 22.11001968383789 2.3149404525756836 0.8082260489463806 0 3
30.14890480041504 21.69839859008789 2.300083875656128 0.8134453892707825 0 3
30.151424407958984 21.292011260986328 2.285600185394287 0.8185990452766418 0 3
30.15390968322754 20.890703201293945 2.2714834213256836 0.8236865401268005 0 3
30.190317153930664 20.517343521118164 2.2602624893188477 0.8280864357948303 0 3
30.19231414794922 20.124940872192383 2.246788501739502 0.8330491781234741 0 3
30.35919761657715 19.844921112060547 2.245868682861328 0.975303590297699 0 3
30.73086929321289 19.69644546508789 2.2601945400238037 0.5331862568855286 0 3
31.353012084960938 19.700429916381836 2.2928524017333984 0.5255916118621826 0 3
31.92305564880371 19.661170959472656 2.321542501449585 0.163704514503479 0 3
31.863100051879883 19.231914520263672 2.304537296295166 0.164912611246109 0 3
31.81825065612793 18.817264556884766 2.2889833450317383 0.15823036432266235 0 3
31.791410446166992 18.41826057434082 2.2750678062438965 0.15919822454452515 0 3
31.765844345092773 18.02458953857422 2.2615675926208496 0.1601484715938568 0 3
31.741527557373047 17.636014938354492 2.248474359512329 0.1610809862613678 0 3
31.718441009521484 17.25244140625 2.2357800006866455 0.16199564933776855 0 3
31.696517944335938 16.873613357543945 2.223464012145996 0.16289255023002625 0 3
31.67584800720215 16.499433517456055 2.211545705795288 0.16377118229866028 0 3
31.653011322021484 16.128026962280273 2.1997525691986084 0.15023469924926758 0 3
31.5657958984375 15.728281021118164 2.1837921142578125 0.1513327658176422 0 3
31.48081398010254 15.33480453491211 2.1683013439178467 0.15241378545761108 0 3
31.39800262451172 14.947265625 2.1532652378082275 0.15347778797149658 0 3
31.317352294921875 14.565507888793945 2.138688325881958 0.1545242816209793 0 3
31.238670349121094 14.189276695251465 2.124523639678955 0.15555396676063538 0 3
31.190364837646484 13.830976486206055 2.1127166748046875 0.1798819750547409 0 3
31.152631759643555 13.480937004089355 2.1018755435943604 0.18080949783325195 0 3
31.116127014160156 13.1348237991333 2.091376304626465 0.18171744048595428 0 3
31.08077621459961 12.792441368103027 2.0811965465545654 0.1826060563325882 0 3
31.85223960876465 12.77685546875 2.125089406967163 0.3656412363052368 0 3
32.64613342285156 12.756327629089355 2.1703264713287354 0.9315770268440247 0 3
32.77778625488281 12.469843864440918 2.171531915664673 0.9076833128929138 0 3
33.10798263549805 12.256425857543945 2.1860384941101074 0.34050384163856506 0 3
34.143192291259766 12.29232406616211 2.2470271587371826 0.3320689797401428 0 3
35.14777755737305 12.298749923706055 2.305781602859497 0.3236072361469269 0 3
36.20635986328125 12.305546760559082 2.3678903579711914 0.31511974334716797 0 3
36.75746154785156 12.12587833404541 2.3967137336730957 0.9494584202766418 0 3
36.75975036621094 11.761855125427246 2.389887571334839 0.9521721601486206 0 3
36.76203155517578 11.399863243103027 2.3832859992980957 0.9548090696334839 0 3
36.76430130004883 11.039823532104492 2.3769099712371826 0.9573691487312317 0 3
36.766563415527344 10.6816987991333 2.370762586593628 0.9598520398139954 0 3
36.76880645751953 10.325370788574219 2.364840269088745 0.9622576832771301 0 3
36.77104568481445 9.970800399780273 2.359126329421997 0.964585542678833 0 3
36.773277282714844 9.617929458618164 2.3536376953125 0.9668356776237488 0 3
36.87908935546875 9.292754173278809 2.3549766540527344 0.37890321016311646 0 3
37.78910446166992 9.162128448486328 2.407737970352173 0.3706001043319702 0 3
39.14995193481445 9.120780944824219 2.4891316890716553 0.2202301174402237 0 3
45.54494857788086 -7.213632583618164 2.855346918106079 0.5916611552238464 0 3
42.09523010253906 -7.055097579956055 2.642941951751709 0.9440136551856995 0 3
41.58606719970703 -7.354140281677246 2.615027666091919 0.5665938854217529 0 3
41.430145263671875 -7.710683345794678 2.6094560623168945 0.44028645753860474 0 3
41.123802185058594 -8.036230087280273 2.5944910049438477 0.26779359579086304 0 3
34.40589141845703 -7.044628620147705 2.1746532917022705 0.35664471983909607 0 3
30.98849105834961 -6.635293006896973 1.9623348712921143 0.22363610565662384 0 3
33.601444244384766 -7.510800838470459 2.131988525390625 0.8458526134490967 0 3
30.53813934326172 -7.114491939544678 1.9415950775146484 0.6477934122085571 0 3
30.157045364379883 -7.311679363250732 1.921464443206787 0.6545811891555786 0 3
29.924930572509766 -7.540449142456055 1.9109066724777222 0.8597992658615112 0 3
29.744457244873047 -7.779531002044678 1.9037657976150513 0.9760457277297974 0 3
29.618227005004883 -8.031229972839355 1.9002227783203125 0.9778650403022766 0 3
29.55295753479004 -8.299023628234863 1.9007424116134644 0.9903671741485596 0 3
28.584325790405273 -8.304511070251465 1.8431615829467773 0.9534894227981567 0 3
28.497220993041992 -8.557324409484863 1.8424209356307983 0.29443779587745667 0 3
23.170204162597656 -7.185019493103027 1.5021249055862427 0.0672449842095375 0 3
22.66975975036621 -7.253515243530273 1.4738436937332153 0.7069194912910461 0 3
22.40425682067871 -7.39089822769165 1.4608373641967773 0.7132139205932617 0 3
22.30270004272461 -7.580058574676514 1.4585903882980347 0.9548963308334351 0 3
22.174335479736328 -7.759120941162109 1.4546905755996704 0.9574557542800903 0 3
7.6477952003479 -2.753359317779541 0.5033157467842102 0.3482970595359802 1050 7
7.504311561584473 -2.778027296066284 0.4954940676689148 0.933399498462677 1050 7
7.504814147949219 -2.8550779819488525 0.49719908833503723 0.9301975965499878 1050 7
7.401174068450928 -2.8919529914855957 0.49203306436538696 0.06710642576217651 1050 7
7.505834579467773 -3.0107812881469727 0.5007670521736145 0.9235702157020569 1050 7
18.673046112060547 -7.685566425323486 1.2503652572631836 0.9711869955062866 0 3
18.52718734741211 -7.820722579956055 1.2452462911605835 0.9687865376472473 0 3
18.45696258544922 -7.987011432647705 1.2452962398529053 0.9751392602920532 0 3
18.235795974731445 -8.08642578125 1.235215425491333 0.9966380000114441 0 3
18.227231979370117 -8.279179573059082 1.2396230697631836 0.9600240588188171 0 3
18.19915008544922 -8.464296340942383 1.2428332567214966 0.9575464129447937 0 3
18.149761199951172 -8.64029312133789 1.2447091341018677 0.43477505445480347 0 3
17.74307632446289 -8.64291000366211 1.2220910787582397 0.4428219795227051 0 3
17.350927352905273 -8.64540958404541 1.2003713846206665 0.450832337141037 0 3
17.081668853759766 -8.703535079956055 1.187103509902954 0.45880693197250366 0 3
16.7214298248291 -8.709901809692383 1.1674526929855347 0.5125382542610168 0 3
16.358016967773438 -8.70816421508789 1.147493600845337 0.47464486956596375 0 3
15.911508560180664 -8.65462875366211 1.1215744018554688 0.4825066030025482 0 3
15.516654968261719 -8.62125015258789 1.0991402864456177 0.4452548027038574 0 3
15.358256340026855 -8.714550971984863 1.0934292078018188 0.49811258912086487 0 3
15.045516967773438 -8.716543197631836 1.0766940116882324 0.5058573484420776 0 3
12.181262016296387 -7.203964710235596 0.8763113021850586 0.3733925223350525 0 3
12.14239501953125 -7.32888650894165 0.8782147169113159 0.5212203860282898 0 3
11.902128219604492 -7.330410003662109 0.8655614852905273 0.5288389325141907 0 3
11.668696403503418 -7.331913948059082 0.8533343076705933 0.5364149212837219 0 3
11.357406616210938 -7.279316425323486 0.8353161215782166 0.8643996715545654 0 3
11.23388671875 -7.343242168426514 0.8310461044311523 0.8688411116600037 0 3
11.111618041992188 -7.406503677368164 0.8268850445747375 0.8732123374938965 0 3
10.990556716918945 -7.469160079956055 0.8228310942649841 0.877513587474823 0 3
10.849055290222168 -7.51623010635376 0.8172558546066284 0.9829210042953491 0 3
10.878405570983887 -7.681992053985596 0.8246288895606995 0.9977672100067139 0 3
10.808769226074219 -7.779140472412109 0.8246108889579773 0.9977898597717285 0 3
10.739130973815918 -7.876288890838623 0.8246597051620483 0.9977320432662964 0 3
10.669482231140137 -7.973456859588623 0.8247729539871216 0.9975938200950623 0 3
10.599809646606445 -8.07070255279541 0.8249557018280029 0.9973752498626709 0 3
10.530092239379883 -8.16796875 0.8251980543136597 0.9970762729644775 0 3
10.372819900512695 -8.19613265991211 0.8186080455780029 0.977088451385498 0 3
10.389233589172363 -8.36166000366211 0.8257918953895569 0.8622773885726929 0 3
9.141791343688965 -7.493866920471191 0.7319558262825012 0.9935758113861084 0 3
8.666483879089355 -7.235273361206055 0.6990689039230347 0.5174312591552734 0 3
8.59661865234375 -7.308906078338623 0.698699951171875 0.8484885692596436 0 3
8.491989135742188 -7.352265357971191 0.6955313086509705 0.6581190824508667 0 3
8.34063720703125 -7.353241920471191 0.6885147094726562 0.6648277044296265 0 3
8.192282676696777 -7.354179382324219 0.6816909909248352 0.6714832782745361 0 3
8.046843528747559 -7.355116844177246 0.6750567555427551 0.6780840158462524 0 3
7.788590908050537 -7.248437404632568 0.6588110327720642 0.7897716760635376 0 3
7.734982967376709 -7.32921838760376 0.6598244905471802 0.9425349235534668 0 3
7.64531946182251 -7.375624656677246 0.657796323299408 0.9454399347305298 0 3
7.556205749511719 -7.421738147735596 0.6558344960212708 0.948268473148346 0 3
29.442533493041992 29.44253921508789 2.2337963581085205 0.7102792859077454 0 3
29.445756912231445 28.921815872192383 2.2142486572265625 0.7165478467941284 0 3
29.44891929626465 28.41013526916504 2.1952321529388428 0.7227581143379211 0 3
29.452035903930664 27.907127380371094 2.1767003536224365 0.7289111614227295 0 3
29.85295867919922 27.782772064208984 2.1878089904785156 0.6755960583686829 0 3
30.399364471435547 27.78626823425293 2.209486246109009 0.6689683198928833 0 3
30.956722259521484 27.78984260559082 2.231778621673584 0.6622871160507202 0 3
31.525497436523438 27.793476104736328 2.2546956539154053 0.6555524468421936 0 3
32.10612869262695 27.79720687866211 2.2782957553863525 0.6487648487091064 0 3
32.69907760620117 27.800994873046875 2.302570343017578 0.6419250965118408 0 3
33.304847717285156 27.804882049560547 2.3275580406188965 0.6350336074829102 0 3
33.92397689819336 27.808847427368164 2.353287696838379 0.6280907988548279 0 3
34.556968688964844 27.812889099121094 2.3797852993011475 0.6210978031158447 0 3
30.40837860107422 24.027400970458984 2.079148292541504 0.12237993627786636 0 3
30.170482635498047 23.402616500854492 2.0484399795532227 0.7932707667350769 0 3
30.13936424255371 22.948163986206055 2.0322532653808594 0.7980201840400696 0 3
30.141996383666992 22.525663375854492 2.0187137126922607 0.8033718466758728 0 3
30.144588470458984 22.10873031616211 2.0055198669433594 0.8086583614349365 0 3
30.147151947021484 21.697147369384766 1.9926528930664062 0.813880443572998 0 3
30.149681091308594 21.290800094604492 1.9801123142242432 0.8190364241600037 0 3
30.15218162536621 20.889511108398438 1.967881441116333 0.8241264820098877 0 3
30.1885986328125 20.516170501708984 1.9581643342971802 0.8285285830497742 0 3
30.19060516357422 20.123788833618164 1.9465185403823853 0.8334935903549194 0 3
30.358154296875 19.84423828125 1.945728063583374 0.9758018851280212 0 3
30.53911018371582 19.57355499267578 1.9459939002990723 0.16928428411483765 0 3
30.48939323425293 19.157793045043945 1.9317901134490967 0.17052894830703735 0 3
30.441137313842773 18.748476028442383 1.9179928302764893 0.17175571620464325 0 3
30.3942813873291 18.34535026550293 1.9045867919921875 0.17296457290649414 0 3
30.348798751831055 17.948261260986328 1.8915642499923706 0.17415520548820496 0 3
30.30466651916504 17.556913375854492 1.8789160251617432 0.17532768845558167 0 3
30.261825561523438 17.171171188354492 1.8666307926177979 0.17648178339004517 0 3
30.238388061523438 16.800859451293945 1.8558077812194824 0.1691688448190689 0 3
30.224477767944336 16.439844131469727 1.8458245992660522 0.1700839102268219 0 3
30.200345993041992 16.07710838317871 1.835461974143982 0.15606993436813354 0 3
30.124868392944336 15.691581726074219 1.8222423791885376 0.15720221400260925 0 3
30.065902709960938 15.3193359375 1.8102822303771973 0.18197134137153625 0 3
30.030155181884766 14.96312427520752 1.7999709844589233 0.18301385641098022 0 3
29.9954833984375 14.611268997192383 1.7899575233459473 0.184037446975708 0 3
29.961870193481445 14.263554573059082 1.7802401781082153 0.18504208326339722 0 3
29.92930030822754 13.919940948486328 1.7708120346069336 0.18602751195430756 0 3
29.897724151611328 13.580195426940918 1.7616606950759888 0.18699383735656738 0 3
29.867128372192383 13.2441987991333 1.7527810335159302 0.18794101476669312 0 3
29.837509155273438 12.91185474395752 1.7441717386245728 0.18886885046958923 0 3
29.89576530456543 12.619668006896973 1.7408907413482666 0.38243526220321655 0 3
31.486175537109375 12.959296226501465 1.8266500234603882 0.37414050102233887 0 3
32.32038497924805 12.964648246765137 1.868219256401062 0.36581552028656006 0 3
32.64447784423828 12.75570297241211 1.8802627325057983 0.9320681691169739 0 3
32.77657699584961 12.469374656677246 1.8813201189041138 0.9081493616104126 0 3
33.18844985961914 12.286211013793945 1.8985815048217773 0.3406662344932556 0 3
34.143157958984375 12.29232406616211 1.9468029737472534 0.33222752809524536 0 3
35.06256103515625 12.26894474029541 1.992867112159729 0.32376134395599365 0 3
36.11862564086914 12.275702476501465 2.046544075012207 0.31526944041252136 0 3
36.75563049316406 12.125272750854492 2.0763940811157227 0.9499582052230835 0 3
36.757930755615234 11.761249542236328 2.07047176361084 0.952673077583313 0 3
36.760215759277344 11.399296760559082 2.0647528171539307 0.9553112983703613 0 3
36.76248550415039 11.039277076721191 2.0592339038848877 0.957872748374939 0 3
36.76475143432617 10.68115234375 2.053903818130493 0.9603567123413086 0 3
36.76700210571289 10.324882507324219 2.0487735271453857 0.9627631902694702 0 3
36.76924133300781 9.970312118530273 2.043827533721924 0.9650924205780029 0 3
36.7714729309082 9.617422103881836 2.0390725135803223 0.967343807220459 0 3
36.878414154052734 9.292577743530273 2.040294647216797 0.37909021973609924 0 3
37.78839874267578 9.16195297241211 2.0860064029693604 0.37078359723091125 0 3
39.14993667602539 9.120780944824219 2.156557559967041 0.22033517062664032 0 3
45.54330062866211 -7.213359355926514 2.4737656116485596 0.591967761516571 0 3
42.093143463134766 -7.054765701293945 2.2897064685821533 0.9445103406906128 0 3
41.49618148803711 -7.338222503662109 2.2607274055480957 0.8216838836669922 0 3
41.21792984008789 -7.67117166519165 2.2492260932922363 0.9591655135154724 0 3
34.598182678222656 -6.76101541519165 1.8912322521209717 0.9739232063293457 0 3
34.405174255371094 -7.044492244720459 1.8840631246566772 0.35682055354118347 0 3
33.88788604736328 -7.256113052368164 1.8592265844345093 0.6343815922737122 0 3
33.60011672973633 -7.510507583618164 1.84705650806427 0.8462879061698914 0 3
30.66305160522461 -7.143574237823486 1.6890593767166138 0.3818056583404541 0 3
30.249202728271484 -7.334023475646973 1.6698238849639893 0.6548941135406494 0 3
29.994535446166992 -7.557968616485596 1.659440517425537 0.8602650165557861 0 3
29.805370330810547 -7.795468807220459 1.65278160572052 0.9765489101409912 0 3
29.678876876831055 -8.047675132751465 1.6497079133987427 0.9783691167831421 0 3
29.612884521484375 -8.31581974029541 1.6501222848892212 0.9906849265098572 0 3
29.49016571044922 -8.567675590515137 1.6474971771240234 0.2847246825695038 0 3
28.5517520904541 -8.573691368103027 1.5993130207061768 0.29330408573150635 0 3
23.40154266357422 -7.256777286529541 1.3144220113754272 0.30185964703559875 0 3
22.669076919555664 -7.253320217132568 1.2768840789794922 0.7072780728340149 0 3
22.40357780456543 -7.390664100646973 1.2656161785125732 0.7135751247406006 0 3
22.301815032958984 -7.579745769500732 1.2636626958847046 0.9553895592689514 0 3
22.173446655273438 -7.758808612823486 1.2602779865264893 0.9579503536224365 0 3
7.647797584533691 -2.753359317779541 0.4360688626766205 0.348463237285614 1050 7
7.48586893081665 -2.7712109088897705 0.4282354712486267 0.30643412470817566 1050 7
7.472733974456787 -2.8428709506988525 0.4289277493953705 0.9826761484146118 1050 7
7.4710373878479 -2.919257640838623 0.4303164482116699 0.782964825630188 1050 7
7.467963695526123 -2.99560546875 0.4316718876361847 0.37270310521125793 1050 7
18.672319412231445 -7.685253620147705 1.0832607746124268 0.9716880321502686 0 3
18.526464462280273 -7.820409774780273 1.078829050064087 0.9692859053611755 0 3
18.456239700317383 -7.986699104309082 1.0788720846176147 0.9756423830986023 0 3
18.235023498535156 -8.086073875427246 1.0701442956924438 0.9971550107002258 0 3
18.226343154907227 -8.278769493103027 1.0739431381225586 0.9605283737182617 0 3
18.198266983032227 -8.463886260986328 1.0767278671264648 0.9580495953559875 0 3
18.149765014648438 -8.64029312133789 1.078407883644104 0.43498221039772034 0 3
17.743085861206055 -8.64291000366211 1.0588058233261108 0.4430328905582428 0 3
17.350927352905273 -8.64540958404541 1.0399889945983887 0.4510471522808075 0 3
17.0816650390625 -8.703535079956055 1.02849543094635 0.45902541279792786 0 3
16.59526252746582 -8.644179344177246 1.003841519355774 0.9540939331054688 0 3
16.368974685668945 -8.713984489440918 0.9948422312736511 0.44335782527923584 0 3
15.911513328552246 -8.65462875366211 0.9717233180999756 0.4827364385128021 0 3
15.516708374023438 -8.621308326721191 0.9523089528083801 0.44546499848365784 0 3
15.358251571655273 -8.714550971984863 0.9473409652709961 0.4983500838279724 0 3
15.045536994934082 -8.716543197631836 0.9328374862670898 0.5060983300209045 0 3
12.181513786315918 -7.204121112823486 0.7592461705207825 0.37356334924697876 0 3
12.1423921585083 -7.32888650894165 0.7608767747879028 0.5214688777923584 0 3
11.902135848999023 -7.330410003662109 0.7499151229858398 0.5290907025337219 0 3
11.668679237365723 -7.331894397735596 0.7393246293067932 0.5366710424423218 0 3
11.357126235961914 -7.279160022735596 0.7236914038658142 0.8648332357406616 0 3
11.233613014221191 -7.343066215515137 0.7199920415878296 0.8692768812179565 0 3
11.111345291137695 -7.406327724456787 0.7163866758346558 0.8736501932144165 0 3
10.990290641784668 -7.468984127044678 0.7128744125366211 0.8779534101486206 0 3
10.848686218261719 -7.515976428985596 0.7080398201942444 0.9834228754043579 0 3
10.8779878616333 -7.681679725646973 0.7144213914871216 0.9982810020446777 0 3
10.808354377746582 -7.778847694396973 0.7144073247909546 0.9983035922050476 0 3
10.738722801208496 -7.876015663146973 0.7144500613212585 0.9982457756996155 0 3
10.669072151184082 -7.973183631896973 0.7145495414733887 0.9981075525283813 0 3
10.599401473999023 -8.070390701293945 0.7147045731544495 0.9978888034820557 0 3
10.529691696166992 -8.16763687133789 0.7149187922477722 0.9975897073745728 0 3
10.3723726272583 -8.195780754089355 0.7092046737670898 0.97759610414505 0 3
10.38866901397705 -8.361210823059082 0.7154201865196228 0.8627347350120544 0 3
9.141486167907715 -7.493632793426514 0.6341400146484375 0.9940829277038574 0 3
8.666594505310059 -7.235371112823486 0.605670154094696 0.517670750617981 0 3
8.596144676208496 -7.308495998382568 0.6053211688995361 0.8489396572113037 0 3
8.461613655090332 -7.325976371765137 0.6004470586776733 0.6577544808387756 0 3
8.310639381408691 -7.326796531677246 0.5943780541419983 0.6644721627235413 0 3
8.162672996520996 -7.327617168426514 0.5884750485420227 0.6711359024047852 0 3
8.017617225646973 -7.328417778015137 0.5827377438545227 0.6777451038360596 0 3
7.788525104522705 -7.248378753662109 0.5707891583442688 0.7901555299758911 0 3
7.734804630279541 -7.329042911529541 0.5716529488563538 0.9430055022239685 0 3
7.645151138305664 -7.375449180603027 0.5698959231376648 0.9459116458892822 0 3
7.556037425994873 -7.421562194824219 0.5681962370872498 0.9487416744232178 0 3
27.55229377746582 27.552265167236328 1.7683041095733643 0.34322798252105713 0 3
28.054779052734375 27.555585861206055 1.784607172012329 0.3813106417655945 0 3
28.565570831298828 27.55794906616211 1.8012908697128296 0.3777785301208496 0 3
29.086307525634766 27.560546875 1.8184523582458496 0.3742128610610962 0 3
29.85297203063965 27.782752990722656 1.8507192134857178 0.675871729850769 0 3
30.399349212646484 27.7862491607666 1.8690526485443115 0.669241726398468 0 3
30.95671272277832 27.789823532104492 1.8879083395004272 0.6625577211380005 0 3
31.525487899780273 27.79345703125 1.9073015451431274 0.6558202505111694 0 3
32.10610580444336 27.79718780517578 1.927262544631958 0.6490300297737122 0 3
32.69907760620117 27.800975799560547 1.9478020668029785 0.6421872973442078 0 3
33.30485153198242 27.80486297607422 1.968935251235962 0.6352929472923279 0 3
33.923973083496094 27.808828353881836 1.9906997680664062 0.6283473968505859 0 3
34.55695343017578 27.812870025634766 2.013117551803589 0.6213515996932983 0 3
30.40009117126465 24.020858764648438 1.758315086364746 0.12246350198984146 0 3
30.168685913085938 23.401229858398438 1.732717514038086 0.7936418056488037 0 3
30.137582778930664 22.946796417236328 1.7190358638763428 0.7983934283256531 0 3
30.14022445678711 22.524335861206055 1.7075814008712769 0.8037471771240234 0 3
30.142826080322266 22.107421875 1.6964187622070312 0.8090360164642334 0 3
30.14539909362793 21.695878982543945 1.6855334043502808 0.814259946346283 0 3
30.1479434967041 21.289569854736328 1.6749212741851807 0.8194181323051453 0 3
30.150453567504883 20.8882999420166 1.6645797491073608 0.8245102167129517 0 3
30.186880111694336 20.514999389648438 1.6563513278961182 0.8289141654968262 0 3
29.068334579467773 19.375741958618164 1.585377812385559 0.050118036568164825 0 3
29.19647789001465 19.084882736206055 1.5829616785049438 0.8393864035606384 0 3
29.19879722595215 18.71449089050293 1.5739151239395142 0.8442103266716003 0 3
29.201093673706055 18.34830093383789 1.5650973320007324 0.8489663600921631 0 3
