ply
format ascii 1.0
element vertex 599
property float32 x
property float32 y
property float32 z
property float32 CosAngle
property uint32 ObjIdx
property uint32 ObjTag
end_header
10.30850601196289 -8.52797794342041 0.556278645992279 0.6458192467689514 0 3
10.2161226272583 -8.529052734375 0.5533550977706909 0.6492340564727783 0 3
10.124677658081055 -8.53011703491211 0.5504711866378784 0.6526361703872681 0 3
10.034198760986328 -8.531171798706055 0.547627866268158 0.6560250520706177 0 3
9.944647789001465 -8.532217025756836 0.5448251366615295 0.6594003438949585 0 3
9.856005668640137 -8.533242225646973 0.5420593023300171 0.6627625226974487 0 3
9.768241882324219 -8.534276962280273 0.5393347144126892 0.6661114692687988 0 3
9.681357383728027 -8.535283088684082 0.536647617816925 0.6694473028182983 0 3
9.595332145690918 -8.53628921508789 0.5339977741241455 0.6727696657180786 0 3
9.51015567779541 -8.537284851074219 0.5313830375671387 0.6760759949684143 0 3
9.425820350646973 -8.538270950317383 0.5288064479827881 0.6793705821037292 0 3
9.34228515625 -8.539237976074219 0.5262646079063416 0.6826518177986145 0 3
9.259540557861328 -8.540214538574219 0.523759126663208 0.6859209537506104 0 3
9.17757797241211 -8.54117202758789 0.5212847590446472 0.6891750693321228 0 3
9.096415519714355 -8.542109489440918 0.5188467502593994 0.6924158930778503 0 3
9.015975952148438 -8.543066024780273 0.5164422392845154 0.6956416368484497 0 3
8.936288833618164 -8.543993949890137 0.5140676498413086 0.6988534331321716 0 3
8.85732364654541 -8.544901847839355 0.5117239356040955 0.7020493149757385 0 3
8.779062271118164 -8.545820236206055 0.5094155669212341 0.7052331566810608 0 3
8.701522827148438 -8.546728134155273 0.5071365237236023 0.7084023356437683 0 3
8.625419616699219 -8.548378944396973 0.5049307346343994 0.7014328241348267 0 3
10.0458984375 10.0458984375 0.35429975390434265 0.7150975465774536 0 20
10.0469331741333 9.957158088684082 0.35275572538375854 0.7182255983352661 0 20
10.047948837280273 9.869189262390137 0.35123366117477417 0.7213389873504639 0 20
10.04897403717041 9.781972885131836 0.34973159432411194 0.7244380712509155 0 20
10.049980163574219 9.695487976074219 0.3482491970062256 0.7275224924087524 0 20
10.050976753234863 9.609745979309082 0.34678635001182556 0.7305922508239746 0 20
10.051972389221191 9.524706840515137 0.34533920884132385 0.7336474657058716 0 20
10.052958488464355 9.440381050109863 0.3439166247844696 0.7366877794265747 0 20
10.053935050964355 9.356738090515137 0.34250974655151367 0.7397131323814392 0 20
10.054902076721191 9.273778915405273 0.341122567653656 0.7427237033843994 0 20
10.055859565734863 9.191484451293945 0.3397514224052429 0.745719313621521 0 20
10.056816101074219 9.109853744506836 0.3383999466896057 0.748699963092804 0 20
10.05776309967041 9.028857231140137 0.3370625376701355 0.7516658306121826 0 20
10.030224800109863 8.923173904418945 0.3347947597503662 0.9481089115142822 0 20
10.116581916809082 8.918974876403809 0.3365263342857361 0.3624224066734314 0 20
10.207284927368164 8.917841911315918 0.338020920753479 0.6489037871360779 0 20
17.631122589111328 15.26488208770752 0.5815893411636353 0.6443730592727661 0 3
17.794374465942383 15.267021179199219 0.584708571434021 0.6409362554550171 0 3
17.95936393737793 15.26918888092041 0.5878732204437256 0.637484610080719 0 3
18.126161575317383 15.271376609802246 0.5910843014717102 0.6340221762657166 0 3
18.294803619384766 15.273592948913574 0.5943392515182495 0.6305469274520874 0 3
18.46529197692871 15.275810241699219 0.5976458787918091 0.6270590424537659 0 3
18.637723922729492 15.278085708618164 0.6010006666183472 0.6235582828521729 0 3
18.81208038330078 15.280390739440918 0.6044058203697205 0.6200454235076904 0 3
18.98843765258789 15.282694816589355 0.6078649759292603 0.6165198087692261 0 3
19.16681671142578 15.285029411315918 0.6113699078559875 0.6129819750785828 0 3
19.3472843170166 15.287402153015137 0.6149340867996216 0.6094317436218262 0 3
19.52985382080078 15.289794921875 0.6185464262962341 0.6058693528175354 0 3
19.714618682861328 15.29222583770752 0.6222192049026489 0.602294385433197 0 3
19.90154266357422 15.29466724395752 0.625946044921875 0.598706066608429 0 3
20.090761184692383 15.297167778015137 0.6297335624694824 0.5951071381568909 0 3
20.282283782958984 15.299667358398438 0.6335763335227966 0.5914962887763977 0 3
20.47616195678711 15.302226066589355 0.6374825835227966 0.5878731608390808 0 3
20.672441482543945 15.304794311523438 0.6414434909820557 0.5842385292053223 0 3
20.87118148803711 15.307401657104492 0.6454766988754272 0.5805920362472534 0 3
21.07244110107422 15.310038566589355 0.6495669484138489 0.5769400000572205 0 3
21.27627944946289 15.312724113464355 0.653729259967804 0.5732700824737549 0 3
21.48275375366211 15.3154296875 0.657948911190033 0.5695885419845581 0 3
21.69189453125 15.3181734085083 0.6622457504272461 0.5658959746360779 0 3
21.90380859375 15.320956230163574 0.6666094660758972 0.5621821880340576 0 3
22.1185245513916 15.323769569396973 0.6710448861122131 0.5584667325019836 0 3
22.336132049560547 15.326630592346191 0.675549328327179 0.554739773273468 0 3
22.556678771972656 15.329530715942383 0.6801354885101318 0.5510019659996033 0 3
22.78025245666504 15.332460403442383 0.684794008731842 0.5472528338432312 0 3
23.00692367553711 15.33544921875 0.6895321607589722 0.5434930324554443 0 3
23.236757278442383 15.33846664428711 0.6943520903587341 0.5397217869758606 0 3
23.46981430053711 15.341523170471191 0.6992495656013489 0.5359398126602173 0 3
23.706161499023438 15.344618797302246 0.7042354941368103 0.5321473479270935 0 3
23.94595718383789 15.347763061523438 0.7092993259429932 0.5283435583114624 0 3
24.189208984375 15.350956916809082 0.7144588828086853 0.5245333909988403 0 3
24.436054229736328 15.354208946228027 0.7197085618972778 0.5207087397575378 0 3
24.686513900756836 15.357489585876465 0.7250503301620483 0.5168735980987549 0 3
24.9407901763916 15.36082935333252 0.7304812669754028 0.5130277872085571 0 3
39.14820098876953 23.629053115844727 1.140342354774475 0.9650748372077942 0 6
20.904510498046875 6.482460975646973 0.5458139181137085 0.9932231903076172 0 6
43.55238342285156 -2.1518163681030273 1.0874453783035278 0.99784255027771 488 7
43.54917907714844 -2.3476171493530273 1.0876210927963257 0.6725907325744629 488 7
37.29517364501953 -2.5145115852355957 0.9321908354759216 0.9653742909431458 0 6
48.95454788208008 -5.738456726074219 1.2292040586471558 0.9541966319084167 0 3
48.55771255493164 -5.912988185882568 1.2198987007141113 0.3024703860282898 0 3
47.81834030151367 -6.040859222412109 1.2019860744476318 0.3067435026168823 0 3
46.85826110839844 -6.133339881896973 1.1785329580307007 0.9500954151153564 0 3
46.15113067626953 -6.25158166885376 1.1614450216293335 0.307106614112854 0 3
45.51392364501953 -6.373437404632568 1.146114468574524 0.3186686635017395 0 3
45.03220748901367 -6.512148380279541 1.1347085237503052 0.32377398014068604 0 3
44.42058563232422 -6.627382755279541 1.12003755569458 0.3280155062675476 0 3
43.68439483642578 -6.718085765838623 1.102217435836792 0.33225029706954956 0 3
43.39806365966797 -6.873574256896973 1.0957608222961426 0.33647865056991577 0 3
42.85890579223633 -6.985487937927246 1.0829339027404785 0.9398577213287354 0 3
41.981407165527344 -7.036035060882568 1.0615487098693848 0.3448900878429413 0 3
41.73337936401367 -7.187206745147705 1.056081771850586 0.34912222623825073 0 3
40.91929626464844 -7.236230373382568 1.0362926721572876 0.3533918857574463 0 3
40.71980285644531 -7.389570236206055 1.0320708751678467 0.3575162887573242 0 3
36.819725036621094 -6.852636337280273 0.9339611530303955 0.3454018831253052 0 3
36.608943939208984 -6.983534812927246 0.929429292678833 0.6218805313110352 0 3
36.372127532958984 -7.10769510269165 0.9242153763771057 0.6253888607025146 0 3
36.275760650634766 -7.258046627044678 0.9225863218307495 0.5446882247924805 0 3
36.19056701660156 -7.410058498382568 0.9212582111358643 0.914993405342102 0 3
36.05841827392578 -7.551796913146973 0.9187188744544983 0.4162052869796753 0 3
35.98187255859375 -7.704492092132568 0.9176669120788574 0.9185711145401001 0 3
35.756248474121094 -7.824160099029541 0.912788987159729 0.9700635075569153 0 3
35.76580047607422 -7.99462890625 0.9139465093612671 0.9969285130500793 0 3
35.741912841796875 -8.15787124633789 0.9142687916755676 0.9965843558311462 0 3
35.717987060546875 -8.321249961853027 0.9146001935005188 0.9962201714515686 0 3
29.695331573486328 -7.058788776397705 0.761177659034729 0.24252450466156006 0 3
28.897783279418945 -7.006367206573486 0.741550862789154 0.918186604976654 0 3
28.727596282958984 -7.101777076721191 0.7379931211471558 0.6631118059158325 0 3
28.55116081237793 -7.194296836853027 0.7342709302902222 0.6664625406265259 0 3
28.382070541381836 -7.287304401397705 0.7307671904563904 0.4987746477127075 0 3
28.410594940185547 -7.430703163146973 0.7323452830314636 0.9353452920913696 0 3
28.329286575317383 -7.545429706573486 0.7311132550239563 0.9369195699691772 0 3
28.248231887817383 -7.65978479385376 0.729903519153595 0.9384751319885254 0 3
28.16745948791504 -7.773730278015137 0.7287066578865051 0.940011739730835 0 3
28.086923599243164 -7.887343406677246 0.7275350689888 0.9415294528007507 0 3
27.950546264648438 -7.984550476074219 0.7249197363853455 0.9908907413482666 0 3
27.79097557067871 -8.0740327835083 0.7217181324958801 0.2900771498680115 0 3
27.34994125366211 -8.079179763793945 0.7111993432044983 0.2943724989891052 0 3
26.92152214050293 -8.084159851074219 0.7009942531585693 0.29865503311157227 0 3
26.50530242919922 -8.08901309967041 0.6910943388938904 0.3029332756996155 0 3
26.10056495666504 -8.093740463256836 0.6814807057380676 0.3072062134742737 0 3
25.706972122192383 -8.098340034484863 0.6721487045288086 0.31147250533103943 0 3
25.324012756347656 -8.102792739868164 0.663077712059021 0.31573253870010376 0 3
24.951210021972656 -8.107148170471191 0.6542584300041199 0.3199865520000458 0 3
24.588232040405273 -8.111376762390137 0.6456918120384216 0.3242335617542267 0 3
24.234588623046875 -8.115508079528809 0.637355625629425 0.3284743130207062 0 3
23.890018463134766 -8.119502067565918 0.6292458772659302 0.3327082395553589 0 3
23.55402374267578 -8.123427391052246 0.6213510036468506 0.3369360566139221 0 3
23.226375579833984 -8.127264976501465 0.6136614680290222 0.34115666151046753 0 3
22.90671730041504 -8.130986213684082 0.606177031993866 0.34537073969841003 0 3
22.59481430053711 -8.13460922241211 0.5988818407058716 0.34957724809646606 0 3
22.290283203125 -8.138163566589355 0.5917736887931824 0.3537769615650177 0 3
21.99287986755371 -8.141650199890137 0.5848413109779358 0.35796958208084106 0 3
21.702383041381836 -8.145029067993164 0.5780831575393677 0.3621549606323242 0 3
21.418495178222656 -8.14834976196289 0.5714920163154602 0.3663332760334015 0 3
21.141016006469727 -8.151581764221191 0.5650548934936523 0.3705039918422699 0 3
20.86971664428711 -8.154746055603027 0.5587777495384216 0.3746672570705414 0 3
20.604354858398438 -8.157841682434082 0.5526474118232727 0.37882325053215027 0 3
20.344764709472656 -8.160849571228027 0.546661376953125 0.38297146558761597 0 3
20.09073257446289 -8.163827896118164 0.5408129692077637 0.38711169362068176 0 3
19.842050552368164 -8.166718482971191 0.5351055860519409 0.3912445902824402 0 3
19.59859275817871 -8.169550895690918 0.5295193195343018 0.3953690826892853 0 3
19.360136032104492 -8.172333717346191 0.524066150188446 0.39948365092277527 0 3
19.126522064208984 -8.175078392028809 0.518729567527771 0.40359506011009216 0 3
18.89763641357422 -8.177743911743164 0.513511061668396 0.40769797563552856 0 3
18.673309326171875 -8.180351257324219 0.5084038972854614 0.4117879271507263 0 3
18.453397750854492 -8.182929039001465 0.5034127831459045 0.41587188839912415 0 3
18.443056106567383 -8.277567863464355 0.5041393637657166 0.9072232842445374 0 3
18.44422721862793 -8.3777437210083 0.5051925778388977 0.9053293466567993 0 3
18.44540023803711 -8.478368759155273 0.506262481212616 0.9034173488616943 0 3
18.139617919921875 -8.436640739440918 0.4989059269428253 0.43212994933128357 0 3
17.933837890625 -8.439032554626465 0.49428191781044006 0.436173677444458 0 3
17.731874465942383 -8.441396713256836 0.4897546172142029 0.4402081072330475 0 3
17.533554077148438 -8.44369125366211 0.48531919717788696 0.4442296326160431 0 3
17.338748931884766 -8.445976257324219 0.4809710681438446 0.44824492931365967 0 3
17.14742088317871 -8.448212623596191 0.47671201825141907 0.45225074887275696 0 3
16.95947265625 -8.450390815734863 0.47253477573394775 0.4562476575374603 0 3
16.774765014648438 -8.45254898071289 0.4684423804283142 0.4602346420288086 0 3
16.593242645263672 -8.45467758178711 0.464424729347229 0.46421298384666443 0 3
16.414764404296875 -8.456748008728027 0.4604913294315338 0.4681820571422577 0 3
16.239316940307617 -8.4587984085083 0.4566290080547333 0.47214144468307495 0 3
16.066776275634766 -8.460800170898438 0.45284026861190796 0.4760911762714386 0 3
15.89706039428711 -8.46280288696289 0.44912323355674744 0.4800317883491516 0 3
15.73012638092041 -8.464735984802246 0.4454730153083801 0.4839625358581543 0 3
15.565858840942383 -8.466670036315918 0.44189512729644775 0.48788341879844666 0 3
15.404218673706055 -8.4685640335083 0.43838104605674744 0.4917943775653839 0 3
15.2451171875 -8.470410346984863 0.43492963910102844 0.49569594860076904 0 3
15.088496208190918 -8.4722261428833 0.43154188990592957 0.49958720803260803 0 3
14.93431568145752 -8.47402286529541 0.4282165467739105 0.5034681558609009 0 3
14.782480239868164 -8.475810050964355 0.4249482750892639 0.5073390007019043 0 3
14.632919311523438 -8.477548599243164 0.4217376708984375 0.5112000703811646 0 3
14.485614776611328 -8.479277610778809 0.4185847342014313 0.5150506496429443 0 3
14.340497970581055 -8.480976104736328 0.41548797488212585 0.518890380859375 0 3
14.19749927520752 -8.482626914978027 0.41244399547576904 0.5227202773094177 0 3
14.056581497192383 -8.48428726196289 0.40945327281951904 0.5265395045280457 0 3
13.917695045471191 -8.485907554626465 0.40651458501815796 0.5303480625152588 0 3
13.780780792236328 -8.487519264221191 0.403622567653656 0.5341459512710571 0 3
13.645791053771973 -8.489091873168945 0.4007812440395355 0.5379332900047302 0 3
13.512723922729492 -8.49063491821289 0.39798736572265625 0.5417091250419617 0 3
13.381474494934082 -8.492148399353027 0.3952401578426361 0.5454745888710022 0 3
13.252001762390137 -8.493671417236328 0.3925369083881378 0.549229085445404 0 3
13.124316215515137 -8.495156288146973 0.38988006114959717 0.5529720187187195 0 3
12.998339653015137 -8.496630668640137 0.3872672915458679 0.5567042827606201 0 3
12.874032974243164 -8.498085975646973 0.384695440530777 0.5604251027107239 0 3
12.751327514648438 -8.499521255493164 0.3821645975112915 0.5641353130340576 0 3
12.630263328552246 -8.500927925109863 0.37967756390571594 0.5678330063819885 0 3
12.510761260986328 -8.502314567565918 0.3772311210632324 0.5715197324752808 0 3
12.392763137817383 -8.503701210021973 0.374815970659256 0.5751953721046448 0 3
12.276298522949219 -8.505048751831055 0.37244459986686707 0.5788589715957642 0 3
12.161269187927246 -8.506386756896973 0.3701097071170807 0.582511305809021 0 3
12.04769515991211 -8.50771427154541 0.3678115904331207 0.586151123046875 0 3
11.935507774353027 -8.509033203125 0.3655489981174469 0.5897796750068665 0 3
11.824677467346191 -8.510321617126465 0.363320916891098 0.5933966636657715 0 3
11.715205192565918 -8.511601448059082 0.36112624406814575 0.5970011949539185 0 3
11.607030868530273 -8.512870788574219 0.35896438360214233 0.6005939245223999 0 3
11.50014591217041 -8.514121055603027 0.35683897137641907 0.6041746139526367 0 3
11.39453125 -8.515341758728027 0.354744553565979 0.6077426671981812 0 3
11.29012680053711 -8.516571998596191 0.35268110036849976 0.6112988591194153 0 3
11.186933517456055 -8.517773628234863 0.3506477177143097 0.61484295129776 0 3
11.084940910339355 -8.51895523071289 0.3486456274986267 0.6183741688728333 0 3
10.984062194824219 -8.520146369934082 0.34667402505874634 0.6218935251235962 0 3
10.88436508178711 -8.5212984085083 0.34472885727882385 0.625399649143219 0 3
10.785761833190918 -8.522440910339355 0.34281355142593384 0.6288937330245972 0 3
10.688222885131836 -8.52359390258789 0.3409266471862793 0.6323754191398621 0 3
10.591767311096191 -8.524725914001465 0.3390658497810364 0.6358435750007629 0 3
10.496356964111328 -8.525830268859863 0.3372341990470886 0.6392993330955505 0 3
10.401952743530273 -8.52694320678711 0.3354290723800659 0.6427422165870667 0 3
10.308573722839355 -8.528027534484863 0.33364608883857727 0.6461723446846008 0 3
10.216181755065918 -8.529101371765137 0.33189329504966736 0.6495891809463501 0 3
10.124755859375 -8.530165672302246 0.33016279339790344 0.6529930830001831 0 3
10.034247398376465 -8.531220436096191 0.3284553587436676 0.656383752822876 0 3
9.944686889648438 -8.532265663146973 0.3267732262611389 0.6597612500190735 0 3
9.85604476928711 -8.533309936523438 0.3251182436943054 0.6631252765655518 0 3
9.768290519714355 -8.53433609008789 0.32348403334617615 0.666475772857666 0 3
9.681406021118164 -8.535341262817383 0.32186827063560486 0.6698134541511536 0 3
9.595399856567383 -8.536337852478027 0.3202824294567108 0.6731371879577637 0 3
9.510214805603027 -8.537343978881836 0.31871384382247925 0.6764476299285889 0 3
9.425878524780273 -8.538320541381836 0.3171676695346832 0.679744303226471 0 3
9.342352867126465 -8.539286613464355 0.315643310546875 0.6830270290374756 0 3
9.259599685668945 -8.540253639221191 0.31413909792900085 0.6862967610359192 0 3
9.177656173706055 -8.541211128234863 0.3126569986343384 0.6895514130592346 0 3
9.096454620361328 -8.542158126831055 0.3111962676048279 0.6927949786186218 0 3
9.016035079956055 -8.543095588684082 0.30975157022476196 0.6960206627845764 0 3
8.936347007751465 -8.544023513793945 0.3083276152610779 0.6992345452308655 0 3
8.857382774353027 -8.544940948486328 0.30692458152770996 0.7024333477020264 0 3
8.77914047241211 -8.545859336853027 0.3055369555950165 0.7056189179420471 0 3
8.701581954956055 -8.546767234802246 0.3041732609272003 0.7087898850440979 0 3
8.6255464553833 -8.54848575592041 0.30285248160362244 0.701810896396637 0 3
10.046025276184082 10.04604434967041 0.11807738989591599 0.7152851223945618 0 20
10.047060012817383 9.957294464111328 0.11756546050310135 0.7184140682220459 0 20
10.048086166381836 9.869316101074219 0.11705672740936279 0.7215286493301392 0 20
10.049100875854492 9.782099723815918 0.1165548712015152 0.7246284484863281 0 20
10.050116539001465 9.695624351501465 0.11606109142303467 0.7277137041091919 0 20
10.05111312866211 9.609872817993164 0.11557525396347046 0.7307842969894409 0 20
10.052108764648438 9.524833679199219 0.1150917038321495 0.7338402271270752 0 20
10.053095817565918 9.440507888793945 0.114618219435215 0.7368812561035156 0 20
10.054061889648438 9.356864929199219 0.11415069550275803 0.7399076819419861 0 20
10.055038452148438 9.273905754089355 0.11368545144796371 0.7429190278053284 0 20
10.05599594116211 9.191601753234863 0.11323028057813644 0.7459155917167664 0 20
10.0569429397583 9.109970092773438 0.11277999728918076 0.748897135257721 0 20
10.057900428771973 9.028974533081055 0.11233443766832352 0.7518634796142578 0 20
10.030302047729492 8.923232078552246 0.11157730221748352 0.9483625888824463 0 20
10.116376876831055 8.91878890991211 0.11235961318016052 0.3625298738479614 0 20
10.207236289978027 8.917792320251465 0.11265166848897934 0.6490870118141174 0 20
17.83367156982422 15.440234184265137 0.19605208933353424 0.764528751373291 0 3
17.835477828979492 15.3023042678833 0.1953224092721939 0.7674136757850647 0 3
17.959238052368164 15.269082069396973 0.19591552019119263 0.6376650929450989 0 3
18.126035690307617 15.271268844604492 0.1969897449016571 0.6342015862464905 0 3
18.294668197631836 15.273476600646973 0.19807296991348267 0.6307255029678345 0 3
18.465166091918945 15.27572250366211 0.1991746425628662 0.6272366642951965 0 3
18.63758659362793 15.277987480163574 0.2002926617860794 0.6237351298332214 0 3
18.811933517456055 15.2802734375 0.2014279067516327 0.6202213764190674 0 3
18.988290786743164 15.282588005065918 0.2025793343782425 0.6166946887969971 0 3
19.166688919067383 15.284921646118164 0.20374846458435059 0.6131556034088135 0 3
19.347158432006836 15.287294387817383 0.20493483543395996 0.6096044778823853 0 3
19.529735565185547 15.28969669342041 0.20613951981067657 0.6060406565666199 0 3
19.7144718170166 15.292109489440918 0.20736709237098694 0.6024649143218994 0 3
19.901424407958984 15.29457950592041 0.20860594511032104 0.5988771319389343 0 3
20.090654373168945 15.297069549560547 0.209868922829628 0.5952770113945007 0 3
20.282148361206055 15.299570083618164 0.21114638447761536 0.5916652083396912 0 3
20.476015090942383 15.302108764648438 0.21245162189006805 0.588041365146637 0 3
20.672304153442383 15.3046875 0.213775172829628 0.5844056010246277 0 3
20.871034622192383 15.307294845581055 0.21511611342430115 0.5807582139968872 0 3
21.624902725219727 15.711435317993164 0.2221580445766449 0.5771037936210632 0 3
21.834110260009766 15.714179039001465 0.22358092665672302 0.5734329223632812 0 3
22.04596710205078 15.716962814331055 0.22502334415912628 0.5697505474090576 0 3
22.26058578491211 15.719775199890137 0.22649185359477997 0.566057026386261 0 3
22.478065490722656 15.722626686096191 0.22798477113246918 0.562351405620575 0 3
22.698427200317383 15.725517272949219 0.22950133681297302 0.5586349368095398 0 3
22.804794311523438 15.648212432861328 0.2298583984375 0.8318777084350586 0 3
22.806747436523438 15.499482154846191 0.229175865650177 0.8343595862388611 0 3
22.808671951293945 15.351601600646973 0.22849929332733154 0.8368246555328369 0 3
23.00676727294922 15.335341453552246 0.2297997921705246 0.5436508655548096 0 3
23.236562728881836 15.338349342346191 0.23140151798725128 0.5398789048194885 0 3
23.46963882446289 15.341415405273438 0.2330351173877716 0.5360957980155945 0 3
23.706024169921875 15.344511032104492 0.234699547290802 0.5323017835617065 0 3
23.94577980041504 15.347665786743164 0.23638640344142914 0.5284973978996277 0 3
24.189043045043945 15.350849151611328 0.23810714483261108 0.5246825814247131 0 3
24.43585968017578 15.35409164428711 0.23985594511032104 0.520856499671936 0 3
24.68634796142578 15.357382774353027 0.24163436889648438 0.517020583152771 0 3
24.94058609008789 15.360722541809082 0.2434423714876175 0.5131737589836121 0 3
39.14857482910156 23.6292667388916 0.3800433278083801 0.9653330445289612 0 6
20.903017044067383 6.481992244720459 0.1818893402814865 0.9935677647590637 0 6
43.552772521972656 -2.1518359184265137 0.36241835355758667 0.998108446598053 488 7
43.54761505126953 -2.3475584983825684 0.36245208978652954 0.6885234713554382 488 7
37.29248046875 -2.514335870742798 0.31064802408218384 0.965711236000061 0 6
48.95501708984375 -5.738515377044678 0.4096560478210449 0.9544512033462524 0 3
48.558631896972656 -5.913066387176514 0.4065626561641693 0.302548348903656 0 3
47.819236755371094 -6.040956974029541 0.400591105222702 0.30682259798049927 0 3
46.85869216918945 -6.133398532867432 0.3927668631076813 0.9503490328788757 0 3
46.154178619384766 -6.251992225646973 0.3870939612388611 0.3160136938095093 0 3
45.51529312133789 -6.373613357543945 0.38197508454322815 0.3187471032142639 0 3
45.0329475402832 -6.512265682220459 0.3781663477420807 0.3238579034805298 0 3
44.42132568359375 -6.627500057220459 0.3732720911502838 0.32810065150260925 0 3
43.68513488769531 -6.718203067779541 0.3673475682735443 0.33233642578125 0 3
43.398826599121094 -6.873691082000732 0.36519134044647217 0.3365657329559326 0 3
42.85931396484375 -6.985566139221191 0.36088621616363525 0.9401090145111084 0 3
41.9873046875 -7.037031173706055 0.35382673144340515 0.34493687748908997 0 3
41.73408126831055 -7.187304496765137 0.3519642651081085 0.3492130637168884 0 3
40.924861907958984 -7.237246036529541 0.3454045057296753 0.35277059674263 0 3
40.7204475402832 -7.389687538146973 0.3439628481864929 0.3576095700263977 0 3
36.8203125 -6.852753639221191 0.311266154050827 0.34549278020858765 0 3
36.60939407348633 -6.983632564544678 0.30975449085235596 0.6220445036888123 0 3
36.372596740722656 -7.107792854309082 0.3080146610736847 0.6255518794059753 0 3
36.27605438232422 -7.258105278015137 0.30747511982917786 0.5448331832885742 0 3
36.190975189208984 -7.41015625 0.3070318400859833 0.9152358770370483 0 3
36.05867004394531 -7.551855087280273 0.30619049072265625 0.4163174033164978 0 3
35.98226547241211 -7.70458984375 0.3058311343193054 0.9188150763511658 0 3
35.75666046142578 -7.824257850646973 0.3042124807834625 0.9703209400177002 0 3
35.766151428222656 -7.994706630706787 0.30459320545196533 0.9971935749053955 0 3
33.36962890625 -7.616445064544678 0.28447553515434265 0.9722373485565186 0 3
31.637401580810547 -7.370585918426514 0.2699783146381378 0.9711781144142151 0 3
29.119813919067383 -6.92199182510376 0.24876128137111664 0.3913829028606415 0 3
28.89808464050293 -7.006444931030273 0.2471366822719574 0.9184312224388123 0 3
28.727949142456055 -7.101855278015137 0.2459539771080017 0.6632869243621826 0 3
28.551504135131836 -7.194375038146973 0.24471557140350342 0.6666387319564819 0 3
28.361162185668945 -7.281913757324219 0.2433624267578125 0.8666068315505981 0 3
28.255477905273438 -7.390117168426514 0.24273361265659332 0.8688308596611023 0 3
28.150331497192383 -7.497734069824219 0.242115780711174 0.8710439205169678 0 3
28.07615089416504 -7.613105297088623 0.2417742908000946 0.9810687899589539 0 3
28.017196655273438 -7.732265472412109 0.24155868589878082 0.9819259643554688 0 3
27.95832061767578 -7.851220607757568 0.24135634303092957 0.982764720916748 0 3
27.95083999633789 -7.984609127044678 0.2415931671857834 0.9911543130874634 0 3
27.931766510009766 -8.114921569824219 0.24174468219280243 0.9905503392219543 0 3
27.91264533996582 -8.245409965515137 0.2418971210718155 0.9899258017539978 0 3
27.861190795898438 -8.366317749023438 0.24177443981170654 0.2987382709980011 0 3
27.430370330810547 -8.371337890625 0.2383587658405304 0.3030134439468384 0 3
27.01154327392578 -8.376220703125 0.23504211008548737 0.3072872459888458 0 3
26.604217529296875 -8.380976676940918 0.2318250983953476 0.3115546405315399 0 3
26.2078800201416 -8.385604858398438 0.22869856655597687 0.31581589579582214 0 3
25.822078704833984 -8.390107154846191 0.22564971446990967 0.3200708031654358 0 3
25.446386337280273 -8.394482612609863 0.22270141541957855 0.32431936264038086 0 3
25.0804386138916 -8.398759841918945 0.21982818841934204 0.3285611867904663 0 3
24.72378921508789 -8.402910232543945 0.21702940762043 0.3327964246273041 0 3
24.3760929107666 -8.406952857971191 0.214303120970726 0.33702516555786133 0 3
24.037012100219727 -8.410907745361328 0.2116509974002838 0.3412470817565918 0 3
23.70619010925293 -8.414765357971191 0.20907104015350342 0.3454621136188507 0 3
23.38336944580078 -8.418524742126465 0.20655441284179688 0.34967005252838135 0 3
23.068212509155273 -8.42220687866211 0.20410308241844177 0.35387086868286133 0 3
22.76045799255371 -8.42578125 0.20171141624450684 0.35806459188461304 0 3
22.45978546142578 -8.429296493530273 0.19938109815120697 0.3622514605522156 0 3
22.166015625 -8.432734489440918 0.19710785150527954 0.36643052101135254 0 3
21.878847122192383 -8.436074256896973 0.1948876976966858 0.37060245871543884 0 3
21.598066329956055 -8.43935489654541 0.1927233785390854 0.3747669458389282 0 3
21.323427200317383 -8.442558288574219 0.19060973823070526 0.3789241313934326 0 3
21.05477523803711 -8.445683479309082 0.18854446709156036 0.3830734193325043 0 3
20.791894912719727 -8.44873046875 0.18652938306331635 0.38721466064453125 0 3
20.534530639648438 -8.451727867126465 0.18455733358860016 0.3913487195968628 0 3
20.28255844116211 -8.454668045043945 0.18263305723667145 0.3954746425151825 0 3
20.03577995300293 -8.457549095153809 0.18074920773506165 0.3995922803878784 0 3
19.794023513793945 -8.460371017456055 0.17890715599060059 0.4037024676799774 0 3
19.557157516479492 -8.463134765625 0.1771080046892166 0.4078042507171631 0 3
19.324989318847656 -8.465849876403809 0.1753506362438202 0.411897748708725 0 3
19.097393035888672 -8.468505859375 0.17362792789936066 0.4159829914569855 0 3
18.87419891357422 -8.471113204956055 0.1719425916671753 0.42006003856658936 0 3
18.655332565307617 -8.473662376403809 0.17029021680355072 0.4241235852241516 0 3
18.44560432434082 -8.478446960449219 0.16872557997703552 0.903657078742981 0 3
18.446786880493164 -8.579482078552246 0.16908523440361023 0.9017263054847717 0 3
18.447967529296875 -8.680927276611328 0.16945037245750427 0.899777352809906 0 3
18.44915008544922 -8.78286075592041 0.16982436180114746 0.897810161113739 0 3
18.127723693847656 -8.729843139648438 0.16722244024276733 0.4443531632423401 0 3
17.926347732543945 -8.732187271118164 0.1657264679670334 0.4483647644519806 0 3
17.728515625 -8.734501838684082 0.1642584204673767 0.45237207412719727 0 3
17.534208297729492 -8.736767768859863 0.16281692683696747 0.45636940002441406 0 3
17.343242645263672 -8.739004135131836 0.16140852868556976 0.4603579342365265 0 3
17.155536651611328 -8.741190910339355 0.16002197563648224 0.464337557554245 0 3
16.97103500366211 -8.74332046508789 0.15866942703723907 0.4683077037334442 0 3
16.78963851928711 -8.745468139648438 0.15733902156352997 0.4722680449485779 0 3
16.61125946044922 -8.747538566589355 0.15603026747703552 0.4762189984321594 0 3
16.435781478881836 -8.7495698928833 0.15475158393383026 0.48016080260276794 0 3
16.26318359375 -8.751571655273438 0.15349288284778595 0.48409250378608704 0 3
16.093368530273438 -8.75357437133789 0.15226256847381592 0.4880141615867615 0 3
15.926239967346191 -8.75551700592041 0.15105240046977997 0.4919265806674957 0 3
15.761757850646973 -8.757441520690918 0.14986053109169006 0.49582892656326294 0 3
15.599814414978027 -8.7593355178833 0.1486927717924118 0.49972108006477356 0 3
15.440409660339355 -8.761191368103027 0.14754652976989746 0.5036033987998962 0 3
15.283427238464355 -8.763036727905273 0.14642302691936493 0.5074753761291504 0 3
15.128798484802246 -8.764823913574219 0.14531676471233368 0.5113375186920166 0 3
14.976503372192383 -8.7666015625 0.14422942698001862 0.5151891112327576 0 3
14.826455116271973 -8.768349647521973 0.1431625336408615 0.5190305113792419 0 3
14.678632736206055 -8.770068168640137 0.14211349189281464 0.5228607654571533 0 3
14.53294849395752 -8.771767616271973 0.14108474552631378 0.5266810655593872 0 3
14.389335632324219 -8.773456573486328 0.14007079601287842 0.5304908752441406 0 3
14.247802734375 -8.775107383728027 0.1390744000673294 0.5342893004417419 0 3
14.10824203491211 -8.776738166809082 0.1380944848060608 0.5380778312683105 0 3
13.970634460449219 -8.778339385986328 0.13713088631629944 0.5418549180030823 0 3
13.834921836853027 -8.77994155883789 0.1361839324235916 0.5456216335296631 0 3
13.70107364654541 -8.781494140625 0.13525451719760895 0.5493768453598022 0 3
13.569071769714355 -8.783026695251465 0.1343371570110321 0.5531209111213684 0 3
13.43880844116211 -8.784550666809082 0.13343916833400726 0.556854248046875 0 3
13.310263633728027 -8.786054611206055 0.1325531005859375 0.5605765581130981 0 3
13.183456420898438 -8.787528991699219 0.13168059289455414 0.5642867088317871 0 3
13.058280944824219 -8.788984298706055 0.13082274794578552 0.5679860711097717 0 3
12.93471622467041 -8.79043960571289 0.12997756898403168 0.571674108505249 0 3
12.812724113464355 -8.791865348815918 0.12914779782295227 0.5753505229949951 0 3
12.692314147949219 -8.793261528015137 0.12832976877689362 0.5790150165557861 0 3
12.573378562927246 -8.794657707214355 0.1275276094675064 0.5826680064201355 0 3
12.455946922302246 -8.796015739440918 0.12673431634902954 0.586309552192688 0 3
12.339961051940918 -8.797372817993164 0.12595458328723907 0.5899388790130615 0 3
12.225370407104492 -8.798710823059082 0.1251867711544037 0.5935564637184143 0 3
12.112187385559082 -8.800028800964355 0.12443099915981293 0.5971623659133911 0 3
12.000350952148438 -8.801337242126465 0.123687744140625 0.6007558107376099 0 3
11.889843940734863 -8.802626609802246 0.12295379489660263 0.6043375134468079 0 3
11.780644416809082 -8.803895950317383 0.12223159521818161 0.6079071760177612 0 3
11.67269515991211 -8.805166244506836 0.12152114510536194 0.6114643216133118 0 3
11.566035270690918 -8.806406021118164 0.12082260102033615 0.6150086522102356 0 3
11.460546493530273 -8.807646751403809 0.12012924253940582 0.6185415983200073 0 3
11.35628890991211 -8.808847427368164 0.11944945901632309 0.6220612525939941 0 3
11.253192901611328 -8.810049057006836 0.11878066509962082 0.625568687915802 0 3
11.151249885559082 -8.811240196228027 0.11811904609203339 0.6290634274482727 0 3
11.050410270690918 -8.812421798706055 0.11747130751609802 0.632546067237854 0 3
10.950674057006836 -8.813583374023438 0.11682922393083572 0.636015772819519 0 3
10.852030754089355 -8.814736366271973 0.11619872599840164 0.6394720673561096 0 3
10.754443168640137 -8.815869331359863 0.11557555943727493 0.6429163813591003 0 3
10.657910346984863 -8.817001342773438 0.11496123671531677 0.6463468074798584 0 3
10.562362670898438 -8.818115234375 0.1143588200211525 0.6497649550437927 0 3
10.4678316116333 -8.819218635559082 0.1137612909078598 0.6531697511672974 0 3
10.374267578125 -8.820322036743164 0.11317397654056549 0.6565614938735962 0 3
10.281679153442383 -8.821386337280273 0.11259444802999496 0.659939706325531 0 3
10.190019607543945 -8.822461128234863 0.11202499270439148 0.6633046865463257 0 3
10.099296569824219 -8.823515892028809 0.1114596500992775 0.6666566133499146 0 3
10.009472846984863 -8.824569702148438 0.11090392619371414 0.6699946522712708 0 3
9.920527458190918 -8.825605392456055 0.11035720258951187 0.6733195781707764 0 3
9.832470893859863 -8.826630592346191 0.10981795936822891 0.6766310930252075 0 3
9.745253562927246 -8.827655792236328 0.1092858836054802 0.6799284815788269 0 3
9.658896446228027 -8.828652381896973 0.10875793546438217 0.6832125782966614 0 3
9.573359489440918 -8.829657554626465 0.10824020206928253 0.6864821910858154 0 3
9.488642692565918 -8.830634117126465 0.10772964358329773 0.6897380948066711 0 3
9.404706954956055 -8.831621170043945 0.10722564160823822 0.6929804682731628 0 3
9.321523666381836 -8.832597732543945 0.10672805458307266 0.6962093710899353 0 3
9.239140510559082 -8.8335542678833 0.1062374860048294 0.6994235515594482 0 3
9.157500267028809 -8.834511756896973 0.10575469583272934 0.7026236653327942 0 3
9.076621055603027 -8.83544921875 0.10527816414833069 0.7058099508285522 0 3
8.99642562866211 -8.836386680603027 0.10480636358261108 0.7089820504188538 0 3
8.916953086853027 -8.83731460571289 0.1043420359492302 0.7121399641036987 0 3
10.046161651611328 10.046171188354492 -0.11808471381664276 0.7152752876281738 0 20
10.04720687866211 9.95742130279541 -0.11756652593612671 0.7184044718742371 0 20
10.048222541809082 9.869452476501465 -0.11706176400184631 0.7215186357498169 0 20
10.049238204956055 9.7822265625 -0.11655883491039276 0.7246186137199402 0 20
10.050244331359863 9.695752143859863 -0.11606460064649582 0.7277038097381592 0 20
10.051249504089355 9.609999656677246 -0.11557876318693161 0.7307744026184082 0 20
10.052236557006836 9.5249605178833 -0.11509780585765839 0.7338303923606873 0 20
10.05322265625 9.440625190734863 -0.11462157964706421 0.7368714213371277 0 20
10.05419921875 9.356982231140137 -0.11415282636880875 0.7398978471755981 0 20
10.055166244506836 9.274023056030273 -0.11369246989488602 0.74290931224823 0 20
10.056132316589355 9.191728591918945 -0.11323486268520355 0.7459057569503784 0 20
10.057080268859863 9.110087394714355 -0.1127830445766449 0.748887300491333 0 20
10.058027267456055 9.029091835021973 -0.11233886331319809 0.7518537640571594 0 20
10.030390739440918 8.923310279846191 -0.1115805059671402 0.9483550786972046 0 20
10.116171836853027 8.918622970581055 -0.11255431920289993 0.3625372648239136 0 20
10.207158088684082 8.917734146118164 -0.11265258491039276 0.6490912437438965 0 20
17.83389663696289 15.4404296875 -0.19605925679206848 0.764518678188324 0 3
17.835712432861328 15.302499771118164 -0.19532057642936707 0.7674037218093872 0 3
17.95914077758789 15.268993377685547 -0.1959216296672821 0.6376689672470093 0 3
18.125926971435547 15.271181106567383 -0.19699065387248993 0.6342054605484009 0 3
18.294559478759766 15.273387908935547 -0.19807617366313934 0.6307294368743896 0 3
18.46504783630371 15.275614738464355 -0.19917769730091095 0.6272405385971069 0 3
18.637470245361328 15.2778902053833 -0.20029540359973907 0.6237391233444214 0 3
18.811824798583984 15.280165672302246 -0.2014300525188446 0.6202251315116882 0 3
18.98817253112793 15.282480239868164 -0.20258238911628723 0.6166985630989075 0 3
19.166561126708984 15.284823417663574 -0.20375487208366394 0.6131594777107239 0 3
19.347021102905273 15.287187576293945 -0.20493926107883453 0.6096082329750061 0 3
19.52960968017578 15.289589881896973 -0.20614409446716309 0.6060445308685303 0 3
19.714336395263672 15.292020797729492 -0.20736663043498993 0.6024692058563232 0 3
19.901288986206055 15.294462203979492 -0.2086128145456314 0.5988811254501343 0 3
20.090497970581055 15.296953201293945 -0.209868922829628 0.5952810645103455 0 3
20.282011032104492 15.299452781677246 -0.211150661110878 0.5916690230369568 0 3
20.475868225097656 15.302001953125 -0.21245421469211578 0.5880453586578369 0 3
20.67216682434082 15.304570198059082 -0.2137744128704071 0.5844095349311829 0 3
20.87089729309082 15.3071870803833 -0.21512053906917572 0.5807620286941528 0 3
21.624755859375 15.711318016052246 -0.22216002643108368 0.5771076679229736 0 3
21.83394432067871 15.714061737060547 -0.22358138859272003 0.5734368562698364 0 3
22.045820236206055 15.716845512390137 -0.2250291407108307 0.5697544813156128 0 3
22.260448455810547 15.719667434692383 -0.22649703919887543 0.5660607814788818 0 3
22.477880477905273 15.722509384155273 -0.22798582911491394 0.562355637550354 0 3
22.698261260986328 15.725409507751465 -0.22950255870819092 0.5586389899253845 0 3
22.80506706237793 15.648407936096191 -0.22986724972724915 0.8318676352500916 0 3
22.80702018737793 15.499648094177246 -0.22919295728206635 0.8343497514724731 0 3
22.8089542388916 15.351777076721191 -0.22851303219795227 0.8368149399757385 0 3
23.00657081604004 15.335214614868164 -0.2298026978969574 0.5436550974845886 0 3
23.236406326293945 15.338232040405273 -0.23140472173690796 0.5398825407028198 0 3
23.46944236755371 15.341288566589355 -0.23303908109664917 0.5360998511314392 0 3
23.705829620361328 15.344404220581055 -0.23470336198806763 0.5323060154914856 0 3
23.945594787597656 15.347538948059082 -0.23639190196990967 0.5285016298294067 0 3
24.188867568969727 15.350741386413574 -0.23810912668704987 0.5246863961219788 0 3
24.435693740844727 15.353974342346191 -0.23985640704631805 0.5208604335784912 0 3
24.686141967773438 15.35726547241211 -0.24163466691970825 0.5170245170593262 0 3
24.940380096435547 15.360595703125 -0.24344848096370697 0.5131778717041016 0 3
39.14894485473633 23.629491806030273 -0.38005951046943665 0.9653246402740479 0 6
33.2822265625 15.844305992126465 -0.3063671886920929 0.008149971254169941 0 4
33.31935501098633 15.678964614868164 -0.30605605244636536 0.008158198557794094 0 4
33.51968765258789 15.589872360229492 -0.30724868178367615 0.4086167514324188 0 4
34.14277267456055 15.6936616897583 -0.312313973903656 0.9144942760467529 0 4
34.34833908081055 15.601777076721191 -0.31354933977127075 0.40040767192840576 0 4
34.90415954589844 15.665682792663574 -0.3179815709590912 0.9190741181373596 0 4
35.2131233215332 15.614852905273438 -0.32015395164489746 0.38985955715179443 0 4
35.68277359008789 15.631855010986328 -0.32378265261650085 0.3857228457927704 0 4
36.11912155151367 15.630155563354492 -0.3271023631095886 0.3815782070159912 0 4
36.605918884277344 15.646151542663574 -0.33087217807769775 0.925998866558075 0 4
37.087615966796875 15.6555757522583 -0.33457762002944946 0.3732668459415436 0 4
37.57599639892578 15.6633882522583 -0.33835798501968384 0.37070876359939575 0 4
38.07437515258789 15.6709566116333 -0.3422009348869324 0.36653703451156616 0 4
38.58425521850586 15.678690910339355 -0.34615448117256165 0.3623579144477844 0 4
39.106014251708984 15.6865816116333 -0.35019195079803467 0.35817161202430725 0 4
39.64015579223633 15.694686889648438 -0.3543415665626526 0.35397785902023315 0 4
40.192108154296875 15.704960823059082 -0.3586483597755432 0.3494255244731903 0 4
40.752986907958984 15.713671684265137 -0.36301863193511963 0.34521743655204773 0 4
41.32777404785156 15.722578048706055 -0.3675054907798767 0.3410015106201172 0 4
41.91691207885742 15.731718063354492 -0.3721189796924591 0.3367794454097748 0 4
42.519569396972656 15.74056625366211 -0.3768315017223358 0.3333641588687897 0 4
43.137733459472656 15.749629020690918 -0.3816799819469452 0.32912972569465637 0 4
43.772010803222656 15.758944511413574 -0.3866630494594574 0.32488852739334106 0 4
44.42310333251953 15.768495559692383 -0.3917808532714844 0.3206409811973572 0 4
45.10171890258789 15.7817964553833 -0.39713776111602783 0.31437617540359497 0 4
45.79310607910156 15.793397903442383 -0.4026060402393341 0.31011277437210083 0 4
46.50376892089844 15.805312156677246 -0.4082006812095642 0.30584320425987244 0 4
47.234588623046875 15.817597389221191 -0.41401243209838867 0.3015674948692322 0 4
20.901561737060547 6.481542587280273 -0.1818801909685135 0.9936378598213196 0 6
45.69099426269531 11.513163566589355 -0.39162901043891907 0.5934813618659973 612 12
45.67966842651367 11.292519569396973 -0.39109405875205994 0.753526508808136 612 12
45.70570373535156 11.08154296875 -0.3908882141113281 0.9365979433059692 612 12
34.00341796875 0.6104882955551147 -0.282662034034729 0.013908129185438156 610 14
33.615291595458984 0.45261716842651367 -0.2794160544872284 0.29501214623451233 610 14
33.550174713134766 0.30113279819488525 -0.278860479593277 0.2904445230960846 610 14
33.53296661376953 0.15046875178813934 -0.278705894947052 0.3002314269542694 610 14
33.530643463134766 -1.9531249563442543e-05 -0.2786843776702881 0.29476070404052734 610 14
33.538299560546875 -0.15052734315395355 -0.2787480056285858 0.2997618317604065 610 14
13.399531364440918 -0.12028320133686066 -0.11137374490499496 0.8159657716751099 593 13
13.381953239440918 -0.18019530177116394 -0.1112324520945549 0.9968082308769226 593 13
13.40853500366211 -0.24074217677116394 -0.11146225035190582 0.7023231387138367 593 13
37.2897834777832 -2.5141406059265137 -0.31063368916511536 0.9657775163650513 0 6
49.24546813964844 -5.772558689117432 -0.412098228931427 0.2982620298862457 0 3
48.52271270751953 -5.908730506896973 -0.40627166628837585 0.3025425374507904 0 3
47.82007598876953 -6.041074275970459 -0.40061232447624207 0.3068171441555023 0 3
47.13671875 -6.169804573059082 -0.395120233297348 0.3110855519771576 0 3
46.4719123840332 -6.295019626617432 -0.38976776599884033 0.31534725427627563 0 3
45.84107208251953 -6.41921854019165 -0.38471710681915283 0.36411193013191223 0 3
45.033729553222656 -6.512382507324219 -0.3781841993331909 0.3238522410392761 0 3
44.4221076965332 -6.627597332000732 -0.3732980191707611 0.3280949592590332 0 3
43.82611083984375 -6.739882469177246 -0.36854034662246704 0.33233073353767395 0 3
43.41466522216797 -6.876191139221191 -0.3653308153152466 0.33604755997657776 0 3
42.83083724975586 -6.980917930603027 -0.3606805205345154 0.34078308939933777 0 3
42.27613067626953 -7.085410118103027 -0.35626935958862305 0.3449985682964325 0 3
41.73472595214844 -7.187441349029541 -0.35197630524635315 0.3492076098918915 0 3
41.20621109008789 -7.286992073059082 -0.3477928042411804 0.3534095585346222 0 3
40.69019317626953 -7.384218692779541 -0.343710333108902 0.35760384798049927 0 3
36.82089614868164 -6.852851390838623 -0.31128478050231934 0.345491498708725 0 3
36.60986328125 -6.983710765838623 -0.3097611963748932 0.6220364570617676 0 3
36.373046875 -7.107890605926514 -0.3080271780490875 0.6255443692207336 0 3
34.74782943725586 -6.952323913574219 -0.294523149728775 0.9778777360916138 0 3
34.78859329223633 -7.123027324676514 -0.2951420545578003 0.9769718647003174 0 3
33.02177810668945 -6.915839672088623 -0.280412882566452 0.9759599566459656 0 3
31.630741119384766 -6.772812366485596 -0.2688623070716858 0.9752882719039917 0 3
31.671640396118164 -6.930390357971191 -0.2694628834724426 0.15601913630962372 0 3
31.5059757232666 -7.042441368103027 -0.26832062005996704 0.9736853837966919 0 3
31.546092987060547 -7.200214862823486 -0.26893675327301025 0.972558856010437 0 3
31.547714233398438 -7.349706649780273 -0.26922744512557983 0.9712949395179749 0 3
29.120223999023438 -6.922070026397705 -0.2487718164920807 0.39137786626815796 0 3
28.898359298706055 -7.006542682647705 -0.24713699519634247 0.9184221029281616 0 3
28.728281021118164 -7.101953029632568 -0.24596023559570312 0.6632794737815857 0 3
28.551836013793945 -7.194472312927246 -0.24471907317638397 0.6666312217712402 0 3
28.382537841796875 -7.287402153015137 -0.24354781210422516 0.4989114999771118 0 3
28.411211013793945 -7.430859088897705 -0.24407820403575897 0.9355677366256714 0 3
28.32990264892578 -7.545585632324219 -0.24366943538188934 0.9371427297592163 0 3
28.24882698059082 -7.65994119644165 -0.2432667464017868 0.938698947429657 0 3
28.168046951293945 -7.773906230926514 -0.2428671270608902 0.9402361512184143 0 3
28.0875186920166 -7.887519359588623 -0.24247786402702332 0.9417544007301331 0 3
27.951141357421875 -7.984716415405273 -0.24160338938236237 0.9911389946937561 0 3
27.932069778442383 -8.115029335021973 -0.24175384640693665 0.9905335307121277 0 3
27.91297721862793 -8.24550724029541 -0.2419062703847885 0.9899086952209473 0 3
27.861572265625 -8.366425514221191 -0.2417956441640854 0.29872927069664 0 3
27.430742263793945 -8.371464729309082 -0.23836562037467957 0.3030093312263489 0 3
27.011884689331055 -8.376338005065918 -0.23505142331123352 0.3072831332683563 0 3
26.604549407958984 -8.381093978881836 -0.23183318972587585 0.31155067682266235 0 3
26.208192825317383 -8.385712623596191 -0.2287036031484604 0.31581202149391174 0 3
25.822372436523438 -8.390204429626465 -0.22566482424736023 0.3200671970844269 0 3
25.44670867919922 -8.394579887390137 -0.22270812094211578 0.3243153393268585 0 3
25.08072280883789 -8.39883804321289 -0.21983200311660767 0.3285573124885559 0 3
24.724071502685547 -8.403007507324219 -0.21703414618968964 0.3327925503253937 0 3
24.37637710571289 -8.407050132751465 -0.21430952847003937 0.33702123165130615 0 3
24.037275314331055 -8.411005973815918 -0.21166549623012543 0.3412432074546814 0 3
23.706483840942383 -8.414862632751465 -0.20908278226852417 0.34545794129371643 0 3
23.383623123168945 -8.418642044067383 -0.20656020939350128 0.3496660888195038 0 3
23.068485260009766 -8.422304153442383 -0.20411406457424164 0.3538668751716614 0 3
22.76067352294922 -8.425898551940918 -0.2017175257205963 0.35806092619895935 0 3
22.46004867553711 -8.429394721984863 -0.19938811659812927 0.3622472286224365 0 3
22.166250228881836 -8.432822227478027 -0.19713516533374786 0.3664264678955078 0 3
21.879091262817383 -8.436161994934082 -0.19489410519599915 0.37059834599494934 0 3
21.598291397094727 -8.439443588256836 -0.1927284151315689 0.37476295232772827 0 3
21.323652267456055 -8.442636489868164 -0.1906144618988037 0.37892022728919983 0 3
21.05500030517578 -8.445771217346191 -0.1885504126548767 0.38306933641433716 0 3
20.66841697692871 -8.398573875427246 -0.18537749350070953 0.9219477772712708 0 3
20.473798751831055 -8.426748275756836 -0.18401503562927246 0.3913513422012329 0 3
20.222578048706055 -8.429677963256836 -0.1820938140153885 0.39547067880630493 0 3
19.97652244567871 -8.432538986206055 -0.1802191138267517 0.39958879351615906 0 3
19.73548698425293 -8.4353609085083 -0.178383931517601 0.40369120240211487 0 3
19.458486557006836 -8.420449256896973 -0.1762196272611618 0.9087831377983093 0 3
19.325185775756836 -8.465927124023438 -0.17535461485385895 0.4118938744068146 0 3
19.097578048706055 -8.468573570251465 -0.1736326515674591 0.4159790873527527 0 3
