ply
format ascii 1.0
element vertex 1393
property float32 x
property float32 y
property float32 z
property float32 CosAngle
property uint32 ObjIdx
property uint32 ObjTag
end_header
18.0705 -17.1226 0.3079 0.4339 0 3
18.1937 -17.1620 0.3094 0.4318 0 3
18.3181 -17.2018 0.3108 0.4298 0 3
18.4436 -17.2420 0.3123 0.4278 0 3
18.5703 -17.2825 0.3138 0.4258 0 3
18.6983 -17.3234 0.3153 0.4237 0 3
18.8275 -17.3647 0.3168 0.4217 0 3
18.9579 -17.4064 0.3183 0.4197 0 3
18.9906 -17.3581 0.3182 0.4176 0 3
19.3106 -17.5713 0.3229 0.4156 0 3
19.4455 -17.6144 0.3245 0.4135 0 3
19.5818 -17.6580 0.3261 0.4115 0 3
19.7194 -17.7020 0.3278 0.4094 0 3
19.7944 -17.6893 0.3283 0.9131 0 3
19.8143 -17.6273 0.3280 0.9140 0 3
20.0488 -17.7554 0.3313 0.4033 0 3
20.1914 -17.8011 0.3329 0.4012 0 3
20.3355 -17.8472 0.3347 0.3992 0 3
20.4811 -17.8937 0.3364 0.3971 0 3
20.5277 -17.8534 0.3365 0.9185 0 3
20.7769 -17.9884 0.3399 0.3930 0 3
20.9270 -18.0364 0.3417 0.3909 0 3
21.0789 -18.0850 0.3435 0.3889 0 3
18.5100 -15.8090 0.3011 0.9220 0 3
18.5280 -15.7526 0.3008 0.9229 0 3
18.6077 -15.7486 0.3015 0.3827 0 3
21.7026 -18.2846 0.3510 0.3806 0 3
21.8628 -18.3358 0.3529 0.3785 0 3
22.0248 -18.3876 0.3549 0.3764 0 3
22.1886 -18.4400 0.3569 0.3744 0 3
22.3542 -18.4930 0.3588 0.3723 0 3
22.5217 -18.5466 0.3609 0.3702 0 3
22.6911 -18.6008 0.3629 0.3681 0 3
22.8624 -18.6556 0.3650 0.3660 0 3
23.0356 -18.7110 0.3671 0.3639 0 3
23.2108 -18.7670 0.3692 0.3618 0 3
23.3882 -18.8237 0.3713 0.3598 0 3
23.5676 -18.8812 0.3735 0.3577 0 3
23.7491 -18.9392 0.3757 0.3556 0 3
23.9327 -18.9980 0.3780 0.3535 0 3
26.3744 -20.8399 0.4158 0.9361 0 3
26.3990 -20.7633 0.4154 0.9369 0 3
26.4234 -20.6867 0.4151 0.9376 0 3
21.5291 -16.7771 0.3376 0.9384 0 3
21.5489 -16.7150 0.3373 0.9392 0 3
21.6634 -16.7261 0.3385 0.3408 0 3
26.5209 -20.3818 0.4137 0.9407 0 3
26.5452 -20.3058 0.4134 0.9415 0 3
26.5695 -20.2300 0.4131 0.9422 0 3
26.5937 -20.1543 0.4127 0.9430 0 3
26.6178 -20.0788 0.4124 0.9437 0 3
26.6419 -20.0033 0.4121 0.9445 0 3
26.6660 -19.9280 0.4118 0.9452 0 3
26.6901 -19.8528 0.4114 0.9459 0 3
26.7168 -19.7797 0.4112 0.9759 0 3
26.7478 -19.7099 0.4110 0.9764 0 3
26.8678 -19.7054 0.4121 0.9481 0 3
26.8918 -19.6304 0.4118 0.9488 0 3
24.2475 -17.6168 0.3707 0.9495 0 3
24.2945 -17.5679 0.3708 0.3111 0 3
26.9636 -19.4059 0.4109 0.9509 0 3
26.9874 -19.3313 0.4106 0.9516 0 3
27.0112 -19.2568 0.4103 0.9523 0 3
27.0350 -19.1824 0.4100 0.9530 0 3
27.0588 -19.1081 0.4097 0.9536 0 3
27.0825 -19.0339 0.4094 0.9543 0 3
27.1062 -18.9598 0.4092 0.9550 0 3
27.1299 -18.8859 0.4089 0.9556 0 3
27.1535 -18.8120 0.4086 0.9563 0 3
27.0789 -18.6705 0.4068 0.9200 0 3
27.0949 -18.5920 0.4065 0.9209 0 3
27.1170 -18.5178 0.4062 0.9582 0 3
27.1404 -18.4445 0.4059 0.9589 0 3
27.1637 -18.3715 0.4056 0.9595 0 3
27.1871 -18.2985 0.4054 0.9601 0 3
27.2104 -18.2256 0.4051 0.9608 0 3
27.2337 -18.1528 0.4048 0.9614 0 3
27.2569 -18.0801 0.4046 0.9620 0 3
27.2801 -18.0075 0.4043 0.9626 0 3
27.3033 -17.9349 0.4041 0.9632 0 3
27.3265 -17.8625 0.4038 0.9638 0 3
27.3496 -17.7902 0.4036 0.9644 0 3
27.3727 -17.7179 0.4033 0.9650 0 3
27.3958 -17.6457 0.4031 0.9656 0 3
27.4189 -17.5737 0.4028 0.9662 0 3
27.4419 -17.5017 0.4026 0.9667 0 3
27.4649 -17.4298 0.4023 0.9673 0 3
27.4879 -17.3579 0.4021 0.9679 0 3
27.5108 -17.2862 0.4019 0.9684 0 3
27.5337 -17.2145 0.4016 0.9690 0 3
27.5566 -17.1429 0.4014 0.9695 0 3
27.5795 -17.0715 0.4012 0.9701 0 3
27.8348 -17.1432 0.4043 0.2400 0 3
28.1286 -17.2372 0.4081 0.2378 0 3
28.4277 -17.3329 0.4118 0.2356 0 3
28.7325 -17.4304 0.4157 0.2335 0 3
18.7895 -11.3409 0.2715 0.6629 0 6
18.8062 -11.2936 0.2713 0.9331 0 6
29.9689 -17.9056 0.4318 0.2269 0 3
30.2339 -17.9720 0.4350 0.9743 0 3
30.3522 -17.9502 0.4362 0.2876 0 3
30.6880 -18.0560 0.4404 0.2203 0 3
31.0368 -18.1676 0.4448 0.2182 0 3
31.4031 -18.2875 0.4495 0.1706 0 3
31.7558 -18.3976 0.4539 0.2138 0 3
32.1265 -18.5162 0.4586 0.2116 0 3
32.5049 -18.6373 0.4634 0.2094 0 3
32.8950 -18.7630 0.4684 0.2522 0 3
33.2861 -18.8872 0.4734 0.2050 0 3
33.6893 -19.0162 0.4785 0.2028 0 3
34.1014 -19.1480 0.4837 0.2006 0 3
34.5226 -19.2828 0.4891 0.1984 0 3
34.9533 -19.4206 0.4946 0.1962 0 3
35.3937 -19.5615 0.5002 0.1940 0 3
35.8444 -19.7056 0.5059 0.1918 0 3
36.3054 -19.8531 0.5118 0.1896 0 3
42.7370 -9.4522 0.5414 0.9966 0 6
49.3691 -4.5550 0.6132 0.2159 0 3
48.8833 -4.3995 0.6071 0.2181 0 3
48.4070 -4.2471 0.6010 0.2203 0 3
47.9403 -4.0979 0.5951 0.2225 0 3
47.4826 -3.9514 0.5893 0.2246 0 3
47.0336 -3.8078 0.5837 0.2268 0 3
46.5933 -3.6669 0.5781 0.2290 0 3
46.1613 -3.5287 0.5726 0.2312 0 3
45.7373 -3.3931 0.5673 0.2334 0 3
45.3213 -3.2600 0.5620 0.2356 0 3
44.9128 -3.1293 0.5569 0.2377 0 3
44.5119 -3.0010 0.5518 0.2399 0 3
44.1181 -2.8750 0.5469 0.2421 0 3
43.7312 -2.7513 0.5420 0.2443 0 3
43.3512 -2.6297 0.5372 0.2465 0 3
43.0222 -2.5129 0.5330 0.9682 0 3
43.0528 -2.4178 0.5334 0.9676 0 3
43.0834 -2.3225 0.5337 0.9670 0 3
43.1140 -2.2272 0.5340 0.9665 0 3
43.1447 -2.1316 0.5343 0.9659 0 3
43.1755 -2.0361 0.5346 0.9653 0 3
43.2062 -1.9404 0.5350 0.9647 0 3
43.2370 -1.8446 0.5353 0.9641 0 3
43.2678 -1.7486 0.5356 0.9635 0 3
43.2987 -1.6526 0.5359 0.9629 0 3
43.3296 -1.5563 0.5363 0.9623 0 3
43.3606 -1.4600 0.5366 0.9617 0 3
43.3915 -1.3636 0.5370 0.9611 0 3
43.4226 -1.2671 0.5373 0.9605 0 3
43.4537 -1.1704 0.5377 0.9598 0 3
43.4848 -1.0736 0.5380 0.9592 0 3
43.5159 -0.9767 0.5384 0.9586 0 3
43.5471 -0.8795 0.5387 0.9579 0 3
43.5783 -0.7824 0.5391 0.9573 0 3
43.6096 -0.6850 0.5395 0.9566 0 3
43.6410 -0.5876 0.5398 0.9560 0 3
43.6723 -0.4900 0.5402 0.9553 0 3
43.7037 -0.3923 0.5406 0.9547 0 3
43.7352 -0.2945 0.5410 0.9540 0 3
43.7667 -0.1964 0.5414 0.9533 0 3
43.7982 -0.0983 0.5417 0.9526 0 3
43.8298 0.0000 0.5421 0.9519 0 3
43.8615 0.0985 0.5425 0.9513 0 3
43.8931 0.1970 0.5429 0.9506 0 3
43.9248 0.2957 0.5433 0.9499 0 3
43.9566 0.3946 0.5437 0.9492 0 3
43.9884 0.4936 0.5441 0.9484 0 3
44.0203 0.5928 0.5445 0.9477 0 3
44.0522 0.6921 0.5449 0.9470 0 3
44.0842 0.7915 0.5454 0.9463 0 3
44.1162 0.8911 0.5458 0.9456 0 3
44.1483 0.9908 0.5462 0.9448 0 3
44.1804 1.0908 0.5466 0.9441 0 3
44.2125 1.1908 0.5471 0.9434 0 3
44.2447 1.2911 0.5475 0.9426 0 3
44.2770 1.3915 0.5479 0.9419 0 3
44.3094 1.4920 0.5484 0.9411 0 3
44.3417 1.5927 0.5488 0.9403 0 3
44.3742 1.6936 0.5493 0.9396 0 3
44.4066 1.7946 0.5497 0.9388 0 3
44.4391 1.8959 0.5502 0.9380 0 3
44.4717 1.9972 0.5506 0.9373 0 3
44.5044 2.0988 0.5511 0.9365 0 3
44.5371 2.2005 0.5515 0.9357 0 3
44.5698 2.3024 0.5520 0.9349 0 3
44.6026 2.4044 0.5525 0.9341 0 3
44.6354 2.5066 0.5530 0.9333 0 3
44.6684 2.6090 0.5534 0.9325 0 3
44.7014 2.7116 0.5539 0.9317 0 3
44.7344 2.8145 0.5544 0.9309 0 3
44.7674 2.9174 0.5549 0.9300 0 3
44.8006 3.0205 0.5554 0.9292 0 3
44.8338 3.1238 0.5559 0.9284 0 3
44.8671 3.2273 0.5564 0.9275 0 3
44.9004 3.3310 0.5569 0.9267 0 3
44.9338 3.4349 0.5574 0.9259 0 3
44.9672 3.5389 0.5579 0.9250 0 3
45.0007 3.6432 0.5584 0.9241 0 3
45.0343 3.7477 0.5589 0.9233 0 3
45.0680 3.8524 0.5595 0.9224 0 3
45.1016 3.9572 0.5600 0.9216 0 3
45.1354 4.0623 0.5605 0.9207 0 3
45.1692 4.1675 0.5611 0.9198 0 3
45.2031 4.2729 0.5616 0.9189 0 3
45.2371 4.3786 0.5622 0.9180 0 3
45.2711 4.4845 0.5627 0.9171 0 3
45.3052 4.5905 0.5632 0.9163 0 3
45.3393 4.6967 0.5638 0.9154 0 3
45.3736 4.8033 0.5644 0.9144 0 3
45.4079 4.9099 0.5649 0.9135 0 3
45.4422 5.0169 0.5655 0.9126 0 3
45.4766 5.1240 0.5661 0.9117 0 3
45.5111 5.2313 0.5666 0.9108 0 3
45.5457 5.3388 0.5672 0.9099 0 3
45.5804 5.4467 0.5678 0.9089 0 3
45.6150 5.5547 0.5684 0.9080 0 3
45.6498 5.6629 0.5690 0.9070 0 3
45.6847 5.7713 0.5696 0.9061 0 3
45.7196 5.8799 0.5702 0.9051 0 3
45.7546 5.9888 0.5708 0.9042 0 3
45.7897 6.0980 0.5714 0.9032 0 3
45.8248 6.2073 0.5720 0.9023 0 3
45.8601 6.3170 0.5726 0.9013 0 3
45.8954 6.4269 0.5732 0.9003 0 3
45.9308 6.5369 0.5738 0.8993 0 3
45.9662 6.6472 0.5745 0.8984 0 3
46.0017 6.7578 0.5751 0.8974 0 3
46.0373 6.8686 0.5757 0.8964 0 3
46.0730 6.9796 0.5764 0.8954 0 3
46.1088 7.0909 0.5770 0.8944 0 3
46.1446 7.2025 0.5777 0.8934 0 3
46.1806 7.3143 0.5783 0.8924 0 3
46.2166 7.4263 0.5790 0.8913 0 3
46.2527 7.5386 0.5797 0.8903 0 3
46.2889 7.6512 0.5803 0.8893 0 3
46.3251 7.7641 0.5810 0.8883 0 3
46.3615 7.8771 0.5817 0.8872 0 3
46.3979 7.9905 0.5823 0.8862 0 3
24.4644 4.2698 0.3072 0.9640 0 6
24.4899 4.3309 0.3077 0.2940 0 6
46.5077 8.3321 0.5844 0.8831 0 3
46.5445 8.4466 0.5851 0.8820 0 3
46.5814 8.5613 0.5858 0.8810 0 3
46.6183 8.6763 0.5865 0.8799 0 3
46.6553 8.7915 0.5872 0.8788 0 3
46.6925 8.9071 0.5880 0.8777 0 3
46.7297 9.0229 0.5887 0.8767 0 3
46.7670 9.1390 0.5894 0.8756 0 3
46.8044 9.2554 0.5901 0.8745 0 3
46.8419 9.3721 0.5909 0.8734 0 3
46.8795 9.4891 0.5916 0.8723 0 3
46.9172 9.6064 0.5924 0.8712 0 3
46.9550 9.7239 0.5931 0.8701 0 3
46.9929 9.8418 0.5939 0.8690 0 3
47.0309 9.9600 0.5946 0.8679 0 3
47.0690 10.0785 0.5954 0.8668 0 3
47.1072 10.1972 0.5962 0.8657 0 3
47.1454 10.3163 0.5969 0.8645 0 3
47.1838 10.4357 0.5977 0.8634 0 3
35.8983 8.0243 0.4550 0.6154 0 21
35.9837 8.1281 0.4563 0.6136 0 21
36.0696 8.2327 0.4576 0.6119 0 21
36.1559 8.3378 0.4590 0.6101 0 21
33.8874 7.8948 0.4304 0.7842 0 21
36.3303 8.5499 0.4616 0.6065 0 21
36.4181 8.6568 0.4630 0.6048 0 21
36.4808 8.7583 0.4641 0.8700 0 21
36.5076 8.8514 0.4646 0.8689 0 21
36.5344 8.9448 0.4652 0.8678 0 21
36.5613 9.0383 0.4658 0.8666 0 21
36.5883 9.1322 0.4664 0.8655 0 21
36.6154 9.2263 0.4671 0.8644 0 21
36.6425 9.3206 0.4677 0.8633 0 21
36.6696 9.4152 0.4683 0.8621 0 21
36.6969 9.5100 0.4689 0.8610 0 21
36.7242 9.6051 0.4695 0.8599 0 21
36.7267 9.6938 0.4698 0.5732 0 21
29.9453 7.9758 0.3832 0.9835 0 6
11.0461 2.9687 0.1415 0.8218 0 6
11.0222 2.9888 0.1413 0.8231 0 6
10.9985 3.0089 0.1410 0.8244 0 6
10.9891 3.0328 0.1410 0.9826 0 6
10.9870 3.0587 0.1411 0.9822 0 6
10.9848 3.0847 0.1411 0.9817 0 6
11.0023 3.1163 0.1414 0.5583 0 6
11.0321 3.1515 0.1419 0.5565 0 6
36.4336 10.4963 0.4690 0.9969 0 21
36.4036 10.5763 0.4689 0.9970 0 21
36.3452 10.6478 0.4684 0.8859 0 21
36.2787 10.7168 0.4679 0.8869 0 21
36.2124 10.7856 0.4674 0.8880 0 21
36.1461 10.8542 0.4668 0.8890 0 21
36.0801 10.9227 0.4663 0.8900 0 21
36.0141 10.9910 0.4657 0.8911 0 21
35.9484 11.0592 0.4652 0.8921 0 21
35.8828 11.1272 0.4647 0.8931 0 21
35.8174 11.1951 0.4642 0.8941 0 21
35.7520 11.2628 0.4636 0.8951 0 21
35.6470 11.3177 0.4626 0.4544 0 21
35.4655 11.3478 0.4606 0.4564 0 21
35.2858 11.3776 0.4586 0.4584 0 21
35.1075 11.4072 0.4566 0.4604 0 21
34.9308 11.4364 0.4546 0.4624 0 21
34.7556 11.4655 0.4527 0.4644 0 21
33.7507 11.2180 0.4401 0.9594 0 21
41.2846 18.0859 0.5575 0.6838 0 3
41.1456 18.1351 0.5562 0.6855 0 3
41.0071 18.1841 0.5549 0.6871 0 3
40.8694 18.2329 0.5535 0.6887 0 3
40.7322 18.2814 0.5522 0.6903 0 3
40.5957 18.3297 0.5509 0.6920 0 3
40.4599 18.3778 0.5497 0.6936 0 3
40.3390 18.4322 0.5486 0.5048 0 3
40.2092 18.4820 0.5474 0.5059 0 3
40.2002 18.5873 0.5478 0.0186 0 3
40.2506 18.7204 0.5491 0.0185 0 3
40.2966 18.8519 0.5503 0.7016 0 3
27.2725 12.8335 0.3728 0.4614 0 6
27.2124 12.8799 0.3725 0.8790 0 6
39.8970 18.9933 0.5465 0.7064 0 3
39.7650 19.0400 0.5453 0.7080 0 3
39.6335 19.0865 0.5441 0.7096 0 3
34.6067 16.7615 0.4756 0.6935 0 3
34.4886 16.8000 0.4745 0.6952 0 3
34.3712 16.8383 0.4734 0.6968 0 3
34.2543 16.8765 0.4723 0.6984 0 3
34.1379 16.9144 0.4712 0.7000 0 3
34.0221 16.9522 0.4702 0.7016 0 3
33.9068 16.9898 0.4691 0.7032 0 3
33.9195 17.0915 0.4698 0.7127 0 3
33.9561 17.2057 0.4708 0.7111 0 3
33.9929 17.3203 0.4719 0.7095 0 3
34.0299 17.4354 0.4729 0.7079 0 3
34.0670 17.5511 0.4740 0.7063 0 3
34.1043 17.6672 0.4751 0.7047 0 3
37.8200 19.6999 0.5275 0.6820 0 3
37.7293 19.7604 0.5268 0.7329 0 3
37.6066 19.8038 0.5257 0.7344 0 3
37.4844 19.8470 0.5246 0.7359 0 3
37.3628 19.8901 0.5235 0.7374 0 3
37.2416 19.9330 0.5225 0.7390 0 3
37.1209 19.9757 0.5214 0.7405 0 3
37.0008 20.0182 0.5203 0.7420 0 3
36.8810 20.0605 0.5193 0.7435 0 3
36.7618 20.1027 0.5183 0.7450 0 3
36.6431 20.1447 0.5172 0.7465 0 3
34.4481 19.0388 0.4868 0.7262 0 3
34.3324 19.0756 0.4858 0.7278 0 3
34.2173 19.1122 0.4848 0.7293 0 3
34.1026 19.1487 0.4838 0.7308 0 3
33.9884 19.1850 0.4828 0.7324 0 3
33.8747 19.2212 0.4818 0.7339 0 3
33.7614 19.2572 0.4808 0.7354 0 3
33.6487 19.2931 0.4798 0.7369 0 3
33.5364 19.3288 0.4788 0.7384 0 3
33.4245 19.3644 0.4778 0.7399 0 3
33.3131 19.3998 0.4768 0.7415 0 3
33.2021 19.4351 0.4759 0.7430 0 3
33.0916 19.4702 0.4749 0.7445 0 3
32.9815 19.5052 0.4740 0.7460 0 3
32.8719 19.5401 0.4730 0.7474 0 3
32.7627 19.5748 0.4721 0.7489 0 3
32.6539 19.6094 0.4711 0.7504 0 3
32.5456 19.6439 0.4702 0.7519 0 3
32.4378 19.6782 0.4693 0.7534 0 3
32.3303 19.7124 0.4684 0.7549 0 3
32.2558 19.7664 0.4679 0.6542 0 3
32.2952 19.8904 0.4691 0.6525 0 3
32.3348 20.0150 0.4704 0.6508 0 3
32.3746 20.1402 0.4716 0.6491 0 3
32.4147 20.2662 0.4729 0.6474 0 3
32.3526 20.3285 0.4726 0.7620 0 3
32.2455 20.3622 0.4717 0.7635 0 3
14.1146 8.9575 0.2068 0.7738 0 3
14.0687 8.9726 0.2064 0.7752 0 3
14.0229 8.9878 0.2060 0.7766 0 3
13.9773 9.0029 0.2056 0.7780 0 3
13.9319 9.0179 0.2053 0.7794 0 3
13.8866 9.0328 0.2049 0.7808 0 3
13.8415 9.0478 0.2045 0.7822 0 3
13.7965 9.0626 0.2042 0.7836 0 3
13.7517 9.0774 0.2038 0.7850 0 3
13.7070 9.0922 0.2035 0.7864 0 3
13.6626 9.1069 0.2031 0.7878 0 3
13.6183 9.1216 0.2027 0.7892 0 3
13.5741 9.1361 0.2024 0.7906 0 3
13.5301 9.1507 0.2020 0.7919 0 3
13.4862 9.1652 0.2017 0.7933 0 3
13.4425 9.1797 0.2013 0.7947 0 3
13.3989 9.1941 0.2010 0.7960 0 3
13.3555 9.2084 0.2007 0.7974 0 3
13.3122 9.2228 0.2003 0.7987 0 3
13.2691 9.2370 0.2000 0.8001 0 3
13.2261 9.2512 0.1996 0.8014 0 3
13.1833 9.2654 0.1993 0.8028 0 3
13.1406 9.2795 0.1990 0.8041 0 3
13.0980 9.2935 0.1986 0.8054 0 3
13.0556 9.3076 0.1983 0.8068 0 3
13.0134 9.3216 0.1980 0.8081 0 3
12.9712 9.3355 0.1977 0.8094 0 3
12.9292 9.3493 0.1973 0.8107 0 3
12.8874 9.3632 0.1970 0.8120 0 3
12.8456 9.3771 0.1967 0.8133 0 3
12.8236 9.4051 0.1967 0.5787 0 3
12.8430 9.4638 0.1973 0.5769 0 3
12.8627 9.5229 0.1980 0.5750 0 3
12.8824 9.5823 0.1986 0.5732 0 3
12.9023 9.6422 0.1992 0.5714 0 3
12.9223 9.7024 0.1999 0.5695 0 3
12.9425 9.7630 0.2005 0.5677 0 3
12.9627 9.8240 0.2012 0.5658 0 3
12.9396 9.8523 0.2012 0.8258 0 3
12.8978 9.8662 0.2009 0.8270 0 3
12.8560 9.8801 0.2006 0.8283 0 3
12.8144 9.8939 0.2002 0.8296 0 3
12.7729 9.9077 0.1999 0.8308 0 3
12.7315 9.9214 0.1996 0.8320 0 3
12.6903 9.9351 0.1993 0.8333 0 3
12.6492 9.9488 0.1991 0.8345 0 3
12.6081 9.9624 0.1988 0.8358 0 3
12.5673 9.9760 0.1985 0.8370 0 3
12.5265 9.9896 0.1982 0.8382 0 3
12.4859 10.0031 0.1979 0.8394 0 3
12.4453 10.0165 0.1976 0.8407 0 3
12.4049 10.0300 0.1973 0.8419 0 3
12.3646 10.0434 0.1970 0.8431 0 3
12.3245 10.0567 0.1968 0.8443 0 3
12.2844 10.0700 0.1965 0.8455 0 3
12.2445 10.0833 0.1962 0.8467 0 3
12.2046 10.0965 0.1959 0.8479 0 3
12.1649 10.1097 0.1956 0.8491 0 3
12.1253 10.1229 0.1954 0.8502 0 3
12.0858 10.1361 0.1951 0.8514 0 3
12.0464 10.1492 0.1948 0.8526 0 3
12.0071 10.1622 0.1946 0.8538 0 3
11.9679 10.1752 0.1943 0.8549 0 3
11.9288 10.1882 0.1940 0.8561 0 3
11.8899 10.2011 0.1938 0.8573 0 3
11.8510 10.2141 0.1935 0.8584 0 3
11.8122 10.2269 0.1933 0.8596 0 3
11.7736 10.2398 0.1930 0.8607 0 3
11.7350 10.2526 0.1927 0.8618 0 3
11.2779 9.8979 0.1856 0.8629 0 3
11.2410 9.9102 0.1854 0.8641 0 3
11.2041 9.9225 0.1851 0.8652 0 3
11.1673 9.9347 0.1849 0.8663 0 3
11.1306 9.9469 0.1846 0.8674 0 3
11.0940 9.9591 0.1844 0.8686 0 3
11.0575 9.9712 0.1842 0.8697 0 3
11.0211 9.9834 0.1839 0.8708 0 3
10.9848 9.9954 0.1837 0.8719 0 3
10.9485 10.0074 0.1835 0.8730 0 3
10.9124 10.0195 0.1832 0.8741 0 3
10.8763 10.0314 0.1830 0.8752 0 3
10.8404 10.0433 0.1828 0.8762 0 3
10.8045 10.0553 0.1826 0.8773 0 3
10.7688 10.0672 0.1823 0.8784 0 3
10.7330 10.0790 0.1821 0.8795 0 3
10.6975 10.0908 0.1819 0.8805 0 3
10.6619 10.1026 0.1817 0.8816 0 3
10.6265 10.1144 0.1815 0.8826 0 3
10.5911 10.1262 0.1812 0.8837 0 3
10.5559 10.1379 0.1810 0.8847 0 3
10.5207 10.1496 0.1808 0.8858 0 3
10.4856 10.1613 0.1806 0.8868 0 3
10.4506 10.1729 0.1804 0.8879 0 3
10.4156 10.1845 0.1802 0.8889 0 3
10.3807 10.1961 0.1800 0.8899 0 3
10.3460 10.2077 0.1798 0.8909 0 3
10.3113 10.2191 0.1796 0.8920 0 3
10.2766 10.2306 0.1794 0.8930 0 3
17.8379 -17.8379 0.1040 0.8889 0 3
17.8573 -17.7773 0.1039 0.8899 0 3
17.8766 -17.7169 0.1038 0.8909 0 3
17.8959 -17.6566 0.1036 0.8919 0 3
17.9151 -17.5964 0.1035 0.8929 0 3
17.9343 -17.5363 0.1034 0.8939 0 3
17.9535 -17.4764 0.1033 0.8950 0 3
17.9726 -17.4166 0.1032 0.8960 0 3
17.9917 -17.3570 0.1031 0.8969 0 3
18.0107 -17.2975 0.1030 0.8979 0 3
18.0297 -17.2382 0.1028 0.8989 0 3
18.0486 -17.1789 0.1027 0.8999 0 3
18.0675 -17.1198 0.1026 0.9009 0 3
18.1905 -17.1589 0.1031 0.4319 0 3
18.3148 -17.1987 0.1036 0.4299 0 3
18.4403 -17.2389 0.1041 0.4279 0 3
18.5670 -17.2794 0.1046 0.4259 0 3
18.6949 -17.3203 0.1051 0.4238 0 3
18.8240 -17.3615 0.1056 0.4218 0 3
18.9544 -17.4033 0.1061 0.4198 0 3
18.9871 -17.3549 0.1061 0.4177 0 3
19.3070 -17.5680 0.1076 0.4157 0 3
19.4419 -17.6111 0.1081 0.4136 0 3
19.5781 -17.6547 0.1087 0.4116 0 3
19.7157 -17.6987 0.1092 0.4095 0 3
19.7941 -17.6890 0.1094 0.9132 0 3
19.8139 -17.6270 0.1093 0.9141 0 3
20.0449 -17.7521 0.1104 0.4034 0 3
20.1875 -17.7977 0.1110 0.4013 0 3
20.3316 -17.8438 0.1115 0.3993 0 3
20.4771 -17.8903 0.1121 0.3972 0 3
20.5274 -17.8532 0.1122 0.9186 0 3
20.7728 -17.9848 0.1133 0.3931 0 3
20.9229 -18.0329 0.1139 0.3910 0 3
21.0747 -18.0814 0.1145 0.3890 0 3
18.5097 -15.8088 0.1003 0.9221 0 3
18.5277 -15.7523 0.1003 0.9229 0 3
18.6039 -15.7454 0.1005 0.3828 0 3
21.6983 -18.2809 0.1170 0.3807 0 3
21.8584 -18.3321 0.1176 0.3786 0 3
22.0203 -18.3839 0.1183 0.3765 0 3
22.1840 -18.4362 0.1189 0.3745 0 3
22.3496 -18.4891 0.1196 0.3724 0 3
22.5225 -18.5472 0.1203 0.3705 0 3
22.6917 -18.6013 0.1210 0.3684 0 3
22.8629 -18.6560 0.1217 0.3664 0 3
23.0337 -18.7094 0.1223 0.4838 0 3
23.2059 -18.7631 0.1230 0.3619 0 3
23.3832 -18.8198 0.1237 0.3599 0 3
23.5625 -18.8771 0.1245 0.3578 0 3
23.7439 -18.9352 0.1252 0.3557 0 3
23.9275 -18.9939 0.1259 0.3536 0 3
26.3740 -20.8396 0.1386 0.9362 0 3
26.3985 -20.7629 0.1385 0.9369 0 3
26.4230 -20.6864 0.1384 0.9377 0 3
26.4474 -20.6100 0.1382 0.9385 0 3
21.5486 -16.7148 0.1124 0.9393 0 3
21.6585 -16.7224 0.1128 0.3409 0 3
26.5205 -20.3814 0.1379 0.9408 0 3
26.5448 -20.3055 0.1378 0.9416 0 3
26.5690 -20.2297 0.1377 0.9423 0 3
26.5932 -20.1540 0.1376 0.9431 0 3
26.6174 -20.0784 0.1375 0.9438 0 3
26.6415 -20.0030 0.1374 0.9445 0 3
26.6656 -19.9277 0.1372 0.9453 0 3
26.6896 -19.8525 0.1371 0.9460 0 3
26.7162 -19.7792 0.1370 0.9760 0 3
26.7472 -19.7094 0.1370 0.9765 0 3
26.8673 -19.7051 0.1374 0.9482 0 3
26.8913 -19.6300 0.1373 0.9489 0 3
24.2471 -17.6166 0.1236 0.9496 0 3
24.2885 -17.5635 0.1236 0.3112 0 3
26.9631 -19.4056 0.1370 0.9510 0 3
26.9870 -19.3309 0.1369 0.9517 0 3
27.0108 -19.2565 0.1368 0.9524 0 3
27.0346 -19.1821 0.1367 0.9530 0 3
27.0583 -19.1078 0.1366 0.9537 0 3
27.0821 -19.0336 0.1365 0.9544 0 3
27.1058 -18.9595 0.1364 0.9551 0 3
27.1294 -18.8855 0.1363 0.9557 0 3
27.1530 -18.8117 0.1362 0.9564 0 3
27.0787 -18.6704 0.1356 0.9201 0 3
27.0947 -18.5918 0.1355 0.9210 0 3
27.1165 -18.5175 0.1354 0.9583 0 3
27.1399 -18.4443 0.1353 0.9590 0 3
27.1633 -18.3712 0.1352 0.9596 0 3
27.1866 -18.2982 0.1351 0.9602 0 3
27.2100 -18.2253 0.1350 0.9609 0 3
27.2333 -18.1525 0.1349 0.9615 0 3
27.2565 -18.0798 0.1348 0.9621 0 3
27.2797 -18.0072 0.1348 0.9627 0 3
27.3029 -17.9347 0.1347 0.9633 0 3
27.3261 -17.8622 0.1346 0.9639 0 3
27.3492 -17.7899 0.1345 0.9645 0 3
27.3723 -17.7176 0.1344 0.9651 0 3
27.3954 -17.6454 0.1343 0.9657 0 3
27.4184 -17.5734 0.1343 0.9662 0 3
27.4415 -17.5014 0.1342 0.9668 0 3
27.4645 -17.4295 0.1341 0.9674 0 3
27.4874 -17.3577 0.1340 0.9680 0 3
27.5104 -17.2860 0.1339 0.9685 0 3
27.5333 -17.2143 0.1339 0.9691 0 3
27.5562 -17.1427 0.1338 0.9696 0 3
27.5790 -17.0712 0.1337 0.9702 0 3
27.8259 -17.1378 0.1347 0.2401 0 3
28.1195 -17.2316 0.1360 0.2379 0 3
28.4185 -17.3273 0.1372 0.2357 0 3
28.7230 -17.4247 0.1385 0.2335 0 3
18.7893 -11.3408 0.0905 0.6630 0 6
18.8043 -11.2924 0.0904 0.9333 0 6
29.9587 -17.8995 0.1439 0.2270 0 3
30.2334 -17.9717 0.1450 0.9744 0 3
30.3440 -17.9454 0.1453 0.2877 0 3
30.6773 -18.0497 0.1467 0.2204 0 3
31.0259 -18.1612 0.1482 0.2182 0 3
31.3889 -18.2793 0.1497 0.1707 0 3
31.7444 -18.3910 0.1513 0.2139 0 3
32.1148 -18.5095 0.1528 0.2117 0 3
32.4929 -18.6304 0.1544 0.2095 0 3
32.8850 -18.7572 0.1561 0.2523 0 3
33.2736 -18.8801 0.1577 0.2051 0 3
33.6766 -19.0090 0.1594 0.2029 0 3
33.9654 -19.0716 0.1606 0.9796 0 3
34.5208 -19.2817 0.1630 0.1987 0 3
34.9507 -19.4191 0.1648 0.1965 0 3
35.2628 -19.4891 0.1661 0.9810 0 3
35.8300 -19.6977 0.1686 0.1919 0 3
36.2906 -19.8450 0.1705 0.1897 0 3
42.7353 -9.4518 0.1804 0.9967 0 6
48.9005 -4.4011 0.2024 0.2180 0 3
48.4240 -4.2486 0.2004 0.2202 0 3
47.9569 -4.0993 0.1984 0.2224 0 3
47.4988 -3.9527 0.1965 0.2246 0 3
47.0497 -3.8091 0.1946 0.2268 0 3
47.0591 -3.7036 0.1946 0.9734 0 3
47.0922 -3.5999 0.1947 0.9729 0 3
47.1254 -3.4961 0.1948 0.9724 0 3
45.3361 -3.2610 0.1874 0.2355 0 3
44.9274 -3.1303 0.1857 0.2377 0 3
44.5262 -3.0020 0.1840 0.2399 0 3
44.1321 -2.8759 0.1823 0.2420 0 3
43.7450 -2.7521 0.1807 0.2442 0 3
43.3648 -2.6306 0.1791 0.2464 0 3
43.0215 -2.5129 0.1777 0.9682 0 3
43.0521 -2.4178 0.1778 0.9677 0 3
43.0827 -2.3225 0.1779 0.9671 0 3
43.1133 -2.2271 0.1780 0.9665 0 3
43.1440 -2.1317 0.1781 0.9660 0 3
43.1748 -2.0360 0.1782 0.9654 0 3
43.2055 -1.9404 0.1783 0.9648 0 3
43.2363 -1.8445 0.1784 0.9642 0 3
43.2671 -1.7486 0.1785 0.9636 0 3
43.2980 -1.6525 0.1786 0.9630 0 3
43.3289 -1.5563 0.1787 0.9624 0 3
43.3599 -1.4600 0.1789 0.9618 0 3
43.3908 -1.3636 0.1790 0.9612 0 3
43.4219 -1.2671 0.1791 0.9605 0 3
43.4530 -1.1703 0.1792 0.9599 0 3
43.4841 -1.0735 0.1793 0.9593 0 3
43.5152 -0.9766 0.1795 0.9586 0 3
43.5464 -0.8796 0.1796 0.9580 0 3
43.5776 -0.7824 0.1797 0.9574 0 3
43.6089 -0.6851 0.1798 0.9567 0 3
43.6403 -0.5876 0.1799 0.9561 0 3
44.0824 -0.4946 0.1818 0.9554 0 3
44.1141 -0.3959 0.1819 0.9547 0 3
44.1458 -0.2971 0.1820 0.9541 0 3
44.1776 -0.1982 0.1821 0.9534 0 3
44.2095 -0.0992 0.1823 0.9527 0 3
44.2413 0.0001 0.1824 0.9520 0 3
44.2733 0.0994 0.1825 0.9513 0 3
44.3052 0.1989 0.1827 0.9506 0 3
44.3373 0.2985 0.1828 0.9499 0 3
44.3693 0.3983 0.1829 0.9492 0 3
44.4015 0.4983 0.1831 0.9485 0 3
44.4336 0.5984 0.1832 0.9478 0 3
44.4658 0.6986 0.1833 0.9471 0 3
44.4981 0.7989 0.1835 0.9464 0 3
44.5304 0.8996 0.1836 0.9457 0 3
44.5628 1.0002 0.1838 0.9449 0 3
44.3115 1.0940 0.1827 0.3294 0 3
44.2118 1.1908 0.1823 0.9434 0 3
44.2440 1.2911 0.1825 0.9427 0 3
44.2763 1.3914 0.1826 0.9419 0 3
44.3086 1.4920 0.1828 0.9412 0 3
44.3410 1.5927 0.1829 0.9404 0 3
44.3734 1.6936 0.1831 0.9397 0 3
44.4059 1.7946 0.1832 0.9389 0 3
44.4384 1.8959 0.1834 0.9381 0 3
44.4710 1.9971 0.1835 0.9373 0 3
44.5036 2.0987 0.1837 0.9366 0 3
44.5363 2.2004 0.1838 0.9358 0 3
44.5691 2.3023 0.1840 0.9350 0 3
44.6019 2.4044 0.1841 0.9342 0 3
44.6347 2.5067 0.1843 0.9334 0 3
44.6676 2.6090 0.1845 0.9326 0 3
44.7006 2.7116 0.1846 0.9317 0 3
44.7336 2.8144 0.1848 0.9309 0 3
44.7667 2.9173 0.1850 0.9301 0 3
44.7998 3.0205 0.1851 0.9293 0 3
44.8331 3.1238 0.1853 0.9285 0 3
44.8663 3.2273 0.1855 0.9276 0 3
44.8997 3.3310 0.1856 0.9268 0 3
44.9330 3.4349 0.1858 0.9259 0 3
44.9665 3.5389 0.1860 0.9251 0 3
45.0000 3.6432 0.1861 0.9242 0 3
45.4571 3.7829 0.1881 0.9234 0 3
45.4911 3.8886 0.1882 0.9225 0 3
45.5251 3.9944 0.1884 0.9216 0 3
45.5592 4.1005 0.1886 0.9208 0 3
45.5933 4.2066 0.1888 0.9199 0 3
45.6275 4.3131 0.1889 0.9190 0 3
45.6618 4.4197 0.1891 0.9181 0 3
45.6961 4.5266 0.1893 0.9172 0 3
45.7305 4.6337 0.1895 0.9163 0 3
45.7650 4.7409 0.1897 0.9154 0 3
45.7995 4.8483 0.1899 0.9145 0 3
45.8342 4.9561 0.1901 0.9136 0 3
45.8688 5.0640 0.1903 0.9127 0 3
45.9036 5.1721 0.1904 0.9118 0 3
45.8731 5.2729 0.1904 0.4127 0 3
45.6353 5.3494 0.1894 0.4148 0 3
45.5796 5.4465 0.1893 0.9090 0 3
45.6143 5.5545 0.1894 0.9081 0 3
45.6490 5.6628 0.1896 0.9071 0 3
45.6839 5.7712 0.1898 0.9062 0 3
45.7188 5.8799 0.1900 0.9052 0 3
45.7538 5.9888 0.1902 0.9043 0 3
45.7889 6.0979 0.1904 0.9033 0 3
45.8240 6.2072 0.1906 0.9023 0 3
45.8593 6.3169 0.1909 0.9014 0 3
45.8946 6.4267 0.1911 0.9004 0 3
45.9300 6.5368 0.1913 0.8994 0 3
45.9654 6.6471 0.1915 0.8984 0 3
46.0009 6.7577 0.1917 0.8974 0 3
46.0365 6.8685 0.1919 0.8965 0 3
46.0722 6.9795 0.1921 0.8955 0 3
46.1080 7.0908 0.1923 0.8945 0 3
46.1438 7.2023 0.1925 0.8934 0 3
46.1798 7.3142 0.1928 0.8924 0 3
46.2158 7.4262 0.1930 0.8914 0 3
46.2519 7.5385 0.1932 0.8904 0 3
46.2881 7.6511 0.1934 0.8894 0 3
46.3243 7.7639 0.1936 0.8884 0 3
46.3607 7.8770 0.1939 0.8873 0 3
46.3971 7.9904 0.1941 0.8863 0 3
24.4654 4.2700 0.1024 0.9640 0 6
24.4845 4.3299 0.1022 0.2941 0 6
46.5069 8.3320 0.1948 0.8831 0 3
46.9815 8.5259 0.1969 0.8821 0 3
47.0187 8.6417 0.1971 0.8810 0 3
47.0560 8.7578 0.1973 0.8800 0 3
47.0933 8.8741 0.1976 0.8789 0 3
47.1308 8.9907 0.1978 0.8778 0 3
47.1684 9.1076 0.1981 0.8768 0 3
47.2061 9.2248 0.1983 0.8757 0 3
47.2438 9.3423 0.1985 0.8746 0 3
47.2817 9.4601 0.1988 0.8735 0 3
47.3196 9.5782 0.1990 0.8724 0 3
47.3577 9.6965 0.1993 0.8713 0 3
47.3958 9.8152 0.1995 0.8702 0 3
47.4340 9.9342 0.1998 0.8691 0 3
47.2968 10.0163 0.1993 0.4966 0 3
47.0897 10.0829 0.1985 0.4985 0 3
47.1063 10.1971 0.1987 0.8657 0 3
47.1446 10.3162 0.1990 0.8646 0 3
47.1829 10.4355 0.1992 0.8635 0 3
35.8958 8.0237 0.1516 0.6155 0 21
35.9812 8.1276 0.1521 0.6137 0 21
36.0671 8.2321 0.1525 0.6120 0 21
36.1534 8.3372 0.1530 0.6102 0 21
33.8863 7.8945 0.1434 0.7842 0 21
36.3277 8.5493 0.1539 0.6066 0 21
36.4156 8.6562 0.1543 0.6048 0 21
36.4803 8.7582 0.1547 0.8701 0 21
36.5071 8.8513 0.1549 0.8690 0 21
36.5339 8.9447 0.1551 0.8678 0 21
36.5608 9.0382 0.1553 0.8667 0 21
36.5878 9.1321 0.1555 0.8656 0 21
36.6148 9.2261 0.1557 0.8645 0 21
36.6419 9.3205 0.1559 0.8633 0 21
36.6691 9.4150 0.1561 0.8622 0 21
36.6963 9.5099 0.1563 0.8611 0 21
36.7237 9.6050 0.1565 0.8599 0 21
36.7239 9.6931 0.1566 0.5733 0 21
29.9466 7.9762 0.1277 0.9836 0 6
11.0461 2.9687 0.0472 0.8219 0 6
11.0223 2.9888 0.0471 0.8232 0 6
10.9985 3.0089 0.0470 0.8244 0 6
10.9886 3.0327 0.0470 0.9827 0 6
10.9864 3.0586 0.0470 0.9823 0 6
10.9842 3.0846 0.0470 0.9819 0 6
11.0001 3.1157 0.0471 0.5585 0 6
11.0299 3.1509 0.0473 0.5566 0 6
36.4349 10.4968 0.1563 0.9969 0 21
36.4049 10.5766 0.1563 0.9971 0 21
36.3477 10.6485 0.1561 0.8859 0 21
36.2812 10.7175 0.1560 0.8869 0 21
36.2148 10.7863 0.1558 0.8880 0 21
36.1486 10.8549 0.1556 0.8890 0 21
36.0825 10.9235 0.1554 0.8900 0 21
36.0166 10.9918 0.1553 0.8911 0 21
35.9508 11.0599 0.1551 0.8921 0 21
35.8853 11.1280 0.1549 0.8931 0 21
35.8198 11.1959 0.1547 0.8941 0 21
35.7544 11.2636 0.1545 0.8951 0 21
35.6531 11.3196 0.1542 0.4544 0 21
35.4716 11.3497 0.1535 0.4564 0 21
35.2918 11.3796 0.1529 0.4584 0 21
35.1135 11.4091 0.1522 0.4604 0 21
34.9367 11.4384 0.1516 0.4624 0 21
34.7615 11.4674 0.1509 0.4644 0 21
33.7525 11.2187 0.1467 0.9594 0 21
41.2893 18.0879 0.1858 0.6838 0 3
41.1502 18.1372 0.1854 0.6854 0 3
41.0117 18.1862 0.1850 0.6871 0 3
40.8739 18.2349 0.1845 0.6887 0 3
40.7368 18.2834 0.1841 0.6903 0 3
40.6003 18.3318 0.1837 0.6919 0 3
40.4644 18.3798 0.1832 0.6936 0 3
40.4478 18.4819 0.1833 0.7189 0 3
40.4942 18.6131 0.1837 0.7173 0 3
40.5408 18.7448 0.1841 0.7157 0 3
40.4354 18.8063 0.1839 0.7000 0 3
40.3010 18.8539 0.1834 0.7016 0 3
40.1672 18.9013 0.1830 0.7032 0 3
27.2126 12.8800 0.1243 0.8791 0 6
39.9013 18.9953 0.1822 0.7064 0 3
39.7692 19.0420 0.1818 0.7080 0 3
39.6378 19.0886 0.1814 0.7095 0 3
34.6098 16.7630 0.1585 0.6935 0 3
34.4918 16.8015 0.1582 0.6951 0 3
34.3743 16.8398 0.1578 0.6968 0 3
34.2574 16.8780 0.1574 0.6984 0 3
34.1410 16.9160 0.1571 0.7000 0 3
34.0252 16.9537 0.1567 0.7016 0 3
33.9098 16.9914 0.1564 0.7032 0 3
33.9184 17.0910 0.1566 0.7127 0 3
33.9551 17.2051 0.1569 0.7112 0 3
33.9919 17.3197 0.1573 0.7096 0 3
34.0288 17.4349 0.1576 0.7080 0 3
34.0659 17.5505 0.1580 0.7064 0 3
34.1032 17.6667 0.1583 0.7048 0 3
37.8190 19.6993 0.1758 0.6820 0 3
37.7332 19.7624 0.1756 0.7329 0 3
37.6105 19.8058 0.1752 0.7344 0 3
37.4883 19.8491 0.1749 0.7359 0 3
37.3667 19.8921 0.1745 0.7374 0 3
37.2454 19.9350 0.1742 0.7389 0 3
37.1247 19.9777 0.1738 0.7404 0 3
37.0046 20.0202 0.1735 0.7419 0 3
36.8848 20.0626 0.1731 0.7434 0 3
36.7656 20.1048 0.1728 0.7449 0 3
36.6469 20.1468 0.1724 0.7464 0 3
34.4518 19.0409 0.1623 0.7262 0 3
34.3361 19.0776 0.1619 0.7277 0 3
34.2209 19.1142 0.1616 0.7293 0 3
34.1062 19.1507 0.1613 0.7308 0 3
33.9920 19.1870 0.1609 0.7323 0 3
33.8782 19.2232 0.1606 0.7339 0 3
33.7650 19.2592 0.1603 0.7354 0 3
33.6522 19.2951 0.1599 0.7369 0 3
33.5398 19.3308 0.1596 0.7384 0 3
33.4279 19.3664 0.1593 0.7399 0 3
33.3165 19.4018 0.1589 0.7414 0 3
33.2056 19.4371 0.1586 0.7429 0 3
33.0950 19.4722 0.1583 0.7444 0 3
32.9850 19.5072 0.1580 0.7459 0 3
32.8753 19.5421 0.1577 0.7474 0 3
32.7661 19.5768 0.1574 0.7489 0 3
32.6573 19.6114 0.1571 0.7504 0 3
32.5490 19.6459 0.1567 0.7519 0 3
32.4411 19.6802 0.1564 0.7534 0 3
32.3336 19.7144 0.1561 0.7548 0 3
32.2548 19.7658 0.1560 0.6543 0 3
32.2942 19.8898 0.1564 0.6526 0 3
32.3338 20.0144 0.1568 0.6509 0 3
32.3736 20.1396 0.1572 0.6492 0 3
32.4137 20.2656 0.1576 0.6475 0 3
32.3558 20.3305 0.1575 0.7620 0 3
32.2487 20.3643 0.1572 0.7634 0 3
14.1160 8.9583 0.0689 0.7738 0 3
14.0701 8.9735 0.0688 0.7752 0 3
14.0243 8.9887 0.0687 0.7766 0 3
13.9787 9.0037 0.0686 0.7780 0 3
13.9332 9.0188 0.0684 0.7794 0 3
13.8879 9.0337 0.0683 0.7808 0 3
13.8428 9.0487 0.0682 0.7822 0 3
13.7979 9.0635 0.0681 0.7836 0 3
13.7530 9.0784 0.0679 0.7850 0 3
13.7084 9.0931 0.0678 0.7864 0 3
13.6639 9.1078 0.0677 0.7878 0 3
13.6196 9.1225 0.0676 0.7892 0 3
13.5754 9.1371 0.0675 0.7905 0 3
13.5314 9.1516 0.0673 0.7919 0 3
13.4875 9.1661 0.0672 0.7933 0 3
13.4438 9.1806 0.0671 0.7946 0 3
13.4002 9.1950 0.0670 0.7960 0 3
13.3568 9.2093 0.0669 0.7974 0 3
13.3135 9.2236 0.0668 0.7987 0 3
13.2704 9.2379 0.0667 0.8001 0 3
13.2274 9.2521 0.0666 0.8014 0 3
13.1846 9.2662 0.0664 0.8027 0 3
13.1419 9.2804 0.0663 0.8041 0 3
13.0993 9.2944 0.0662 0.8054 0 3
13.0569 9.3085 0.0661 0.8067 0 3
13.0146 9.3224 0.0660 0.8081 0 3
12.9725 9.3364 0.0659 0.8094 0 3
12.9304 9.3502 0.0658 0.8107 0 3
12.8886 9.3641 0.0657 0.8120 0 3
12.8468 9.3779 0.0656 0.8133 0 3
12.8232 9.4048 0.0656 0.5788 0 3
12.8427 9.4636 0.0658 0.5769 0 3
12.8623 9.5226 0.0660 0.5751 0 3
12.8821 9.5820 0.0662 0.5733 0 3
12.9019 9.6419 0.0664 0.5714 0 3
12.9219 9.7021 0.0666 0.5696 0 3
12.9421 9.7627 0.0668 0.5677 0 3
12.9624 9.8237 0.0671 0.5659 0 3
12.9408 9.8532 0.0671 0.8258 0 3
12.8990 9.8671 0.0670 0.8270 0 3
12.8572 9.8810 0.0669 0.8283 0 3
12.8156 9.8948 0.0668 0.8295 0 3
12.7741 9.9087 0.0667 0.8308 0 3
12.7327 9.9224 0.0666 0.8320 0 3
12.6915 9.9361 0.0665 0.8333 0 3
12.6503 9.9497 0.0664 0.8345 0 3
12.6093 9.9634 0.0663 0.8357 0 3
12.5684 9.9769 0.0662 0.8370 0 3
12.5277 9.9905 0.0661 0.8382 0 3
12.4871 10.0040 0.0660 0.8394 0 3
12.4465 10.0175 0.0659 0.8406 0 3
12.4061 10.0309 0.0658 0.8419 0 3
12.3658 10.0443 0.0657 0.8431 0 3
12.3256 10.0577 0.0656 0.8443 0 3
12.2855 10.0709 0.0655 0.8455 0 3
12.2455 10.0842 0.0654 0.8467 0 3
12.2057 10.0975 0.0653 0.8479 0 3
12.1660 10.1107 0.0652 0.8490 0 3
12.1264 10.1238 0.0651 0.8502 0 3
12.0869 10.1370 0.0650 0.8514 0 3
12.0475 10.1501 0.0649 0.8526 0 3
12.0082 10.1631 0.0649 0.8537 0 3
11.9690 10.1761 0.0648 0.8549 0 3
11.9299 10.1891 0.0647 0.8561 0 3
11.8909 10.2021 0.0646 0.8572 0 3
11.8521 10.2150 0.0645 0.8584 0 3
11.8133 10.2279 0.0644 0.8595 0 3
11.7746 10.2407 0.0643 0.8607 0 3
11.7361 10.2535 0.0643 0.8618 0 3
11.2789 9.8988 0.0619 0.8629 0 3
11.2419 9.9111 0.0618 0.8641 0 3
11.2051 9.9234 0.0617 0.8652 0 3
11.1683 9.9356 0.0616 0.8663 0 3
11.1316 9.9478 0.0615 0.8674 0 3
11.0950 9.9600 0.0615 0.8685 0 3
11.0585 9.9721 0.0614 0.8697 0 3
11.0221 9.9842 0.0613 0.8708 0 3
10.9857 9.9963 0.0612 0.8719 0 3
10.9495 10.0083 0.0612 0.8730 0 3
10.9134 10.0204 0.0611 0.8740 0 3
10.8773 10.0323 0.0610 0.8751 0 3
10.8413 10.0442 0.0609 0.8762 0 3
10.8055 10.0562 0.0609 0.8773 0 3
10.7697 10.0680 0.0608 0.8784 0 3
10.7340 10.0799 0.0607 0.8794 0 3
10.6984 10.0917 0.0606 0.8805 0 3
10.6629 10.1036 0.0606 0.8816 0 3
10.6274 10.1153 0.0605 0.8826 0 3
10.5921 10.1271 0.0604 0.8837 0 3
10.5568 10.1388 0.0603 0.8847 0 3
10.5216 10.1505 0.0603 0.8858 0 3
10.4865 10.1621 0.0602 0.8868 0 3
10.4515 10.1738 0.0601 0.8878 0 3
10.4165 10.1854 0.0601 0.8889 0 3
10.3817 10.1970 0.0600 0.8899 0 3
10.3469 10.2085 0.0599 0.8909 0 3
10.3121 10.2200 0.0599 0.8919 0 3
10.2775 10.2315 0.0598 0.8930 0 3
17.8376 -17.8376 -0.1040 0.8889 0 3
17.8570 -17.7770 -0.1039 0.8899 0 3
17.8763 -17.7165 -0.1038 0.8909 0 3
17.8956 -17.6562 -0.1036 0.8919 0 3
17.9148 -17.5961 -0.1035 0.8930 0 3
17.9340 -17.5360 -0.1034 0.8940 0 3
17.9532 -17.4762 -0.1033 0.8950 0 3
17.9723 -17.4164 -0.1032 0.8960 0 3
17.9914 -17.3567 -0.1031 0.8970 0 3
18.0104 -17.2972 -0.1030 0.8980 0 3
18.0294 -17.2378 -0.1028 0.8989 0 3
18.0483 -17.1786 -0.1027 0.8999 0 3
18.0672 -17.1195 -0.1026 0.9009 0 3
18.1872 -17.1559 -0.1031 0.4320 0 3
18.3115 -17.1956 -0.1036 0.4300 0 3
18.4370 -17.2358 -0.1041 0.4280 0 3
18.5636 -17.2762 -0.1046 0.4259 0 3
18.6915 -17.3171 -0.1051 0.4239 0 3
18.8205 -17.3584 -0.1056 0.4219 0 3
18.9509 -17.4001 -0.1061 0.4198 0 3
18.9836 -17.3517 -0.1060 0.4178 0 3
19.3035 -17.5648 -0.1076 0.4158 0 3
19.4382 -17.6079 -0.1081 0.4137 0 3
19.5744 -17.6514 -0.1087 0.4117 0 3
19.7120 -17.6954 -0.1092 0.4096 0 3
19.7937 -17.6887 -0.1094 0.9132 0 3
19.8136 -17.6267 -0.1093 0.9141 0 3
20.0411 -17.7487 -0.1104 0.4035 0 3
20.1837 -17.7943 -0.1109 0.4014 0 3
20.3277 -17.8403 -0.1115 0.3994 0 3
20.4731 -17.8868 -0.1121 0.3973 0 3
20.5270 -17.8528 -0.1121 0.9186 0 3
20.7687 -17.9813 -0.1133 0.3932 0 3
20.9188 -18.0293 -0.1139 0.3911 0 3
21.0705 -18.0779 -0.1145 0.3891 0 3
21.2238 -18.1269 -0.1151 0.3870 0 3
18.5274 -15.7521 -0.1003 0.9230 0 3
18.6002 -15.7422 -0.1004 0.3828 0 3
21.6939 -18.2771 -0.1170 0.3808 0 3
21.8540 -18.3284 -0.1176 0.3787 0 3
22.0158 -18.3801 -0.1182 0.3766 0 3
22.1795 -18.4324 -0.1189 0.3745 0 3
22.3450 -18.4854 -0.1196 0.3725 0 3
22.5281 -18.5518 -0.1203 0.3704 0 3
22.6974 -18.6059 -0.1210 0.3684 0 3
22.8687 -18.6607 -0.1217 0.3663 0 3
23.0300 -18.7064 -0.1223 0.4839 0 3
23.2010 -18.7591 -0.1230 0.3620 0 3
23.3782 -18.8157 -0.1237 0.3599 0 3
23.5574 -18.8731 -0.1245 0.3578 0 3
23.7387 -18.9310 -0.1252 0.3557 0 3
23.9222 -18.9897 -0.1259 0.3536 0 3
26.3736 -20.8393 -0.1386 0.9362 0 3
26.3981 -20.7626 -0.1385 0.9370 0 3
26.4226 -20.6861 -0.1384 0.9377 0 3
26.4470 -20.6096 -0.1382 0.9385 0 3
21.5482 -16.7145 -0.1125 0.9393 0 3
21.6536 -16.7186 -0.1128 0.3410 0 3
26.5201 -20.3811 -0.1379 0.9408 0 3
26.5444 -20.3052 -0.1378 0.9416 0 3
26.5686 -20.2294 -0.1377 0.9423 0 3
26.5928 -20.1537 -0.1376 0.9431 0 3
26.6170 -20.0781 -0.1375 0.9438 0 3
26.6411 -20.0027 -0.1374 0.9446 0 3
26.6652 -19.9274 -0.1372 0.9453 0 3
26.6892 -19.8521 -0.1371 0.9460 0 3
26.7155 -19.7788 -0.1370 0.9760 0 3
26.7465 -19.7089 -0.1370 0.9765 0 3
26.8669 -19.7048 -0.1374 0.9482 0 3
26.8909 -19.6297 -0.1373 0.9489 0 3
24.2467 -17.6163 -0.1235 0.9496 0 3
24.2825 -17.5592 -0.1235 0.3113 0 3
26.9627 -19.4053 -0.1370 0.9510 0 3
26.9865 -19.3307 -0.1369 0.9517 0 3
27.0104 -19.2562 -0.1368 0.9524 0 3
27.0342 -19.1817 -0.1367 0.9531 0 3
27.0579 -19.1075 -0.1366 0.9537 0 3
27.0817 -19.0333 -0.1365 0.9544 0 3
27.1053 -18.9593 -0.1364 0.9551 0 3
27.1290 -18.8853 -0.1363 0.9557 0 3
27.1526 -18.8114 -0.1362 0.9564 0 3
27.0784 -18.6702 -0.1356 0.9201 0 3
27.0945 -18.5917 -0.1355 0.9210 0 3
27.1161 -18.5172 -0.1354 0.9583 0 3
27.1395 -18.4440 -0.1353 0.9590 0 3
27.1629 -18.3709 -0.1352 0.9596 0 3
27.1862 -18.2979 -0.1351 0.9602 0 3
27.2095 -18.2250 -0.1350 0.9609 0 3
27.2328 -18.1522 -0.1349 0.9615 0 3
27.2561 -18.0795 -0.1349 0.9621 0 3
27.2793 -18.0069 -0.1348 0.9627 0 3
27.3025 -17.9344 -0.1347 0.9633 0 3
27.3256 -17.8620 -0.1346 0.9639 0 3
27.3488 -17.7896 -0.1345 0.9645 0 3
27.3719 -17.7173 -0.1344 0.9651 0 3
27.3949 -17.6452 -0.1343 0.9657 0 3
27.4180 -17.5731 -0.1343 0.9663 0 3
27.4410 -17.5011 -0.1342 0.9668 0 3
27.4640 -17.4292 -0.1341 0.9674 0 3
27.4870 -17.3574 -0.1340 0.9680 0 3
27.5099 -17.2856 -0.1340 0.9685 0 3
27.5328 -17.2139 -0.1339 0.9691 0 3
27.5557 -17.1424 -0.1338 0.9696 0 3
27.5786 -17.0709 -0.1337 0.9702 0 3
27.8169 -17.1322 -0.1347 0.2402 0 3
28.1103 -17.2261 -0.1359 0.2380 0 3
28.4091 -17.3216 -0.1372 0.2358 0 3
28.7135 -17.4189 -0.1385 0.2336 0 3
18.7891 -11.3407 -0.0905 0.6630 0 6
18.8024 -11.2913 -0.0904 0.9334 0 6
18.8675 -11.2728 -0.0906 0.3701 0 6
30.2330 -17.9714 -0.1450 0.9744 0 3
30.3358 -17.9405 -0.1453 0.2878 0 3
30.6665 -18.0434 -0.1467 0.2205 0 3
31.0148 -18.1547 -0.1482 0.2183 0 3
31.3749 -18.2711 -0.1497 0.1707 0 3
31.7329 -18.3844 -0.1512 0.2139 0 3
32.1030 -18.5027 -0.1528 0.2118 0 3
32.4810 -18.6236 -0.1544 0.2096 0 3
32.8748 -18.7515 -0.1561 0.2524 0 3
33.2611 -18.8730 -0.1577 0.2052 0 3
33.6637 -19.0018 -0.1594 0.2030 0 3
33.9649 -19.0714 -0.1606 0.9796 0 3
34.5370 -19.2908 -0.1631 0.1986 0 3
34.9674 -19.4284 -0.1649 0.1965 0 3
35.2622 -19.4888 -0.1661 0.9810 0 3
35.8156 -19.6898 -0.1685 0.1920 0 3
36.2759 -19.8370 -0.1705 0.1898 0 3
42.7341 -9.4515 -0.1804 0.8724 0 6
48.9180 -4.4027 -0.2025 0.2179 0 3
48.4411 -4.2502 -0.2005 0.2201 0 3
47.9735 -4.1007 -0.1985 0.2223 0 3
47.5152 -3.9541 -0.1966 0.2245 0 3
47.0657 -3.8104 -0.1947 0.2267 0 3
47.0583 -3.7035 -0.1946 0.9734 0 3
47.0915 -3.5998 -0.1947 0.9729 0 3
47.1247 -3.4960 -0.1948 0.9724 0 3
45.3510 -3.2621 -0.1875 0.2354 0 3
44.9420 -3.1314 -0.1857 0.2376 0 3
44.5405 -3.0030 -0.1841 0.2398 0 3
44.1462 -2.8769 -0.1824 0.2420 0 3
43.7588 -2.7530 -0.1808 0.2441 0 3
43.3784 -2.6314 -0.1792 0.2463 0 3
43.0208 -2.5128 -0.1777 0.9683 0 3
43.0514 -2.4177 -0.1778 0.9677 0 3
43.0820 -2.3224 -0.1779 0.9671 0 3
43.1127 -2.2271 -0.1780 0.9666 0 3
43.1433 -2.1316 -0.1781 0.9660 0 3
43.1741 -2.0360 -0.1782 0.9654 0 3
43.2048 -1.9404 -0.1783 0.9648 0 3
43.2356 -1.8445 -0.1784 0.9642 0 3
43.2664 -1.7486 -0.1785 0.9636 0 3
43.2973 -1.6525 -0.1786 0.9630 0 3
43.3282 -1.5563 -0.1788 0.9624 0 3
43.3592 -1.4600 -0.1789 0.9618 0 3
43.3902 -1.3636 -0.1790 0.9612 0 3
43.4212 -1.2670 -0.1791 0.9606 0 3
43.4523 -1.1703 -0.1792 0.9599 0 3
43.4834 -1.0736 -0.1793 0.9593 0 3
43.5145 -0.9766 -0.1795 0.9587 0 3
43.5457 -0.8796 -0.1796 0.9580 0 3
43.5770 -0.7823 -0.1797 0.9574 0 3
43.6082 -0.6850 -0.1798 0.9567 0 3
43.6396 -0.5876 -0.1799 0.9561 0 3
44.0817 -0.4946 -0.1818 0.9554 0 3
44.1134 -0.3959 -0.1819 0.9547 0 3
44.1451 -0.2971 -0.1820 0.9541 0 3
44.1769 -0.1982 -0.1821 0.9534 0 3
44.2087 -0.0992 -0.1823 0.9527 0 3
44.2406 0.0000 -0.1824 0.9520 0 3
44.2726 0.0994 -0.1825 0.9514 0 3
44.3045 0.1989 -0.1827 0.9507 0 3
44.3365 0.2985 -0.1828 0.9500 0 3
44.3686 0.3983 -0.1829 0.9493 0 3
44.4007 0.4982 -0.1831 0.9485 0 3
44.4329 0.5983 -0.1832 0.9478 0 3
44.4651 0.6986 -0.1834 0.9471 0 3
44.4973 0.7989 -0.1835 0.9464 0 3
44.5297 0.8995 -0.1836 0.9457 0 3
44.5620 1.0002 -0.1838 0.9449 0 3
44.3218 1.0943 -0.1828 0.3293 0 3
44.2111 1.1908 -0.1824 0.9435 0 3
44.2433 1.2911 -0.1825 0.9427 0 3
44.2756 1.3914 -0.1826 0.9420 0 3
44.3079 1.4920 -0.1828 0.9412 0 3
44.3403 1.5927 -0.1829 0.9404 0 3
44.3727 1.6936 -0.1831 0.9397 0 3
44.4052 1.7946 -0.1832 0.9389 0 3
44.4377 1.8958 -0.1834 0.9381 0 3
44.4703 1.9972 -0.1835 0.9374 0 3
44.5029 2.0987 -0.1837 0.9366 0 3
44.5356 2.2004 -0.1838 0.9358 0 3
44.5683 2.3023 -0.1840 0.9350 0 3
44.6011 2.4044 -0.1842 0.9342 0 3
44.6340 2.5066 -0.1843 0.9334 0 3
44.6669 2.6090 -0.1845 0.9326 0 3
44.6999 2.7116 -0.1846 0.9318 0 3
44.7329 2.8144 -0.1848 0.9309 0 3
44.7660 2.9173 -0.1850 0.9301 0 3
44.7991 3.0204 -0.1851 0.9293 0 3
44.8323 3.1237 -0.1853 0.9285 0 3
44.8656 3.2272 -0.1855 0.9276 0 3
44.8989 3.3309 -0.1856 0.9268 0 3
44.9323 3.4348 -0.1858 0.9259 0 3
44.9657 3.5389 -0.1860 0.9251 0 3
44.9992 3.6431 -0.1861 0.9242 0 3
45.4564 3.7829 -0.1881 0.9234 0 3
45.4903 3.8884 -0.1882 0.9225 0 3
45.5243 3.9943 -0.1884 0.9217 0 3
45.5584 4.1004 -0.1886 0.9208 0 3
45.5925 4.2066 -0.1888 0.9199 0 3
45.6268 4.3130 -0.1889 0.9190 0 3
45.6610 4.4196 -0.1891 0.9181 0 3
45.6953 4.5265 -0.1893 0.9172 0 3
45.7297 4.6336 -0.1895 0.9163 0 3
45.7642 4.7409 -0.1897 0.9154 0 3
45.7988 4.8483 -0.1899 0.9145 0 3
45.8334 4.9560 -0.1901 0.9136 0 3
45.8680 5.0639 -0.1903 0.9127 0 3
45.9028 5.1721 -0.1904 0.9118 0 3
45.8817 5.2739 -0.1904 0.4126 0 3
45.6438 5.3504 -0.1895 0.4147 0 3
45.5788 5.4464 -0.1893 0.9090 0 3
45.6135 5.5545 -0.1895 0.9081 0 3
45.6483 5.6627 -0.1896 0.9071 0 3
45.6831 5.7711 -0.1898 0.9062 0 3
45.7180 5.8798 -0.1900 0.9052 0 3
45.7531 5.9887 -0.1902 0.9043 0 3
45.7881 6.0978 -0.1904 0.9033 0 3
45.8232 6.2072 -0.1906 0.9024 0 3
45.8585 6.3168 -0.1909 0.9014 0 3
45.8938 6.4266 -0.1911 0.9004 0 3
45.9292 6.5367 -0.1913 0.8994 0 3
45.9646 6.6470 -0.1915 0.8984 0 3
46.0001 6.7575 -0.1917 0.8975 0 3
46.0357 6.8683 -0.1919 0.8965 0 3
46.0714 6.9794 -0.1921 0.8955 0 3
46.1072 7.0907 -0.1923 0.8945 0 3
46.1430 7.2022 -0.1926 0.8935 0 3
46.1790 7.3140 -0.1928 0.8925 0 3
46.2150 7.4261 -0.1930 0.8914 0 3
46.2511 7.5384 -0.1932 0.8904 0 3
46.2873 7.6510 -0.1934 0.8894 0 3
46.3235 7.7638 -0.1936 0.8884 0 3
46.3599 7.8769 -0.1939 0.8873 0 3
46.3963 7.9903 -0.1941 0.8863 0 3
24.4665 4.2701 -0.1024 0.9640 0 6
24.4790 4.3289 -0.1028 0.2941 0 6
46.5061 8.3319 -0.1948 0.8832 0 3
46.9806 8.5257 -0.1969 0.8821 0 3
47.0178 8.6415 -0.1971 0.8811 0 3
47.0551 8.7576 -0.1973 0.8800 0 3
47.0925 8.8739 -0.1976 0.8789 0 3
47.1300 8.9905 -0.1978 0.8778 0 3
47.1676 9.1074 -0.1981 0.8768 0 3
47.2052 9.2247 -0.1983 0.8757 0 3
47.2430 9.3421 -0.1986 0.8746 0 3
47.2808 9.4599 -0.1988 0.8735 0 3
47.3188 9.5780 -0.1990 0.8724 0 3
47.3568 9.6964 -0.1993 0.8713 0 3
47.3950 9.8151 -0.1996 0.8702 0 3
47.4332 9.9340 -0.1998 0.8691 0 3
47.3042 10.0179 -0.1994 0.4965 0 3
47.0969 10.0845 -0.1986 0.4985 0 3
47.1055 10.1969 -0.1987 0.8658 0 3
47.1437 10.3160 -0.1990 0.8646 0 3
47.1821 10.4354 -0.1992 0.8635 0 3
35.8933 8.0231 -0.1516 0.6155 0 21
35.9787 8.1271 -0.1521 0.6138 0 21
36.0646 8.2315 -0.1525 0.6120 0 21
36.1509 8.3366 -0.1530 0.6102 0 21
33.8852 7.8943 -0.1434 0.7843 0 21
36.3251 8.5487 -0.1539 0.6067 0 21
36.4130 8.6557 -0.1543 0.6049 0 21
36.4798 8.7580 -0.1547 0.8701 0 21
36.5065 8.8512 -0.1549 0.8690 0 21
36.5334 8.9445 -0.1551 0.8679 0 21
36.5603 9.0381 -0.1553 0.8667 0 21
36.5872 9.1319 -0.1555 0.8656 0 21
36.6142 9.2260 -0.1557 0.8645 0 21
36.6413 9.3204 -0.1559 0.8634 0 21
36.6685 9.4149 -0.1561 0.8622 0 21
36.6958 9.5097 -0.1563 0.8611 0 21
36.7231 9.6048 -0.1565 0.8599 0 21
36.7211 9.6924 -0.1566 0.5733 0 21
29.9479 7.9766 -0.1278 0.9835 0 6
11.0461 2.9687 -0.0472 0.8219 0 6
11.0223 2.9888 -0.0471 0.8232 0 6
10.9986 3.0089 -0.0470 0.8244 0 6
10.9880 3.0325 -0.0470 0.9827 0 6
10.9859 3.0585 -0.0470 0.9823 0 6
10.9837 3.0844 -0.0470 0.9819 0 6
10.9980 3.1151 -0.0471 0.5586 0 6
11.0278 3.1503 -0.0473 0.5567 0 6
36.4362 10.4971 -0.1563 0.9969 0 21
36.4062 10.5770 -0.1563 0.9970 0 21
36.3502 10.6492 -0.1562 0.8858 0 21
36.2837 10.7182 -0.1560 0.8869 0 21
36.2173 10.7871 -0.1558 0.8879 0 21
36.1510 10.8557 -0.1556 0.8889 0 21
36.0850 10.9242 -0.1554 0.8900 0 21
36.0191 10.9925 -0.1553 0.8910 0 21
35.9533 11.0607 -0.1551 0.8920 0 21
35.8877 11.1287 -0.1549 0.8930 0 21
35.8222 11.1966 -0.1547 0.8940 0 21
35.7569 11.2643 -0.1546 0.8950 0 21
35.6593 11.3216 -0.1542 0.4543 0 21
35.4777 11.3517 -0.1536 0.4563 0 21
35.2978 11.3815 -0.1529 0.4583 0 21
35.1195 11.4110 -0.1522 0.4603 0 21
34.9426 11.4403 -0.1516 0.4623 0 21
34.7673 11.4694 -0.1509 0.4643 0 21
33.7543 11.2192 -0.1464 0.9594 0 21
39.7126 13.2987 -0.1727 0.8237 0 4
39.7442 13.4085 -0.1729 0.8224 0 4
39.7758 13.5187 -0.1732 0.8211 0 4
39.8076 13.6292 -0.1735 0.8198 0 4
39.8395 13.7400 -0.1737 0.8186 0 4
39.8714 13.8513 -0.1740 0.8173 0 4
39.9034 13.9628 -0.1743 0.8160 0 4
39.9356 14.0747 -0.1746 0.8147 0 4
39.9679 14.1870 -0.1749 0.8134 0 4
40.0002 14.2997 -0.1751 0.8121 0 4
40.0327 14.4126 -0.1754 0.8108 0 4
40.0653 14.5260 -0.1757 0.8094 0 4
40.0979 14.6397 -0.1760 0.8081 0 4
40.1307 14.7538 -0.1763 0.8068 0 4
40.1752 14.8726 -0.1766 0.8055 0 4
40.2082 14.9875 -0.1769 0.8041 0 4
40.2413 15.1028 -0.1772 0.8028 0 4
40.2745 15.2184 -0.1775 0.8015 0 4
40.3079 15.3345 -0.1778 0.8001 0 4
40.3413 15.4510 -0.1781 0.7988 0 4
40.3749 15.5678 -0.1784 0.7974 0 4
40.4086 15.6850 -0.1787 0.7961 0 4
40.4424 15.8027 -0.1790 0.7947 0 4
40.4763 15.9207 -0.1793 0.7933 0 4
40.5103 16.0392 -0.1796 0.7920 0 4
40.5445 16.1580 -0.1799 0.7906 0 4
40.5788 16.2773 -0.1803 0.7892 0 4
40.6131 16.3970 -0.1806 0.7878 0 4
40.6476 16.5171 -0.1809 0.7865 0 4
40.6822 16.6376 -0.1812 0.7851 0 4
40.7170 16.7586 -0.1815 0.7837 0 4
40.7519 16.8800 -0.1819 0.7823 0 4
40.7869 17.0018 -0.1822 0.7809 0 4
40.8220 17.1241 -0.1825 0.7795 0 4
40.8573 17.2468 -0.1828 0.7781 0 4
40.8927 17.3699 -0.1832 0.7767 0 4
40.9282 17.4935 -0.1835 0.7752 0 4
40.9638 17.6176 -0.1838 0.7738 0 4
40.9996 17.7421 -0.1842 0.7724 0 4
41.0355 17.8671 -0.1845 0.7710 0 4
41.0716 17.9925 -0.1849 0.7695 0 4
41.1077 18.1184 -0.1852 0.7681 0 4
41.0163 18.1882 -0.1850 0.6870 0 3
40.8785 18.2369 -0.1846 0.6886 0 3
40.7412 18.2855 -0.1841 0.6902 0 3
40.6047 18.3338 -0.1837 0.6919 0 3
40.4688 18.3819 -0.1833 0.6935 0 3
40.4468 18.4814 -0.1833 0.7189 0 3
40.4932 18.6126 -0.1837 0.7173 0 3
40.5398 18.7443 -0.1841 0.7158 0 3
40.4399 18.8084 -0.1839 0.6999 0 3
40.3054 18.8560 -0.1835 0.7015 0 3
40.1715 18.9033 -0.1830 0.7031 0 3
27.2127 12.8800 -0.1240 0.8791 0 6
39.9056 18.9974 -0.1822 0.7063 0 3
39.7736 19.0441 -0.1818 0.7079 0 3
39.6421 19.0906 -0.1814 0.7095 0 3
34.6130 16.7646 -0.1586 0.6935 0 3
34.4949 16.8030 -0.1582 0.6951 0 3
34.3775 16.8414 -0.1578 0.6967 0 3
34.2605 16.8795 -0.1575 0.6983 0 3
34.1441 16.9175 -0.1571 0.6999 0 3
34.0283 16.9553 -0.1567 0.7015 0 3
33.9129 16.9929 -0.1564 0.7031 0 3
33.9174 17.0905 -0.1566 0.7128 0 3
33.9540 17.2046 -0.1569 0.7112 0 3
33.9908 17.3192 -0.1573 0.7096 0 3
34.0278 17.4343 -0.1576 0.7080 0 3
34.0649 17.5500 -0.1580 0.7064 0 3
34.1022 17.6661 -0.1583 0.7048 0 3
37.8180 19.6988 -0.1758 0.6821 0 3
37.7372 19.7645 -0.1756 0.7328 0 3
37.6144 19.8079 -0.1753 0.7343 0 3
37.4922 19.8512 -0.1749 0.7358 0 3
37.3705 19.8942 -0.1745 0.7373 0 3
37.2493 19.9371 -0.1742 0.7389 0 3
37.1286 19.9798 -0.1738 0.7404 0 3
37.0084 20.0223 -0.1735 0.7419 0 3
36.8886 20.0647 -0.1731 0.7434 0 3
36.7694 20.1069 -0.1728 0.7449 0 3
36.6506 20.1489 -0.1724 0.7464 0 3
34.4554 19.0429 -0.1623 0.7261 0 3
34.3397 19.0796 -0.1620 0.7277 0 3
34.2245 19.1162 -0.1616 0.7292 0 3
34.1098 19.1527 -0.1613 0.7307 0 3
33.9956 19.1891 -0.1609 0.7323 0 3
33.8818 19.2252 -0.1606 0.7338 0 3
33.7685 19.2612 -0.1603 0.7353 0 3
33.6557 19.2971 -0.1600 0.7368 0 3
33.5433 19.3328 -0.1596 0.7383 0 3
33.4314 19.3684 -0.1593 0.7398 0 3
33.3200 19.4038 -0.1590 0.7414 0 3
33.2090 19.4391 -0.1587 0.7429 0 3
33.0985 19.4743 -0.1583 0.7444 0 3
32.9884 19.5093 -0.1580 0.7459 0 3
32.8787 19.5441 -0.1577 0.7473 0 3
32.7695 19.5789 -0.1574 0.7488 0 3
32.6607 19.6134 -0.1571 0.7503 0 3
32.5523 19.6479 -0.1568 0.7518 0 3
32.4444 19.6822 -0.1565 0.7533 0 3
32.3369 19.7164 -0.1562 0.7548 0 3
32.2538 19.7652 -0.1560 0.6543 0 3
32.2932 19.8891 -0.1564 0.6526 0 3
32.3328 20.0138 -0.1568 0.6509 0 3
32.3726 20.1390 -0.1572 0.6492 0 3
32.4127 20.2650 -0.1576 0.6475 0 3
32.3591 20.3326 -0.1576 0.7619 0 3
32.2520 20.3664 -0.1573 0.7634 0 3
14.1174 8.9592 -0.0689 0.7737 0 3
14.0715 8.9745 -0.0688 0.7751 0 3
14.0257 8.9895 -0.0687 0.7765 0 3
13.9801 9.0046 -0.0686 0.7779 0 3
13.9346 9.0197 -0.0684 0.7793 0 3
13.8893 9.0346 -0.0683 0.7807 0 3
13.8442 9.0495 -0.0682 0.7821 0 3
13.7992 9.0644 -0.0681 0.7835 0 3
13.7544 9.0793 -0.0679 0.7849 0 3
13.7097 9.0940 -0.0678 0.7863 0 3
13.6653 9.1087 -0.0677 0.7877 0 3
13.6209 9.1234 -0.0676 0.7891 0 3
13.5767 9.1380 -0.0675 0.7905 0 3
13.5327 9.1525 -0.0674 0.7918 0 3
13.4888 9.1670 -0.0672 0.7932 0 3
13.4451 9.1815 -0.0671 0.7946 0 3
13.4015 9.1958 -0.0670 0.7959 0 3
13.3581 9.2102 -0.0669 0.7973 0 3
13.3148 9.2246 -0.0668 0.7986 0 3
13.2717 9.2388 -0.0667 0.8000 0 3
13.2287 9.2530 -0.0666 0.8013 0 3
13.1858 9.2672 -0.0664 0.8027 0 3
13.1431 9.2813 -0.0663 0.8040 0 3
13.1005 9.2954 -0.0662 0.8053 0 3
13.0581 9.3094 -0.0661 0.8067 0 3
