ply
format ascii 1.0
element vertex 1390
property float32 x
property float32 y
property float32 z
property float32 CosAngle
property uint32 ObjIdx
property uint32 ObjTag
end_header
8.7162 6.5249 2.1366 0.1944 0 3
8.2372 7.1375 2.1388 0.1942 0 3
11.3423 -11.3422 3.0106 0.6630 0 3
12.6967 -11.0017 3.1531 0.7702 0 3
13.6803 -10.2410 3.2073 0.5530 0 3
16.1047 -10.3499 3.5930 0.4937 0 3
19.2100 -10.4894 4.1079 0.4318 0 3
22.6667 -10.3515 4.6768 0.3677 0 3
28.3712 -10.5819 5.6832 0.9347 0 3
25.4628 7.4766 4.9808 0.3190 0 3
20.6281 7.6939 4.1321 0.3845 0 3
19.4281 8.8726 4.0086 0.8743 0 3
14.0624 7.6787 3.0071 0.5093 0 3
9.5626 6.1455 2.1334 0.1865 0 3
9.1094 6.8192 2.1357 0.1863 0 3
8.6091 7.4598 2.1380 0.1861 0 3
11.3421 -11.3421 2.8738 0.6640 0 3
12.6962 -11.0013 3.0098 0.7714 0 3
13.6801 -10.2408 3.0616 0.5539 0 3
16.1045 -10.3497 3.4298 0.4944 0 3
19.2096 -10.4892 3.9213 0.4324 0 3
22.6661 -10.3513 4.4643 0.3683 0 3
28.2789 -10.5475 5.4074 0.3470 0 3
31.2615 0.0000 5.6009 0.9013 0 6
25.1934 7.3975 4.7042 0.3195 0 3
20.6286 7.6941 3.9446 0.3851 0 3
19.4275 8.8723 3.8265 0.8756 0 3
10.5794 5.7768 2.1596 0.5101 0 3
10.0123 6.4346 2.1323 0.1784 0 3
9.5382 7.1402 2.1347 0.1782 0 3
9.0149 7.8115 2.1371 0.1780 0 3
11.3420 -11.3419 2.7375 0.6650 0 3
12.6958 -11.0009 2.8670 0.7725 0 3
13.6799 -10.2407 2.9164 0.5547 0 3
16.1042 -10.3496 3.2670 0.4951 0 3
19.2046 -10.4864 3.7343 0.4023 0 3
22.6656 -10.3510 4.2525 0.3688 0 3
28.6158 -10.6731 5.2123 0.3324 0 3
25.1942 7.3977 4.4813 0.3199 0 3
20.6290 7.6942 3.7576 0.3856 0 3
19.4269 8.8720 3.6449 0.8769 0 3
10.9479 5.9780 2.1288 0.1704 0 3
10.5050 6.7511 2.1311 0.1703 0 3
10.0081 7.4919 2.1336 0.1701 0 3
9.1182 7.9010 2.0591 0.6784 0 3
11.3418 -11.3418 2.6015 0.6659 0 3
12.6954 -11.0006 2.7245 0.7736 0 3
13.6797 -10.2405 2.7715 0.5555 0 3
16.1039 -10.3494 3.1048 0.4958 0 3
19.2088 -10.4888 3.5497 0.4337 0 3
22.6651 -10.3508 4.0413 0.3693 0 3
29.5180 -11.0096 5.1097 0.3415 0 3
33.4903 7.2854 5.5588 0.1569 0 3
25.1948 7.3979 4.2589 0.3203 0 3
20.6295 7.6944 3.5711 0.3861 0 3
19.4263 8.8717 3.4638 0.8781 0 3
11.5121 6.2861 2.1274 0.1623 0 3
11.0469 7.0994 2.1298 0.1621 0 3
10.4733 7.8403 2.1219 0.6265 0 3
9.1183 7.9011 1.9569 0.6793 0 3
11.3417 -11.3417 2.4659 0.6668 0 3
12.6949 -11.0002 2.5825 0.7747 0 3
13.6795 -10.2403 2.6271 0.5562 0 3
16.1036 -10.3492 2.9429 0.4965 0 3
19.2085 -10.4886 3.3647 0.4343 0 3
22.6646 -10.3505 3.8306 0.3698 0 3
29.6973 -11.0765 4.8729 0.3035 0 3
33.6674 7.3240 5.2970 0.9549 0 3
25.1955 7.3981 4.0371 0.3208 0 3
20.6299 7.6946 3.3851 0.3866 0 3
12.5634 5.7375 2.1234 0.1543 0 3
12.1358 6.6267 2.1258 0.1542 0 3
11.6462 7.4846 2.1283 0.1540 0 3
10.4735 7.8404 2.0114 0.6273 0 3
9.1184 7.9012 1.8549 0.6802 0 3
11.3416 -11.3415 2.3307 0.6676 0 3
12.6945 -10.9998 2.4408 0.7757 0 3
13.6793 -10.2402 2.4830 0.5569 0 3
16.1034 -10.3490 2.7815 0.4971 0 3
19.2081 -10.4884 3.1801 0.4348 0 3
22.6641 -10.3503 3.6205 0.3703 0 3
29.6964 -11.0762 4.6055 0.3039 0 3
33.6664 7.3238 5.0064 0.9561 0 3
25.1961 7.3983 3.8158 0.3211 0 3
20.4004 7.6090 3.1638 0.3871 0 3
13.2803 6.0649 2.1215 0.1462 0 3
12.8291 7.0053 2.1240 0.1460 0 3
12.0873 7.7680 2.0878 0.5719 0 3
10.3855 7.7745 1.8851 0.6280 0 3
9.1186 7.9013 1.7532 0.6810 0 3
9.9725 -9.9725 1.9307 0.6684 0 3
12.6940 -10.9994 2.2994 0.7766 0 3
13.6791 -10.2400 2.3392 0.5575 0 3
16.1031 -10.3488 2.6205 0.4977 0 3
19.2077 -10.4881 2.9960 0.4353 0 3
22.6635 -10.3501 3.4108 0.3707 0 3
29.6955 -11.0759 4.3389 0.3042 0 3
33.6655 7.3235 4.7166 0.9573 0 3
25.1968 7.3985 3.5950 0.3215 0 3
14.9621 5.5806 2.1861 0.3875 0 3
14.0819 6.4310 2.1193 0.1380 0 3
13.6045 7.4287 2.1220 0.1379 0 3
12.0874 7.7682 1.9670 0.5725 0 3
10.3966 7.7828 1.7779 0.7654 0 3
9.1187 7.9014 1.6518 0.6818 0 3
11.2380 -11.2380 2.0424 0.6691 0 3
11.5926 -10.0450 1.9712 0.6152 0 3
13.6789 -10.2399 2.1958 0.5582 0 3
16.1028 -10.3487 2.4598 0.4982 0 3
19.2073 -10.4879 2.8123 0.4358 0 3
22.6630 -10.3498 3.2017 0.3711 0 3
29.6947 -11.0755 4.0728 0.3046 0 3
33.6645 7.3233 4.4273 0.9584 0 3
25.1975 7.3987 3.3748 0.3218 0 3
20.6313 7.6951 2.8297 0.3880 0 3
14.9844 6.8432 2.1169 0.1299 0 3
14.0640 7.6796 2.0592 0.5139 0 3
11.9833 7.7012 1.8305 0.5731 0 3
10.3963 7.7826 1.6689 0.7662 0 3
9.1188 7.9015 1.5506 0.6825 0 3
11.2379 -11.2379 1.9093 0.6698 0 3
12.6932 -10.9986 2.0177 0.7783 0 3
13.6787 -10.2397 2.0527 0.5587 0 3
16.1026 -10.3485 2.2995 0.4988 0 3
19.2070 -10.4878 2.6290 0.4363 0 3
22.6625 -10.3496 2.9930 0.3715 0 3
29.1346 -10.8666 3.7356 0.3049 0 3
33.6636 7.3231 4.1388 0.9594 0 3
25.1981 7.3989 3.1550 0.3222 0 3
20.6317 7.6953 2.6454 0.3883 0 3
19.4234 8.8704 2.5652 0.8834 0 3
14.0643 7.6797 1.9251 0.5144 0 3
12.0878 7.7684 1.7262 0.5737 0 3
10.3959 7.7823 1.5601 0.7670 0 3
9.1189 7.9015 1.4495 0.6832 0 3
11.2377 -11.2378 1.7764 0.6705 0 3
12.6927 -10.9983 1.8773 0.7791 0 3
13.6784 -10.2396 1.9099 0.5593 0 3
16.1023 -10.3483 2.1395 0.4993 0 3
19.2066 -10.4876 2.4461 0.4367 0 3
22.6620 -10.3494 2.7848 0.3719 0 3
29.3371 -10.9422 3.4999 0.3052 0 3
33.6626 7.3229 3.8508 0.9603 0 3
25.4689 7.4784 2.9671 0.3225 0 3
20.6322 7.6954 2.4614 0.3887 0 3
19.4228 8.8701 2.3867 0.8843 0 3
14.0650 7.6801 1.7913 0.5167 0 3
12.0880 7.7685 1.6061 0.5743 0 3
10.3955 7.7820 1.4515 0.7678 0 3
9.1190 7.9016 1.3487 0.6839 0 3
11.2376 -11.2376 1.6439 0.6711 0 3
12.6923 -10.9979 1.7372 0.7798 0 3
13.6783 -10.2394 1.7674 0.5598 0 3
16.1020 -10.3481 1.9798 0.4997 0 3
19.2062 -10.4874 2.2635 0.4371 0 3
22.6615 -10.3491 2.5769 0.3722 0 3
29.3363 -10.9419 3.2387 0.3055 0 3
33.6617 7.3227 3.5633 0.9612 0 3
25.4696 7.4786 2.7457 0.3227 0 3
20.6326 7.6956 2.2778 0.3890 0 3
19.4222 8.8698 2.2086 0.8851 0 3
14.0688 7.6822 1.6580 0.5170 0 3
12.0882 7.7686 1.4863 0.5748 0 3
10.3952 7.7817 1.3431 0.7685 0 3
9.1191 7.9018 1.2481 0.6845 0 3
11.2375 -11.2375 1.5115 0.6716 0 3
12.6918 -10.9975 1.5973 0.7804 0 3
13.6780 -10.2392 1.6251 0.5603 0 3
16.1017 -10.3479 1.8204 0.5001 0 3
19.2059 -10.4871 2.0813 0.4374 0 3
22.6609 -10.3489 2.3694 0.3725 0 3
29.3355 -10.9416 2.9779 0.3057 0 3
33.6608 7.3225 3.2764 0.9620 0 3
25.4702 7.4787 2.5248 0.3230 0 3
20.6331 7.6957 2.0945 0.3894 0 3
19.4216 8.8696 2.0307 0.8858 0 3
14.0726 7.6842 1.5250 0.5173 0 3
12.0883 7.7687 1.3667 0.5752 0 3
10.3948 7.7815 1.2350 0.7692 0 3
9.1192 7.9019 1.1476 0.6850 0 3
9.9715 -9.9715 1.2240 0.6722 0 3
12.6914 -10.9971 1.4576 0.7811 0 3
13.6778 -10.2391 1.4830 0.5607 0 3
16.1015 -10.3478 1.6613 0.5005 0 3
19.2055 -10.4870 1.8993 0.4378 0 3
22.6604 -10.3486 2.1622 0.3728 0 3
29.4985 -11.0023 2.7327 0.3179 0 3
33.6598 7.3223 2.9899 0.9628 0 3
19.8986 5.8428 1.8000 0.0892 0 3
19.0418 7.1023 1.7640 0.4650 0 3
19.4210 8.8693 1.8531 0.8865 0 3
14.0763 7.6863 1.3920 0.5176 0 3
12.0885 7.7689 1.2472 0.5756 0 3
10.3944 7.7812 1.1270 0.7698 0 3
9.1194 7.9020 1.0473 0.6855 0 3
9.9714 -9.9714 1.1069 0.6726 0 3
11.5914 -10.0440 1.2039 0.6184 0 3
13.6776 -10.2390 1.3411 0.5611 0 3
16.1012 -10.3476 1.5023 0.5009 0 3
19.2051 -10.4868 1.7176 0.4381 0 3
22.6599 -10.3484 1.9554 0.3731 0 3
29.6898 -11.0737 2.4873 0.3062 0 3
33.6589 7.3221 2.7038 0.9634 0 3
21.9322 6.4399 1.7942 0.0810 0 3
18.7678 7.0000 1.5723 0.4721 0 3
19.4204 8.8690 1.6758 0.8872 0 3
14.0801 7.6883 1.2592 0.5178 0 3
12.0887 7.7690 1.1280 0.5760 0 3
10.3941 7.7809 1.0192 0.7703 0 3
9.1195 7.9020 0.9472 0.6860 0 3
9.9712 -9.9712 0.9900 0.6730 0 3
11.5912 -10.0438 1.0767 0.6188 0 3
13.6774 -10.2388 1.1994 0.5614 0 3
16.1009 -10.3474 1.3436 0.5012 0 3
19.2047 -10.4865 1.5361 0.4384 0 3
22.6594 -10.3482 1.7488 0.3733 0 3
29.6890 -11.0734 2.2245 0.3064 0 3
25.0132 5.4413 1.7971 0.2555 0 3
24.4251 7.1719 1.7871 0.0728 0 3
18.5020 6.9009 1.3863 0.4792 0 3
19.4198 8.8688 1.4988 0.8877 0 3
14.0838 7.6904 1.1265 0.5180 0 3
12.0889 7.7691 1.0088 0.5764 0 3
10.3937 7.7806 0.9115 0.7708 0 3
9.1196 7.9021 0.8471 0.6864 0 3
9.9711 -9.9711 0.8732 0.6734 0 3
11.5911 -10.0437 0.9497 0.6192 0 3
13.6772 -10.2387 1.0579 0.5617 0 3
16.1006 -10.3472 1.1851 0.5015 0 3
19.1860 -10.4763 1.3536 0.8963 0 3
22.6589 -10.3479 1.5425 0.3735 0 3
29.6881 -11.0731 1.9621 0.3066 0 3
28.0012 6.0913 1.7744 0.0647 0 3
25.4729 7.4796 1.6439 0.3238 0 3
18.2439 6.8046 1.2057 0.4863 0 3
19.4192 8.8685 1.3219 0.8882 0 3
14.0876 7.6924 0.9939 0.5181 0 3
12.0891 7.7692 0.8898 0.5767 0 3
10.3934 7.7804 0.8039 0.7713 0 3
9.1197 7.9022 0.7472 0.6868 0 3
9.9710 -9.9710 0.7565 0.6738 0 3
11.5909 -10.0436 0.8228 0.6195 0 3
13.2603 -9.9265 0.8886 0.5620 0 3
16.1004 -10.3471 1.0267 0.5017 0 3
19.2040 -10.4861 1.1738 0.4388 0 3
22.6584 -10.3477 1.3363 0.3737 0 3
29.6873 -11.0728 1.6998 0.3067 0 3
37.3383 5.3685 2.0237 0.0566 0 3
33.0463 7.1888 1.8143 0.5151 0 3
25.2615 7.4175 1.4124 0.3240 0 3
17.9694 6.7023 1.0289 0.4575 0 3
19.4187 8.8682 1.1453 0.8887 0 3
14.0913 7.6945 0.8613 0.5182 0 3
12.0892 7.7693 0.7709 0.5769 0 3
10.3930 7.7801 0.6965 0.7717 0 3
7.1552 6.2001 0.5079 0.6871 0 3
9.9709 -9.9709 0.6399 0.6740 0 3
11.5908 -10.0434 0.6960 0.6197 0 3
13.2601 -9.9264 0.7517 0.5622 0 3
15.6096 -10.0317 0.8421 0.5019 0 3
19.2036 -10.4859 0.9930 0.4390 0 3
22.6579 -10.3475 1.1304 0.3739 0 3
29.4667 -10.9905 1.4273 0.2692 0 3
32.6174 7.0955 1.5149 0.5221 0 3
25.2622 7.4177 1.1948 0.3241 0 3
17.7021 6.6026 0.8574 0.4646 0 3
19.4181 8.8680 0.9688 0.8891 0 3
14.0951 7.6965 0.7288 0.5183 0 3
12.0894 7.7694 0.6522 0.5772 0 3
8.2188 6.1525 0.4659 0.6339 0 3
7.1553 6.2001 0.4297 0.6873 0 3
9.9708 -9.9707 0.5235 0.6743 0 3
11.5906 -10.0433 0.5693 0.6199 0 3
13.2599 -9.9262 0.6149 0.5624 0 3
15.6093 -10.0315 0.6888 0.5021 0 3
18.6182 -10.1663 0.7875 0.4392 0 3
22.6574 -10.3473 0.9246 0.3740 0 3
29.3299 -10.9395 1.1621 0.3070 0 3
32.1998 7.0047 1.2233 0.5291 0 3
25.2629 7.4179 0.9774 0.3242 0 3
17.4427 6.5059 0.6911 0.4717 0 3
19.4175 8.8677 0.7924 0.8894 0 3
11.0364 6.0263 0.4668 0.5177 0 3
9.4853 6.0958 0.4186 0.5774 0 3
10.3923 7.7796 0.4819 0.7723 0 3
9.1200 7.9025 0.4480 0.6876 0 3
9.9706 -9.9706 0.4071 0.6745 0 3
11.5905 -10.0431 0.4427 0.6201 0 3
13.2597 -9.9261 0.4781 0.5626 0 3
15.6090 -10.0313 0.5356 0.5022 0 3
18.6178 -10.1661 0.6124 0.4393 0 3
22.6569 -10.3470 0.7190 0.3741 0 3
29.3290 -10.9392 0.9036 0.3071 0 3
31.7902 6.9156 0.9392 0.5041 0 3
25.2635 7.4180 0.7600 0.3243 0 3
17.1910 6.4120 0.5297 0.4787 0 3
13.0032 5.9383 0.4127 0.4555 0 3
11.1091 6.0661 0.3654 0.8549 0 3
9.5218 6.1193 0.3267 0.5775 0 3
10.3875 7.7760 0.3746 0.6342 0 3
9.1201 7.9026 0.3484 0.6877 0 3
9.9705 -9.9705 0.2907 0.6746 0 3
11.5903 -10.0430 0.3162 0.6203 0 3
13.6762 -10.2379 0.3522 0.5627 0 3
16.0993 -10.3464 0.3946 0.5024 0 3
18.6175 -10.1659 0.4373 0.4394 0 3
22.6563 -10.3468 0.5135 0.3742 0 3
28.4346 -10.6056 0.6257 0.3071 0 3
33.6523 7.3207 0.7100 0.9664 0 3
25.2642 7.4182 0.5429 0.3243 0 3
20.6371 7.6972 0.4541 0.3910 0 3
19.4163 8.8672 0.4401 0.8899 0 3
11.1088 6.0659 0.2609 0.8551 0 3
9.5219 6.1194 0.2334 0.5776 0 3
10.4758 7.8421 0.2698 0.6344 0 3
9.1202 7.9027 0.2488 0.6879 0 3
9.9704 -9.9704 0.1744 0.6747 0 3
11.5395 -9.9990 0.1889 0.6203 0 3
13.6760 -10.2377 0.2113 0.5628 0 3
16.0990 -10.3462 0.2367 0.5024 0 3
19.2022 -10.4851 0.2706 0.4395 0 3
23.3678 -10.6717 0.3178 0.3743 0 3
28.4339 -10.6053 0.3754 0.3072 0 3
47.2991 -10.2893 0.5987 0.8880 0 20
33.6514 7.3205 0.4260 0.9665 0 3
25.2648 7.4184 0.3257 0.3244 0 3
20.6375 7.6974 0.2724 0.3910 0 3
19.4157 8.8669 0.2640 0.8900 0 3
11.1085 6.0657 0.1566 0.8553 0 3
9.5220 6.1195 0.1400 0.5777 0 3
10.4759 7.8421 0.1619 0.6344 0 3
9.1203 7.9028 0.1493 0.6880 0 3
9.9702 -9.9702 0.0581 0.6748 0 3
11.5922 -10.0447 0.0632 0.6205 0 3
13.6758 -10.2376 0.0704 0.5629 0 3
16.0988 -10.3461 0.0789 0.5025 0 3
19.2018 -10.4849 0.0902 0.4395 0 3
23.3673 -10.6715 0.1059 0.3743 0 3
29.3267 -10.9383 0.1290 0.3072 0 3
47.2746 -10.2840 0.1995 0.8685 0 20
36.4686 5.2435 0.1519 0.1864 0 3
26.0425 5.6652 0.1099 0.2561 0 3
20.1868 5.9274 0.0867 0.3244 0 3
20.4079 7.6118 0.0898 0.3910 0 3
19.4151 8.8666 0.0880 0.8901 0 3
11.1081 6.0655 0.0522 0.8553 0 3
9.5222 6.1196 0.0467 0.5777 0 3
10.4760 7.8422 0.0540 0.6345 0 3
9.1205 7.9029 0.0498 0.6880 0 3
9.9701 -9.9701 -0.0581 0.6748 0 3
11.5952 -10.0473 -0.0633 0.6204 0 3
13.6756 -10.2374 -0.0704 0.5629 0 3
16.0985 -10.3459 -0.0789 0.5025 0 3
19.2014 -10.4847 -0.0902 0.4395 0 3
23.3668 -10.6712 -0.1059 0.3743 0 3
29.3259 -10.9380 -0.1290 0.3072 0 3
47.2734 -10.2837 -0.1995 0.8685 0 20
36.4443 2.6066 -0.1506 0.6806 281 12
36.4703 5.2437 -0.1519 0.1864 0 3
26.1963 5.6987 -0.1105 0.9667 0 3
20.2783 5.9543 -0.0871 0.9459 0 3
20.6384 7.6977 -0.0908 0.3910 0 3
19.4146 8.8663 -0.0880 0.8901 0 3
11.1078 6.0653 -0.0522 0.8554 0 3
9.5223 6.1196 -0.0467 0.5777 0 3
10.4761 7.8424 -0.0540 0.6345 0 3
9.1206 7.9030 -0.0498 0.6880 0 3
9.9700 -9.9700 -0.1744 0.6747 0 3
11.5983 -10.0500 -0.1898 0.6201 0 3
13.6754 -10.2373 -0.2113 0.5628 0 3
16.0982 -10.3457 -0.2367 0.5025 0 3
19.2011 -10.4845 -0.2706 0.4395 0 3
23.3662 -10.6710 -0.3177 0.3743 0 3
29.3251 -10.9377 -0.3871 0.3072 0 3
47.2722 -10.2835 -0.5984 0.8685 0 20
36.3620 2.6007 -0.4509 0.8770 281 12
36.3394 5.2249 -0.4541 0.1864 0 3
26.1956 5.6986 -0.3316 0.9666 0 3
20.2778 5.9541 -0.2614 0.9459 0 3
20.6389 7.6979 -0.2725 0.3910 0 3
13.1150 5.9894 -0.1783 0.8901 0 3
11.1074 6.0651 -0.1565 0.8553 0 3
9.5225 6.1197 -0.1400 0.5777 0 3
10.4763 7.8425 -0.1619 0.6344 0 3
9.1207 7.9031 -0.1493 0.6879 0 3
9.9699 -9.9699 -0.2907 0.6747 0 3
11.6013 -10.0526 -0.3165 0.6199 0 3
13.6752 -10.2371 -0.3522 0.5628 0 3
16.0979 -10.3455 -0.3945 0.5024 0 3
19.2007 -10.4843 -0.4510 0.4394 0 3
23.3657 -10.6707 -0.5296 0.3743 0 3
29.3242 -10.9373 -0.6453 0.3072 0 3
47.2709 -10.2832 -0.9974 0.8684 0 20
36.3006 2.5963 -0.7503 0.8557 281 12
36.1766 5.2015 -0.7535 0.1864 0 3
26.1949 5.6984 -0.5527 0.9665 0 3
20.2772 5.9540 -0.4357 0.9458 0 3
20.6393 7.6981 -0.4542 0.3909 0 3
13.0046 5.9390 -0.2948 0.4556 0 3
11.1071 6.0650 -0.2609 0.8552 0 3
9.5226 6.1198 -0.2334 0.5776 0 3
10.4764 7.8426 -0.2698 0.6343 0 3
9.1208 7.9032 -0.2488 0.6878 0 3
9.9697 -9.9697 -0.4070 0.6745 0 3
11.6027 -10.0538 -0.4432 0.7177 0 3
13.6750 -10.2370 -0.4931 0.5627 0 3
16.0977 -10.3454 -0.5524 0.5023 0 3
19.2003 -10.4841 -0.6315 0.4394 0 3
23.3652 -10.6705 -0.7415 0.3742 0 3
29.3234 -10.9371 -0.9035 0.3071 0 3
36.3321 2.5986 -1.0515 0.2965 281 12
36.1782 5.2017 -1.0551 0.1863 0 3
25.9545 5.6461 -0.7668 0.0257 0 3
20.2766 5.9538 -0.6100 0.9456 0 3
20.6397 7.6983 -0.6359 0.3908 0 3
13.4371 6.1365 -0.4264 0.0260 0 3
11.0379 6.0271 -0.3630 0.5178 0 3
9.4864 6.0965 -0.3255 0.5775 0 3
8.2197 6.1532 -0.2964 0.6342 0 3
7.1561 6.2008 -0.2733 0.6877 0 3
9.9696 -9.9696 -0.5234 0.6743 0 3
11.6025 -10.0536 -0.5699 0.7175 0 3
13.6748 -10.2368 -0.6341 0.5625 0 3
16.0974 -10.3452 -0.7103 0.5022 0 3
19.2000 -10.4839 -0.8121 0.4393 0 3
23.3647 -10.6703 -0.9535 0.3741 0 3
29.3226 -10.9368 -1.1618 0.3070 0 3
47.2453 -10.2776 -1.7949 0.8653 0 20
36.1145 2.5830 -1.3441 0.6882 281 12
36.1799 5.2019 -1.3569 0.1863 0 3
25.9286 5.6405 -0.9850 0.2558 0 3
20.0978 5.9013 -0.7776 0.3241 0 3
19.3549 7.2190 -0.7669 0.9191 0 3
12.9433 5.9110 -0.5282 0.4553 0 3
10.9856 5.9986 -0.4646 0.5176 0 3
9.4414 6.0677 -0.4166 0.5773 0 3
8.2199 6.1533 -0.3812 0.6340 0 3
7.1562 6.2009 -0.3515 0.6875 0 3
9.9695 -9.9695 -0.6398 0.6741 0 3
11.6023 -10.0534 -0.6967 0.7173 0 3
13.6746 -10.2366 -0.7752 0.5623 0 3
16.0971 -10.3450 -0.8684 0.5020 0 3
19.1996 -10.4837 -0.9928 0.4391 0 3
23.3641 -10.6700 -1.1657 0.3740 0 3
29.3218 -10.9365 -1.4202 0.3069 0 3
39.3014 -11.5400 -1.8589 0.0419 0 2
39.5798 -8.6101 -1.8382 0.0420 0 2
42.4816 -6.1079 -1.9477 0.0420 0 1
42.7501 -3.0575 -1.9450 0.0421 0 1
42.7833 0.0000 -1.9416 0.0421 0 1
36.5821 2.6164 -1.6644 0.8850 281 12
36.1816 5.2022 -1.6589 0.1862 0 3
25.9294 5.6407 -1.2043 0.2557 0 3
20.0983 5.9015 -0.9506 0.3240 0 3
19.3543 7.2188 -0.9374 0.9188 0 3
12.9435 5.9112 -0.6458 0.4552 0 3
10.9858 5.9987 -0.5680 0.5174 0 3
9.4416 6.0678 -0.5093 0.5771 0 3
8.1809 6.1242 -0.4638 0.6338 0 3
7.1223 6.1715 -0.4277 0.6873 0 3
9.9694 -9.9694 -0.7564 0.6739 0 3
11.6021 -10.0533 -0.8236 0.7170 0 3
13.6744 -10.2365 -0.9164 0.5621 0 3
16.0969 -10.3448 -1.0265 0.5018 0 3
19.1992 -10.4835 -1.1736 0.4389 0 3
23.3636 -10.6698 -1.3779 0.3738 0 3
29.3210 -10.9362 -1.6789 0.3068 0 3
32.4915 -9.5404 -1.8167 0.0502 0 2
33.0735 -7.1946 -1.8158 0.0502 0 2
35.5031 -5.1046 -1.9243 0.0502 0 1
35.7354 -2.5558 -1.9220 0.0503 0 1
35.7736 0.0000 -1.9192 0.0504 0 1
33.5805 2.4018 -1.8061 0.0505 0 2
33.2533 4.7811 -1.8023 0.0506 0 2
25.9303 5.6409 -1.4236 0.2556 0 3
20.0989 5.9016 -1.1238 0.3238 0 3
19.0635 7.1104 -1.0915 0.9185 0 3
12.9438 5.9113 -0.7634 0.4550 0 3
10.9859 5.9988 -0.6715 0.5172 0 3
9.4417 6.0679 -0.6021 0.5768 0 3
8.1810 6.1243 -0.5482 0.6335 0 3
7.1224 6.1716 -0.5056 0.6870 0 3
9.9692 -9.9692 -0.8730 0.6735 0 3
11.6019 -10.0531 -0.9506 0.7167 0 3
13.6742 -10.2364 -1.0577 0.5619 0 3
16.0966 -10.3446 -1.1848 0.5016 0 3
19.1989 -10.4833 -1.3545 0.4387 0 3
23.3631 -10.6696 -1.5904 0.3737 0 3
27.2461 -10.1623 -1.8006 0.0584 0 2
27.8985 -8.1917 -1.8004 0.0584 0 2
30.1206 -6.5523 -1.9087 0.0584 0 1
30.4898 -4.3837 -1.9074 0.0585 0 1
30.6945 -2.1953 -1.9055 0.0585 0 1
30.7337 0.0001 -1.9031 0.0586 0 1
28.8569 2.0639 -1.7914 0.0587 0 2
28.5841 4.1098 -1.7882 0.0588 0 2
11.1356 2.4224 -0.7057 0.1357 0 20
18.4766 5.4253 -1.1924 0.9963 0 21
18.7566 6.9959 -1.2396 0.9181 0 3
12.9440 5.9114 -0.8811 0.4547 0 3
10.9861 5.9989 -0.7751 0.5170 0 3
9.4418 6.0679 -0.6950 0.5766 0 3
8.1811 6.1244 -0.6328 0.6332 0 3
7.1224 6.1717 -0.5836 0.6866 0 3
9.9691 -9.9691 -0.9898 0.6732 0 3
11.5989 -10.0505 -1.0774 0.7179 0 3
13.6739 -10.2362 -1.1991 0.5616 0 3
16.0963 -10.3445 -1.3432 0.5013 0 3
19.1985 -10.4831 -1.5356 0.4385 0 3
23.1687 -10.5807 -1.7881 0.0666 0 2
23.8682 -8.9024 -1.7884 0.0666 0 2
24.4401 -7.1762 -1.7882 0.0666 0 2
26.3881 -5.7403 -1.8959 0.0667 0 1
26.7139 -3.8409 -1.8947 0.0667 0 1
26.8965 -1.9237 -1.8930 0.0668 0 1
26.9351 0.0000 -1.8909 0.0668 0 1
25.2951 1.8092 -1.7803 0.0669 0 2
25.0617 3.6033 -1.7775 0.0670 0 2
10.9603 2.3843 -0.7874 0.9645 0 20
18.4911 5.4296 -1.3529 0.7482 0 21
18.7560 6.9956 -1.4053 0.9176 0 3
12.9442 5.9115 -0.9990 0.4545 0 3
10.9863 5.9990 -0.8788 0.5167 0 3
9.4420 6.0681 -0.7879 0.5762 0 3
8.1812 6.1244 -0.7174 0.6329 0 3
7.1225 6.1718 -0.6616 0.6862 0 3
9.9690 -9.9690 -1.1066 0.6728 0 3
11.5946 -10.0468 -1.2042 0.7177 0 3
13.6737 -10.2361 -1.3407 0.5612 0 3
16.0961 -10.3443 -1.5019 0.5010 0 3
19.1981 -10.4829 -1.7170 0.4383 0 3
20.6108 -9.4126 -1.7786 0.0749 0 2
21.2328 -7.9194 -1.7788 0.0749 0 2
22.4348 -6.5875 -1.8353 0.2379 0 2
23.4757 -5.1068 -1.8858 0.0749 0 1
23.7672 -3.4171 -1.8848 0.0749 0 1
23.9319 -1.7116 -1.8833 0.0750 0 1
23.9692 0.0000 -1.8814 0.0751 0 1
22.5131 1.6102 -1.7717 0.0752 0 2
22.3092 3.2076 -1.7692 0.0753 0 2
10.4936 2.2828 -0.8430 0.2620 0 20
8.9291 2.6218 -0.7305 0.9433 0 20
18.4653 6.8872 -1.5470 0.9170 0 3
12.9445 5.9116 -1.1170 0.4542 0 3
10.9865 5.9991 -0.9826 0.5164 0 3
9.4421 6.0681 -0.8810 0.5759 0 3
8.1813 6.1245 -0.8022 0.6325 0 3
7.1226 6.1719 -0.7398 0.6858 0 3
9.9689 -9.9689 -1.2237 0.6723 0 3
11.5904 -10.0431 -1.3311 0.7175 0 3
13.6735 -10.2359 -1.4825 0.5609 0 3
16.0958 -10.3441 -1.6607 0.5007 0 3
17.9014 -9.7748 -1.7703 0.0831 0 2
18.5593 -8.4757 -1.7709 0.0831 0 2
19.1191 -7.1310 -1.7711 0.0831 0 2
20.7635 -6.0967 -1.8783 0.0831 0 1
21.1395 -4.5986 -1.8777 0.0831 0 1
21.4031 -3.0773 -1.8768 0.0832 0 1
21.5531 -1.5415 -1.8755 0.0832 0 1
21.5888 0.0001 -1.8738 0.0833 0 1
21.2478 1.5197 -1.8489 0.1154 0 2
20.0990 2.8898 -1.7625 0.0835 0 2
10.4506 2.2735 -0.9283 0.2510 0 20
8.9288 2.6218 -0.8077 0.9427 0 20
18.2134 6.7933 -1.6872 0.9165 0 3
12.9447 5.9117 -1.2352 0.4539 0 3
10.9867 5.9992 -1.0865 0.5160 0 3
9.4423 6.0682 -0.9742 0.5755 0 3
8.1815 6.1246 -0.8870 0.6320 0 3
7.1227 6.1719 -0.8180 0.6853 0 3
9.9688 -9.9687 -1.3409 0.6718 0 3
11.5881 -10.0411 -1.4583 0.6177 0 3
13.6733 -10.2357 -1.6245 0.5604 0 3
15.5959 -10.0229 -1.7632 0.0914 0 2
16.2792 -8.8891 -1.7641 0.0913 0 2
16.8770 -7.7074 -1.7646 0.0913 0 2
17.3858 -6.4845 -1.7648 0.0913 0 2
18.8814 -5.5440 -1.8716 0.0913 0 1
19.2237 -4.1818 -1.8711 0.0913 0 1
19.4643 -2.7985 -1.8703 0.0914 0 1
19.6020 -1.4019 -1.8691 0.0914 0 1
19.6361 0.0001 -1.8676 0.0915 0 1
19.5667 1.3995 -1.8657 0.0916 0 1
18.2849 2.6290 -1.7570 0.0917 0 2
10.4864 2.2812 -1.0207 0.9688 0 20
8.9286 2.6217 -0.8850 0.9420 0 20
17.3658 6.4771 -1.7628 0.0921 0 0
12.9450 5.9118 -1.3535 0.4535 0 3
10.9868 5.9993 -1.1906 0.5156 0 3
9.4424 6.0683 -1.0675 0.5750 0 3
8.1816 6.1247 -0.9720 0.6315 0 3
7.1228 6.1720 -0.8964 0.6848 0 3
9.9686 -9.9686 -1.4582 0.6713 0 3
11.5879 -10.0410 -1.5860 0.6172 0 3
8.6159 -6.4498 -1.1132 0.7413 0 6
14.2987 -9.1892 -1.7581 0.0996 0 2
14.9246 -8.1494 -1.7589 0.0995 0 2
15.4723 -7.0659 -1.7594 0.0995 0 2
16.9042 -6.3049 -1.8662 0.0995 0 1
17.3098 -5.0825 -1.8661 0.0995 0 1
17.6240 -3.8338 -1.8656 0.0995 0 1
17.8453 -2.5657 -1.8648 0.0996 0 1
17.9724 -1.2854 -1.8638 0.0996 0 1
18.0049 0.0001 -1.8624 0.0997 0 1
17.9427 1.2833 -1.8607 0.0998 0 1
16.7689 2.4110 -1.7524 0.0999 0 2
10.3344 2.2481 -1.0940 0.2546 0 20
8.8801 2.6074 -0.9573 0.9561 0 20
15.9319 5.9423 -1.7588 0.1003 0 0
12.9452 5.9119 -1.4720 0.4532 0 3
10.9870 5.9994 -1.2949 0.5152 0 3
9.4425 6.0684 -1.1610 0.5746 0 3
8.1817 6.1247 -1.0571 0.6310 0 3
7.1229 6.1721 -0.9749 0.6842 0 3
9.9685 -9.9685 -1.5758 0.6707 0 3
11.5878 -10.0408 -1.7139 0.6167 0 3
8.6092 -6.4448 -1.2021 0.8703 0 6
13.1991 -8.4825 -1.7538 0.1078 0 2
13.7763 -7.5224 -1.7545 0.1077 0 2
14.2816 -6.5221 -1.7550 0.1077 0 2
15.6032 -5.8197 -1.8615 0.1077 0 1
15.9776 -4.6915 -1.8613 0.1077 0 1
16.2680 -3.5389 -1.8609 0.1077 0 1
16.4727 -2.3684 -1.8602 0.1078 0 1
16.5908 -1.1866 -1.8592 0.1078 0 1
16.6218 0.0001 -1.8580 0.1079 0 1
16.5655 1.1848 -1.8564 0.1080 0 1
15.4831 2.2262 -1.7485 0.1081 0 2
10.3612 2.2540 -1.1852 0.2544 0 20
8.8771 2.6066 -1.0342 0.9404 0 20
14.6010 5.4459 -1.7419 0.1085 0 2
12.9455 5.9120 -1.5908 0.4527 0 3
10.9872 5.9995 -1.3993 0.5147 0 3
9.4427 6.0685 -1.2547 0.5740 0 3
8.1818 6.1248 -1.1424 0.6304 0 3
7.1230 6.1721 -1.0535 0.6836 0 3
9.9684 -9.9683 -1.6936 0.6701 0 3
10.9961 -9.5281 -1.7480 0.1161 0 2
8.6034 -6.4404 -1.2911 0.8700 0 6
12.2549 -7.8757 -1.7501 0.1160 0 2
12.7904 -6.9841 -1.7507 0.1159 0 2
13.5605 -6.1928 -1.7909 0.3883 0 2
14.4862 -5.4030 -1.8574 0.1159 0 1
14.8339 -4.3556 -1.8573 0.1159 0 1
15.1037 -3.2856 -1.8569 0.1159 0 1
15.2942 -2.1989 -1.8563 0.1160 0 1
15.4045 -1.1017 -1.8553 0.1160 0 1
15.4339 0.0000 -1.8542 0.1161 0 1
15.3826 1.1002 -1.8527 0.1162 0 1
14.3785 2.0673 -1.7451 0.1163 0 2
10.3616 2.2540 -1.2739 0.2541 0 20
8.8768 2.6065 -1.1114 0.9396 0 20
13.5630 5.0587 -1.7390 0.1167 0 2
12.9457 5.9121 -1.7097 0.4523 0 3
10.9874 5.9996 -1.5039 0.5142 0 3
9.4428 6.0686 -1.3485 0.5735 0 3
8.1819 6.1249 -1.2278 0.6298 0 3
7.1231 6.1722 -1.1323 0.6830 0 3
9.5937 -9.5937 -1.7435 0.1244 0 2
10.2615 -8.8916 -1.7449 0.1243 0 2
8.5935 -6.4330 -1.3795 0.5681 0 6
11.4352 -7.3490 -1.7468 0.1242 0 2
11.9347 -6.5168 -1.7475 0.1241 0 2
13.1215 -5.9923 -1.8537 0.1241 0 1
13.5167 -5.0414 -1.8539 0.1241 0 1
13.8411 -4.0641 -1.8538 0.1241 0 1
14.0931 -3.0657 -1.8534 0.1241 0 1
14.2712 -2.0519 -1.8528 0.1242 0 1
14.3746 -1.0280 -1.8520 0.1242 0 1
14.4027 0.0001 -1.8509 0.1243 0 1
14.3555 1.0268 -1.8495 0.1244 0 1
13.4193 1.9295 -1.7422 0.1245 0 2
10.3619 2.2541 -1.3627 0.2538 0 20
8.8766 2.6064 -1.1889 0.9386 0 20
12.6611 4.7224 -1.7365 0.1249 0 2
12.2760 5.6063 -1.7343 0.1251 0 2
10.9875 5.9997 -1.6088 0.5137 0 3
9.4430 6.0687 -1.4425 0.5729 0 3
8.1820 6.1250 -1.3134 0.6292 0 3
7.1232 6.1723 -1.2112 0.6823 0 3
8.9922 -8.9921 -1.7409 0.1326 0 2
9.6176 -8.3336 -1.7422 0.1325 0 2
8.5807 -6.4234 -1.4674 0.5683 0 6
10.7169 -6.8873 -1.7440 0.1323 0 2
11.1847 -6.1073 -1.7446 0.1323 0 2
12.2968 -5.6157 -1.8507 0.1323 0 1
12.6671 -4.7245 -1.8508 0.1323 0 1
12.9712 -3.8087 -1.8507 0.1323 0 1
13.2075 -2.8731 -1.8504 0.1323 0 1
13.3747 -1.9230 -1.8498 0.1323 0 1
13.4719 -0.9635 -1.8490 0.1324 0 1
13.4987 0.0001 -1.8480 0.1325 0 1
13.4552 0.9624 -1.8467 0.1326 0 1
13.1048 1.8842 -1.8125 0.1846 0 2
10.3622 2.2542 -1.4518 0.2536 0 20
8.8763 2.6063 -1.2665 0.9376 0 20
11.8701 4.4273 -1.7344 0.1331 0 2
11.5100 5.2565 -1.7322 0.1332 0 2
10.9877 5.9998 -1.7138 0.5131 0 3
9.4431 6.0688 -1.5367 0.5722 0 3
8.1821 6.1251 -1.3992 0.6285 0 3
7.1233 6.1724 -1.2903 0.6815 0 3
8.4604 -8.4604 -1.7386 0.1407 0 2
9.0485 -7.8405 -1.7398 0.1407 0 2
8.5680 -6.4138 -1.5552 0.5685 0 6
10.0822 -6.4794 -1.7415 0.1405 0 2
11.1378 -6.0817 -1.8440 0.4351 0 2
11.5681 -5.2829 -1.8479 0.1404 0 1
11.9164 -4.4446 -1.8481 0.1404 0 1
12.2025 -3.5830 -1.8480 0.1404 0 1
12.4249 -2.7029 -1.8477 0.1405 0 1
12.5824 -1.8091 -1.8471 0.1405 0 1
12.6743 -0.9064 -1.8464 0.1406 0 1
12.6999 0.0001 -1.8454 0.1406 0 1
12.6595 0.9054 -1.8442 0.1407 0 1
12.5532 1.8049 -1.8428 0.1408 0 1
10.3626 2.2543 -1.5410 0.2532 0 20
8.8760 2.6063 -1.3442 0.9366 0 20
11.0587 4.1247 -1.7151 0.1412 0 1
10.8325 4.9471 -1.7304 0.1414 0 2
10.4391 5.7002 -1.7283 0.1416 0 2
9.4433 6.0688 -1.6311 0.5716 0 3
8.1822 6.1252 -1.4852 0.6277 0 3
7.1233 6.1724 -1.3696 0.6807 0 3
7.9870 -7.9870 -1.7365 0.1489 0 2
8.5419 -7.4015 -1.7376 0.1488 0 2
8.5552 -6.4043 -1.6430 0.5686 0 6
9.5171 -6.1163 -1.7393 0.1487 0 2
10.5339 -5.7519 -1.8452 0.1486 0 1
10.9195 -4.9867 -1.8455 0.1486 0 1
11.2482 -4.1953 -1.8456 0.1486 0 1
11.5183 -3.3821 -1.8456 0.1486 0 1
11.7284 -2.5513 -1.8453 0.1486 0 1
11.8772 -1.7077 -1.8448 0.1487 0 1
11.9642 -0.8557 -1.8441 0.1487 0 1
11.9888 0.0000 -1.8431 0.1488 0 1
11.9510 0.8548 -1.8420 0.1489 0 1
11.8512 1.7040 -1.8407 0.1490 0 1
10.3629 2.2543 -1.6304 0.2529 0 20
8.8758 2.6062 -1.4222 0.9354 0 20
6.4527 2.4068 -1.0588 0.4089 0 20
10.2290 4.6714 -1.7288 0.1496 0 2
9.8582 5.3830 -1.7268 0.1497 0 2
9.4374 6.0651 -1.7247 0.1499 0 2
8.1823 6.1253 -1.5714 0.6270 0 3
7.1234 6.1725 -1.4491 0.6799 0 3
7.5628 -7.5628 -1.7347 0.1571 0 2
8.0879 -7.0081 -1.7357 0.1570 0 2
8.5425 -6.3948 -1.7307 0.5687 0 6
9.3380 -6.0011 -1.8003 0.4962 0 2
9.9734 -5.4458 -1.8430 0.1568 0 1
10.3383 -4.7213 -1.8434 0.1567 0 1
10.6495 -3.9720 -1.8435 0.1567 0 1
10.9053 -3.2021 -1.8434 0.1567 0 1
11.1042 -2.4155 -1.8431 0.1568 0 1
11.2454 -1.6168 -1.8426 0.1568 0 1
11.3279 -0.8102 -1.8420 0.1569 0 1
11.3515 0.0001 -1.8411 0.1569 0 1
11.3161 0.8094 -1.8400 0.1570 0 1
11.2220 1.6135 -1.8388 0.1571 0 1
10.3147 2.2438 -1.7121 0.2526 0 20
8.8755 2.6061 -1.5003 0.9342 0 20
6.3871 2.3823 -1.1056 0.8464 0 20
9.6879 4.4244 -1.7274 0.1577 0 2
9.3373 5.0986 -1.7255 0.1579 0 2
8.9393 5.7449 -1.7235 0.1581 0 2
8.1824 6.1253 -1.6578 0.6261 0 3
7.1235 6.1726 -1.5288 0.6790 0 3
7.1804 -7.1804 -1.7330 0.1652 0 2
7.6787 -6.6535 -1.7340 0.1651 0 2
8.1376 -6.0917 -1.7348 0.1650 0 2
9.0728 -5.8307 -1.8406 0.1650 0 1
9.4682 -5.1700 -1.8411 0.1649 0 1
9.8146 -4.4821 -1.8414 0.1649 0 1
10.1100 -3.7708 -1.8415 0.1649 0 1
10.3528 -3.0398 -1.8414 0.1649 0 1
10.5417 -2.2932 -1.8412 0.1649 0 1
10.6759 -1.5349 -1.8407 0.1649 0 1
10.7544 -0.7691 -1.8401 0.1650 0 1
10.7771 0.0000 -1.8393 0.1651 0 1
10.7438 0.7684 -1.8383 0.1652 0 1
10.6548 1.5320 -1.8371 0.1653 0 1
9.9094 2.1557 -1.7307 0.1654 0 2
8.8753 2.6061 -1.5786 0.9330 0 20
6.4245 2.3963 -1.1702 0.3853 0 20
9.1999 4.2015 -1.7261 0.1658 0 2
8.8675 4.8421 -1.7243 0.1660 0 2
8.4900 5.4562 -1.7224 0.1662 0 2
8.0696 6.0409 -1.7203 0.1664 0 2
7.1236 6.1727 -1.6087 0.6780 0 3
6.8338 -6.8338 -1.7315 0.1733 0 2
7.3079 -6.3323 -1.7324 0.1732 0 2
7.9353 -5.9402 -1.7759 0.5790 0 2
8.6343 -5.5489 -1.8389 0.1731 0 1
9.0105 -4.9201 -1.8393 0.1730 0 1
9.3401 -4.2654 -1.8396 0.1730 0 1
9.6211 -3.5885 -1.8397 0.1730 0 1
9.8523 -2.8928 -1.8397 0.1730 0 1
10.0322 -2.1823 -1.8394 0.1730 0 1
10.1599 -1.4608 -1.8390 0.1731 0 1
10.2349 -0.7320 -1.8384 0.1731 0 1
10.2566 0.0000 -1.8376 0.1732 0 1
10.2252 0.7314 -1.8367 0.1733 0 1
10.1408 1.4581 -1.8355 0.1734 0 1
9.4629 2.0585 -1.7350 0.2870 0 2
8.8750 2.6060 -1.6572 0.9317 0 20
6.4246 2.3963 -1.2285 0.3847 0 20
8.7576 3.9995 -1.7249 0.1740 0 2
8.4415 4.6095 -1.7232 0.1741 0 2
8.0826 5.1944 -1.7214 0.1743 0 2
7.6828 5.7513 -1.7194 0.1745 0 2
7.1237 6.1728 -1.6888 0.6770 0 3
6.5183 -6.5183 -1.7301 0.1814 0 2
6.9703 -6.0397 -1.7310 0.1813 0 2
7.8340 -5.8645 -1.8367 0.1813 0 1
8.2352 -5.2924 -1.8373 0.1812 0 1
8.5939 -4.6925 -1.8377 0.1812 0 1
8.9081 -4.0682 -1.8380 0.1811 0 1
9.1762 -3.4225 -1.8381 0.1811 0 1
9.3966 -2.7591 -1.8381 0.1811 0 1
9.5683 -2.0814 -1.8378 0.1812 0 1
9.6902 -1.3932 -1.8374 0.1812 0 1
9.7618 -0.6982 -1.8368 0.1812 0 1
9.7828 0.0000 -1.8361 0.1813 0 1
9.7530 0.6976 -1.8352 0.1814 0 1
9.6728 1.3908 -1.8341 0.1815 0 1
9.4198 2.0492 -1.8093 0.2515 0 2
8.8256 2.5915 -1.7264 0.9303 0 20
6.4248 2.3964 -1.2870 0.3841 0 20
8.3547 3.8155 -1.7238 0.1821 0 2
8.0535 4.3976 -1.7222 0.1823 0 2
7.7115 4.9559 -1.7205 0.1824 0 2
7.3305 5.4875 -1.7186 0.1826 0 2
6.9126 5.9898 -1.7167 0.1828 0 2
6.2298 -6.2298 -1.7289 0.1895 0 2
6.7986 -5.8910 -1.7653 0.6360 0 2
7.4869 -5.6046 -1.8353 0.1894 0 1
7.8702 -5.0578 -1.8359 0.1893 0 1
8.2129 -4.4846 -1.8363 0.1893 0 1
8.5132 -3.8878 -1.8365 0.1892 0 1
8.7693 -3.2708 -1.8366 0.1892 0 1
8.9800 -2.6367 -1.8366 0.1892 0 1
9.1441 -1.9892 -1.8364 0.1893 0 1
9.2607 -1.3315 -1.8360 0.1893 0 1
9.3293 -0.6672 -1.8354 0.1894 0 1
9.3495 0.0000 -1.8347 0.1894 0 1
9.3213 0.6667 -1.8338 0.1895 0 1
9.2449 1.3293 -1.8328 0.1896 0 1
9.1207 1.9842 -1.8317 0.1897 0 1
8.4376 2.4775 -1.7257 0.1899 0 2
6.4249 2.3964 -1.3456 0.3835 0 20
7.9861 3.6472 -1.7229 0.1902 0 2
7.6986 4.2038 -1.7213 0.1904 0 2
7.3720 4.7377 -1.7196 0.1905 0 2
7.0080 5.2462 -1.7179 0.1907 0 2
6.6088 5.7267 -1.7160 0.1909 0 2
5.9649 -5.9649 -1.7277 0.1976 0 2
6.7646 -5.8615 -1.8333 0.1975 0 1
7.1683 -5.3661 -1.8340 0.1975 0 1
7.5352 -4.8426 -1.8345 0.1974 0 1
7.8633 -4.2936 -1.8349 0.1974 0 1
8.1507 -3.7222 -1.8352 0.1973 0 1
8.3959 -3.1314 -1.8353 0.1973 0 1
8.5976 -2.5244 -1.8352 0.1973 0 1
8.7547 -1.9044 -1.8350 0.1973 0 1
8.8665 -1.2748 -1.8346 0.1974 0 1
8.9323 -0.6388 -1.8341 0.1974 0 1
8.9518 0.0000 -1.8334 0.1975 0 1
8.9249 0.6384 -1.8326 0.1976 0 1
8.8520 1.2728 -1.8316 0.1977 0 1
8.7333 1.8999 -1.8305 0.1978 0 1
8.0795 2.3724 -1.7246 0.1980 0 2
6.3726 2.3769 -1.3930 0.9080 0 20
7.6477 3.4926 -1.7219 0.1983 0 2
7.3726 4.0258 -1.7204 0.1984 0 2
7.0601 4.5373 -1.7189 0.1986 0 2
6.7118 5.0245 -1.7172 0.1988 0 2
6.3298 5.4849 -1.7154 0.1990 0 2
5.8478 -5.8478 -1.7650 0.6895 0 2
6.4877 -5.6216 -1.8321 0.2056 0 1
6.8748 -5.1464 -1.8328 0.2055 0 1
7.2266 -4.6442 -1.8333 0.2055 0 1
7.5411 -4.1177 -1.8337 0.2054 0 1
7.8167 -3.5697 -1.8340 0.2054 0 1
8.0518 -3.0032 -1.8340 0.2054 0 1
8.2453 -2.4210 -1.8340 0.2054 0 1
8.3960 -1.8264 -1.8338 0.2054 0 1
8.5033 -1.2226 -1.8334 0.2055 0 1
8.5665 -0.6127 -1.8329 0.2055 0 1
8.5853 0.0000 -1.8323 0.2056 0 1
8.5597 0.6123 -1.8315 0.2057 0 1
8.4899 1.2207 -1.8305 0.2058 0 1
8.3763 1.8222 -1.8295 0.2059 0 1
7.7494 2.2755 -1.7237 0.2060 0 2
6.3662 2.3745 -1.4501 0.7538 0 20
7.3357 3.3502 -1.7211 0.2063 0 2
7.0721 3.8617 -1.7197 0.2065 0 2
6.7726 4.3525 -1.7182 0.2067 0 2
6.4388 4.8201 -1.7165 0.2069 0 2
6.0726 5.2620 -1.7149 0.2071 0 2
5.8281 -5.8280 -1.8302 0.2138 0 1
6.2317 -5.3998 -1.8310 0.2137 0 1
6.6034 -4.9432 -1.8317 0.2136 0 1
6.9412 -4.4608 -1.8322 0.2135 0 1
7.2433 -3.9551 -1.8326 0.2135 0 1
7.5079 -3.4287 -1.8328 0.2135 0 1
7.7338 -2.8845 -1.8329 0.2135 0 1
7.9196 -2.3254 -1.8328 0.2135 0 1
8.0644 -1.7543 -1.8326 0.2135 0 1
8.1675 -1.1743 -1.8323 0.2135 0 1
8.2283 -0.5885 -1.8318 0.2136 0 1
8.2465 0.0000 -1.8312 0.2137 0 1
8.2221 0.5881 -1.8304 0.2137 0 1
8.1552 1.1726 -1.8295 0.2138 0 1
8.0463 1.7504 -1.8285 0.2140 0 1
7.4442 2.1859 -1.7228 0.2141 0 2
6.4278 2.3975 -1.5234 0.2648 0 20
7.0473 3.2184 -1.7203 0.2144 0 2
6.7943 3.7100 -1.7190 0.2146 0 2
6.5067 4.1817 -1.7175 0.2148 0 2
6.1862 4.6310 -1.7160 0.2150 0 2
5.8346 5.0558 -1.7143 0.2152 0 2
5.6062 -5.6061 -1.8293 0.2218 0 1
5.9943 -5.1940 -1.8300 0.2217 0 1
6.3518 -4.7548 -1.8306 0.2216 0 1
6.6766 -4.2908 -1.8311 0.2216 0 1
6.9671 -3.8043 -1.8315 0.2215 0 1
7.2217 -3.2980 -1.8317 0.2215 0 1
7.4389 -2.7745 -1.8318 0.2215 0 1
7.6176 -2.2367 -1.8318 0.2215 0 1
7.7570 -1.6874 -1.8316 0.2215 0 1
7.8562 -1.1296 -1.8312 0.2216 0 1
7.9147 -0.5661 -1.8308 0.2216 0 1
7.9323 0.0001 -1.8302 0.2217 0 1
7.9089 0.5656 -1.8294 0.2218 0 1
7.8447 1.1279 -1.8286 0.2219 0 1
7.7401 1.6838 -1.8276 0.2220 0 1
7.3123 2.1471 -1.7583 0.3611 0 2
6.4320 2.3990 -1.5839 0.3036 0 20
6.7797 3.0962 -1.7196 0.2225 0 2
6.5365 3.5692 -1.7183 0.2226 0 2
6.2601 4.0232 -1.7169 0.2228 0 2
5.9519 4.4556 -1.7154 0.2230 0 2
5.6138 4.8644 -1.7139 0.2232 0 2
5.3998 -5.3997 -1.8284 0.2298 0 1
5.7735 -5.0028 -1.8291 0.2298 0 1
6.1178 -4.5796 -1.8297 0.2297 0 1
6.4306 -4.1326 -1.8302 0.2296 0 1
6.7103 -3.6641 -1.8305 0.2296 0 1
6.9554 -3.1764 -1.8307 0.2295 0 1
7.1646 -2.6722 -1.8308 0.2295 0 1
7.3368 -2.1542 -1.8308 0.2295 0 1
7.4710 -1.6252 -1.8306 0.2296 0 1
7.5666 -1.0879 -1.8303 0.2296 0 1
7.6231 -0.5452 -1.8298 0.2297 0 1
7.6401 0.0000 -1.8292 0.2297 0 1
7.6177 0.5449 -1.8285 0.2298 0 1
7.5560 1.0865 -1.8277 0.2299 0 1
7.4554 1.6219 -1.8268 0.2300 0 1
7.3018 2.1441 -1.8220 0.3152 0 2
6.4318 2.3990 -1.6435 0.3046 0 20
6.5308 2.9825 -1.7190 0.2305 0 2
6.2967 3.4383 -1.7177 0.2307 0 2
6.0306 3.8757 -1.7163 0.2308 0 2
5.7339 4.2924 -1.7149 0.2310 0 2
5.4084 4.6865 -1.7134 0.2312 0 2
5.2073 -5.2073 -1.8275 0.2379 0 1
5.5677 -4.8244 -1.8282 0.2378 0 1
5.8995 -4.4163 -1.8288 0.2377 0 1
6.2011 -3.9852 -1.8293 0.2376 0 1
6.4708 -3.5333 -1.8296 0.2376 0 1
6.7072 -3.0630 -1.8298 0.2376 0 1
6.9089 -2.5769 -1.8299 0.2376 0 1
7.0750 -2.0774 -1.8298 0.2376 0 1
7.2044 -1.5672 -1.8297 0.2376 0 1
7.2966 -1.0491 -1.8294 0.2376 0 1
7.3512 -0.5257 -1.8289 0.2377 0 1
7.3677 0.0000 -1.8284 0.2378 0 1
7.3462 0.5254 -1.8277 0.2378 0 1
7.2868 1.0477 -1.8269 0.2379 0 1
7.1899 1.5641 -1.8260 0.2381 0 1
7.0561 2.0719 -1.8250 0.2382 0 1
6.4921 2.4215 -1.7195 0.2383 0 2
6.2986 2.8765 -1.7184 0.2385 0 2
6.0730 3.3162 -1.7171 0.2387 0 2
5.8165 3.7381 -1.7158 0.2389 0 2
5.5306 4.1402 -1.7144 0.2390 0 2
5.2167 4.5204 -1.7130 0.2392 0 2
5.0274 -5.0273 -1.8267 0.2459 0 1
5.3752 -4.6576 -1.8274 0.2458 0 1
5.6955 -4.2636 -1.8280 0.2457 0 1
5.9867 -3.8474 -1.8284 0.2456 0 1
6.2470 -3.4111 -1.8287 0.2456 0 1
6.4751 -2.9571 -1.8289 0.2456 0 1
6.6699 -2.4877 -1.8290 0.2456 0 1
6.8302 -2.0055 -1.8290 0.2456 0 1
6.9552 -1.5130 -1.8288 0.2456 0 1
7.0443 -1.0128 -1.8285 0.2456 0 1
7.0970 -0.5075 -1.8281 0.2457 0 1
7.1130 0.0000 -1.8276 0.2458 0 1
7.0923 0.5073 -1.8269 0.2458 0 1
7.0351 1.0115 -1.8261 0.2459 0 1
6.9417 1.5101 -1.8252 0.2461 0 1
6.8126 2.0004 -1.8243 0.2462 0 1
6.2682 2.3380 -1.7189 0.2463 0 2
6.0815 2.7774 -1.7178 0.2465 0 2
5.8638 3.2019 -1.7166 0.2467 0 2
5.6163 3.6095 -1.7153 0.2469 0 2
5.3404 3.9978 -1.7140 0.2470 0 2
5.0375 4.3650 -1.7126 0.2472 0 2
4.8587 -4.8587 -1.8260 0.2538 0 1
5.1949 -4.5013 -1.8267 0.2538 0 1
5.5044 -4.1205 -1.8272 0.2537 0 1
5.7857 -3.7182 -1.8276 0.2536 0 1
6.0373 -3.2966 -1.8279 0.2536 0 1
6.2577 -2.8578 -1.8281 0.2535 0 1
6.4459 -2.4042 -1.8282 0.2535 0 1
6.6008 -1.9382 -1.8282 0.2535 0 1
6.7217 -1.4622 -1.8280 0.2536 0 1
6.8078 -0.9788 -1.8277 0.2536 0 1
6.8588 -0.4905 -1.8273 0.2537 0 1
6.8743 0.0000 -1.8268 0.2537 0 1
6.8544 0.4903 -1.8262 0.2538 0 1
6.7992 0.9776 -1.8254 0.2539 0 1
6.7090 1.4595 -1.8246 0.2540 0 1
6.5844 1.9334 -1.8236 0.2542 0 1
6.0584 2.2597 -1.7183 0.2543 0 2
5.8781 2.6845 -1.7172 0.2545 0 2
5.6678 3.0949 -1.7161 0.2547 0 2
5.4287 3.4889 -1.7149 0.2548 0 2
5.1621 3.8644 -1.7136 0.2550 0 2
4.8695 4.2194 -1.7122 0.2552 0 2
4.7004 -4.7004 -1.8253 0.2618 0 1
5.0255 -4.3546 -1.8259 0.2617 0 1
5.3249 -3.9862 -1.8265 0.2616 0 1
5.5970 -3.5970 -1.8269 0.2616 0 1
5.8403 -3.1890 -1.8272 0.2615 0 1
6.0536 -2.7646 -1.8274 0.2615 0 1
6.2356 -2.3257 -1.8274 0.2615 0 1
6.3855 -1.8749 -1.8274 0.2615 0 1
6.5024 -1.4145 -1.8272 0.2615 0 1
6.5858 -0.9469 -1.8270 0.2616 0 1
6.6351 -0.4745 -1.8266 0.2616 0 1
6.6502 0.0000 -1.8261 0.2617 0 1
6.6310 0.4743 -1.8255 0.2618 0 1
6.5777 0.9457 -1.8247 0.2619 0 1
6.4906 1.4120 -1.8239 0.2620 0 1
6.3701 1.8705 -1.8230 0.2621 0 1
5.9325 2.2128 -1.7386 0.4301 0 2
5.6870 2.5972 -1.7167 0.2624 0 2
5.4837 2.9944 -1.7156 0.2626 0 2
5.2525 3.3756 -1.7144 0.2628 0 2
4.9946 3.7390 -1.7132 0.2630 0 2
4.7116 4.0827 -1.7119 0.2632 0 2
4.5514 -4.5514 -1.8247 0.2698 0 1
4.8662 -4.2165 -1.8253 0.2697 0 1
5.1560 -3.8597 -1.8258 0.2696 0 1
5.4194 -3.4828 -1.8262 0.2695 0 1
5.6550 -3.0878 -1.8265 0.2695 0 1
5.8615 -2.6768 -1.8267 0.2695 0 1
6.0377 -2.2519 -1.8267 0.2695 0 1
6.1829 -1.8154 -1.8267 0.2695 0 1
6.2961 -1.3696 -1.8265 0.2695 0 1
6.3768 -0.9169 -1.8263 0.2695 0 1
6.4246 -0.4595 -1.8259 0.2696 0 1
6.4393 0.0000 -1.8254 0.2697 0 1
6.4208 0.4592 -1.8248 0.2697 0 1
6.3693 0.9158 -1.8241 0.2698 0 1
6.2850 1.3672 -1.8233 0.2700 0 1
6.1684 1.8112 -1.8224 0.2701 0 1
1.7091 0.6375 -0.5171 0.0144 294 14
1.4411 0.6582 -0.4491 0.1670 294 14
1.4195 0.7751 -0.4585 0.1105 294 14
1.4304 0.9193 -0.4820 0.1051 294 14
1.4230 1.0652 -0.5039 0.1006 294 14
4.5630 3.9539 -1.7115 0.2711 0 2
4.4110 -4.4109 -1.8240 0.2777 0 1
4.7159 -4.0863 -1.8246 0.2776 0 1
4.9968 -3.7405 -1.8251 0.2775 0 1
5.2521 -3.3752 -1.8255 0.2775 0 1
5.4803 -2.9925 -1.8258 0.2774 0 1
5.6804 -2.5941 -1.8260 0.2774 0 1
5.8512 -2.1823 -1.8261 0.2774 0 1
5.9918 -1.7593 -1.8260 0.2774 0 1
6.1016 -1.3273 -1.8259 0.2774 0 1
6.1798 -0.8885 -1.8256 0.2775 0 1
6.2262 -0.4453 -1.8252 0.2775 0 1
6.2405 0.0000 -1.8248 0.2776 0 1
6.2227 0.4451 -1.8242 0.2777 0 1
6.1728 0.8875 -1.8235 0.2778 0 1
1.4798 0.3219 -0.4428 0.1743 294 14
1.4552 0.4273 -0.4435 0.1741 294 14
1.4188 0.5292 -0.4428 0.1743 294 14
1.3711 0.6262 -0.4407 0.1755 294 14
1.3187 0.7201 -0.4393 0.1187 294 14
1.3241 0.8509 -0.4602 0.1133 294 14
1.3127 0.9828 -0.4795 0.1088 294 14
1.2880 1.1161 -0.4984 0.1074 294 14
4.2783 -4.2782 -1.8235 0.2856 0 1
4.5741 -3.9634 -1.8240 0.2855 0 1
4.8464 -3.6280 -1.8245 0.2854 0 1
5.0940 -3.2737 -1.8249 0.2854 0 1
5.3153 -2.9023 -1.8252 0.2853 0 1
5.5094 -2.5160 -1.8253 0.2853 0 1
5.6750 -2.1166 -1.8254 0.2853 0 1
5.8114 -1.7063 -1.8254 0.2853 0 1
5.9179 -1.2874 -1.8252 0.2853 0 1
5.9938 -0.8617 -1.8250 0.2854 0 1
1.7098 -0.1222 -0.5166 0.0271 294 14
1.5819 0.0000 -0.4768 0.0294 294 14
1.4694 0.1051 -0.4440 0.1887 294 14
1.4365 0.2066 -0.4374 0.1916 294 14
1.4105 0.3069 -0.4350 0.1824 294 14
1.3870 0.4073 -0.4357 0.1822 294 14
1.3524 0.5045 -0.4350 0.1824 294 14
1.3073 0.5971 -0.4331 0.1836 294 14
1.2526 0.6840 -0.4301 0.1849 294 14
1.2320 0.7918 -0.4414 0.1215 294 14
1.2182 0.9120 -0.4586 0.1200 294 14
1.1940 1.0346 -0.4761 0.1156 294 14
4.1527 -4.1527 -1.8229 0.2935 0 1
4.4398 -3.8471 -1.8235 0.2934 0 1
4.7041 -3.5214 -1.8239 0.2933 0 1
4.9444 -3.1775 -1.8243 0.2933 0 1
5.1592 -2.8171 -1.8246 0.2932 0 1
5.3475 -2.4421 -1.8247 0.2932 0 1
5.5083 -2.0545 -1.8248 0.2932 0 1
5.6407 -1.6563 -1.8248 0.2932 0 1
5.7441 -1.2495 -1.8246 0.2932 0 1
1.4348 -0.2063 -0.4499 0.1918 294 14
1.4360 -0.1026 -0.4469 0.1926 294 14
1.4261 0.0000 -0.4426 0.1945 294 14
1.4055 0.1005 -0.4374 0.1968 294 14
1.3749 0.1977 -0.4311 0.1996 294 14
1.3472 0.2931 -0.4279 0.1905 294 14
1.3246 0.3889 -0.4285 0.1903 294 14
1.2916 0.4817 -0.4279 0.1905 294 14
1.2489 0.5704 -0.4262 0.1917 294 14
1.1970 0.6536 -0.4233 0.1930 294 14
1.1516 0.7401 -0.4249 0.1296 294 14
1.1377 0.8517 -0.4411 0.1281 294 14
1.1123 0.9638 -0.4568 0.1237 294 14
4.0338 -4.0337 -1.8224 0.3014 0 1
4.3126 -3.7368 -1.8229 0.3013 0 1
4.5693 -3.4205 -1.8234 0.3012 0 1
4.8026 -3.0864 -1.8238 0.3011 0 1
5.0113 -2.7363 -1.8240 0.3011 0 1
5.1942 -2.3721 -1.8242 0.3011 0 1
5.3504 -1.9955 -1.8242 0.3011 0 1
5.4790 -1.6087 -1.8242 0.3011 0 1
1.4175 -0.3084 -0.4634 0.1721 294 14
1.3732 -0.1974 -0.4432 0.1999 294 14
1.3746 -0.0982 -0.4402 0.2007 294 14
1.3656 0.0000 -0.4363 0.2025 294 14
1.3466 0.0963 -0.4313 0.2049 294 14
1.3181 0.1895 -0.4254 0.2077 294 14
1.2890 0.2804 -0.4214 0.1986 294 14
1.2673 0.3721 -0.4219 0.1984 294 14
1.2359 0.4610 -0.4214 0.1990 294 14
1.1953 0.5459 -0.4198 0.1998 294 14
1.1459 0.6257 -0.4171 0.2010 294 14
1.0886 0.6996 -0.4134 0.2029 294 14
1.0669 0.7987 -0.4257 0.1363 294 14
1.0463 0.9067 -0.4423 0.2235 294 14
3.9209 -3.9208 -1.8219 0.3092 0 1
4.1918 -3.6322 -1.8224 0.3091 0 1
4.4413 -3.3247 -1.8229 0.3091 0 1
4.6681 -3.0000 -1.8232 0.3090 0 1
4.8709 -2.6596 -1.8235 0.3090 0 1
5.0487 -2.3056 -1.8236 0.3089 0 1
1.4204 -0.5298 -0.4981 0.1643 294 14
1.3902 -0.4081 -0.4760 0.1719 294 14
1.3506 -0.2938 -0.4541 0.1802 294 14
1.3164 -0.1892 -0.4370 0.2079 294 14
1.3180 -0.0942 -0.4342 0.2093 294 14
1.3099 0.0000 -0.4304 0.2106 294 14
1.2922 0.0924 -0.4257 0.2129 294 14
1.2655 0.1820 -0.4201 0.2158 294 14
1.2353 0.2687 -0.4154 0.2067 294 14
1.2145 0.3566 -0.4159 0.2064 294 14
1.1845 0.4419 -0.4154 0.2071 294 14
1.1458 0.5233 -0.4139 0.2078 294 14
1.0988 0.6000 -0.4113 0.2091 294 14
1.0497 0.6746 -0.4100 0.2875 294 14
1.0286 0.7700 -0.4222 0.2402 294 14
1.0077 0.8731 -0.4381 0.2315 294 14
3.8135 -3.8135 -1.8214 0.3171 0 1
4.0770 -3.5328 -1.8220 0.3170 0 1
4.3197 -3.2337 -1.8224 0.3169 0 1
4.5402 -2.9178 -1.8227 0.3168 0 1
4.7374 -2.5868 -1.8230 0.3168 0 1
1.3656 -0.6236 -0.5070 0.1705 294 14
1.3501 -0.5035 -0.4866 0.1723 294 14
1.3243 -0.3888 -0.4661 0.1799 294 14
1.2894 -0.2804 -0.4456 0.1882 294 14
1.2638 -0.1817 -0.4312 0.2160 294 14
1.2657 -0.0905 -0.4286 0.2173 294 14
1.2583 0.0000 -0.4250 0.2192 294 14
1.2418 0.0888 -0.4204 0.2210 294 14
1.2167 0.1749 -0.4151 0.2238 294 14
1.1857 0.2579 -0.4098 0.2147 294 14
1.1657 0.3423 -0.4103 0.2149 294 14
1.1371 0.4241 -0.4099 0.2151 294 14
1.1000 0.5024 -0.4084 0.2159 294 14
1.0563 0.5768 -0.4065 0.2267 294 14
1.0190 0.6548 -0.4091 0.2953 294 14
0.9930 0.7434 -0.4189 0.2481 294 14
0.9715 0.8419 -0.4342 0.2394 294 14
3.7114 -3.7113 -1.8210 0.3249 0 1
3.9678 -3.4381 -1.8215 0.3248 0 1
4.2039 -3.1470 -1.8219 0.3247 0 1
4.4185 -2.8396 -1.8222 0.3246 0 1
4.6104 -2.5174 -1.8225 0.3246 0 1
1.3002 -0.5938 -0.4959 0.1786 294 14
1.2861 -0.4796 -0.4762 0.1804 294 14
1.2640 -0.3711 -0.4570 0.1880 294 14
1.2331 -0.2682 -0.4378 0.1962 294 14
1.2150 -0.1746 -0.4259 0.2240 294 14
1.2171 -0.0871 -0.4234 0.2254 294 14
1.2103 0.0000 -0.4199 0.2272 294 14
1.1949 0.0855 -0.4156 0.2296 294 14
1.1713 0.1684 -0.4106 0.2324 294 14
1.1401 0.2480 -0.4048 0.2351 294 14
1.1205 0.3290 -0.4051 0.2229 294 14
1.0933 0.4078 -0.4048 0.2331 294 14
1.0590 0.4836 -0.4039 0.2337 294 14
1.0174 0.5555 -0.4021 0.2347 294 14
0.9898 0.6361 -0.4082 0.3032 294 14
0.9597 0.7184 -0.4159 0.2561 294 14
0.9377 0.8125 -0.4305 0.2474 294 14
3.6140 -3.6139 -1.8206 0.3326 0 1
3.8636 -3.3478 -1.8211 0.3326 0 1
4.0935 -3.0644 -1.8215 0.3325 0 1
4.3025 -2.7650 -1.8218 0.3324 0 1
4.4894 -2.4513 -1.8220 0.3324 0 1
1.2405 -0.5664 -0.4858 0.1867 294 14
1.2287 -0.4582 -0.4671 0.1941 294 14
1.2087 -0.3549 -0.4487 0.1960 294 14
1.1814 -0.2570 -0.4306 0.2042 294 14
1.1696 -0.1681 -0.4209 0.2321 294 14
1.1719 -0.0838 -0.4185 0.2334 294 14
1.1657 0.0000 -0.4152 0.2352 294 14
1.1513 0.0824 -0.4111 0.2376 294 14
1.1291 0.1624 -0.4063 0.2404 294 14
1.1000 0.2394 -0.4010 0.2536 294 14
1.0796 0.3170 -0.4008 0.2411 294 14
1.0539 0.3931 -0.4007 0.2412 294 14
1.0209 0.4663 -0.3998 0.2417 294 14
0.9870 0.5390 -0.4006 0.3163 294 14
0.9621 0.6184 -0.4074 0.3110 294 14
0.9309 0.6970 -0.4142 0.3058 294 14
0.9061 0.7851 -0.4270 0.2553 294 14
3.5211 -3.5210 -1.8202 0.3404 0 1
3.7643 -3.2617 -1.8206 0.3403 0 1
3.9882 -2.9855 -1.8210 0.3403 0 1
4.1918 -2.6939 -1.8213 0.3402 0 1
1.1848 -0.6469 -0.4934 0.1880 294 14
1.1856 -0.5414 -0.4764 0.1947 294 14
1.1764 -0.4387 -0.4589 0.2021 294 14
1.1582 -0.3400 -0.4412 0.2102 294 14
1.1335 -0.2465 -0.4240 0.2122 294 14
1.1272 -0.1620 -0.4163 0.2401 294 14
1.1296 -0.0808 -0.4140 0.2414 294 14
1.1240 0.0000 -0.4109 0.2432 294 14
1.1105 0.0795 -0.4070 0.2456 294 14
1.0902 0.1568 -0.4026 0.2584 294 14
1.0634 0.2313 -0.3978 0.2615 294 14
1.0418 0.3060 -0.3969 0.2491 294 14
1.0171 0.3794 -0.3968 0.2491 294 14
0.9853 0.4500 -0.3959 0.2497 294 14
0.9605 0.5245 -0.4000 0.3240 294 14
0.9358 0.6014 -0.4066 0.3188 294 14
0.9051 0.6775 -0.4132 0.3137 294 14
0.8763 0.7593 -0.4238 0.2632 294 14
3.4323 -3.4322 -1.8198 0.3482 0 1
3.6693 -3.1795 -1.8202 0.3481 0 1
3.8876 -2.9102 -1.8206 0.3480 0 1
4.0860 -2.6259 -1.8209 0.3479 0 1
1.1327 -0.6184 -0.4838 0.1961 294 14
1.1352 -0.5184 -0.4679 0.2027 294 14
1.1281 -0.4207 -0.4514 0.2101 294 14
1.1124 -0.3266 -0.4346 0.2182 294 14
1.0892 -0.2369 -0.4179 0.2270 294 14
1.0875 -0.1563 -0.4119 0.2481 294 14
1.0901 -0.0779 -0.4097 0.2494 294 14
1.0853 0.0000 -0.4069 0.2615 294 14
1.0733 0.0768 -0.4034 0.2637 294 14
1.0544 0.1517 -0.3994 0.2664 294 14
1.0289 0.2239 -0.3948 0.2695 294 14
1.0065 0.2955 -0.3932 0.2571 294 14
0.9825 0.3665 -0.3931 0.2571 294 14
0.9539 0.4356 -0.3931 0.3371 294 14
0.9352 0.5107 -0.3994 0.3318 294 14
0.9107 0.5853 -0.4058 0.3266 294 14
0.8804 0.6591 -0.4123 0.3214 294 14
0.8482 0.7350 -0.4208 0.2711 294 14
3.3473 -3.3473 -1.8194 0.3559 0 1
3.5785 -3.1007 -1.8199 0.3558 0 1
3.7914 -2.8381 -1.8202 0.3557 0 1
3.9849 -2.5608 -1.8205 0.3557 0 1
1.0846 -0.5922 -0.4750 0.2041 294 14
1.0886 -0.4971 -0.4599 0.2108 294 14
1.0833 -0.4040 -0.4444 0.2181 294 14
1.0698 -0.3141 -0.4285 0.2262 294 14
1.0565 -0.2298 -0.4156 0.3445 294 14
1.0515 -0.1511 -0.4083 0.2663 294 14
1.0543 -0.0754 -0.4062 0.2676 294 14
1.0500 0.0000 -0.4035 0.2694 294 14
1.0387 0.0744 -0.4002 0.2716 294 14
1.0207 0.1468 -0.3963 0.2743 294 14
0.9965 0.2168 -0.3919 0.2774 294 14
0.9731 0.2858 -0.3898 0.2650 294 14
0.9500 0.3543 -0.3897 0.2651 294 14
0.9296 0.4245 -0.3928 0.3449 294 14
0.9110 0.4974 -0.3989 0.3395 294 14
0.8868 0.5699 -0.4051 0.3343 294 14
0.8570 0.6415 -0.4114 0.3292 294 14
0.8217 0.7121 -0.4179 0.2789 294 14
3.2660 -3.2660 -1.8190 0.3636 0 1
3.4915 -3.0254 -1.8195 0.3635 0 1
3.6992 -2.7691 -1.8199 0.3634 0 1
1.0268 -0.6598 -0.4807 0.3042 294 14
1.0402 -0.5680 -0.4668 0.2121 294 14
1.0462 -0.4777 -0.4530 0.3228 294 14
1.0464 -0.3902 -0.4398 0.3324 294 14
1.0409 -0.3056 -0.4273 0.3422 294 14
1.0303 -0.2241 -0.4153 0.3521 294 14
1.0263 -0.1475 -0.4083 0.3741 294 14
1.0207 -0.0730 -0.4030 0.2756 294 14
1.0167 0.0000 -0.4004 0.2773 294 14
1.0061 0.0720 -0.3972 0.2796 294 14
0.9890 0.1422 -0.3935 0.2822 294 14
0.9658 0.2101 -0.3892 0.2853 294 14
0.9418 0.2765 -0.3866 0.2730 294 14
0.9196 0.3430 -0.3865 0.3579 294 14
0.9064 0.4139 -0.3924 0.3526 294 14
0.8879 0.4849 -0.3984 0.3473 294 14
0.8640 0.5553 -0.4045 0.3421 294 14
0.8346 0.6248 -0.4106 0.3370 294 14
0.7996 0.6929 -0.4167 0.3320 294 14
3.1881 -3.1880 -1.8187 0.3712 0 1
3.4082 -2.9532 -1.8191 0.3711 0 1
3.6109 -2.7030 -1.8195 0.3711 0 1
0.9945 -0.6391 -0.4769 0.2614 294 14
1.0115 -0.5522 -0.4649 0.3211 294 14
1.0185 -0.4651 -0.4516 0.3305 294 14
1.0194 -0.3802 -0.4389 0.3401 294 14
1.0149 -0.2980 -0.4267 0.3499 294 14
1.0052 -0.2186 -0.4150 0.3597 294 14
1.0025 -0.1441 -0.4086 0.3817 294 14
0.9964 -0.0712 -0.4029 0.3870 294 14
0.9855 0.0000 -0.3975 0.3923 294 14
0.9752 0.0698 -0.3944 0.2875 294 14
0.9589 0.1379 -0.3908 0.2901 294 14
0.9367 0.2038 -0.3867 0.2932 294 14
0.9122 0.2679 -0.3835 0.2809 294 14
0.8974 0.3347 -0.3864 0.3656 294 14
0.8842 0.4038 -0.3921 0.3602 294 14
0.8658 0.4728 -0.3979 0.3550 294 14
0.8421 0.5413 -0.4038 0.3498 294 14
0.8132 0.6088 -0.4098 0.3447 294 14
0.7788 0.6749 -0.4157 0.3398 294 14
3.1132 -3.1132 -1.8184 0.3789 0 1
3.3282 -2.8838 -1.8188 0.3788 0 1
3.5261 -2.6396 -1.8192 0.3787 0 1
0.9619 -0.6181 -0.4722 0.2693 294 14
0.9844 -0.5375 -0.4632 0.3288 294 14
0.9920 -0.4530 -0.4504 0.3382 294 14
0.9937 -0.3706 -0.4380 0.3478 294 14
0.9899 -0.2907 -0.4261 0.3575 294 14
0.9812 -0.2134 -0.4147 0.3673 294 14
0.9797 -0.1408 -0.4088 0.3893 294 14
0.9740 -0.0696 -0.4033 0.3946 294 14
0.9637 0.0000 -0.3980 0.3998 294 14
0.9490 0.0679 -0.3930 0.4050 294 14
0.9304 0.1338 -0.3882 0.2980 294 14
0.9092 0.1978 -0.3843 0.3010 294 14
0.8845 0.2597 -0.3807 0.3786 294 14
0.8761 0.3268 -0.3862 0.3732 294 14
0.8629 0.3940 -0.3918 0.3679 294 14
0.8446 0.4612 -0.3974 0.3626 294 14
0.8213 0.5279 -0.4032 0.3574 294 14
3.3131 2.4802 -1.7093 0.3800 0 2
3.1262 2.7089 -1.7084 0.3802 0 2
3.0414 -3.0414 -1.8181 0.3865 0 1
3.2513 -2.8173 -1.8185 0.3864 0 1
0.8922 -0.6678 -0.4711 0.2754 294 14
0.9312 -0.5985 -0.4679 0.2773 294 14
0.9586 -0.5234 -0.4617 0.3365 294 14
0.9667 -0.4415 -0.4492 0.3458 294 14
