ply
format ascii 1.0
element vertex 613
property float32 x
property float32 y
property float32 z
property float32 CosAngle
property uint32 ObjIdx
property uint32 ObjTag
end_header
20.037099838256836 -8.458105087280273 4.454488277435303 0.3808145821094513 0 3
19.332197189331055 -8.365800857543945 4.314310073852539 0.8992863297462463 0 3
18.934310913085938 -8.396191596984863 4.242151260375977 0.3969564735889435 0 3
18.28337860107422 -8.304726600646973 4.112847328186035 0.40497973561286926 0 3
18.143817901611328 -8.438573837280273 4.098328113555908 0.41296955943107605 0 3
17.444433212280273 -8.304570198059082 3.9570152759552 0.4209270179271698 0 3
17.235843658447266 -8.395878791809082 3.926652669906616 0.4288511276245117 0 3
16.849863052368164 -8.395800590515137 3.8557281494140625 0.436739444732666 0 3
16.393417358398438 -8.352831840515137 3.7682859897613525 0.8730944991111755 0 3
16.23662567138672 -8.45736312866211 3.74954891204834 0.45241019129753113 0 3
15.886811256408691 -8.457304954528809 3.6861486434936523 0.4601914882659912 0 3
15.435077667236328 -8.3955078125 3.598672389984131 0.4679361879825592 0 3
15.110239028930664 -8.395448684692383 3.5403666496276855 0.4756428897380829 0 3
14.712504386901855 -8.34814453125 3.4645915031433105 0.8522684574127197 0 3
14.491049766540527 -8.395331382751465 3.4300482273101807 0.4909401834011078 0 3
14.195629119873047 -8.395273208618164 3.3778228759765625 0.49853038787841797 0 3
13.902074813842773 -8.390975952148438 3.3257646560668945 0.8389462232589722 0 3
13.630908012390137 -8.39517593383789 3.2787890434265137 0.5135888457298279 0 3
13.20792007446289 -8.299081802368164 3.194830894470215 0.5210554599761963 0 3
13.0291109085083 -8.350781440734863 3.1695830821990967 0.19897790253162384 0 3
12.842909812927246 -8.395038604736328 3.142493724822998 0.5358636379241943 0 3
12.594521522521973 -8.394980430603027 3.1000311374664307 0.5432037711143494 0 3
12.35277271270752 -8.394941329956055 3.058947801589966 0.5504990220069885 0 3
12.11729907989502 -8.394902229309082 3.0191752910614014 0.5577519536018372 0 3
11.887861251831055 -8.39486312866211 2.980664014816284 0.5649585723876953 0 3
11.6641845703125 -8.394804954528809 2.943354368209839 0.5721194744110107 0 3
11.55040454864502 -8.471308708190918 2.9337151050567627 0.790204644203186 0 3
11.550360679626465 -8.631776809692383 2.953265905380249 0.7849739193916321 0 3
11.55031681060791 -8.79443359375 2.973317861557007 0.7796790599822998 0 3
11.550277709960938 -8.959296226501465 2.993889093399048 0.7743224501609802 0 3
11.550224304199219 -9.126483917236328 3.014991283416748 0.7689030170440674 0 3
11.550185203552246 -9.29605484008789 3.0366368293762207 0.7634218335151672 0 3
11.550146102905273 -9.46810531616211 3.0588464736938477 0.7578787207603455 0 3
11.550092697143555 -9.642695426940918 3.0816314220428467 0.7522748112678528 0 3
7.398056507110596 -6.289863109588623 1.9888288974761963 0.6344256401062012 0 3
7.375732421875 -6.385820388793945 1.9981553554534912 0.7408857345581055 0 3
11.549955368041992 -10.182636260986328 3.1536285877227783 0.7351013422012329 0 3
11.502411842346191 -10.325702667236328 3.1658294200897217 0.2002129703760147 0 3
11.495878219604492 -10.50771427154541 3.189863920211792 0.7233549952507019 0 3
11.495824813842773 -10.69863224029541 3.2163615226745605 0.7173945903778076 0 3
11.549750328063965 -10.943886756896973 3.2588016986846924 0.7113764882087708 0 3
11.549692153930664 -11.142265319824219 3.286872386932373 0.7053009867668152 0 3
7.53209924697876 -7.398105144500732 2.162334442138672 0.20022417604923248 0 3
9.834111213684082 9.834101676940918 2.7291436195373535 0.6940072774887085 0 3
10.118192672729492 9.93814468383789 2.783112049102783 0.6877518892288208 0 3
10.301513671875 9.938105583190918 2.8088836669921875 0.6814417243003845 0 3
10.488251686096191 9.938085556030273 2.835367441177368 0.675076961517334 0 3
10.654560089111328 9.915702819824219 2.8561503887176514 0.19209547340869904 0 3
10.81813907623291 9.8882417678833 2.876091241836548 0.6871238946914673 0 3
11.004125595092773 9.878397941589355 2.9018449783325195 0.6810257434844971 0 3
11.191781997680664 9.866894721984863 2.9278576374053955 0.8691052794456482 0 3
11.35818862915039 9.833807945251465 2.9481823444366455 0.6424455642700195 0 3
11.566337585449219 9.833788871765137 2.9791760444641113 0.6357616186141968 0 3
11.778915405273438 9.833749771118164 3.01107120513916 0.6290268301963806 0 3
11.996122360229492 9.833691596984863 3.0439109802246094 0.6222409605979919 0 3
12.218124389648438 9.83365249633789 3.07772159576416 0.615405261516571 0 3
12.445136070251465 9.833613395690918 3.112546920776367 0.6085200309753418 0 3
12.67735767364502 9.833574295043945 3.1484227180480957 0.6015859842300415 0 3
12.915034294128418 9.833535194396973 3.1853973865509033 0.5946030020713806 0 3
13.158364295959473 9.83349609375 3.223513126373291 0.5875721573829651 0 3
13.407607078552246 9.833436965942383 3.2628185749053955 0.5804942846298218 0 3
13.663026809692383 9.83339786529541 3.3033623695373535 0.5733694434165955 0 3
13.924877166748047 9.83333969116211 3.345196485519409 0.5661988854408264 0 3
14.193486213684082 9.833300590515137 3.388383150100708 0.5589824318885803 0 3
14.46915054321289 9.833242416381836 3.432979106903076 0.5517205595970154 0 3
14.752177238464355 9.833203315734863 3.4790520668029785 0.5444145798683167 0 3
14.93203067779541 9.76064395904541 3.5006608963012695 0.8213919401168823 0 3
14.932011604309082 9.570429801940918 3.480380058288574 0.8261796236038208 0 3
15.182978630065918 9.540136337280273 3.518777370452881 0.5222353339195251 0 3
15.48985767364502 9.5400972366333 3.5699052810668945 0.5147567391395569 0 3
15.805770874023438 9.5400390625 3.622831344604492 0.5072370171546936 0 3
16.622236251831055 9.830389976501465 3.7895965576171875 0.4595363736152649 0 3
16.88224983215332 9.780683517456055 3.828707218170166 0.4548422396183014 0 3
17.303802490234375 9.818495750427246 3.904160737991333 0.1480112224817276 0 3
17.74342155456543 9.8584566116333 3.983229875564575 0.3767780065536499 0 3
18.115009307861328 9.85318374633789 4.046624183654785 0.7459120750427246 0 3
18.47002410888672 9.832480430603027 4.106044769287109 0.4612831175327301 0 3
18.87641143798828 9.832402229309082 4.176605224609375 0.45349064469337463 0 3
19.297040939331055 9.832324028015137 4.249971866607666 0.445661723613739 0 3
19.96685028076172 9.94888687133789 4.377644062042236 0.4377961754798889 0 3
20.423891067504883 9.9487886428833 4.458093643188477 0.42989620566368103 0 3
20.775165557861328 9.890175819396973 4.51520299911499 0.7105077505111694 0 3
21.13980484008789 9.831992149353027 4.575088977813721 0.41399213671684265 0 3
21.645580291748047 9.831893920898438 4.66526460647583 0.4059901833534241 0 3
22.171772003173828 9.831796646118164 4.759464740753174 0.3979550898075104 0 3
22.989208221435547 9.9483003616333 4.915567398071289 0.38988685607910156 0 3
23.511377334594727 9.924687385559082 5.007965087890625 0.9040897488594055 0 3
23.886728286743164 9.831483840942383 5.068914890289307 0.37366029620170593 0 3
24.509218215942383 9.831366539001465 5.182078838348389 0.365500807762146 0 3
24.580951690673828 9.604902267456055 5.178811550140381 0.9140374660491943 0 3
28.372236251831055 -8.242910385131836 5.797834873199463 0.2735927104949951 0 3
27.702367782592773 -8.318652153015137 5.675973415374756 0.19031260907649994 0 3
27.145263671875 -8.417734146118164 5.577089309692383 0.2904650568962097 0 3
26.307674407958984 -8.4175386428833 5.42030668258667 0.2988664209842682 0 3
25.838890075683594 -8.523944854736328 5.33927059173584 0.9320641756057739 0 3
25.83883285522461 -8.781874656677246 5.355332374572754 0.9292686581611633 0 3
25.838768005371094 -9.041366577148438 5.37192440032959 0.926398515701294 0 3
25.83871078491211 -9.302499771118164 5.3890557289123535 0.9234536290168762 0 3
25.83865737915039 -9.565312385559082 5.406732559204102 0.9204345941543579 0 3
25.838592529296875 -9.829901695251465 5.424965858459473 0.9173410534858704 0 3
25.83853530883789 -10.096269607543945 5.443758487701416 0.91417396068573 0 3
20.93230438232422 -8.396562576293945 4.425795078277588 0.3651542067527771 0 3
20.55021858215332 -8.458203315734863 4.36088752746582 0.37331461906433105 0 3
20.037084579467773 -8.458105087280273 4.267938613891602 0.3814450204372406 0 3
19.332313537597656 -8.365859031677246 4.133656024932861 0.900769054889679 0 3
18.93427276611328 -8.396191596984863 4.06449031829834 0.3976140022277832 0 3
18.283369064331055 -8.304726600646973 3.940608501434326 0.4056501090526581 0 3
18.143808364868164 -8.438573837280273 3.9266960620880127 0.413653165102005 0 3
17.444438934326172 -8.30453109741211 3.7912817001342773 0.4216236472129822 0 3
17.235864639282227 -8.39583969116211 3.762214183807373 0.42956051230430603 0 3
16.8498477935791 -8.395761489868164 3.6942527294158936 0.43746238946914673 0 3
16.39351463317871 -8.352890014648438 3.6105003356933594 0.8745338916778564 0 3
16.236616134643555 -8.45736312866211 3.5925211906433105 0.4531590938568115 0 3
15.88680648803711 -8.457304954528809 3.53177547454834 0.4609532058238983 0 3
15.435053825378418 -8.3955078125 3.447955846786499 0.4687112271785736 0 3
15.11021900177002 -8.395448684692383 3.3920984268188477 0.47643038630485535 0 3
14.712592124938965 -8.3482027053833 3.3195207118988037 0.8536734580993652 0 3
14.325278282165527 -8.299277305603027 3.2488110065460205 0.49175235629081726 0 3
14.033251762390137 -8.299238204956055 3.1993486881256104 0.49935483932495117 0 3
13.902153015136719 -8.391035079956055 3.186505079269409 0.8403292298316956 0 3
13.630898475646973 -8.39517593383789 3.14147686958313 0.5144389271736145 0 3
13.360746383666992 -8.395116806030273 3.09645938873291 0.5219183564186096 0 3
13.098193168640137 -8.3950777053833 3.0529496669769287 0.5293558239936829 0 3
12.842905044555664 -8.395038604736328 3.0108892917633057 0.5367507338523865 0 3
12.594531059265137 -8.394980430603027 2.970207452774048 0.5441022515296936 0 3
12.352758407592773 -8.394941329956055 2.930842161178589 0.551410436630249 0 3
12.117289543151855 -8.394902229309082 2.8927385807037354 0.5586751699447632 0 3
11.887861251831055 -8.39486312866211 2.855839252471924 0.5658935308456421 0 3
11.664179801940918 -8.394804954528809 2.82009220123291 0.5730664730072021 0 3
11.550482749938965 -8.471366882324219 2.810875177383423 0.7915069460868835 0 3
11.550434112548828 -8.631855010986328 2.8296074867248535 0.7862668633460999 0 3
11.550395011901855 -8.7944917678833 2.848820209503174 0.7809640765190125 0 3
11.550360679626465 -8.959355354309082 2.8685302734375 0.7755987644195557 0 3
11.550312042236328 -9.126543045043945 2.8887481689453125 0.7701703310012817 0 3
11.550263404846191 -9.296133041381836 2.9094884395599365 0.764679491519928 0 3
11.5502290725708 -9.468183517456055 2.9307658672332764 0.7591274380683899 0 3
11.5501708984375 -9.642753601074219 2.9525980949401855 0.7535147666931152 0 3
7.398056507110596 -6.289863109588623 1.9055378437042236 0.6354758739471436 0 3
7.375791072845459 -6.38585901260376 1.9144880771636963 0.7421069145202637 0 3
11.550033569335938 -10.182714462280273 3.0215814113616943 0.7363124489784241 0 3
11.5499849319458 -10.368417739868164 3.045793294906616 0.7304587364196777 0 3
11.549941062927246 -10.557108879089355 3.0706443786621094 0.7245468497276306 0 3
11.549878120422363 -10.74892520904541 3.0961570739746094 0.7185764908790588 0 3
11.54983901977539 -10.943964958190918 3.1223504543304443 0.712548553943634 0 3
11.549779891967773 -11.142343521118164 3.149247407913208 0.706463098526001 0 3
11.549721717834473 -11.344199180603027 3.176866292953491 0.7003206014633179 0 3
9.834101676940918 9.834101676940918 2.6102404594421387 0.6951065063476562 0 3
10.130986213684082 9.950722694396973 2.6652214527130127 0.6888419389724731 0 3
10.314526557922363 9.95068359375 2.689903497695923 0.6825217008590698 0 3
10.501527786254883 9.950644493103027 2.7152671813964844 0.6761455535888672 0 3
10.692084312438965 9.950624465942383 2.741335391998291 0.6697168350219727 0 3
10.872621536254883 9.938007354736328 2.764636754989624 0.6632326245307922 0 3
11.070502281188965 9.937968254089355 2.792163610458374 0.6566954851150513 0 3
11.19180679321289 9.866913795471191 2.800302743911743 0.8704798817634583 0 3
11.358198165893555 9.833807945251465 2.819737434387207 0.6434628367424011 0 3
11.566332817077637 9.833788871765137 2.849379777908325 0.636768639087677 0 3
11.778915405273438 9.833749771118164 2.8798882961273193 0.6300230026245117 0 3
11.996122360229492 9.833691596984863 2.9112932682037354 0.623226523399353 0 3
12.218124389648438 9.83365249633789 2.943632125854492 0.6163800358772278 0 3
12.445146560668945 9.833613395690918 2.976940155029297 0.6094836592674255 0 3
12.680936813354492 9.836347579956055 3.0120983123779297 0.6285067796707153 0 3
12.915023803710938 9.833535194396973 3.0466160774230957 0.5955448150634766 0 3
13.158373832702637 9.83349609375 3.0830719470977783 0.5885025858879089 0 3
13.40761661529541 9.833436965942383 3.1206653118133545 0.5814135074615479 0 3
13.6630220413208 9.83339786529541 3.159444570541382 0.5742776393890381 0 3
13.924897193908691 9.83333969116211 3.199453592300415 0.5670953392982483 0 3
14.193490982055664 9.833300590515137 3.240762233734131 0.5598675608634949 0 3
14.46914005279541 9.833242416381836 3.2834136486053467 0.5525945425033569 0 3
14.752177238464355 9.833203315734863 3.32747483253479 0.5452767610549927 0 3
14.93212890625 9.760703086853027 3.348170042037964 0.8226878046989441 0 3
14.932099342346191 9.570508003234863 3.328765869140625 0.8274826407432556 0 3
15.182988166809082 9.540136337280273 3.365471124649048 0.5230624079704285 0 3
15.489863395690918 9.5400972366333 3.4143736362457275 0.5155720114707947 0 3
15.805766105651855 9.5400390625 3.4649908542633057 0.5080405473709106 0 3
16.62643051147461 9.832870483398438 3.625403881072998 0.5004686713218689 0 3
16.972192764282227 9.832812309265137 3.681407928466797 0.492855966091156 0 3
17.32882308959961 9.832734107971191 3.7394683361053467 0.4852036237716675 0 3
17.679412841796875 9.822949409484863 3.7959446907043457 0.43947553634643555 0 3
17.962011337280273 9.769941329956055 3.837632417678833 0.43470102548599243 0 3
18.470029830932617 9.832480430603027 3.927156925201416 0.4620135724544525 0 3
18.876415252685547 9.832402229309082 3.994637966156006 0.4542089104652405 0 3
19.29706573486328 9.832324028015137 4.064815998077393 0.4463672339916229 0 3
19.96685028076172 9.94888687133789 4.186922073364258 0.4384896159172058 0 3
20.423919677734375 9.9487886428833 4.2638678550720215 0.43057677149772644 0 3
20.775238037109375 9.8901948928833 4.318503379821777 0.7116308808326721 0 3
21.139789581298828 9.831992149353027 4.375765323638916 0.41464799642562866 0 3
21.645614624023438 9.831893920898438 4.462017059326172 0.40663275122642517 0 3
22.17178726196289 9.831796646118164 4.552103042602539 0.39858517050743103 0 3
22.989198684692383 9.9483003616333 4.7014055252075195 0.39050450921058655 0 3
23.511512756347656 9.924745559692383 4.78980827331543 0.9055165648460388 0 3
23.886722564697266 9.831483840942383 4.848071575164795 0.37425220012664795 0 3
24.509218215942383 9.831366539001465 4.956308364868164 0.3660796880722046 0 3
24.58108901977539 9.604960441589355 4.953214645385742 0.9154800176620483 0 3
29.353782653808594 -8.243104934692383 5.722384929656982 0.2655431032180786 0 3
28.97509765625 -8.418066024780273 5.663064956665039 0.2740260064601898 0 3
28.032777786254883 -8.417890548706055 5.493434906005859 0.28248733282089233 0 3
27.145263671875 -8.417695045471191 5.334108352661133 0.2909245789051056 0 3
26.307680130004883 -8.4175386428833 5.184154510498047 0.2993411123752594 0 3
25.83903694152832 -8.524003982543945 5.106680393218994 0.9335352778434753 0 3
25.838979721069336 -8.781933784484863 5.1220383644104 0.9307354688644409 0 3
25.83892059326172 -9.041425704956055 5.137911796569824 0.927860677242279 0 3
25.8388614654541 -9.302557945251465 5.154294490814209 0.9249112606048584 0 3
25.83879852294922 -9.565370559692383 5.171201705932617 0.9218873381614685 0 3
25.8387393951416 -9.829960823059082 5.1886396408081055 0.9187889099121094 0 3
25.838680267333984 -10.09634780883789 5.2066144943237305 0.9156166315078735 0 3
20.932275772094727 -8.396562576293945 4.232968807220459 0.3657330572605133 0 3
20.55021858215332 -8.458203315734863 4.170893669128418 0.3739059567451477 0 3
20.037084579467773 -8.458105087280273 4.0819878578186035 0.3820493221282959 0 3
19.332422256469727 -8.365898132324219 3.953589916229248 0.9021909236907959 0 3
18.93427276611328 -8.396191596984863 3.8874077796936035 0.3982439935207367 0 3
18.28337287902832 -8.3046875 3.7689311504364014 0.4062926173210144 0 3
18.143798828125 -8.4385347366333 3.755615234375 0.4143086075782776 0 3
17.444408416748047 -8.30453109741211 3.6261260509490967 0.42229190468788147 0 3
17.235843658447266 -8.39583969116211 3.598297119140625 0.43024128675460815 0 3
16.849843978881836 -8.395761489868164 3.5333099365234375 0.4381554126739502 0 3
16.393613815307617 -8.352949142456055 3.4532158374786377 0.8759137988090515 0 3
16.23662567138672 -8.45736312866211 3.436005115509033 0.45387697219848633 0 3
15.886796951293945 -8.457304954528809 3.377903461456299 0.4616836607456207 0 3
15.435043334960938 -8.3955078125 3.2977447509765625 0.46945375204086304 0 3
15.1102294921875 -8.395448684692383 3.244313955307007 0.4771850109100342 0 3
14.70626449584961 -8.34462833404541 3.1735332012176514 0.1824096143245697 0 3
14.491020202636719 -8.395331382751465 3.1432178020477295 0.49253228306770325 0 3
14.195629119873047 -8.395273208618164 3.095367908477783 0.5001463890075684 0 3
13.9090576171875 -8.395234107971191 3.0491905212402344 0.5077207088470459 0 3
13.630903244018555 -8.39517593383789 3.0046112537384033 0.5152537822723389 0 3
13.360746383666992 -8.395116806030273 2.9615509510040283 0.5227452516555786 0 3
13.098183631896973 -8.3950777053833 2.919936418533325 0.5301948189735413 0 3
12.842900276184082 -8.395038604736328 2.8797106742858887 0.537601113319397 0 3
12.594521522521973 -8.394980430603027 2.8407976627349854 0.5449647307395935 0 3
12.35274887084961 -8.394941329956055 2.803147554397583 0.5522841811180115 0 3
12.117289543151855 -8.394902229309082 2.766705274581909 0.5595601797103882 0 3
11.88785171508789 -8.39486312866211 2.7314136028289795 0.5667902231216431 0 3
11.664169311523438 -8.394804954528809 2.6972241401672363 0.573974609375 0 3
11.550551414489746 -8.471426010131836 2.688426971435547 0.7927555441856384 0 3
11.550517082214355 -8.631914138793945 2.706343412399292 0.7875073552131653 0 3
11.5504732131958 -8.794550895690918 2.7247204780578613 0.7821959853172302 0 3
11.55043888092041 -8.959433555603027 2.743572235107422 0.7768216729164124 0 3
11.550390243530273 -9.12662124633789 2.7629101276397705 0.7713846564292908 0 3
11.550341606140137 -9.296191215515137 2.7827465534210205 0.7658858299255371 0 3
11.550302505493164 -9.468241691589355 2.803101062774658 0.7603247761726379 0 3
11.55025863647461 -9.642831802368164 2.823979377746582 0.7547029256820679 0 3
7.398046493530273 -6.289863109588623 1.8225181102752686 0.6364824175834656 0 3
7.375829696655273 -6.385917663574219 1.831092357635498 0.7432766556739807 0 3
11.550111770629883 -10.182792663574219 2.8899571895599365 0.7374734878540039 0 3
11.55007266998291 -10.36849594116211 2.913113832473755 0.7316105961799622 0 3
11.55001449584961 -10.5571870803833 2.936885356903076 0.7256892323493958 0 3
11.549965858459473 -10.749003410339355 2.961285352706909 0.719709575176239 0 3
11.54991626739502 -10.944043159484863 2.986337900161743 0.7136722207069397 0 3
11.549867630004883 -11.142440795898438 3.0120646953582764 0.7075766921043396 0 3
11.549809455871582 -11.3442964553833 3.0384838581085205 0.7014243602752686 0 3
9.834120750427246 9.834101676940918 2.491711139678955 0.6961580514907837 0 3
10.130986213684082 9.950722694396973 2.54419207572937 0.6898845434188843 0 3
10.314531326293945 9.95068359375 2.5677525997161865 0.6835545301437378 0 3
10.5015230178833 9.950663566589355 2.591961622238159 0.6771697998046875 0 3
10.692079544067383 9.950624465942383 2.616844415664673 0.6707305908203125 0 3
10.886357307434082 9.950566291809082 2.6424267292022705 0.6642362475395203 0 3
11.070502281188965 9.937968254089355 2.6653661727905273 0.6576892733573914 0 3
11.1918306350708 9.866933822631836 2.673142671585083 0.8717954158782959 0 3
11.358193397521973 9.833807945251465 2.691688060760498 0.6444367170333862 0 3
11.566332817077637 9.833788871765137 2.7199864387512207 0.6377322673797607 0 3
11.77892017364502 9.833749771118164 2.7491068840026855 0.6309765577316284 0 3
11.996132850646973 9.833691596984863 2.7790892124176025 0.6241695284843445 0 3
12.2181396484375 9.83365249633789 2.80995774269104 0.6173125505447388 0 3
12.445151329040527 9.833613395690918 2.841752290725708 0.6104059815406799 0 3
12.720443725585938 9.866971969604492 2.8842718601226807 0.28597673773765564 0 3
12.965194702148438 9.871718406677246 2.919559955596924 0.6199185252189636 0 3
13.193510055541992 9.859745979309082 2.950922727584839 0.6133295297622681 0 3
13.426698684692383 9.847421646118164 2.983189582824707 0.6066960096359253 0 3
13.6649169921875 9.834765434265137 3.0163824558258057 0.6000200510025024 0 3
13.92489242553711 9.83333969116211 3.054166078567505 0.5679536461830139 0 3
14.193510055541992 9.833300590515137 3.093597412109375 0.5607145428657532 0 3
14.469144821166992 9.833242416381836 3.1343071460723877 0.5534308552742004 0 3
14.752177238464355 9.833203315734863 3.176370859146118 0.5461021065711975 0 3
14.932226181030273 9.760761260986328 3.19614315032959 0.8239277005195618 0 3
14.932196617126465 9.570547103881836 3.177618980407715 0.8287302851676941 0 3
15.183002471923828 9.540136337280273 3.2126433849334717 0.5238536596298218 0 3
15.4898681640625 9.5400972366333 3.2593235969543457 0.5163522362709045 0 3
15.805770874023438 9.5400390625 3.307643413543701 0.5088092684745789 0 3
16.626449584960938 9.832870483398438 3.4607696533203125 0.5012257099151611 0 3
16.97220230102539 9.832812309265137 3.5142271518707275 0.4936017692089081 0 3
17.328838348388672 9.832734107971191 3.569652557373047 0.4859376549720764 0 3
17.696908950805664 9.83267593383789 3.6271488666534424 0.4782349467277527 0 3
18.077098846435547 9.832597732543945 3.6868298053741455 0.47049322724342346 0 3
18.47005271911621 9.83251953125 3.748823881149292 0.46271243691444397 0 3
18.87642478942871 9.832402229309082 3.813239097595215 0.45489606261253357 0 3
19.166284561157227 9.7656831741333 3.853926420211792 0.44704294204711914 0 3
19.76276397705078 9.84716796875 3.9559319019317627 0.34744513034820557 0 3
20.282426834106445 9.8798828125 4.04203987121582 0.3400438725948334 0 3
20.77530288696289 9.890214920043945 4.122405529022217 0.7127058506011963 0 3
21.13980484008789 9.831992149353027 4.177055358886719 0.41527536511421204 0 3
21.6456241607666 9.831893920898438 4.259390830993652 0.40724802017211914 0 3
22.171815872192383 9.831796646118164 4.345391750335693 0.39918798208236694 0 3
22.98920440673828 9.9483003616333 4.487908840179443 0.3910955488681793 0 3
23.51165008544922 9.9248046875 4.572320938110352 0.9068818092346191 0 3
23.88675308227539 9.831483840942383 4.627923011779785 0.37481820583343506 0 3
24.509233474731445 9.831366539001465 4.731234550476074 0.3666335940361023 0 3
24.581233978271484 9.605019569396973 4.728303909301758 0.9168602824211121 0 3
31.518295288085938 -8.24349594116211 5.836832523345947 0.2488900125026703 0 3
30.585599899291992 -8.293574333190918 5.677665710449219 0.17380347847938538 0 3
29.97747039794922 -8.418261528015137 5.578583717346191 0.265945166349411 0 3
28.975048065185547 -8.4180269241333 5.405881404876709 0.2744411826133728 0 3
28.03276252746582 -8.417851448059082 5.243969440460205 0.28291505575180054 0 3
26.83546257019043 -8.32162094116211 5.0337653160095215 0.2913654148578644 0 3
26.307674407958984 -8.4175386428833 4.948733329772949 0.2997942268848419 0 3
25.83917999267578 -8.524062156677246 4.874802589416504 0.9349429607391357 0 3
25.839115142822266 -8.781972885131836 4.889468193054199 0.9321390390396118 0 3
25.839067459106445 -9.041483879089355 4.9046149253845215 0.9292598366737366 0 3
25.83900260925293 -9.302617073059082 4.920256614685059 0.9263059496879578 0 3
25.838945388793945 -9.565448760986328 4.936399459838867 0.9232771992683411 0 3
25.784915924072266 -9.80947208404541 4.942698955535889 0.9201743602752686 0 3
25.909530639648438 -10.1240234375 4.983803749084473 0.1757829636335373 0 3
20.932260513305664 -8.396562576293945 4.040738582611084 0.3662869334220886 0 3
20.550199508666992 -8.458203315734863 3.981480121612549 0.37447234988212585 0 3
20.03706932067871 -8.458105087280273 3.8966166973114014 0.38262784481048584 0 3
19.332538604736328 -8.365918159484863 3.7740612030029297 0.9035512804985046 0 3
18.934267044067383 -8.39615249633789 3.7108752727508545 0.398846834897995 0 3
18.28335952758789 -8.3046875 3.5977721214294434 0.406907856464386 0 3
18.143789291381836 -8.4385347366333 3.5850658416748047 0.4149359166622162 0 3
17.44440460205078 -8.30453109741211 3.46146297454834 0.4229312837123871 0 3
17.235849380493164 -8.39583969116211 3.4348881244659424 0.4308925271034241 0 3
16.8498477935791 -8.395761489868164 3.3728528022766113 0.43881866335868835 0 3
16.340322494506836 -8.325800895690918 3.2856876850128174 0.4467099905014038 0 3
15.98388671875 -8.3257417678833 3.2289116382598877 0.4545647203922272 0 3
15.667119026184082 -8.340371131896973 3.179919958114624 0.1666027307510376 0 3
15.435043334960938 -8.3955078125 3.1479852199554443 0.4701644778251648 0 3
15.110209465026855 -8.395448684692383 3.0969786643981934 0.4779077172279358 0 3
14.795707702636719 -8.395390510559082 3.047842264175415 0.4856124818325043 0 3
14.491010665893555 -8.395331382751465 3.000478982925415 0.49327799677848816 0 3
14.1956148147583 -8.395273208618164 2.954798460006714 0.500903844833374 0 3
13.909052848815918 -8.395234107971191 2.910719633102417 0.5084894299507141 0 3
13.630898475646973 -8.39517593383789 2.8681535720825195 0.516033947467804 0 3
13.360732078552246 -8.395116806030273 2.827069044113159 0.5235369801521301 0 3
13.098183631896973 -8.3950777053833 2.7873375415802 0.5309972167015076 0 3
12.8428955078125 -8.395038604736328 2.7489378452301025 0.5384150743484497 0 3
12.594511032104492 -8.394980430603027 2.7117931842803955 0.5457898378372192 0 3
12.352744102478027 -8.394941329956055 2.6758532524108887 0.5531203150749207 0 3
12.117284774780273 -8.394902229309082 2.6410632133483887 0.5604076385498047 0 3
11.887845993041992 -8.39486312866211 2.607372283935547 0.5676483511924744 0 3
11.66417407989502 -8.394804954528809 2.574738025665283 0.5748433470726013 0 3
11.550629615783691 -8.471503257751465 2.5663604736328125 0.7939494848251343 0 3
11.550590515136719 -8.631972312927246 2.5834624767303467 0.7886939644813538 0 3
11.550551414489746 -8.794609069824219 2.6010046005249023 0.7833747863769531 0 3
11.550517082214355 -8.959491729736328 2.6190013885498047 0.777992308139801 0 3
11.550468444824219 -9.126679420471191 2.637460231781006 0.7725471258163452 0 3
11.550419807434082 -9.296269416809082 2.6563944816589355 0.76703941822052 0 3
11.550385475158691 -9.4683198928833 2.6758246421813965 0.7614701986312866 0 3
11.550336837768555 -9.64291000366211 2.695758581161499 0.7558397054672241 0 3
7.398046493530273 -6.289863109588623 1.7397593259811401 0.6374461054801941 0 3
7.375888347625732 -6.385976314544678 1.7479515075683594 0.7443957924842834 0 3
11.550199508666992 -10.182870864868164 2.7587358951568604 0.7385843396186829 0 3
11.550146102905273 -10.368574142456055 2.7808451652526855 0.7327125072479248 0 3
11.550102233886719 -10.557265281677246 2.803534507751465 0.726782500743866 0 3
11.550053596496582 -10.7490816116333 2.8268303871154785 0.7207937836647034 0 3
11.550000190734863 -10.944140434265137 2.8507463932037354 0.7147465348243713 0 3
11.549945831298828 -11.142518997192383 2.8753020763397217 0.7086425423622131 0 3
11.549897193908691 -11.34439468383789 2.9005205631256104 0.7024805545806885 0 3
9.834120750427246 9.834101676940918 2.373523235321045 0.6971628665924072 0 3
10.130995750427246 9.950722694396973 2.423518419265747 0.6908795833587646 0 3
10.314536094665527 9.95068359375 2.4459588527679443 0.6845409274101257 0 3
10.501527786254883 9.950663566589355 2.4690208435058594 0.6781468987464905 0 3
10.692094802856445 9.950624465942383 2.4927289485931396 0.6716980934143066 0 3
10.886362075805664 9.950566291809082 2.517092704772949 0.6651946902275085 0 3
11.070512771606445 9.937968254089355 2.538940191268921 0.658638060092926 0 3
11.191864967346191 9.866952896118164 2.546356678009033 0.8730515837669373 0 3
11.358202934265137 9.833807945251465 2.5640196800231934 0.645366370677948 0 3
11.566351890563965 9.833788871765137 2.5909740924835205 0.6386522054672241 0 3
11.778935432434082 9.833749771118164 2.618715763092041 0.6318866014480591 0 3
11.99612808227539 9.833691596984863 2.6472716331481934 0.625070333480835 0 3
12.218134880065918 9.83365249633789 2.676677703857422 0.6182034611701965 0 3
12.445151329040527 9.833613395690918 2.7069647312164307 0.6112867593765259 0 3
12.720351219177246 9.866913795471191 2.747447967529297 0.2863920032978058 0 3
13.051728248596191 9.937617301940918 2.7996439933776855 0.5973064303398132 0 3
13.29763126373291 9.9375581741333 2.8331432342529297 0.5902440547943115 0 3
13.503461837768555 9.903730392456055 2.857938766479492 0.16772574186325073 0 3
13.733285903930664 9.88394546508789 2.887688636779785 0.5978947877883911 0 3
13.959901809692383 9.85806655883789 2.916614294052124 0.8187764286994934 0 3
14.193500518798828 9.833300590515137 2.946859121322632 0.5615239143371582 0 3
14.469164848327637 9.833242416381836 2.985646963119507 0.5542289018630981 0 3
14.75218677520752 9.833203315734863 3.025712728500366 0.5468900799751282 0 3
14.932323455810547 9.760820388793945 3.0445642471313477 0.8251116871833801 0 3
14.932294845581055 9.570624351501465 3.026921272277832 0.8299205899238586 0 3
15.18300724029541 9.540136337280273 3.0602636337280273 0.5246096849441528 0 3
15.489882469177246 9.5400972366333 3.104729652404785 0.5170971155166626 0 3
15.805770874023438 9.5400390625 3.1507568359375 0.5095435976982117 0 3
16.626449584960938 9.832870483398438 3.296621561050415 0.5019491910934448 0 3
16.972196578979492 9.832812309265137 3.347537040710449 0.4943141043186188 0 3
17.328832626342773 9.832734107971191 3.400338649749756 0.4866390526294708 0 3
17.696924209594727 9.83267593383789 3.455106019973755 0.47892487049102783 0 3
18.077104568481445 9.832597732543945 3.5119597911834717 0.4711720645427704 0 3
18.470043182373047 9.83251953125 3.57100772857666 0.4633803069591522 0 3
18.876440048217773 9.832441329956055 3.6323747634887695 0.455552339553833 0 3
19.297088623046875 9.83236312866211 3.6961846351623535 0.4476875364780426 0 3
19.732812881469727 9.832284927368164 3.7625858783721924 0.439786821603775 0 3
20.111303329467773 9.796504020690918 3.817838668823242 0.3985040783882141 0 3
20.57967185974121 9.797089576721191 3.889896869659424 0.1297842115163803 0 3
21.13983917236328 9.831992149353027 3.978937864303589 0.4158741533756256 0 3
21.645639419555664 9.831893920898438 4.0573625564575195 0.40783554315567017 0 3
22.17182159423828 9.831796646118164 4.139280796051025 0.39976415038108826 0 3
22.989208221435547 9.9483003616333 4.275041580200195 0.3916599452495575 0 3
23.51178741455078 9.924843788146973 4.355474948883057 0.908185601234436 0 3
23.88676643371582 9.831483840942383 4.408416271209717 0.3753589391708374 0 3
24.50922393798828 9.831366539001465 4.506821632385254 0.3671627938747406 0 3
24.581377029418945 9.605058670043945 4.504061698913574 0.918178379535675 0 3
32.71590805053711 -8.2437105178833 5.757967472076416 0.24067910015583038 0 3
32.18796157836914 -8.418652534484863 5.678116798400879 0.2492493987083435 0 3
31.04606819152832 -8.41845703125 5.489790916442871 0.25779980421066284 0 3
29.9774112701416 -8.418222427368164 5.313971519470215 0.26632949709892273 0 3
28.6444034576416 -8.321952819824219 5.090709686279297 0.27483683824539185 0 3
28.032733917236328 -8.417851448059082 4.995231628417969 0.2833236753940582 0 3
27.145219802856445 -8.417695045471191 4.850350379943848 0.29178592562675476 0 3
26.30766487121582 -8.4175386428833 4.714000225067139 0.3002270460128784 0 3
25.839324951171875 -8.524121284484863 4.643606662750244 0.9362870454788208 0 3
25.839262008666992 -8.782031059265137 4.657580375671387 0.9334790706634521 0 3
25.839208602905273 -9.041543006896973 4.672008991241455 0.9305956959724426 0 3
25.839149475097656 -9.302675247192383 4.686906814575195 0.9276375770568848 0 3
25.839101791381836 -9.565507888793945 4.7022809982299805 0.924604594707489 0 3
25.785062789916992 -9.809531211853027 4.708282470703125 0.9214972257614136 0 3
25.9281005859375 -10.131308555603027 4.750813007354736 0.9183153510093689 0 3
20.932241439819336 -8.396562576293945 3.8490777015686035 0.3668158948421478 0 3
20.550214767456055 -8.45816421508789 3.7926347255706787 0.37501260638237 0 3
20.037044525146484 -8.4580659866333 3.7117912769317627 0.38318052887916565 0 3
19.332645416259766 -8.365976333618164 3.59506893157959 0.9048499464988708 0 3
18.934261322021484 -8.39615249633789 3.534860134124756 0.3994225561618805 0 3
18.283349990844727 -8.3046875 3.427119016647339 0.407495379447937 0 3
18.1437931060791 -8.4385347366333 3.4150187969207764 0.4155347943305969 0 3
17.44440460205078 -8.30453109741211 3.297280788421631 0.4235418438911438 0 3
17.235830307006836 -8.39583969116211 3.271975517272949 0.4315147399902344 0 3
16.849838256835938 -8.395761489868164 3.2128727436065674 0.43945223093032837 0 3
16.477479934692383 -8.395703315734863 3.156113862991333 0.4473550319671631 0 3
16.118045806884766 -8.395625114440918 3.1015751361846924 0.455221027135849 0 3
15.770766258239746 -8.3955659866333 3.049129009246826 0.4630510210990906 0 3
15.435038566589355 -8.3955078125 2.9986698627471924 0.4708433151245117 0 3
15.1102294921875 -8.395448684692383 2.9500865936279297 0.47859713435173035 0 3
14.795707702636719 -8.395390510559082 2.903275728225708 0.4863135516643524 0 3
14.491015434265137 -8.395331382751465 2.858160972595215 0.49399006366729736 0 3
14.195595741271973 -8.395273208618164 2.814645290374756 0.5016273260116577 0 3
13.909052848815918 -8.395234107971191 2.772660493850708 0.5092234015464783 0 3
13.63089370727539 -8.39517593383789 2.732135534286499 0.5167789459228516 0 3
13.360722541809082 -8.395116806030273 2.6929614543914795 0.5242928266525269 0 3
13.09817886352539 -8.3950777053833 2.6551268100738525 0.5317639112472534 0 3
12.84288501739502 -8.395038604736328 2.618546724319458 0.5391924977302551 0 3
12.594511032104492 -8.394980430603027 2.5831658840179443 0.5465776324272156 0 3
12.352739334106445 -8.394941329956055 2.5489346981048584 0.5539187788963318 0 3
12.117284774780273 -8.394902229309082 2.515794515609741 0.5612165331840515 0 3
11.88785171508789 -8.39486312866211 2.4837024211883545 0.5684676766395569 0 3
11.66417407989502 -8.394804954528809 2.4526116847991943 0.5756731033325195 0 3
11.550707817077637 -8.471542358398438 2.444650411605835 0.7950907945632935 0 3
11.550668716430664 -8.632031440734863 2.460940361022949 0.7898270487785339 0 3
11.550629615783691 -8.794668197631836 2.4776506423950195 0.7845003008842468 0 3
11.550590515136719 -8.959569931030273 2.494795560836792 0.7791094183921814 0 3
11.550546646118164 -9.126757621765137 2.5123777389526367 0.7736564874649048 0 3
11.550507545471191 -9.296327590942383 2.5304155349731445 0.768141508102417 0 3
11.550458908081055 -9.468379020690918 2.5489237308502197 0.7625641226768494 0 3
11.5504150390625 -9.64296817779541 2.567913055419922 0.7569257616996765 0 3
7.398046493530273 -6.289863109588623 1.6572446823120117 0.6383665800094604 0 3
7.375946998596191 -6.38601541519165 1.6650547981262207 0.7454653382301331 0 3
11.550277709960938 -10.18294906616211 2.62790584564209 0.7396450042724609 0 3
11.550233840942383 -10.368632316589355 2.6489641666412354 0.7337652444839478 0 3
11.55019474029541 -10.557343482971191 2.6705803871154785 0.7278262972831726 0 3
11.55013656616211 -10.749159812927246 2.692767381668091 0.7218289971351624 0 3
11.550087928771973 -10.944218635559082 2.715548038482666 0.7157731652259827 0 3
11.550033569335938 -11.142617225646973 2.7389416694641113 0.70965975522995 0 3
11.5499849319458 -11.34447193145752 2.7629668712615967 0.703489363193512 0 3
9.834120750427246 9.834101676940918 2.2556681632995605 0.6981198191642761 0 3
10.130990982055664 9.950722694396973 2.3031816482543945 0.6918283700942993 0 3
10.314550399780273 9.95068359375 2.324510097503662 0.6854803562164307 0 3
10.501518249511719 9.950663566589355 2.346426248550415 0.6790781617164612 0 3
10.692090034484863 9.950624465942383 2.368950605392456 0.6726205945014954 0 3
10.886366844177246 9.950566291809082 2.39211368560791 0.6661079525947571 0 3
11.070502281188965 9.937968254089355 2.4128949642181396 0.6595425605773926 0 3
11.191899299621582 9.866971969604492 2.4199295043945312 0.8742481470108032 0 3
11.358207702636719 9.833807945251465 2.4367072582244873 0.6462526321411133 0 3
11.566351890563965 9.833788871765137 2.46232533454895 0.6395290493965149 0 3
11.7789306640625 9.833749771118164 2.4886865615844727 0.6327542662620544 0 3
11.996147155761719 9.833691596984863 2.515827178955078 0.6259282231330872 0 3
12.2181396484375 9.83365249633789 2.5437707901000977 0.6190522909164429 0 3
12.445151329040527 9.833613395690918 2.5725560188293457 0.6121261715888977 0 3
12.720268249511719 9.86685562133789 2.6110119819641113 0.28678715229034424 0 3
13.06822681427002 9.950156211853027 2.663991689682007 0.5981265902519226 0 3
13.314457893371582 9.950117111206055 2.6958696842193604 0.5910539031028748 0 3
13.566645622253418 9.950078010559082 2.728740692138672 0.5839343667030334 0 3
13.807636260986328 9.937460899353027 2.7591986656188965 0.5767673850059509 0 3
13.959936141967773 9.858085632324219 2.7718005180358887 0.8198984861373901 0 3
14.193495750427246 9.833300590515137 2.8005383014678955 0.5622949004173279 0 3
14.469169616699219 9.833242416381836 2.8374011516571045 0.5549899935722351 0 3
14.752202033996582 9.833203315734863 2.8754754066467285 0.5476407408714294 0 3
14.932412147521973 9.760878562927246 2.893416166305542 0.8262393474578857 0 3
14.932382583618164 9.570663452148438 2.8766417503356934 0.8310554027557373 0 3
15.183002471923828 9.540136337280273 2.908311128616333 0.5253299474716187 0 3
15.48989200592041 9.5400972366333 2.9505717754364014 0.5178070068359375 0 3
15.8057861328125 9.5400390625 2.9943127632141113 0.5102428793907166 0 3
16.62646484375 9.832870483398438 3.1329381465911865 0.5026379823684692 0 3
16.972211837768555 9.832812309265137 3.1813268661499023 0.49499255418777466 0 3
17.328842163085938 9.832734107971191 3.2315032482147217 0.4873071014881134 0 3
17.696937561035156 9.83267593383789 3.283550977706909 0.47958213090896606 0 3
18.07710838317871 9.832597732543945 3.337578773498535 0.4718189239501953 0 3
18.47005271911621 9.83251953125 3.3936986923217773 0.4640163481235504 0 3
18.876455307006836 9.832441329956055 3.4520153999328613 0.4561777114868164 0 3
19.297088623046875 9.83236312866211 3.5126543045043945 0.448302298784256 0 3
19.732812881469727 9.832284927368164 3.575758695602417 0.4403907060623169 0 3
20.184520721435547 9.832206726074219 3.641474485397339 0.4324434697628021 0 3
20.653188705444336 9.832109451293945 3.7099554538726807 0.4244612157344818 0 3
21.13983917236328 9.83203125 3.781367778778076 0.4164452850818634 0 3
21.6456298828125 9.831893920898438 3.8558976650238037 0.4083957076072693 0 3
22.171825408935547 9.831796646118164 3.9337542057037354 0.40031296014785767 0 3
22.820556640625 9.87533187866211 4.03296422958374 0.3093940019607544 0 3
23.51192283630371 9.924882888793945 4.139239311218262 0.9094277024269104 0 3
23.886781692504883 9.831483840942383 4.1895246505737305 0.3758741319179535 0 3
24.50924301147461 9.831366539001465 4.283044815063477 0.36766669154167175 0 3
24.58152198791504 9.605097770690918 4.2804388999938965 0.9194342494010925 0 3
34.03156280517578 -8.251093864440918 5.67950439453125 0.15773166716098785 0 3
33.4109992980957 -8.418886184692383 5.588322639465332 0.24100995063781738 0 3
32.18791580200195 -8.41861343383789 5.396173000335693 0.24959202110767365 0 3
31.046092987060547 -8.418417930603027 5.217215538024902 0.2581537365913391 0 3
29.817514419555664 -8.373300552368164 5.023178577423096 0.9504899978637695 0 3
28.975004196166992 -8.4180269241333 4.893779277801514 0.27521511912345886 0 3
28.032743453979492 -8.417851448059082 4.747199535369873 0.2837127149105072 0 3
27.145179748535156 -8.417695045471191 4.609504222869873 0.2921870946884155 0 3
26.307645797729492 -8.4175386428833 4.479937553405762 0.3006395101547241 0 3
25.839468002319336 -8.524179458618164 4.413061618804932 0.937567412853241 0 3
25.839412689208984 -8.782089233398438 4.426334857940674 0.9347557425498962 0 3
25.83935546875 -9.041582107543945 4.4400553703308105 0.9318685531616211 0 3
25.839296340942383 -9.302734375 4.454209327697754 0.9289061427116394 0 3
25.83924674987793 -9.565566062927246 4.4688215255737305 0.9258689880371094 0 3
25.78520965576172 -9.809589385986328 4.474527359008789 0.9227573871612549 0 3
25.92825698852539 -10.131366729736328 4.5149455070495605 0.9195712804794312 0 3
20.9322509765625 -8.396523475646973 3.657961368560791 0.3673194646835327 0 3
20.550174713134766 -8.45816421508789 3.6043126583099365 0.3755282163619995 0 3
20.037050247192383 -8.4580659866333 3.5274858474731445 0.3837066888809204 0 3
19.332763671875 -8.366015434265137 3.4165868759155273 0.9060873985290527 0 3
18.93425178527832 -8.39615249633789 3.3593406677246094 0.3999713659286499 0 3
18.28333854675293 -8.3046875 3.256948709487915 0.4080551564693451 0 3
17.8724365234375 -8.31234359741211 3.1969151496887207 0.15972132980823517 0 3
17.636333465576172 -8.395917892456055 3.168034076690674 0.4241240918636322 0 3
17.2358341217041 -8.39583969116211 3.1095056533813477 0.4321073293685913 0 3
16.84981346130371 -8.395761489868164 3.0533361434936523 0.440056174993515 0 3
16.477476119995117 -8.395703315734863 2.999399423599243 0.4479694366455078 0 3
16.1180419921875 -8.395625114440918 2.94757080078125 0.4558463394641876 0 3
15.770766258239746 -8.3955659866333 2.8977301120758057 0.4636869728565216 0 3
15.435033798217773 -8.3955078125 2.8497745990753174 0.47148990631103516 0 3
15.110204696655273 -8.395448684692383 2.8035991191864014 0.47925493121147156 0 3
14.795717239379883 -8.395390510559082 2.759119749069214 0.4869811236858368 0 3
14.491010665893555 -8.395331382751465 2.7162413597106934 0.4946686029434204 0 3
14.195605278015137 -8.395273208618164 2.6748907566070557 0.5023159980773926 0 3
13.90904712677002 -8.395234107971191 2.6349852085113525 0.5099229216575623 0 3
13.630873680114746 -8.39517593383789 2.5964691638946533 0.517488956451416 0 3
13.360727310180664 -8.395116806030273 2.559251546859741 0.5250127911567688 0 3
13.09817886352539 -8.3950777053833 2.523291826248169 0.532494068145752 0 3
12.84288501739502 -8.395038604736328 2.488528251647949 0.5399328470230103 0 3
12.594501495361328 -8.394980430603027 2.454904794692993 0.5473284125328064 0 3
12.352753639221191 -8.394941329956055 2.422368288040161 0.554679274559021 0 3
12.11727523803711 -8.394902229309082 2.390873908996582 0.561987578868866 0 3
11.887845993041992 -8.39486312866211 2.3603765964508057 0.5692485570907593 0 3
11.664164543151855 -8.394804954528809 2.330836057662964 0.5764637589454651 0 3
11.550786018371582 -8.471601486206055 2.323279857635498 0.7961773872375488 0 3
11.55074691772461 -8.632089614868164 2.3387603759765625 0.790906548500061 0 3
11.550707817077637 -8.794726371765137 2.354642629623413 0.785572350025177 0 3
11.550668716430664 -8.95962905883789 2.3709323406219482 0.7801741361618042 0 3
11.55062484741211 -9.126815795898438 2.3876428604125977 0.7747138738632202 0 3
11.550585746765137 -9.296405792236328 2.404788017272949 0.7691906690597534 0 3
11.550546646118164 -9.468437194824219 2.422376871109009 0.7636063694953918 0 3
11.550493240356445 -9.643046379089355 2.440422534942627 0.7579596042633057 0 3
7.398036956787109 -6.289863109588623 1.574950933456421 0.6392431259155273 0 3
7.375986099243164 -6.386054515838623 1.5823911428451538 0.7464841604232788 0 3
11.550366401672363 -10.183027267456055 2.4974374771118164 0.7406553626060486 0 3
11.550312042236328 -10.368730545043945 2.517451524734497 0.7347671389579773 0 3
11.550268173217773 -10.557421684265137 2.5379929542541504 0.7288204431533813 0 3
11.550219535827637 -10.749258041381836 2.559079647064209 0.7228144407272339 0 3
11.550166130065918 -10.944296836853027 2.580730438232422 0.7167509198188782 0 3
11.550122261047363 -11.142695426940918 2.602961301803589 0.7106292843818665 0 3
11.550063133239746 -11.34457015991211 2.625793933868408 0.7044499516487122 0 3
9.834120750427246 9.83414077758789 2.138132095336914 0.6990298628807068 0 3
10.118217468261719 9.93814468383789 2.1804399490356445 0.6927286982536316 0 3
10.314545631408691 9.95068359375 2.2033820152282715 0.6863739490509033 0 3
10.501527786254883 9.950663566589355 2.2241580486297607 0.6799628138542175 0 3
10.692094802856445 9.950624465942383 2.245509386062622 0.6734970211982727 0 3
10.886371612548828 9.950566291809082 2.267463207244873 0.6669761538505554 0 3
11.070508003234863 9.937968254089355 2.287144660949707 0.6604019999504089 0 3
11.191913604736328 9.866991996765137 2.2938344478607178 0.8753858804702759 0 3
11.3582124710083 9.833807945251465 2.3097355365753174 0.6470946073532104 0 3
11.566347122192383 9.833788871765137 2.334019184112549 0.6403626203536987 0 3
11.778940200805664 9.833749771118164 2.3590071201324463 0.6335787773132324 0 3
11.996132850646973 9.833691596984863 2.384732246398926 0.6267442107200623 0 3
12.218149185180664 9.83365249633789 2.4112229347229004 0.6198586225509644 0 3
12.445170402526855 9.833613395690918 2.4385054111480713 0.6129234433174133 0 3
12.72020435333252 9.866796493530273 2.4749460220336914 0.2871623635292053 0 3
13.0682373046875 9.950156211853027 2.5251784324645996 0.5989058017730713 0 3
13.314453125 9.950117111206055 2.555394411087036 0.5918242931365967 0 3
13.566659927368164 9.950078010559082 2.5865538120269775 0.5846948623657227 0 3
13.80764102935791 9.937460899353027 2.615396738052368 0.5775189399719238 0 3
13.959965705871582 9.858105659484863 2.627372980117798 0.8209651708602905 0 3
14.19351577758789 9.833300590515137 2.6546080112457275 0.5630274415016174 0 3
14.469169616699219 9.833242416381836 2.689549446105957 0.555713415145874 0 3
14.752197265625 9.833203315734863 2.7256407737731934 0.5483543872833252 0 3
14.932509422302246 9.760937690734863 2.7426598072052 0.8273110389709473 0 3
14.932479858398438 9.570722579956055 2.726763963699341 0.8321332931518555 0 3
15.182997703552246 9.540136337280273 2.756760835647583 0.5260148048400879 0 3
15.489887237548828 9.5400972366333 2.796823740005493 0.5184819102287292 0 3
15.805790901184082 9.5400390625 2.8382842540740967 0.510907769203186 0 3
16.626455307006836 9.832870483398438 2.969679594039917 0.5032933950424194 0 3
16.97221565246582 9.832812309265137 3.0155553817749023 0.4956376254558563 0 3
17.328857421875 9.832734107971191 3.063114643096924 0.4879419207572937 0 3
17.696937561035156 9.83267593383789 3.112454652786255 0.4802071452140808 0 3
18.07710838317871 9.832597732543945 3.1636650562286377 0.47243380546569824 0 3
18.47005844116211 9.83251953125 3.216860771179199 0.46462109684944153 0 3
18.876445770263672 9.832441329956055 3.2721362113952637 0.4567722678184509 0 3
19.297103881835938 9.83236312866211 3.329618453979492 0.44888636469841003 0 3
19.73283576965332 9.832284927368164 3.389437675476074 0.4409642219543457 0 3
20.18453025817871 9.832206726074219 3.4517271518707275 0.4330068528652191 0 3
20.6531982421875 9.832109451293945 3.5166380405426025 0.42501434683799744 0 3
21.139848709106445 9.83203125 3.5843279361724854 0.41698774695396423 0 3
21.645668029785156 9.83193302154541 3.654979705810547 0.40892738103866577 0 3
22.17183494567871 9.831835746765137 3.7287774085998535 0.40083450078964233 0 3
