ply
format ascii 1.0
element vertex 1401
property float32 x
property float32 y
property float32 z
property float32 CosAngle
property uint32 ObjIdx
property uint32 ObjTag
end_header
3.5445 -0.3030 -1.8256 0.4527 0 1
3.5450 -0.2950 -1.8255 0.4528 0 1
3.5455 -0.2871 -1.8254 0.4528 0 1
3.5459 -0.2791 -1.8253 0.4528 0 1
3.5463 -0.2711 -1.8252 0.4528 0 1
3.5468 -0.2631 -1.8251 0.4528 0 1
3.5472 -0.2552 -1.8250 0.4529 0 1
3.5475 -0.2472 -1.8249 0.4529 0 1
3.5479 -0.2392 -1.8248 0.4529 0 1
3.5482 -0.2312 -1.8247 0.4529 0 1
3.5485 -0.2233 -1.8246 0.4530 0 1
3.5488 -0.2153 -1.8245 0.4530 0 1
3.5491 -0.2073 -1.8244 0.4530 0 1
3.5494 -0.1993 -1.8243 0.4530 0 1
3.5496 -0.1914 -1.8242 0.4531 0 1
3.5499 -0.1834 -1.8241 0.4531 0 1
3.5501 -0.1754 -1.8240 0.4531 0 1
3.5503 -0.1674 -1.8239 0.4531 0 1
3.5505 -0.1595 -1.8238 0.4532 0 1
3.5506 -0.1515 -1.8237 0.4532 0 1
3.5507 -0.1435 -1.8236 0.4532 0 1
3.5509 -0.1355 -1.8235 0.4532 0 1
3.5510 -0.1275 -1.8234 0.4533 0 1
3.5511 -0.1196 -1.8233 0.4533 0 1
3.5511 -0.1116 -1.8232 0.4533 0 1
3.5512 -0.1036 -1.8231 0.4533 0 1
3.5512 -0.0957 -1.8230 0.4534 0 1
3.5512 -0.0877 -1.8229 0.4534 0 1
3.5512 -0.0797 -1.8228 0.4534 0 1
3.5512 -0.0717 -1.8227 0.4534 0 1
3.5512 -0.0637 -1.8226 0.4535 0 1
3.5511 -0.0558 -1.8225 0.4535 0 1
3.5510 -0.0478 -1.8224 0.4535 0 1
3.5509 -0.0398 -1.8223 0.4535 0 1
3.5508 -0.0319 -1.8222 0.4536 0 1
3.5507 -0.0239 -1.8221 0.4536 0 1
3.5505 -0.0159 -1.8220 0.4536 0 1
3.5504 -0.0080 -1.8219 0.4536 0 1
3.5502 -0.0000 -1.8218 0.4537 0 1
3.5500 0.0080 -1.8217 0.4537 0 1
3.5498 0.0159 -1.8216 0.4537 0 1
3.5495 0.0239 -1.8215 0.4537 0 1
3.5493 0.0318 -1.8214 0.4538 0 1
3.5490 0.0398 -1.8213 0.4538 0 1
3.5487 0.0478 -1.8212 0.4538 0 1
3.5484 0.0557 -1.8211 0.4538 0 1
3.5481 0.0637 -1.8210 0.4539 0 1
3.5477 0.0716 -1.8209 0.4539 0 1
3.5473 0.0796 -1.8208 0.4539 0 1
3.5470 0.0876 -1.8207 0.4539 0 1
3.5466 0.0955 -1.8206 0.4540 0 1
3.5462 0.1035 -1.8205 0.4540 0 1
3.5457 0.1114 -1.8204 0.4540 0 1
3.5453 0.1194 -1.8203 0.4540 0 1
3.5448 0.1273 -1.8202 0.4541 0 1
3.5443 0.1353 -1.8201 0.4541 0 1
3.5438 0.1432 -1.8200 0.4541 0 1
3.5433 0.1511 -1.8199 0.4541 0 1
3.5427 0.1591 -1.8198 0.4542 0 1
3.5422 0.1670 -1.8197 0.4542 0 1
3.5416 0.1750 -1.8196 0.4542 0 1
3.5410 0.1829 -1.8195 0.4542 0 1
3.5404 0.1909 -1.8194 0.4543 0 1
3.5398 0.1987 -1.8193 0.4543 0 1
3.5391 0.2067 -1.8192 0.4543 0 1
3.5384 0.2146 -1.8191 0.4543 0 1
3.5377 0.2226 -1.8190 0.4544 0 1
3.5370 0.2305 -1.8189 0.4544 0 1
3.5363 0.2384 -1.8188 0.4544 0 1
3.5356 0.2463 -1.8187 0.4544 0 1
3.5348 0.2543 -1.8186 0.4545 0 1
3.5340 0.2622 -1.8185 0.4545 0 1
3.5333 0.2701 -1.8184 0.4545 0 1
3.5324 0.2780 -1.8183 0.4545 0 1
3.5316 0.2859 -1.8182 0.4546 0 1
3.5308 0.2938 -1.8181 0.4546 0 1
3.5299 0.3017 -1.8180 0.4546 0 1
3.5290 0.3096 -1.8179 0.4546 0 1
3.5281 0.3175 -1.8178 0.4547 0 1
3.5272 0.3254 -1.8177 0.4547 0 1
3.5263 0.3333 -1.8176 0.4547 0 1
3.5253 0.3412 -1.8175 0.4547 0 1
3.5244 0.3491 -1.8174 0.4548 0 1
3.5234 0.3570 -1.8173 0.4548 0 1
3.5224 0.3648 -1.8172 0.4548 0 1
3.5213 0.3728 -1.8171 0.4548 0 1
3.5203 0.3807 -1.8170 0.4549 0 1
3.5193 0.3885 -1.8169 0.4549 0 1
3.5182 0.3964 -1.8168 0.4549 0 1
3.5171 0.4043 -1.8167 0.4549 0 1
3.5160 0.4121 -1.8166 0.4550 0 1
3.5148 0.4200 -1.8165 0.4550 0 1
3.5137 0.4279 -1.8164 0.4550 0 1
3.5125 0.4357 -1.8163 0.4550 0 1
3.5114 0.4436 -1.8162 0.4551 0 1
3.5102 0.4514 -1.8161 0.4551 0 1
3.5089 0.4593 -1.8160 0.4551 0 1
3.5077 0.4671 -1.8159 0.4551 0 1
3.5065 0.4750 -1.8158 0.4552 0 1
3.5052 0.4828 -1.8157 0.4552 0 1
3.5039 0.4906 -1.8156 0.4552 0 1
3.5026 0.4985 -1.8155 0.4552 0 1
3.5013 0.5063 -1.8154 0.4553 0 1
3.4999 0.5141 -1.8153 0.4553 0 1
3.4986 0.5220 -1.8152 0.4553 0 1
3.4972 0.5298 -1.8151 0.4552 0 1
3.4958 0.5376 -1.8150 0.4553 0 1
3.4944 0.5454 -1.8149 0.4553 0 1
3.4930 0.5532 -1.8148 0.4553 0 1
3.4915 0.5610 -1.8147 0.4553 0 1
3.4900 0.5688 -1.8146 0.4554 0 1
3.4886 0.5766 -1.8145 0.4554 0 1
3.4871 0.5844 -1.8144 0.4554 0 1
3.4856 0.5922 -1.8143 0.4554 0 1
3.4840 0.6000 -1.8142 0.4555 0 1
3.4825 0.6078 -1.8141 0.4555 0 1
3.4809 0.6155 -1.8140 0.4555 0 1
3.4793 0.6233 -1.8139 0.4555 0 1
3.4777 0.6311 -1.8138 0.4556 0 1
3.4761 0.6389 -1.8137 0.4556 0 1
3.4744 0.6466 -1.8136 0.4556 0 1
3.4728 0.6544 -1.8135 0.4556 0 1
3.4711 0.6621 -1.8134 0.4557 0 1
3.4694 0.6699 -1.8133 0.4557 0 1
3.4677 0.6777 -1.8132 0.4557 0 1
3.4660 0.6854 -1.8131 0.4557 0 1
3.4643 0.6931 -1.8130 0.4558 0 1
3.4625 0.7009 -1.8129 0.4558 0 1
3.4607 0.7086 -1.8128 0.4558 0 1
3.4589 0.7163 -1.8127 0.4558 0 1
3.4571 0.7240 -1.8126 0.4559 0 1
3.4553 0.7317 -1.8125 0.4559 0 1
3.4535 0.7395 -1.8124 0.4559 0 1
3.4516 0.7471 -1.8123 0.4559 0 1
3.4497 0.7549 -1.8122 0.4560 0 1
3.4478 0.7625 -1.8121 0.4560 0 1
3.4459 0.7702 -1.8120 0.4560 0 1
3.4440 0.7779 -1.8119 0.4560 0 1
3.4420 0.7856 -1.8118 0.4561 0 1
3.4401 0.7933 -1.8117 0.4561 0 1
3.4381 0.8010 -1.8116 0.4561 0 1
3.4361 0.8086 -1.8115 0.4562 0 1
3.4341 0.8163 -1.8114 0.4562 0 1
3.4320 0.8239 -1.8113 0.4562 0 1
3.4300 0.8316 -1.8111 0.4562 0 1
3.4279 0.8393 -1.8110 0.4563 0 1
3.4258 0.8469 -1.8109 0.4563 0 1
3.4237 0.8545 -1.8108 0.4563 0 1
3.4216 0.8621 -1.8107 0.4563 0 1
3.4195 0.8698 -1.8106 0.4564 0 1
3.4173 0.8774 -1.8105 0.4564 0 1
3.4152 0.8850 -1.8104 0.4564 0 1
3.4130 0.8926 -1.8103 0.4564 0 1
3.4108 0.9003 -1.8102 0.4565 0 1
3.4085 0.9079 -1.8101 0.4565 0 1
3.4063 0.9154 -1.8100 0.4565 0 1
3.4041 0.9230 -1.8099 0.4565 0 1
3.4018 0.9306 -1.8098 0.4566 0 1
3.3995 0.9382 -1.8097 0.4566 0 1
3.3972 0.9457 -1.8096 0.4566 0 1
3.3949 0.9533 -1.8095 0.4566 0 1
3.3925 0.9609 -1.8094 0.4567 0 1
3.3902 0.9685 -1.8093 0.4567 0 1
3.3878 0.9760 -1.8092 0.4567 0 1
3.3854 0.9836 -1.8091 0.4567 0 1
3.3830 0.9911 -1.8090 0.4568 0 1
3.3806 0.9986 -1.8089 0.4568 0 1
3.3781 1.0061 -1.8088 0.4568 0 1
3.3757 1.0137 -1.8087 0.4568 0 1
3.3732 1.0212 -1.8086 0.4569 0 1
3.3707 1.0287 -1.8085 0.4569 0 1
3.3682 1.0362 -1.8084 0.4569 0 1
3.3657 1.0437 -1.8083 0.4569 0 1
3.3632 1.0512 -1.8082 0.4570 0 1
3.3606 1.0586 -1.8081 0.4570 0 1
3.3580 1.0661 -1.8080 0.4570 0 1
3.3555 1.0736 -1.8079 0.4570 0 1
3.3528 1.0811 -1.8078 0.4571 0 1
3.3502 1.0886 -1.8077 0.4571 0 1
3.3476 1.0960 -1.8076 0.4571 0 1
3.3449 1.1034 -1.8075 0.4572 0 1
3.3423 1.1109 -1.8074 0.4572 0 1
3.3396 1.1183 -1.8073 0.4572 0 1
3.3369 1.1257 -1.8072 0.4572 0 1
3.3341 1.1332 -1.8071 0.4573 0 1
3.3314 1.1406 -1.8070 0.4573 0 1
3.3287 1.1480 -1.8069 0.4573 0 1
3.3259 1.1554 -1.8068 0.4573 0 1
3.3231 1.1628 -1.8067 0.4574 0 1
3.3203 1.1702 -1.8066 0.4574 0 1
3.3175 1.1775 -1.8065 0.4574 0 1
3.3146 1.1849 -1.8064 0.4574 0 1
3.3118 1.1923 -1.8063 0.4575 0 1
3.3089 1.1996 -1.8062 0.4575 0 1
3.3060 1.2070 -1.8061 0.4575 0 1
3.3031 1.2144 -1.8060 0.4575 0 1
3.3002 1.2217 -1.8059 0.4576 0 1
3.2973 1.2291 -1.8058 0.4576 0 1
3.2943 1.2364 -1.8057 0.4576 0 1
3.2914 1.2437 -1.8056 0.4576 0 1
3.2884 1.2510 -1.8055 0.4577 0 1
3.2854 1.2583 -1.8054 0.4577 0 1
3.2824 1.2656 -1.8053 0.4577 0 1
3.2793 1.2729 -1.8052 0.4577 0 1
3.2763 1.2802 -1.8051 0.4578 0 1
3.2732 1.2874 -1.8050 0.4578 0 1
3.2701 1.2947 -1.8049 0.4578 0 1
3.2670 1.3020 -1.8048 0.4578 0 1
3.2639 1.3093 -1.8047 0.4579 0 1
3.2608 1.3165 -1.8046 0.4579 0 1
3.2577 1.3238 -1.8045 0.4579 0 1
3.2545 1.3309 -1.8044 0.4579 0 1
3.2513 1.3382 -1.8043 0.4580 0 1
3.2481 1.3454 -1.8042 0.4580 0 1
3.2449 1.3526 -1.8041 0.4580 0 1
3.2417 1.3598 -1.8040 0.4580 0 1
3.2385 1.3670 -1.8039 0.4581 0 1
3.2352 1.3742 -1.8038 0.4581 0 1
3.2319 1.3814 -1.8037 0.4581 0 1
3.2286 1.3886 -1.8036 0.4581 0 1
3.2254 1.3957 -1.8035 0.4582 0 1
3.2220 1.4029 -1.8034 0.4582 0 1
3.2187 1.4100 -1.8033 0.4582 0 1
3.2154 1.4171 -1.8032 0.4582 0 1
3.2120 1.4243 -1.8031 0.4583 0 1
3.2086 1.4314 -1.8030 0.4583 0 1
3.2052 1.4386 -1.8029 0.4583 0 1
3.2018 1.4456 -1.8028 0.4583 0 1
3.1984 1.4528 -1.8027 0.4584 0 1
3.1949 1.4598 -1.8026 0.4584 0 1
3.1915 1.4670 -1.8025 0.4584 0 1
3.1880 1.4740 -1.8024 0.4584 0 1
3.1845 1.4811 -1.8023 0.4585 0 1
3.1810 1.4882 -1.8022 0.4585 0 1
3.1775 1.4952 -1.8021 0.4585 0 1
3.1739 1.5022 -1.8020 0.4586 0 1
3.1704 1.5093 -1.8019 0.4586 0 1
3.1668 1.5163 -1.8018 0.4586 0 1
3.1632 1.5233 -1.8017 0.4586 0 1
3.1596 1.5303 -1.8016 0.4587 0 1
3.1560 1.5373 -1.8015 0.4587 0 1
3.1524 1.5443 -1.8014 0.4587 0 1
3.1487 1.5513 -1.8013 0.4587 0 1
3.1450 1.5582 -1.8012 0.4588 0 1
3.1414 1.5652 -1.8011 0.4588 0 1
3.1377 1.5722 -1.8010 0.4588 0 1
3.1340 1.5791 -1.8009 0.4588 0 1
3.1303 1.5861 -1.8008 0.4589 0 1
3.1265 1.5930 -1.8007 0.4589 0 1
3.1228 1.6000 -1.8006 0.4589 0 1
3.1190 1.6069 -1.8005 0.4589 0 1
3.1152 1.6138 -1.8004 0.4590 0 1
3.1114 1.6207 -1.8003 0.4590 0 1
3.1076 1.6276 -1.8002 0.4590 0 1
3.1038 1.6344 -1.8001 0.4590 0 1
3.0999 1.6413 -1.8000 0.4591 0 1
3.0961 1.6482 -1.7999 0.4591 0 1
3.0922 1.6550 -1.7998 0.4591 0 1
3.0883 1.6619 -1.7997 0.4591 0 1
3.0844 1.6687 -1.7996 0.4592 0 1
3.0805 1.6755 -1.7995 0.4592 0 1
3.0765 1.6823 -1.7994 0.4592 0 1
3.0726 1.6892 -1.7993 0.4592 0 1
3.0686 1.6960 -1.7992 0.4593 0 1
3.0647 1.7027 -1.7991 0.4593 0 1
3.0607 1.7095 -1.7990 0.4593 0 1
3.0566 1.7163 -1.7989 0.4593 0 1
3.0526 1.7230 -1.7988 0.4594 0 1
3.0486 1.7298 -1.7987 0.4594 0 1
3.0445 1.7366 -1.7986 0.4594 0 1
3.0405 1.7433 -1.7985 0.4594 0 1
3.0364 1.7500 -1.7984 0.4595 0 1
3.0323 1.7567 -1.7983 0.4595 0 1
3.0282 1.7634 -1.7982 0.4595 0 1
3.0240 1.7701 -1.7982 0.4595 0 1
3.0199 1.7768 -1.7981 0.4595 0 1
3.0157 1.7835 -1.7980 0.4596 0 1
3.0116 1.7902 -1.7979 0.4596 0 1
3.0074 1.7968 -1.7978 0.4596 0 1
3.0032 1.8034 -1.7977 0.4596 0 1
1.5805 0.9539 -0.9474 0.4338 458 14
1.5816 0.9595 -0.9493 0.4329 458 14
1.5828 0.9650 -0.9513 0.4320 458 14
1.5839 0.9706 -0.9533 0.4311 458 14
1.5851 0.9762 -0.9553 0.4302 458 14
1.5862 0.9818 -0.9573 0.4293 458 14
1.5874 0.9875 -0.9594 0.4284 458 14
1.5886 0.9932 -0.9614 0.4274 458 14
1.5898 0.9989 -0.9635 0.4265 458 14
1.5910 1.0046 -0.9656 0.4256 458 14
1.5922 1.0104 -0.9677 0.4247 458 14
1.5934 1.0162 -0.9698 0.4237 458 14
1.5946 1.0220 -0.9720 0.4228 458 14
1.5958 1.0279 -0.9741 0.4219 458 14
1.5971 1.0337 -0.9763 0.4209 458 14
1.5984 1.0396 -0.9785 0.4200 458 14
1.5996 1.0456 -0.9807 0.4190 458 14
1.6009 1.0516 -0.9829 0.4181 458 14
1.6022 1.0576 -0.9852 0.4171 458 14
1.6035 1.0636 -0.9874 0.4162 458 14
1.6048 1.0697 -0.9897 0.4152 458 14
1.6061 1.0758 -0.9920 0.4143 458 14
1.6074 1.0819 -0.9943 0.4133 458 14
1.6088 1.0880 -0.9967 0.4123 458 14
1.6101 1.0942 -0.9990 0.4114 458 14
1.6115 1.1005 -1.0014 0.4104 458 14
1.6128 1.1067 -1.0038 0.4094 458 14
1.6142 1.1130 -1.0062 0.4084 458 14
1.6156 1.1193 -1.0086 0.4074 458 14
1.6170 1.1257 -1.0111 0.4064 458 14
1.6184 1.1320 -1.0135 0.4055 458 14
1.6199 1.1384 -1.0160 0.4045 458 14
1.6213 1.1449 -1.0185 0.4035 458 14
1.6228 1.1514 -1.0211 0.4025 458 14
1.6242 1.1579 -1.0236 0.4015 458 14
1.6257 1.1645 -1.0262 0.4004 458 14
1.6272 1.1711 -1.0288 0.3994 458 14
1.6287 1.1777 -1.0314 0.3984 458 14
1.6302 1.1844 -1.0341 0.3974 458 14
1.6317 1.1911 -1.0367 0.3964 458 14
1.6333 1.1979 -1.0394 0.3954 458 14
1.6348 1.2046 -1.0421 0.3943 458 14
1.6364 1.2115 -1.0448 0.3933 458 14
1.6379 1.2184 -1.0476 0.3923 458 14
1.6396 1.2252 -1.0503 0.3912 458 14
1.6412 1.2322 -1.0531 0.3902 458 14
1.6427 1.2392 -1.0560 0.3892 458 14
1.6444 1.2462 -1.0588 0.3881 458 14
1.6460 1.2533 -1.0617 0.3871 458 14
1.6477 1.2604 -1.0646 0.3860 458 14
1.6494 1.2675 -1.0675 0.3850 458 14
1.6511 1.2748 -1.0704 0.3839 458 14
1.6528 1.2820 -1.0734 0.3829 458 14
1.6545 1.2893 -1.0764 0.3818 458 14
1.6562 1.2966 -1.0794 0.3807 458 14
1.6579 1.3039 -1.0824 0.3797 458 14
1.6597 1.3114 -1.0855 0.3786 458 14
2.7354 2.1714 -1.7922 0.4610 0 1
2.7304 2.1774 -1.7921 0.4611 0 1
2.7253 2.1834 -1.7920 0.4611 0 1
2.7203 2.1894 -1.7919 0.4611 0 1
2.7152 2.1954 -1.7918 0.4611 0 1
2.7102 2.2014 -1.7918 0.4612 0 1
2.7051 2.2073 -1.7917 0.4612 0 1
2.7000 2.2133 -1.7916 0.4612 0 1
2.6949 2.2192 -1.7915 0.4612 0 1
2.6897 2.2252 -1.7914 0.4613 0 1
2.6846 2.2311 -1.7913 0.4613 0 1
2.6795 2.2370 -1.7912 0.4613 0 1
2.6743 2.2429 -1.7911 0.4613 0 1
2.6691 2.2487 -1.7910 0.4614 0 1
2.6639 2.2546 -1.7909 0.4614 0 1
2.6588 2.2605 -1.7908 0.4614 0 1
2.6535 2.2663 -1.7908 0.4614 0 1
2.6483 2.2722 -1.7907 0.4614 0 1
2.6431 2.2780 -1.7906 0.4615 0 1
2.6378 2.2838 -1.7905 0.4615 0 1
2.6325 2.2896 -1.7904 0.4615 0 1
2.6273 2.2954 -1.7903 0.4615 0 1
2.6220 2.3011 -1.7902 0.4616 0 1
2.6167 2.3069 -1.7901 0.4616 0 1
2.6114 2.3127 -1.7900 0.4616 0 1
2.6060 2.3184 -1.7900 0.4616 0 1
2.6007 2.3241 -1.7899 0.4617 0 1
2.5954 2.3298 -1.7898 0.4617 0 1
2.5900 2.3355 -1.7897 0.4617 0 1
2.5846 2.3412 -1.7896 0.4617 0 1
2.5792 2.3469 -1.7895 0.4617 0 1
2.5738 2.3526 -1.7894 0.4618 0 1
2.5684 2.3582 -1.7893 0.4618 0 1
2.5630 2.3639 -1.7892 0.4618 0 1
2.5576 2.3695 -1.7892 0.4618 0 1
1.4232 1.3245 -0.9977 0.0178 458 14
1.3623 1.2735 -0.9570 0.0185 458 14
1.3444 1.2625 -0.9464 0.3213 458 14
1.3405 1.2645 -0.9457 0.3215 458 14
1.3366 1.2664 -0.9449 0.3218 458 14
1.3326 1.2684 -0.9441 0.3221 458 14
1.3286 1.2703 -0.9433 0.3223 458 14
1.3247 1.2722 -0.9425 0.3226 458 14
1.3207 1.2741 -0.9417 0.3229 458 14
1.3167 1.2760 -0.9409 0.3231 458 14
1.3128 1.2779 -0.9401 0.3234 458 14
1.3088 1.2798 -0.9394 0.3237 458 14
1.3048 1.2816 -0.9386 0.3240 458 14
1.3008 1.2834 -0.9378 0.3242 458 14
1.2969 1.2853 -0.9370 0.3245 458 14
1.2929 1.2871 -0.9362 0.3248 458 14
2.7940 -2.7941 -2.0691 0.4544 0 2
2.8002 -2.7877 -2.0690 0.4544 0 2
2.8064 -2.7814 -2.0689 0.4544 0 2
2.8126 -2.7750 -2.0689 0.4544 0 2
2.8187 -2.7686 -2.0688 0.4544 0 2
2.8249 -2.7622 -2.0688 0.4544 0 2
2.8310 -2.7558 -2.0687 0.4544 0 2
2.8371 -2.7493 -2.0687 0.4545 0 2
2.8432 -2.7429 -2.0686 0.4545 0 2
2.8493 -2.7364 -2.0686 0.4545 0 2
2.8553 -2.7300 -2.0685 0.4545 0 2
2.8614 -2.7235 -2.0685 0.4545 0 2
2.8674 -2.7170 -2.0684 0.4545 0 2
2.8734 -2.7105 -2.0684 0.4545 0 2
2.8794 -2.7039 -2.0683 0.4545 0 2
2.8854 -2.6974 -2.0682 0.4546 0 2
2.8913 -2.6908 -2.0682 0.4546 0 2
2.8973 -2.6843 -2.0681 0.4546 0 2
2.9032 -2.6777 -2.0681 0.4546 0 2
2.9092 -2.6711 -2.0680 0.4546 0 2
2.9151 -2.6645 -2.0680 0.4546 0 2
2.9210 -2.6579 -2.0679 0.4546 0 2
2.9268 -2.6512 -2.0679 0.4546 0 2
2.9327 -2.6446 -2.0678 0.4547 0 2
2.9385 -2.6379 -2.0677 0.4547 0 2
2.9444 -2.6313 -2.0677 0.4547 0 2
2.9502 -2.6246 -2.0676 0.4547 0 2
2.9560 -2.6179 -2.0676 0.4547 0 2
2.9617 -2.6112 -2.0675 0.4547 0 2
2.9675 -2.6045 -2.0675 0.4547 0 2
2.9733 -2.5977 -2.0674 0.4547 0 2
2.9790 -2.5910 -2.0673 0.4548 0 2
2.9848 -2.5842 -2.0673 0.4548 0 2
2.9905 -2.5774 -2.0672 0.4548 0 2
2.9961 -2.5706 -2.0672 0.4548 0 2
3.0018 -2.5638 -2.0671 0.4548 0 2
3.0075 -2.5570 -2.0670 0.4548 0 2
3.0131 -2.5502 -2.0670 0.4548 0 2
3.0188 -2.5434 -2.0669 0.4548 0 2
3.0244 -2.5365 -2.0669 0.4549 0 2
3.0300 -2.5296 -2.0668 0.4549 0 2
3.0355 -2.5227 -2.0667 0.4549 0 2
3.0411 -2.5158 -2.0667 0.4549 0 2
3.0466 -2.5089 -2.0666 0.4549 0 2
3.0522 -2.5020 -2.0666 0.4549 0 2
3.0577 -2.4951 -2.0665 0.4549 0 2
3.0632 -2.4881 -2.0664 0.4550 0 2
3.0687 -2.4812 -2.0664 0.4550 0 2
3.0742 -2.4742 -2.0663 0.4550 0 2
3.0796 -2.4673 -2.0663 0.4550 0 2
3.0850 -2.4603 -2.0662 0.4550 0 2
3.0905 -2.4532 -2.0661 0.4550 0 2
3.0959 -2.4462 -2.0661 0.4550 0 2
3.1012 -2.4392 -2.0660 0.4550 0 2
3.1066 -2.4322 -2.0659 0.4551 0 2
3.1120 -2.4251 -2.0659 0.4551 0 2
3.1173 -2.4180 -2.0658 0.4551 0 2
3.1226 -2.4110 -2.0657 0.4551 0 2
3.1279 -2.4039 -2.0657 0.4551 0 2
3.1332 -2.3968 -2.0656 0.4551 0 2
3.1385 -2.3897 -2.0656 0.4551 0 2
3.1437 -2.3825 -2.0655 0.4552 0 2
3.1490 -2.3754 -2.0654 0.4552 0 2
3.1542 -2.3683 -2.0654 0.4552 0 2
3.1594 -2.3611 -2.0653 0.4552 0 2
3.1646 -2.3539 -2.0652 0.4552 0 2
3.1698 -2.3468 -2.0652 0.4552 0 2
3.1750 -2.3396 -2.0651 0.4552 0 2
3.1801 -2.3324 -2.0650 0.4553 0 2
3.1852 -2.3252 -2.0650 0.4553 0 2
3.1903 -2.3179 -2.0649 0.4553 0 2
3.1954 -2.3107 -2.0648 0.4553 0 2
3.2005 -2.3034 -2.0648 0.4553 0 2
3.2055 -2.2961 -2.0647 0.4553 0 2
3.2106 -2.2889 -2.0646 0.4553 0 2
3.2156 -2.2816 -2.0646 0.4554 0 2
3.2206 -2.2743 -2.0645 0.4554 0 2
3.2256 -2.2670 -2.0644 0.4554 0 2
3.2306 -2.2597 -2.0644 0.4554 0 2
3.2355 -2.2524 -2.0643 0.4554 0 2
3.2405 -2.2450 -2.0642 0.4554 0 2
3.2454 -2.2377 -2.0642 0.4555 0 2
3.2503 -2.2303 -2.0641 0.4555 0 2
3.2552 -2.2229 -2.0640 0.4555 0 2
3.2601 -2.2155 -2.0640 0.4555 0 2
3.2649 -2.2082 -2.0639 0.4555 0 2
3.2698 -2.2008 -2.0638 0.4555 0 2
3.2746 -2.1933 -2.0637 0.4555 0 2
3.2794 -2.1859 -2.0637 0.4556 0 2
3.2842 -2.1785 -2.0636 0.4556 0 2
3.2889 -2.1710 -2.0635 0.4556 0 2
3.2937 -2.1636 -2.0635 0.4556 0 2
3.2984 -2.1561 -2.0634 0.4556 0 2
3.3031 -2.1486 -2.0633 0.4556 0 2
3.3078 -2.1411 -2.0633 0.4557 0 2
3.3125 -2.1336 -2.0632 0.4557 0 2
3.3172 -2.1261 -2.0631 0.4557 0 2
3.3218 -2.1186 -2.0630 0.4557 0 2
3.3265 -2.1111 -2.0630 0.4557 0 2
3.3311 -2.1036 -2.0629 0.4557 0 2
3.3357 -2.0960 -2.0628 0.4557 0 2
3.3402 -2.0884 -2.0628 0.4558 0 2
3.3448 -2.0808 -2.0627 0.4558 0 2
3.3493 -2.0732 -2.0626 0.4558 0 2
3.3539 -2.0657 -2.0625 0.4558 0 2
3.3584 -2.0580 -2.0625 0.4558 0 2
3.3629 -2.0504 -2.0624 0.4558 0 2
3.3674 -2.0428 -2.0623 0.4559 0 2
3.3718 -2.0352 -2.0622 0.4559 0 2
3.3763 -2.0275 -2.0622 0.4559 0 2
3.3807 -2.0199 -2.0621 0.4559 0 2
3.3851 -2.0122 -2.0620 0.4559 0 2
3.3895 -2.0045 -2.0620 0.4559 0 2
3.3938 -1.9968 -2.0619 0.4560 0 2
3.3982 -1.9891 -2.0618 0.4560 0 2
3.4025 -1.9814 -2.0617 0.4560 0 2
3.4068 -1.9737 -2.0617 0.4560 0 2
3.4111 -1.9660 -2.0616 0.4560 0 2
3.4154 -1.9583 -2.0615 0.4560 0 2
3.4197 -1.9505 -2.0614 0.4561 0 2
3.4239 -1.9428 -2.0614 0.4561 0 2
3.4281 -1.9350 -2.0613 0.4561 0 2
3.4323 -1.9273 -2.0612 0.4561 0 2
3.4365 -1.9195 -2.0611 0.4561 0 2
3.4407 -1.9117 -2.0611 0.4561 0 2
3.4448 -1.9039 -2.0610 0.4562 0 2
3.4490 -1.8961 -2.0609 0.4562 0 2
3.4531 -1.8883 -2.0608 0.4562 0 2
3.4572 -1.8805 -2.0607 0.4562 0 2
0.7254 -0.3925 -0.4319 0.3579 458 14
0.7261 -0.3908 -0.4318 0.3580 458 14
0.7268 -0.3891 -0.4317 0.3581 458 14
0.7275 -0.3873 -0.4316 0.3582 458 14
0.7282 -0.3856 -0.4315 0.3582 458 14
0.7289 -0.3839 -0.4314 0.3583 458 14
0.7296 -0.3821 -0.4313 0.3584 458 14
0.7303 -0.3804 -0.4312 0.3585 458 14
0.7310 -0.3787 -0.4311 0.3586 458 14
0.7316 -0.3770 -0.4310 0.3587 458 14
0.7323 -0.3752 -0.4309 0.3587 458 14
0.7330 -0.3735 -0.4308 0.3588 458 14
0.7336 -0.3717 -0.4306 0.3589 458 14
0.7343 -0.3700 -0.4305 0.3590 458 14
0.7349 -0.3683 -0.4304 0.3591 458 14
0.7356 -0.3665 -0.4303 0.3592 458 14
0.7362 -0.3648 -0.4302 0.3593 458 14
0.7368 -0.3630 -0.4301 0.3594 458 14
0.7375 -0.3613 -0.4300 0.3595 458 14
0.7381 -0.3595 -0.4299 0.3596 458 14
0.7387 -0.3578 -0.4298 0.3597 458 14
0.7393 -0.3560 -0.4297 0.3597 458 14
0.7399 -0.3543 -0.4296 0.3598 458 14
0.7405 -0.3525 -0.4294 0.3599 458 14
0.7411 -0.3508 -0.4293 0.3600 458 14
0.7417 -0.3490 -0.4292 0.3601 458 14
0.7423 -0.3473 -0.4291 0.3602 458 14
0.7429 -0.3455 -0.4290 0.3603 458 14
0.7434 -0.3438 -0.4289 0.3604 458 14
0.7440 -0.3420 -0.4288 0.3605 458 14
0.7446 -0.3402 -0.4286 0.3606 458 14
0.7451 -0.3384 -0.4285 0.3607 458 14
0.7457 -0.3367 -0.4284 0.3608 458 14
0.7462 -0.3349 -0.4283 0.3609 458 14
0.7468 -0.3332 -0.4282 0.3610 458 14
0.7473 -0.3314 -0.4281 0.3611 458 14
0.7478 -0.3296 -0.4279 0.3612 458 14
0.7484 -0.3279 -0.4278 0.3613 458 14
0.7489 -0.3261 -0.4277 0.3614 458 14
0.7494 -0.3243 -0.4276 0.3615 458 14
0.7499 -0.3225 -0.4274 0.3616 458 14
0.7504 -0.3208 -0.4273 0.3617 458 14
0.7509 -0.3190 -0.4272 0.3618 458 14
0.7514 -0.3172 -0.4271 0.3619 458 14
0.7519 -0.3154 -0.4270 0.3620 458 14
0.7524 -0.3136 -0.4268 0.3621 458 14
0.7529 -0.3119 -0.4267 0.3622 458 14
0.7534 -0.3101 -0.4266 0.3623 458 14
0.7538 -0.3083 -0.4265 0.3624 458 14
0.7543 -0.3065 -0.4263 0.3626 458 14
0.7548 -0.3047 -0.4262 0.3627 458 14
0.7552 -0.3030 -0.4261 0.3628 458 14
0.7557 -0.3012 -0.4260 0.3629 458 14
0.7561 -0.2994 -0.4258 0.3630 458 14
0.7566 -0.2976 -0.4257 0.3631 458 14
0.7570 -0.2958 -0.4256 0.3632 458 14
0.7574 -0.2940 -0.4254 0.3633 458 14
0.7578 -0.2922 -0.4253 0.3634 458 14
0.7583 -0.2904 -0.4252 0.3635 458 14
0.7587 -0.2886 -0.4250 0.3636 458 14
0.7591 -0.2869 -0.4249 0.3638 458 14
0.7595 -0.2850 -0.4248 0.3639 458 14
0.7599 -0.2833 -0.4247 0.3640 458 14
0.7603 -0.2815 -0.4245 0.3641 458 14
0.7607 -0.2797 -0.4244 0.3642 458 14
0.7611 -0.2779 -0.4243 0.3643 458 14
0.7615 -0.2761 -0.4241 0.3644 458 14
0.7618 -0.2743 -0.4240 0.3646 458 14
0.7622 -0.2725 -0.4238 0.3647 458 14
0.7626 -0.2707 -0.4237 0.3648 458 14
0.7629 -0.2689 -0.4236 0.3649 458 14
0.7633 -0.2671 -0.4234 0.3650 458 14
0.7636 -0.2653 -0.4233 0.3652 458 14
0.7640 -0.2635 -0.4232 0.3653 458 14
0.7643 -0.2617 -0.4230 0.3654 458 14
0.7647 -0.2599 -0.4229 0.3655 458 14
0.7650 -0.2581 -0.4227 0.3656 458 14
0.7653 -0.2563 -0.4226 0.3657 458 14
0.7656 -0.2545 -0.4225 0.3659 458 14
0.7659 -0.2527 -0.4223 0.3660 458 14
0.7662 -0.2509 -0.4222 0.3661 458 14
0.7666 -0.2491 -0.4220 0.3662 458 14
0.7669 -0.2473 -0.4219 0.3664 458 14
0.7672 -0.2455 -0.4218 0.3665 458 14
0.7674 -0.2437 -0.4216 0.3666 458 14
0.7677 -0.2419 -0.4215 0.3667 458 14
0.7680 -0.2401 -0.4213 0.3669 458 14
0.7683 -0.2382 -0.4212 0.3670 458 14
0.7685 -0.2364 -0.4210 0.3671 458 14
0.7688 -0.2346 -0.4209 0.3672 458 14
0.7691 -0.2329 -0.4208 0.3674 458 14
0.7693 -0.2310 -0.4206 0.3675 458 14
0.7696 -0.2292 -0.4205 0.3676 458 14
0.7698 -0.2274 -0.4203 0.3677 458 14
0.7700 -0.2256 -0.4202 0.3679 458 14
0.7703 -0.2238 -0.4200 0.3680 458 14
0.7705 -0.2220 -0.4199 0.3681 458 14
0.7708 -0.2202 -0.4197 0.3683 458 14
0.7710 -0.2184 -0.4196 0.3684 458 14
0.7712 -0.2166 -0.4194 0.3685 458 14
0.7714 -0.2147 -0.4193 0.3687 458 14
0.7715 -0.2130 -0.4191 0.4417 458 14
0.7715 -0.2111 -0.4188 0.4420 458 14
0.7715 -0.2092 -0.4186 0.4620 458 14
0.7717 -0.2074 -0.4184 0.4622 458 14
0.7719 -0.2056 -0.4183 0.4623 458 14
0.7721 -0.2038 -0.4181 0.4625 458 14
0.7723 -0.2020 -0.4180 0.4627 458 14
0.7724 -0.2002 -0.4178 0.4628 458 14
0.7726 -0.1984 -0.4177 0.4630 458 14
0.7728 -0.1966 -0.4175 0.4632 458 14
0.7729 -0.1948 -0.4174 0.4633 458 14
3.8005 -0.9486 -2.0511 0.4583 0 2
3.8025 -0.9400 -2.0510 0.4584 0 2
3.8044 -0.9314 -2.0509 0.4584 0 2
3.8063 -0.9229 -2.0508 0.4584 0 2
3.8082 -0.9143 -2.0507 0.4584 0 2
3.8101 -0.9057 -2.0506 0.4585 0 2
3.8119 -0.8971 -2.0506 0.4585 0 2
3.8137 -0.8885 -2.0505 0.4585 0 2
3.8156 -0.8799 -2.0504 0.4585 0 2
3.8173 -0.8713 -2.0503 0.4585 0 2
3.8191 -0.8627 -2.0502 0.4586 0 2
3.8209 -0.8541 -2.0501 0.4586 0 2
3.8226 -0.8455 -2.0500 0.4586 0 2
3.8243 -0.8369 -2.0499 0.4586 0 2
3.8260 -0.8282 -2.0498 0.4586 0 2
3.8277 -0.8196 -2.0497 0.4587 0 2
3.8293 -0.8110 -2.0496 0.4587 0 2
3.8310 -0.8023 -2.0495 0.4587 0 2
3.8326 -0.7937 -2.0494 0.4587 0 2
3.8342 -0.7851 -2.0493 0.4587 0 2
3.8358 -0.7764 -2.0492 0.4588 0 2
3.8373 -0.7678 -2.0491 0.4588 0 2
3.8388 -0.7591 -2.0490 0.4588 0 2
3.8404 -0.7505 -2.0490 0.4588 0 2
3.8418 -0.7418 -2.0489 0.4589 0 2
3.8433 -0.7332 -2.0488 0.4589 0 2
3.8448 -0.7245 -2.0487 0.4589 0 2
3.8462 -0.7159 -2.0486 0.4589 0 2
3.8476 -0.7072 -2.0485 0.4589 0 2
3.8490 -0.6985 -2.0484 0.4590 0 2
3.8504 -0.6898 -2.0483 0.4590 0 2
3.8518 -0.6812 -2.0482 0.4590 0 2
3.8531 -0.6725 -2.0481 0.4590 0 2
3.8544 -0.6638 -2.0480 0.4590 0 2
3.8557 -0.6551 -2.0479 0.4591 0 2
3.8570 -0.6464 -2.0478 0.4591 0 2
3.4453 -0.5695 -1.8285 0.4592 0 1
3.4464 -0.5617 -1.8284 0.4593 0 1
3.4475 -0.5540 -1.8284 0.4593 0 1
3.4485 -0.5462 -1.8283 0.4593 0 1
3.4496 -0.5384 -1.8282 0.4593 0 1
3.4506 -0.5307 -1.8281 0.4594 0 1
3.4516 -0.5229 -1.8280 0.4594 0 1
3.4526 -0.5151 -1.8279 0.4594 0 1
3.4536 -0.5073 -1.8278 0.4594 0 1
3.4545 -0.4996 -1.8277 0.4594 0 1
3.4555 -0.4918 -1.8276 0.4595 0 1
3.4564 -0.4840 -1.8275 0.4595 0 1
3.4573 -0.4762 -1.8274 0.4595 0 1
3.4582 -0.4684 -1.8273 0.4595 0 1
3.4590 -0.4607 -1.8272 0.4596 0 1
3.4599 -0.4529 -1.8271 0.4596 0 1
3.4607 -0.4451 -1.8271 0.4596 0 1
3.4615 -0.4373 -1.8270 0.4596 0 1
3.4623 -0.4295 -1.8269 0.4597 0 1
3.4631 -0.4217 -1.8268 0.4597 0 1
3.4638 -0.4139 -1.8267 0.4597 0 1
3.4646 -0.4061 -1.8266 0.4597 0 1
3.4653 -0.3983 -1.8265 0.4598 0 1
3.4660 -0.3905 -1.8264 0.4598 0 1
3.4667 -0.3827 -1.8263 0.4598 0 1
3.4674 -0.3749 -1.8262 0.4598 0 1
3.4680 -0.3671 -1.8261 0.4598 0 1
3.4687 -0.3593 -1.8260 0.4599 0 1
3.4693 -0.3515 -1.8259 0.4599 0 1
3.4699 -0.3438 -1.8258 0.4599 0 1
3.4705 -0.3359 -1.8257 0.4599 0 1
3.4710 -0.3281 -1.8256 0.4600 0 1
3.4716 -0.3203 -1.8255 0.4600 0 1
3.4721 -0.3125 -1.8254 0.4600 0 1
3.4726 -0.3047 -1.8254 0.4600 0 1
3.4731 -0.2969 -1.8253 0.4601 0 1
3.4736 -0.2891 -1.8252 0.4601 0 1
3.4741 -0.2813 -1.8251 0.4601 0 1
3.4745 -0.2734 -1.8250 0.4601 0 1
3.4749 -0.2657 -1.8249 0.4602 0 1
3.4753 -0.2579 -1.8248 0.4602 0 1
3.4757 -0.2500 -1.8247 0.4602 0 1
3.4761 -0.2422 -1.8246 0.4602 0 1
3.4764 -0.2344 -1.8245 0.4603 0 1
3.4768 -0.2266 -1.8244 0.4603 0 1
3.4771 -0.2188 -1.8243 0.4603 0 1
3.4774 -0.2109 -1.8242 0.4603 0 1
3.4777 -0.2031 -1.8241 0.4604 0 1
3.4779 -0.1954 -1.8240 0.4604 0 1
3.4782 -0.1875 -1.8239 0.4604 0 1
3.4784 -0.1797 -1.8238 0.4604 0 1
3.4786 -0.1719 -1.8237 0.4604 0 1
3.4788 -0.1641 -1.8236 0.4605 0 1
3.4790 -0.1562 -1.8235 0.4605 0 1
3.4792 -0.1484 -1.8234 0.4605 0 1
3.4793 -0.1406 -1.8233 0.4605 0 1
3.4794 -0.1328 -1.8233 0.4606 0 1
3.4795 -0.1250 -1.8232 0.4606 0 1
3.4796 -0.1172 -1.8231 0.4606 0 1
3.4797 -0.1094 -1.8230 0.4606 0 1
3.4797 -0.1015 -1.8229 0.4607 0 1
3.4798 -0.0938 -1.8228 0.4607 0 1
3.4798 -0.0859 -1.8227 0.4607 0 1
3.4798 -0.0781 -1.8226 0.4607 0 1
3.4798 -0.0703 -1.8225 0.4608 0 1
3.4798 -0.0625 -1.8224 0.4608 0 1
3.4797 -0.0546 -1.8223 0.4608 0 1
3.4796 -0.0469 -1.8222 0.4608 0 1
3.4795 -0.0391 -1.8221 0.4609 0 1
3.4794 -0.0312 -1.8220 0.4609 0 1
3.4793 -0.0234 -1.8219 0.4609 0 1
3.4791 -0.0156 -1.8218 0.4609 0 1
3.4790 -0.0078 -1.8217 0.4610 0 1
3.4788 0.0000 -1.8216 0.4610 0 1
3.4786 0.0078 -1.8215 0.4610 0 1
3.4784 0.0156 -1.8214 0.4610 0 1
3.4782 0.0234 -1.8213 0.4611 0 1
3.4779 0.0312 -1.8212 0.4611 0 1
3.4777 0.0390 -1.8211 0.4611 0 1
3.4774 0.0468 -1.8210 0.4611 0 1
3.4771 0.0546 -1.8209 0.4612 0 1
3.4768 0.0624 -1.8208 0.4612 0 1
3.4764 0.0702 -1.8207 0.4612 0 1
3.4761 0.0780 -1.8206 0.4612 0 1
3.4757 0.0858 -1.8205 0.4613 0 1
3.4753 0.0936 -1.8204 0.4613 0 1
3.4749 0.1014 -1.8203 0.4613 0 1
3.4745 0.1092 -1.8202 0.4613 0 1
3.4740 0.1170 -1.8201 0.4614 0 1
3.4736 0.1248 -1.8200 0.4614 0 1
3.4731 0.1325 -1.8199 0.4614 0 1
3.4726 0.1403 -1.8199 0.4614 0 1
3.4721 0.1481 -1.8198 0.4615 0 1
3.4716 0.1559 -1.8197 0.4615 0 1
3.4710 0.1637 -1.8196 0.4615 0 1
3.4705 0.1714 -1.8195 0.4615 0 1
3.4699 0.1792 -1.8194 0.4616 0 1
3.4693 0.1870 -1.8193 0.4616 0 1
3.4687 0.1948 -1.8192 0.4616 0 1
3.4681 0.2025 -1.8191 0.4616 0 1
3.4674 0.2103 -1.8190 0.4617 0 1
3.4667 0.2181 -1.8189 0.4617 0 1
3.4661 0.2259 -1.8188 0.4617 0 1
3.4653 0.2336 -1.8187 0.4617 0 1
3.4646 0.2414 -1.8186 0.4618 0 1
3.4639 0.2492 -1.8185 0.4618 0 1
3.4631 0.2569 -1.8184 0.4618 0 1
3.4624 0.2647 -1.8183 0.4618 0 1
3.4616 0.2724 -1.8182 0.4619 0 1
3.4608 0.2802 -1.8181 0.4619 0 1
3.4600 0.2879 -1.8180 0.4619 0 1
3.4591 0.2957 -1.8179 0.4619 0 1
3.4582 0.3034 -1.8178 0.4620 0 1
3.4574 0.3112 -1.8177 0.4620 0 1
3.4565 0.3189 -1.8176 0.4620 0 1
3.4556 0.3266 -1.8175 0.4620 0 1
3.4546 0.3344 -1.8174 0.4621 0 1
3.4537 0.3421 -1.8173 0.4621 0 1
3.4527 0.3498 -1.8172 0.4621 0 1
3.4517 0.3575 -1.8171 0.4621 0 1
3.4507 0.3653 -1.8170 0.4620 0 1
3.4497 0.3730 -1.8169 0.4621 0 1
3.4487 0.3807 -1.8168 0.4621 0 1
3.4476 0.3884 -1.8167 0.4621 0 1
3.4466 0.3962 -1.8166 0.4621 0 1
3.4455 0.4039 -1.8165 0.4622 0 1
3.4444 0.4116 -1.8164 0.4622 0 1
3.4433 0.4193 -1.8163 0.4622 0 1
3.4421 0.4270 -1.8162 0.4623 0 1
3.4410 0.4347 -1.8161 0.4623 0 1
3.4398 0.4424 -1.8160 0.4623 0 1
3.4386 0.4501 -1.8159 0.4623 0 1
3.4374 0.4577 -1.8158 0.4624 0 1
3.4362 0.4654 -1.8157 0.4624 0 1
3.4349 0.4731 -1.8156 0.4624 0 1
3.4337 0.4808 -1.8155 0.4624 0 1
3.4324 0.4885 -1.8154 0.4625 0 1
3.4311 0.4962 -1.8153 0.4625 0 1
3.4298 0.5038 -1.8152 0.4625 0 1
3.4285 0.5115 -1.8151 0.4625 0 1
3.4271 0.5191 -1.8150 0.4626 0 1
3.4258 0.5268 -1.8149 0.4626 0 1
3.4244 0.5345 -1.8148 0.4626 0 1
3.4230 0.5421 -1.8147 0.4626 0 1
3.4216 0.5498 -1.8146 0.4627 0 1
3.4202 0.5574 -1.8145 0.4627 0 1
3.4187 0.5651 -1.8144 0.4627 0 1
3.4172 0.5727 -1.8143 0.4627 0 1
3.4158 0.5804 -1.8142 0.4628 0 1
3.4143 0.5880 -1.8141 0.4628 0 1
3.4127 0.5956 -1.8140 0.4628 0 1
3.4112 0.6032 -1.8139 0.4628 0 1
3.4096 0.6109 -1.8138 0.4629 0 1
3.4081 0.6185 -1.8137 0.4629 0 1
3.4065 0.6261 -1.8136 0.4629 0 1
3.4049 0.6337 -1.8135 0.4629 0 1
3.4033 0.6413 -1.8134 0.4630 0 1
3.4017 0.6489 -1.8133 0.4630 0 1
3.4000 0.6565 -1.8132 0.4630 0 1
3.3983 0.6641 -1.8131 0.4630 0 1
3.3966 0.6716 -1.8130 0.4631 0 1
3.3949 0.6793 -1.8129 0.4631 0 1
3.3932 0.6868 -1.8128 0.4631 0 1
3.3915 0.6944 -1.8127 0.4631 0 1
3.3897 0.7020 -1.8126 0.4632 0 1
3.3880 0.7095 -1.8125 0.4632 0 1
3.3862 0.7171 -1.8124 0.4632 0 1
3.3844 0.7246 -1.8123 0.4632 0 1
3.3826 0.7322 -1.8122 0.4633 0 1
3.3807 0.7398 -1.8121 0.4633 0 1
3.3789 0.7473 -1.8120 0.4633 0 1
3.3770 0.7548 -1.8119 0.4633 0 1
3.3751 0.7623 -1.8118 0.4634 0 1
3.3732 0.7699 -1.8117 0.4634 0 1
3.3713 0.7774 -1.8116 0.4634 0 1
3.3693 0.7850 -1.8115 0.4634 0 1
3.3674 0.7925 -1.8114 0.4635 0 1
3.3654 0.8000 -1.8113 0.4635 0 1
3.3634 0.8075 -1.8112 0.4635 0 1
3.3614 0.8150 -1.8111 0.4635 0 1
3.3594 0.8225 -1.8110 0.4636 0 1
3.3574 0.8300 -1.8109 0.4636 0 1
3.3553 0.8375 -1.8108 0.4636 0 1
3.3532 0.8449 -1.8107 0.4637 0 1
3.3511 0.8524 -1.8106 0.4637 0 1
3.3490 0.8599 -1.8105 0.4637 0 1
3.3469 0.8674 -1.8104 0.4637 0 1
3.3448 0.8748 -1.8103 0.4638 0 1
3.3426 0.8823 -1.8102 0.4638 0 1
3.3404 0.8897 -1.8101 0.4638 0 1
3.3383 0.8971 -1.8100 0.4638 0 1
3.3360 0.9046 -1.8099 0.4639 0 1
3.3338 0.9120 -1.8098 0.4639 0 1
3.3316 0.9195 -1.8097 0.4639 0 1
3.3293 0.9269 -1.8096 0.4639 0 1
3.3271 0.9343 -1.8095 0.4640 0 1
3.3248 0.9417 -1.8094 0.4640 0 1
3.3225 0.9491 -1.8093 0.4640 0 1
3.3201 0.9565 -1.8092 0.4640 0 1
3.3178 0.9639 -1.8091 0.4641 0 1
3.3155 0.9713 -1.8090 0.4641 0 1
3.3131 0.9787 -1.8089 0.4641 0 1
3.3107 0.9861 -1.8088 0.4641 0 1
3.3083 0.9934 -1.8087 0.4642 0 1
3.3059 1.0008 -1.8086 0.4642 0 1
3.3035 1.0082 -1.8085 0.4642 0 1
3.3010 1.0155 -1.8084 0.4642 0 1
3.2985 1.0229 -1.8083 0.4643 0 1
3.2960 1.0302 -1.8082 0.4643 0 1
3.2935 1.0375 -1.8081 0.4643 0 1
3.2910 1.0448 -1.8080 0.4643 0 1
3.2885 1.0522 -1.8079 0.4644 0 1
3.2859 1.0595 -1.8078 0.4644 0 1
3.2834 1.0668 -1.8077 0.4644 0 1
3.2808 1.0741 -1.8076 0.4644 0 1
3.2782 1.0814 -1.8075 0.4645 0 1
3.2756 1.0888 -1.8074 0.4645 0 1
3.2729 1.0960 -1.8073 0.4645 0 1
3.2703 1.1033 -1.8072 0.4645 0 1
3.2676 1.1106 -1.8071 0.4646 0 1
3.2650 1.1178 -1.8070 0.4646 0 1
3.2623 1.1251 -1.8069 0.4646 0 1
3.2596 1.1323 -1.8068 0.4646 0 1
3.2568 1.1396 -1.8068 0.4647 0 1
3.2541 1.1468 -1.8067 0.4647 0 1
3.2513 1.1541 -1.8066 0.4647 0 1
3.2485 1.1613 -1.8065 0.4647 0 1
3.2458 1.1685 -1.8064 0.4648 0 1
3.2429 1.1757 -1.8063 0.4648 0 1
3.2401 1.1830 -1.8062 0.4648 0 1
3.2373 1.1902 -1.8061 0.4649 0 1
3.2344 1.1973 -1.8060 0.4649 0 1
3.2315 1.2045 -1.8059 0.4649 0 1
3.2287 1.2117 -1.8058 0.4649 0 1
3.2257 1.2189 -1.8057 0.4650 0 1
3.2228 1.2261 -1.8056 0.4650 0 1
3.2199 1.2332 -1.8055 0.4650 0 1
3.2169 1.2404 -1.8054 0.4650 0 1
3.2140 1.2475 -1.8053 0.4651 0 1
3.2110 1.2547 -1.8052 0.4651 0 1
3.2080 1.2618 -1.8051 0.4651 0 1
3.2050 1.2689 -1.8050 0.4651 0 1
3.2019 1.2761 -1.8049 0.4652 0 1
3.1989 1.2832 -1.8048 0.4652 0 1
3.1959 1.2903 -1.8047 0.4652 0 1
3.1928 1.2974 -1.8046 0.4652 0 1
3.1897 1.3045 -1.8045 0.4653 0 1
3.1866 1.3115 -1.8044 0.4653 0 1
3.1834 1.3186 -1.8043 0.4653 0 1
3.1803 1.3257 -1.8042 0.4653 0 1
3.1771 1.3327 -1.8041 0.4654 0 1
3.1740 1.3398 -1.8040 0.4654 0 1
3.1708 1.3469 -1.8039 0.4654 0 1
3.1676 1.3539 -1.8038 0.4654 0 1
3.1644 1.3609 -1.8037 0.4655 0 1
3.1611 1.3679 -1.8036 0.4655 0 1
3.1579 1.3750 -1.8035 0.4655 0 1
3.1546 1.3820 -1.8034 0.4655 0 1
3.1513 1.3889 -1.8033 0.4656 0 1
3.1480 1.3959 -1.8032 0.4656 0 1
3.1447 1.4030 -1.8031 0.4656 0 1
3.1414 1.4099 -1.8030 0.4656 0 1
3.1381 1.4169 -1.8029 0.4657 0 1
3.1347 1.4239 -1.8028 0.4657 0 1
3.1314 1.4308 -1.8027 0.4657 0 1
3.1279 1.4378 -1.8026 0.4657 0 1
3.1245 1.4447 -1.8025 0.4658 0 1
3.1211 1.4516 -1.8024 0.4658 0 1
3.1177 1.4585 -1.8023 0.4658 0 1
3.1142 1.4655 -1.8022 0.4658 0 1
3.1108 1.4724 -1.8021 0.4659 0 1
3.1073 1.4792 -1.8020 0.4659 0 1
3.1038 1.4861 -1.8019 0.4659 0 1
3.1003 1.4930 -1.8018 0.4659 0 1
3.0968 1.4999 -1.8017 0.4660 0 1
3.0932 1.5068 -1.8017 0.4660 0 1
3.0897 1.5136 -1.8016 0.4660 0 1
3.0861 1.5204 -1.8015 0.4660 0 1
3.0825 1.5273 -1.8014 0.4661 0 1
3.0789 1.5341 -1.8013 0.4661 0 1
3.0753 1.5409 -1.8012 0.4661 0 1
3.0717 1.5478 -1.8011 0.4661 0 1
3.0680 1.5546 -1.8010 0.4662 0 1
3.0644 1.5614 -1.8009 0.4662 0 1
3.0607 1.5681 -1.8008 0.4662 0 1
3.0570 1.5749 -1.8007 0.4662 0 1
3.0533 1.5817 -1.8006 0.4663 0 1
3.0496 1.5885 -1.8005 0.4663 0 1
3.0459 1.5952 -1.8004 0.4663 0 1
3.0421 1.6020 -1.8003 0.4663 0 1
3.0383 1.6087 -1.8002 0.4664 0 1
3.0346 1.6154 -1.8001 0.4664 0 1
3.0308 1.6221 -1.8000 0.4664 0 1
3.0270 1.6288 -1.7999 0.4664 0 1
3.0231 1.6355 -1.7998 0.4665 0 1
3.0193 1.6422 -1.7997 0.4665 0 1
3.0154 1.6489 -1.7996 0.4665 0 1
3.0116 1.6556 -1.7995 0.4665 0 1
3.0077 1.6623 -1.7994 0.4666 0 1
1.5800 0.8779 -0.9465 0.4412 458 14
1.5810 0.8831 -0.9483 0.4403 458 14
1.5821 0.8883 -0.9501 0.4395 458 14
1.5831 0.8936 -0.9519 0.4386 458 14
1.5842 0.8989 -0.9538 0.4378 458 14
1.5852 0.9042 -0.9556 0.4369 458 14
1.5863 0.9095 -0.9575 0.4361 458 14
1.5874 0.9149 -0.9594 0.4352 458 14
1.5885 0.9203 -0.9613 0.4343 458 14
1.5896 0.9257 -0.9632 0.4335 458 14
1.5907 0.9311 -0.9651 0.4326 458 14
1.5918 0.9366 -0.9671 0.4317 458 14
1.5929 0.9421 -0.9691 0.4309 458 14
1.5941 0.9476 -0.9710 0.4300 458 14
1.5952 0.9531 -0.9730 0.4291 458 14
1.5964 0.9586 -0.9751 0.4282 458 14
1.5976 0.9643 -0.9771 0.4273 458 14
1.5987 0.9698 -0.9791 0.4264 458 14
1.5999 0.9755 -0.9812 0.4255 458 14
1.6011 0.9812 -0.9833 0.4246 458 14
1.6023 0.9868 -0.9854 0.4237 458 14
1.6035 0.9925 -0.9875 0.4228 458 14
1.6047 0.9983 -0.9896 0.4219 458 14
1.6060 1.0041 -0.9918 0.4210 458 14
1.6072 1.0098 -0.9939 0.4201 458 14
1.6085 1.0157 -0.9961 0.4192 458 14
1.6097 1.0215 -0.9983 0.4182 458 14
1.6110 1.0274 -1.0005 0.4173 458 14
1.6123 1.0333 -1.0027 0.4164 458 14
1.6136 1.0393 -1.0050 0.4155 458 14
1.6148 1.0452 -1.0073 0.4145 458 14
1.6161 1.0512 -1.0095 0.4136 458 14
1.6175 1.0573 -1.0119 0.4126 458 14
1.6188 1.0633 -1.0142 0.4117 458 14
1.6202 1.0695 -1.0165 0.4107 458 14
1.6215 1.0756 -1.0189 0.4098 458 14
1.6229 1.0817 -1.0213 0.4088 458 14
1.6243 1.0879 -1.0237 0.4079 458 14
1.6256 1.0941 -1.0261 0.4069 458 14
1.6270 1.1004 -1.0285 0.4060 458 14
1.6284 1.1067 -1.0310 0.4050 458 14
1.6299 1.1130 -1.0335 0.4040 458 14
1.6313 1.1193 -1.0359 0.4030 458 14
1.6327 1.1257 -1.0385 0.4021 458 14
1.6342 1.1322 -1.0410 0.4011 458 14
1.6357 1.1386 -1.0436 0.4001 458 14
1.6371 1.1451 -1.0461 0.3991 458 14
1.6386 1.1516 -1.0487 0.3981 458 14
1.6401 1.1582 -1.0514 0.3971 458 14
1.6416 1.1648 -1.0540 0.3961 458 14
1.6432 1.1714 -1.0567 0.3951 458 14
1.6447 1.1781 -1.0594 0.3941 458 14
1.6463 1.1848 -1.0621 0.3931 458 14
1.6478 1.1916 -1.0648 0.3921 458 14
1.6494 1.1984 -1.0676 0.3911 458 14
1.6510 1.2052 -1.0703 0.3901 458 14
1.6526 1.2120 -1.0731 0.3891 458 14
1.6542 1.2190 -1.0760 0.3881 458 14
1.6559 1.2259 -1.0788 0.3870 458 14
1.6575 1.2329 -1.0817 0.3860 458 14
1.6592 1.2399 -1.0846 0.3850 458 14
1.6609 1.2470 -1.0875 0.3839 458 14
1.6625 1.2541 -1.0905 0.3829 458 14
1.6642 1.2613 -1.0934 0.3819 458 14
1.6660 1.2685 -1.0964 0.3808 458 14
1.6677 1.2757 -1.0994 0.3798 458 14
1.6694 1.2830 -1.1025 0.3787 458 14
1.6712 1.2903 -1.1056 0.3777 458 14
1.6730 1.2977 -1.1087 0.3766 458 14
1.6748 1.3051 -1.1118 0.3756 458 14
2.6959 2.1107 -1.7928 0.4683 0 1
2.6911 2.1166 -1.7927 0.4683 0 1
2.6862 2.1225 -1.7927 0.4683 0 1
2.6813 2.1284 -1.7926 0.4683 0 1
2.6763 2.1343 -1.7925 0.4684 0 1
2.6714 2.1402 -1.7924 0.4684 0 1
2.6665 2.1461 -1.7923 0.4684 0 1
2.6615 2.1520 -1.7922 0.4684 0 1
2.6565 2.1578 -1.7921 0.4685 0 1
2.6516 2.1636 -1.7920 0.4685 0 1
2.6466 2.1695 -1.7919 0.4685 0 1
2.6416 2.1753 -1.7918 0.4685 0 1
2.6365 2.1811 -1.7918 0.4686 0 1
2.6315 2.1870 -1.7917 0.4686 0 1
2.6265 2.1927 -1.7916 0.4686 0 1
2.6214 2.1985 -1.7915 0.4686 0 1
2.6164 2.2043 -1.7914 0.4686 0 1
2.6113 2.2100 -1.7913 0.4687 0 1
2.6062 2.2158 -1.7912 0.4687 0 1
2.6011 2.2215 -1.7911 0.4687 0 1
2.5959 2.2272 -1.7911 0.4687 0 1
2.5908 2.2330 -1.7910 0.4688 0 1
2.5857 2.2386 -1.7909 0.4688 0 1
2.5805 2.2443 -1.7908 0.4688 0 1
2.5754 2.2500 -1.7907 0.4688 0 1
2.5702 2.2557 -1.7906 0.4689 0 1
2.5650 2.2613 -1.7905 0.4689 0 1
2.5598 2.2670 -1.7904 0.4689 0 1
1.4305 1.2726 -1.0025 0.0180 458 14
1.3715 1.2257 -0.9632 0.0187 458 14
1.3452 1.2076 -0.9466 0.3264 458 14
1.3415 1.2096 -0.9458 0.3266 458 14
1.3377 1.2117 -0.9451 0.3269 458 14
1.3339 1.2138 -0.9443 0.3271 458 14
1.3301 1.2158 -0.9436 0.3274 458 14
1.3263 1.2178 -0.9428 0.3277 458 14
1.3225 1.2198 -0.9421 0.3279 458 14
1.3187 1.2217 -0.9413 0.3282 458 14
1.3149 1.2237 -0.9406 0.3285 458 14
1.3111 1.2257 -0.9398 0.3287 458 14
1.3073 1.2276 -0.9391 0.3290 458 14
1.3035 1.2295 -0.9383 0.3292 458 14
1.2997 1.2315 -0.9375 0.3295 458 14
1.2959 1.2334 -0.9368 0.3298 458 14
1.2920 1.2353 -0.9360 0.3300 458 14
1.2882 1.2372 -0.9353 0.3303 458 14
1.2844 1.2391 -0.9345 0.3306 458 14
1.2806 1.2409 -0.9337 0.3309 458 14
1.2767 1.2428 -0.9330 0.3311 458 14
1.2729 1.2446 -0.9322 0.3314 458 14
1.2691 1.2464 -0.9314 0.3317 458 14
1.2652 1.2483 -0.9307 0.3319 458 14
1.2614 1.2501 -0.9299 0.3322 458 14
1.2575 1.2519 -0.9292 0.3325 458 14
2.7377 -2.7378 -2.0682 0.4617 0 2
2.7438 -2.7316 -2.0682 0.4617 0 2
2.7499 -2.7253 -2.0681 0.4617 0 2
2.7559 -2.7191 -2.0680 0.4617 0 2
2.7619 -2.7128 -2.0680 0.4618 0 2
2.7679 -2.7065 -2.0679 0.4618 0 2
2.7739 -2.7002 -2.0679 0.4618 0 2
2.7799 -2.6939 -2.0678 0.4618 0 2
2.7859 -2.6876 -2.0678 0.4618 0 2
2.7918 -2.6813 -2.0677 0.4618 0 2
2.7978 -2.6750 -2.0677 0.4618 0 2
2.8037 -2.6686 -2.0676 0.4618 0 2
2.8096 -2.6623 -2.0676 0.4618 0 2
2.8155 -2.6559 -2.0675 0.4619 0 2
2.8214 -2.6495 -2.0675 0.4619 0 2
2.8272 -2.6430 -2.0674 0.4619 0 2
2.8331 -2.6366 -2.0674 0.4619 0 2
2.8389 -2.6302 -2.0673 0.4619 0 2
2.8447 -2.6237 -2.0673 0.4619 0 2
2.8505 -2.6173 -2.0672 0.4619 0 2
2.8563 -2.6109 -2.0671 0.4619 0 2
2.8621 -2.6043 -2.0671 0.4620 0 2
2.8679 -2.5978 -2.0670 0.4620 0 2
2.8736 -2.5913 -2.0670 0.4620 0 2
2.8794 -2.5848 -2.0669 0.4620 0 2
2.8851 -2.5782 -2.0669 0.4620 0 2
2.8908 -2.5717 -2.0668 0.4620 0 2
2.8965 -2.5652 -2.0668 0.4620 0 2
2.9021 -2.5586 -2.0667 0.4620 0 2
2.9078 -2.5520 -2.0666 0.4621 0 2
2.9134 -2.5454 -2.0666 0.4621 0 2
2.9190 -2.5387 -2.0665 0.4621 0 2
2.9246 -2.5321 -2.0665 0.4621 0 2
2.9302 -2.5255 -2.0664 0.4621 0 2
2.9358 -2.5189 -2.0663 0.4621 0 2
2.9413 -2.5122 -2.0663 0.4621 0 2
2.9469 -2.5055 -2.0662 0.4621 0 2
2.9524 -2.4988 -2.0662 0.4622 0 2
2.9580 -2.4921 -2.0661 0.4622 0 2
2.9635 -2.4854 -2.0661 0.4622 0 2
2.9690 -2.4786 -2.0660 0.4622 0 2
2.9744 -2.4719 -2.0659 0.4622 0 2
2.9799 -2.4652 -2.0659 0.4622 0 2
2.9853 -2.4584 -2.0658 0.4622 0 2
2.9907 -2.4517 -2.0658 0.4623 0 2
2.9961 -2.4448 -2.0657 0.4623 0 2
3.0016 -2.4380 -2.0656 0.4623 0 2
3.0069 -2.4312 -2.0656 0.4623 0 2
3.0123 -2.4244 -2.0655 0.4623 0 2
3.0176 -2.4176 -2.0655 0.4623 0 2
3.0229 -2.4107 -2.0654 0.4623 0 2
3.0283 -2.4039 -2.0653 0.4623 0 2
3.0336 -2.3970 -2.0653 0.4624 0 2
3.0388 -2.3901 -2.0652 0.4624 0 2
3.0441 -2.3832 -2.0652 0.4624 0 2
3.0494 -2.3763 -2.0651 0.4624 0 2
3.0546 -2.3694 -2.0650 0.4624 0 2
3.0598 -2.3625 -2.0650 0.4624 0 2
3.0650 -2.3555 -2.0649 0.4624 0 2
3.0702 -2.3485 -2.0648 0.4625 0 2
3.0753 -2.3416 -2.0648 0.4625 0 2
3.0805 -2.3346 -2.0647 0.4625 0 2
3.0856 -2.3276 -2.0646 0.4625 0 2
3.0908 -2.3206 -2.0646 0.4625 0 2
3.0959 -2.3136 -2.0645 0.4625 0 2
3.1009 -2.3066 -2.0645 0.4625 0 2
3.1060 -2.2996 -2.0644 0.4626 0 2
3.1111 -2.2925 -2.0643 0.4626 0 2
3.1161 -2.2854 -2.0643 0.4626 0 2
3.1211 -2.2784 -2.0642 0.4626 0 2
3.1261 -2.2713 -2.0641 0.4626 0 2
3.1311 -2.2642 -2.0641 0.4626 0 2
3.1361 -2.2571 -2.0640 0.4626 0 2
3.1411 -2.2500 -2.0639 0.4627 0 2
3.1460 -2.2429 -2.0639 0.4627 0 2
3.1509 -2.2357 -2.0638 0.4627 0 2
3.1558 -2.2286 -2.0637 0.4627 0 2
3.1607 -2.2214 -2.0637 0.4627 0 2
3.1656 -2.2143 -2.0636 0.4627 0 2
3.1705 -2.2071 -2.0635 0.4627 0 2
3.1753 -2.1999 -2.0635 0.4628 0 2
3.1801 -2.1927 -2.0634 0.4628 0 2
3.1849 -2.1855 -2.0633 0.4628 0 2
3.1897 -2.1782 -2.0633 0.4628 0 2
3.1945 -2.1710 -2.0632 0.4628 0 2
3.1993 -2.1637 -2.0631 0.4628 0 2
3.2040 -2.1565 -2.0631 0.4629 0 2
3.2087 -2.1492 -2.0630 0.4629 0 2
3.2134 -2.1419 -2.0629 0.4629 0 2
3.2181 -2.1347 -2.0629 0.4629 0 2
3.2228 -2.1274 -2.0628 0.4629 0 2
3.2275 -2.1200 -2.0627 0.4629 0 2
3.2321 -2.1127 -2.0627 0.4629 0 2
3.2367 -2.1054 -2.0626 0.4630 0 2
3.2413 -2.0980 -2.0625 0.4630 0 2
3.2459 -2.0907 -2.0625 0.4630 0 2
3.2505 -2.0834 -2.0624 0.4630 0 2
3.2551 -2.0760 -2.0623 0.4630 0 2
3.2596 -2.0686 -2.0622 0.4630 0 2
3.2641 -2.0612 -2.0622 0.4631 0 2
3.2686 -2.0538 -2.0621 0.4631 0 2
3.2731 -2.0464 -2.0620 0.4631 0 2
3.2776 -2.0390 -2.0620 0.4631 0 2
3.2820 -2.0316 -2.0619 0.4631 0 2
3.2865 -2.0241 -2.0618 0.4631 0 2
3.2909 -2.0167 -2.0618 0.4632 0 2
3.2953 -2.0092 -2.0617 0.4632 0 2
3.2997 -2.0018 -2.0616 0.4632 0 2
3.3040 -1.9943 -2.0615 0.4632 0 2
3.3084 -1.9868 -2.0615 0.4632 0 2
3.3127 -1.9793 -2.0614 0.4632 0 2
3.3171 -1.9718 -2.0613 0.4632 0 2
3.3214 -1.9643 -2.0612 0.4633 0 2
3.3256 -1.9567 -2.0612 0.4633 0 2
3.3299 -1.9492 -2.0611 0.4633 0 2
3.3342 -1.9416 -2.0610 0.4633 0 2
3.3384 -1.9341 -2.0610 0.4633 0 2
3.3426 -1.9265 -2.0609 0.4633 0 2
3.3468 -1.9189 -2.0608 0.4634 0 2
3.3510 -1.9114 -2.0607 0.4634 0 2
3.3551 -1.9038 -2.0607 0.4634 0 2
3.3593 -1.8962 -2.0606 0.4634 0 2
3.3634 -1.8886 -2.0605 0.4634 0 2
3.3675 -1.8809 -2.0604 0.4634 0 2
3.3716 -1.8733 -2.0604 0.4635 0 2
3.3757 -1.8657 -2.0603 0.4635 0 2
3.3797 -1.8580 -2.0602 0.4635 0 2
3.3838 -1.8504 -2.0601 0.4635 0 2
3.3878 -1.8427 -2.0601 0.4635 0 2
3.3918 -1.8350 -2.0600 0.4635 0 2
3.3958 -1.8273 -2.0599 0.4636 0 2
3.3997 -1.8197 -2.0598 0.4636 0 2
3.4037 -1.8120 -2.0598 0.4636 0 2
3.4076 -1.8043 -2.0597 0.4636 0 2
3.4115 -1.7966 -2.0596 0.4636 0 2
3.4154 -1.7888 -2.0595 0.4636 0 2
3.4193 -1.7811 -2.0595 0.4637 0 2
3.4232 -1.7734 -2.0594 0.4637 0 2
1.5826 -0.8154 -0.9510 0.4460 458 14
1.5816 -0.8104 -0.9493 0.4467 458 14
1.5807 -0.8054 -0.9477 0.4475 458 14
3.4384 -1.7423 -2.0591 0.4638 0 2
3.4422 -1.7345 -2.0590 0.4638 0 2
3.4460 -1.7267 -2.0589 0.4638 0 2
3.4497 -1.7189 -2.0588 0.4638 0 2
3.4534 -1.7111 -2.0588 0.4638 0 2
3.4571 -1.7033 -2.0587 0.4638 0 2
3.4608 -1.6954 -2.0586 0.4639 0 2
3.4645 -1.6876 -2.0585 0.4639 0 2
3.4681 -1.6798 -2.0585 0.4639 0 2
3.4717 -1.6719 -2.0584 0.4639 0 2
3.4753 -1.6641 -2.0583 0.4639 0 2
3.4789 -1.6562 -2.0582 0.4639 0 2
3.4825 -1.6483 -2.0581 0.4640 0 2
3.4861 -1.6404 -2.0581 0.4640 0 2
3.4896 -1.6325 -2.0580 0.4640 0 2
3.4931 -1.6246 -2.0579 0.4640 0 2
3.4966 -1.6168 -2.0578 0.4640 0 2
3.5001 -1.6088 -2.0577 0.4641 0 2
3.5036 -1.6009 -2.0577 0.4641 0 2
3.5070 -1.5930 -2.0576 0.4641 0 2
3.5105 -1.5850 -2.0575 0.4641 0 2
3.5139 -1.5771 -2.0574 0.4641 0 2
3.5173 -1.5691 -2.0573 0.4641 0 2
3.5206 -1.5612 -2.0573 0.4642 0 2
3.5240 -1.5532 -2.0572 0.4642 0 2
3.5273 -1.5452 -2.0571 0.4642 0 2
3.5306 -1.5373 -2.0570 0.4642 0 2
3.5339 -1.5293 -2.0569 0.4642 0 2
3.5372 -1.5213 -2.0569 0.4643 0 2
3.5405 -1.5133 -2.0568 0.4643 0 2
3.5437 -1.5053 -2.0567 0.4643 0 2
3.5470 -1.4973 -2.0566 0.4643 0 2
3.5502 -1.4893 -2.0565 0.4643 0 2
3.5534 -1.4812 -2.0564 0.4643 0 2
3.5565 -1.4732 -2.0564 0.4644 0 2
3.5597 -1.4652 -2.0563 0.4644 0 2
3.5628 -1.4571 -2.0562 0.4644 0 2
3.5659 -1.4490 -2.0561 0.4644 0 2
3.5690 -1.4410 -2.0560 0.4644 0 2
3.5721 -1.4329 -2.0559 0.4645 0 2
3.5752 -1.4248 -2.0559 0.4645 0 2
3.5782 -1.4168 -2.0558 0.4645 0 2
3.5812 -1.4087 -2.0557 0.4645 0 2
3.5843 -1.4005 -2.0556 0.4645 0 2
3.5873 -1.3925 -2.0555 0.4646 0 2
3.5902 -1.3843 -2.0554 0.4646 0 2
3.5932 -1.3763 -2.0554 0.4646 0 2
3.5961 -1.3681 -2.0553 0.4646 0 2
3.5990 -1.3600 -2.0552 0.4646 0 2
3.6019 -1.3518 -2.0551 0.4646 0 2
3.6048 -1.3437 -2.0550 0.4647 0 2
3.6076 -1.3355 -2.0549 0.4647 0 2
3.6105 -1.3274 -2.0549 0.4647 0 2
3.6133 -1.3193 -2.0548 0.4647 0 2
3.6161 -1.3111 -2.0547 0.4647 0 2
3.6189 -1.3029 -2.0546 0.4648 0 2
3.6217 -1.2947 -2.0545 0.4648 0 2
3.6244 -1.2865 -2.0544 0.4648 0 2
3.6271 -1.2784 -2.0543 0.4648 0 2
3.6298 -1.2702 -2.0543 0.4648 0 2
3.6325 -1.2619 -2.0542 0.4649 0 2
3.6352 -1.2537 -2.0541 0.4649 0 2
3.6378 -1.2455 -2.0540 0.4649 0 2
3.6404 -1.2373 -2.0539 0.4649 0 2
3.6431 -1.2291 -2.0538 0.4649 0 2
3.6457 -1.2208 -2.0537 0.4650 0 2
3.6482 -1.2126 -2.0537 0.4650 0 2
3.6508 -1.2044 -2.0536 0.4650 0 2
3.6534 -1.1961 -2.0535 0.4650 0 2
3.6559 -1.1879 -2.0534 0.4650 0 2
3.6584 -1.1796 -2.0533 0.4651 0 2
3.6609 -1.1714 -2.0532 0.4651 0 2
3.6633 -1.1631 -2.0531 0.4651 0 2
3.6657 -1.1548 -2.0530 0.4651 0 2
3.6682 -1.1466 -2.0530 0.4651 0 2
3.6706 -1.1383 -2.0529 0.4652 0 2
3.6730 -1.1300 -2.0528 0.4652 0 2
3.6753 -1.1216 -2.0527 0.4652 0 2
3.6777 -1.1134 -2.0526 0.4652 0 2
3.6800 -1.1051 -2.0525 0.4652 0 2
3.6823 -1.0968 -2.0524 0.4653 0 2
3.6846 -1.0884 -2.0523 0.4653 0 2
3.6869 -1.0801 -2.0522 0.4653 0 2
3.6891 -1.0718 -2.0522 0.4653 0 2
3.6914 -1.0635 -2.0521 0.4653 0 2
3.6936 -1.0552 -2.0520 0.4654 0 2
3.6958 -1.0468 -2.0519 0.4654 0 2
3.6980 -1.0385 -2.0518 0.4654 0 2
3.7002 -1.0301 -2.0517 0.4654 0 2
3.7023 -1.0218 -2.0516 0.4654 0 2
3.7044 -1.0134 -2.0515 0.4655 0 2
3.7065 -1.0051 -2.0514 0.4655 0 2
3.7086 -0.9967 -2.0514 0.4655 0 2
3.7107 -0.9884 -2.0513 0.4655 0 2
3.7127 -0.9800 -2.0512 0.4655 0 2
3.7147 -0.9716 -2.0511 0.4656 0 2
3.7167 -0.9632 -2.0510 0.4656 0 2
3.7187 -0.9548 -2.0509 0.4656 0 2
3.7207 -0.9464 -2.0508 0.4656 0 2
3.7226 -0.9380 -2.0507 0.4656 0 2
3.7246 -0.9296 -2.0506 0.4657 0 2
3.7265 -0.9212 -2.0505 0.4657 0 2
3.7284 -0.9128 -2.0504 0.4657 0 2
3.7302 -0.9044 -2.0504 0.4657 0 2
3.7321 -0.8960 -2.0503 0.4657 0 2
3.7339 -0.8876 -2.0502 0.4658 0 2
3.7358 -0.8792 -2.0501 0.4658 0 2
3.7376 -0.8707 -2.0500 0.4658 0 2
3.7393 -0.8623 -2.0499 0.4658 0 2
3.7411 -0.8539 -2.0498 0.4659 0 2
3.7428 -0.8455 -2.0497 0.4659 0 2
3.7445 -0.8370 -2.0496 0.4659 0 2
3.7463 -0.8286 -2.0495 0.4659 0 2
3.7479 -0.8202 -2.0494 0.4659 0 2
3.7496 -0.8117 -2.0493 0.4660 0 2
3.7512 -0.8032 -2.0493 0.4660 0 2
3.7528 -0.7948 -2.0492 0.4660 0 2
3.7545 -0.7863 -2.0491 0.4660 0 2
3.7560 -0.7779 -2.0490 0.4660 0 2
3.7576 -0.7694 -2.0489 0.4661 0 2
3.7592 -0.7609 -2.0488 0.4661 0 2
3.7607 -0.7525 -2.0487 0.4661 0 2
3.7622 -0.7440 -2.0486 0.4661 0 2
3.7637 -0.7355 -2.0485 0.4661 0 2
3.7652 -0.7270 -2.0484 0.4662 0 2
3.7666 -0.7185 -2.0483 0.4662 0 2
3.7680 -0.7101 -2.0482 0.4662 0 2
3.7694 -0.7015 -2.0481 0.4662 0 2
3.7708 -0.6930 -2.0480 0.4663 0 2
3.7722 -0.6846 -2.0479 0.4663 0 2
3.7735 -0.6761 -2.0479 0.4663 0 2
3.7749 -0.6676 -2.0478 0.4663 0 2
3.7762 -0.6591 -2.0477 0.4663 0 2
3.7775 -0.6505 -2.0476 0.4664 0 2
3.7788 -0.6421 -2.0475 0.4664 0 2
3.7800 -0.6336 -2.0474 0.4664 0 2
3.7813 -0.6250 -2.0473 0.4664 0 2
3.7825 -0.6165 -2.0472 0.4664 0 2
3.3787 -0.5429 -1.8280 0.4666 0 1
3.3798 -0.5353 -1.8279 0.4666 0 1
3.3808 -0.5277 -1.8278 0.4666 0 1
3.3818 -0.5201 -1.8277 0.4667 0 1
3.3828 -0.5125 -1.8276 0.4667 0 1
3.3838 -0.5049 -1.8275 0.4667 0 1
3.3847 -0.4972 -1.8275 0.4667 0 1
3.3856 -0.4896 -1.8274 0.4668 0 1
3.3866 -0.4820 -1.8273 0.4668 0 1
3.3875 -0.4744 -1.8272 0.4668 0 1
3.3884 -0.4668 -1.8271 0.4668 0 1
3.3892 -0.4591 -1.8270 0.4668 0 1
3.3901 -0.4515 -1.8269 0.4669 0 1
3.3909 -0.4438 -1.8268 0.4669 0 1
3.3917 -0.4362 -1.8267 0.4669 0 1
3.3925 -0.4286 -1.8266 0.4669 0 1
3.3933 -0.4209 -1.8265 0.4670 0 1
3.3941 -0.4133 -1.8264 0.4670 0 1
3.3948 -0.4057 -1.8264 0.4670 0 1
3.3956 -0.3980 -1.8263 0.4670 0 1
3.3963 -0.3904 -1.8262 0.4671 0 1
3.3970 -0.3827 -1.8261 0.4671 0 1
3.3976 -0.3751 -1.8260 0.4671 0 1
3.3983 -0.3675 -1.8259 0.4671 0 1
3.3990 -0.3598 -1.8258 0.4672 0 1
3.3996 -0.3522 -1.8257 0.4672 0 1
3.4002 -0.3445 -1.8256 0.4672 0 1
3.4008 -0.3369 -1.8255 0.4672 0 1
3.4014 -0.3292 -1.8254 0.4673 0 1
3.4019 -0.3216 -1.8253 0.4673 0 1
3.4024 -0.3139 -1.8252 0.4673 0 1
3.4030 -0.3063 -1.8251 0.4673 0 1
3.4035 -0.2986 -1.8251 0.4673 0 1
3.4040 -0.2910 -1.8250 0.4674 0 1
