ply
format ascii 1.0
element vertex 1427
property float32 x
property float32 y
property float32 z
property float32 CosAngle
property uint32 ObjIdx
property uint32 ObjTag
end_header
6.8892 0.8232 -1.7827 0.2529 0 1
6.8862 0.8385 -1.7823 0.2530 0 1
6.8830 0.8538 -1.7820 0.2530 0 1
6.8798 0.8691 -1.7817 0.2531 0 1
6.8766 0.8844 -1.7814 0.2531 0 1
6.8734 0.8996 -1.7810 0.2532 0 1
6.8701 0.9149 -1.7807 0.2532 0 1
6.8668 0.9301 -1.7804 0.2533 0 1
6.8634 0.9454 -1.7801 0.2533 0 1
6.8600 0.9606 -1.7798 0.2534 0 1
6.8566 0.9758 -1.7794 0.2534 0 1
6.8532 0.9911 -1.7791 0.2534 0 1
6.8497 1.0062 -1.7788 0.2535 0 1
6.8462 1.0214 -1.7785 0.2535 0 1
6.8427 1.0366 -1.7782 0.2536 0 1
6.8391 1.0518 -1.7778 0.2536 0 1
6.8355 1.0669 -1.7775 0.2537 0 1
6.8318 1.0821 -1.7772 0.2537 0 1
6.8282 1.0971 -1.7769 0.2538 0 1
6.8244 1.1123 -1.7766 0.2538 0 1
6.8207 1.1274 -1.7762 0.2539 0 1
6.8170 1.1425 -1.7759 0.2539 0 1
6.8132 1.1576 -1.7756 0.2539 0 1
6.8093 1.1727 -1.7753 0.2540 0 1
6.8055 1.1877 -1.7750 0.2540 0 1
6.8016 1.2028 -1.7747 0.2541 0 1
6.7977 1.2179 -1.7743 0.2541 0 1
6.7937 1.2329 -1.7740 0.2542 0 1
6.7896 1.2479 -1.7737 0.2542 0 1
6.7856 1.2629 -1.7734 0.2543 0 1
6.7816 1.2779 -1.7731 0.2543 0 1
6.7775 1.2929 -1.7728 0.2544 0 1
6.7734 1.3079 -1.7724 0.2544 0 1
6.7693 1.3228 -1.7721 0.2544 0 1
6.7650 1.3378 -1.7718 0.2545 0 1
6.7609 1.3527 -1.7715 0.2545 0 1
6.7566 1.3676 -1.7712 0.2546 0 1
6.7523 1.3826 -1.7709 0.2546 0 1
6.7480 1.3974 -1.7706 0.2547 0 1
6.7437 1.4123 -1.7703 0.2547 0 1
6.7393 1.4272 -1.7699 0.2548 0 1
6.7349 1.4421 -1.7696 0.2548 0 1
6.7304 1.4570 -1.7693 0.2548 0 1
6.7260 1.4718 -1.7690 0.2549 0 1
6.7215 1.4866 -1.7687 0.2549 0 1
6.7170 1.5014 -1.7684 0.2550 0 1
6.7124 1.5163 -1.7681 0.2550 0 1
6.7078 1.5309 -1.7678 0.2551 0 1
6.7031 1.5458 -1.7675 0.2551 0 1
6.6985 1.5605 -1.7672 0.2552 0 1
6.6938 1.5753 -1.7668 0.2552 0 1
6.6891 1.5900 -1.7665 0.2552 0 1
6.6843 1.6048 -1.7662 0.2553 0 1
6.6795 1.6195 -1.7659 0.2553 0 1
6.6747 1.6341 -1.7656 0.2554 0 1
6.6700 1.6489 -1.7653 0.2554 0 1
6.6650 1.6636 -1.7650 0.2555 0 1
6.6602 1.6782 -1.7647 0.2555 0 1
6.6552 1.6928 -1.7644 0.2556 0 1
6.6502 1.7075 -1.7641 0.2556 0 1
6.6452 1.7221 -1.7638 0.2556 0 1
6.6402 1.7367 -1.7635 0.2557 0 1
6.6351 1.7512 -1.7632 0.2557 0 1
6.6300 1.7659 -1.7629 0.2558 0 1
6.6249 1.7804 -1.7626 0.2558 0 1
6.6197 1.7950 -1.7622 0.2559 0 1
6.6146 1.8095 -1.7619 0.2559 0 1
6.6094 1.8241 -1.7616 0.2560 0 1
6.6041 1.8386 -1.7613 0.2560 0 1
6.5988 1.8530 -1.7610 0.2560 0 1
6.5935 1.8675 -1.7607 0.2561 0 1
6.5882 1.8820 -1.7604 0.2561 0 1
6.5828 1.8964 -1.7601 0.2562 0 1
6.5774 1.9109 -1.7598 0.2562 0 1
6.5720 1.9254 -1.7595 0.2563 0 1
6.5666 1.9397 -1.7592 0.2563 0 1
6.5611 1.9541 -1.7589 0.2564 0 1
6.5555 1.9685 -1.7586 0.2564 0 1
6.5499 1.9829 -1.7583 0.2564 0 1
6.5444 1.9972 -1.7580 0.2565 0 1
6.5388 2.0116 -1.7577 0.2565 0 1
6.5332 2.0259 -1.7574 0.2566 0 1
6.5275 2.0402 -1.7571 0.2566 0 1
6.5218 2.0545 -1.7568 0.2567 0 1
6.5161 2.0688 -1.7565 0.2567 0 1
6.5103 2.0830 -1.7562 0.2567 0 1
6.5045 2.0973 -1.7560 0.2568 0 1
6.4987 2.1116 -1.7557 0.2568 0 1
6.4929 2.1258 -1.7554 0.2569 0 1
6.4870 2.1400 -1.7551 0.2569 0 1
6.4811 2.1541 -1.7548 0.2570 0 1
6.4752 2.1683 -1.7545 0.2570 0 1
6.4692 2.1825 -1.7542 0.2570 0 1
6.4632 2.1966 -1.7539 0.2571 0 1
6.4571 2.2108 -1.7536 0.2571 0 1
6.4511 2.2249 -1.7533 0.2572 0 1
6.4450 2.2390 -1.7530 0.2572 0 1
6.4389 2.2530 -1.7527 0.2573 0 1
6.4328 2.2671 -1.7524 0.2573 0 1
6.4266 2.2812 -1.7521 0.2573 0 1
6.4204 2.2952 -1.7518 0.2574 0 1
6.4141 2.3092 -1.7516 0.2574 0 1
6.4079 2.3232 -1.7513 0.2575 0 1
6.4016 2.3372 -1.7510 0.2575 0 1
6.3953 2.3512 -1.7507 0.2576 0 1
6.3890 2.3652 -1.7504 0.2576 0 1
6.3826 2.3791 -1.7501 0.2576 0 1
6.3762 2.3930 -1.7498 0.2577 0 1
6.3698 2.4069 -1.7495 0.2577 0 1
6.3633 2.4208 -1.7492 0.2578 0 1
6.3568 2.4346 -1.7490 0.2578 0 1
6.3503 2.4486 -1.7487 0.2579 0 1
6.3437 2.4624 -1.7484 0.2579 0 1
6.3371 2.4762 -1.7481 0.2579 0 1
6.3305 2.4900 -1.7478 0.2580 0 1
6.3239 2.5038 -1.7475 0.2580 0 1
6.3172 2.5175 -1.7472 0.2581 0 1
6.3106 2.5313 -1.7470 0.2581 0 1
6.3038 2.5450 -1.7467 0.2582 0 1
6.2971 2.5588 -1.7464 0.2582 0 1
6.2903 2.5725 -1.7461 0.2582 0 1
6.2835 2.5862 -1.7458 0.2583 0 1
6.2767 2.5998 -1.7455 0.2583 0 1
6.2698 2.6135 -1.7453 0.2584 0 1
6.2629 2.6271 -1.7450 0.2584 0 1
6.2560 2.6408 -1.7447 0.2584 0 1
6.2491 2.6544 -1.7444 0.2585 0 1
6.2421 2.6680 -1.7441 0.2585 0 1
6.2350 2.6816 -1.7439 0.2586 0 1
6.2280 2.6950 -1.7436 0.2586 0 1
6.2210 2.7086 -1.7433 0.2587 0 1
6.2139 2.7222 -1.7430 0.2587 0 1
6.2068 2.7357 -1.7428 0.2587 0 1
6.1996 2.7491 -1.7425 0.2588 0 1
6.1925 2.7626 -1.7422 0.2588 0 1
6.1853 2.7761 -1.7419 0.2589 0 1
6.1781 2.7895 -1.7416 0.2589 0 1
6.1708 2.8029 -1.7414 0.2589 0 1
6.1635 2.8163 -1.7411 0.2590 0 1
6.1562 2.8296 -1.7408 0.2590 0 1
6.1488 2.8430 -1.7405 0.2591 0 1
6.1415 2.8564 -1.7403 0.2591 0 1
6.1341 2.8697 -1.7400 0.2591 0 1
6.1267 2.8830 -1.7397 0.2592 0 1
6.1193 2.8963 -1.7395 0.2592 0 1
6.1118 2.9096 -1.7392 0.2593 0 1
6.1043 2.9229 -1.7389 0.2593 0 1
6.0968 2.9361 -1.7386 0.2593 0 1
6.0893 2.9493 -1.7384 0.2594 0 1
6.0816 2.9625 -1.7381 0.2594 0 1
6.0741 2.9756 -1.7378 0.2595 0 1
6.0664 2.9888 -1.7376 0.2595 0 1
6.0587 3.0019 -1.7373 0.2595 0 1
6.0510 3.0150 -1.7370 0.2596 0 1
6.0433 3.0281 -1.7368 0.2596 0 1
6.0356 3.0412 -1.7365 0.2597 0 1
6.0278 3.0543 -1.7362 0.2597 0 1
6.0200 3.0673 -1.7359 0.2597 0 1
6.0122 3.0804 -1.7357 0.2598 0 1
6.0043 3.0934 -1.7354 0.2598 0 1
5.9965 3.1064 -1.7352 0.2599 0 1
5.9886 3.1194 -1.7349 0.2599 0 1
5.9807 3.1323 -1.7346 0.2599 0 1
5.9727 3.1452 -1.7344 0.2600 0 1
5.9647 3.1582 -1.7341 0.2600 0 1
5.9567 3.1711 -1.7338 0.2601 0 1
5.9487 3.1839 -1.7336 0.2601 0 1
5.9406 3.1968 -1.7333 0.2601 0 1
5.9325 3.2096 -1.7330 0.2602 0 1
5.9244 3.2225 -1.7328 0.2602 0 1
5.9163 3.2353 -1.7325 0.2603 0 1
5.9081 3.2480 -1.7323 0.2603 0 1
5.9000 3.2607 -1.7320 0.2603 0 1
5.8917 3.2735 -1.7317 0.2604 0 1
5.8835 3.2862 -1.7315 0.2604 0 1
5.8753 3.2989 -1.7312 0.2605 0 1
5.8670 3.3116 -1.7310 0.2605 0 1
5.8586 3.3243 -1.7307 0.2605 0 1
5.8503 3.3369 -1.7305 0.2606 0 1
5.8419 3.3496 -1.7302 0.2606 0 1
5.8335 3.3621 -1.7299 0.2606 0 1
5.8251 3.3747 -1.7297 0.2607 0 1
5.8166 3.3873 -1.7294 0.2607 0 1
5.8081 3.3998 -1.7292 0.2608 0 1
5.7997 3.4123 -1.7289 0.2608 0 1
5.7911 3.4249 -1.7287 0.2608 0 1
5.7826 3.4373 -1.7284 0.2609 0 1
5.7741 3.4498 -1.7282 0.2609 0 1
5.7654 3.4623 -1.7279 0.2610 0 1
5.7568 3.4747 -1.7277 0.2610 0 1
5.7482 3.4871 -1.7274 0.2610 0 1
5.7395 3.4995 -1.7272 0.2611 0 1
5.7308 3.5118 -1.7269 0.2611 0 1
5.7221 3.5241 -1.7267 0.2611 0 1
5.7133 3.5364 -1.7264 0.2612 0 1
5.7045 3.5488 -1.7262 0.2612 0 1
5.6957 3.5611 -1.7259 0.2613 0 1
5.6869 3.5733 -1.7257 0.2613 0 1
5.6781 3.5855 -1.7254 0.2613 0 1
5.6692 3.5978 -1.7252 0.2614 0 1
5.6603 3.6100 -1.7249 0.2614 0 1
5.6514 3.6221 -1.7247 0.2614 0 1
5.6424 3.6343 -1.7244 0.2615 0 1
5.6335 3.6464 -1.7242 0.2615 0 1
5.6245 3.6586 -1.7239 0.2616 0 1
5.6155 3.6706 -1.7237 0.2616 0 1
5.6065 3.6827 -1.7234 0.2616 0 1
5.5974 3.6948 -1.7232 0.2617 0 1
5.5883 3.7068 -1.7230 0.2617 0 1
5.5791 3.7188 -1.7227 0.2617 0 1
5.5700 3.7308 -1.7225 0.2618 0 1
5.5608 3.7428 -1.7222 0.2618 0 1
5.5516 3.7547 -1.7220 0.2619 0 1
5.5424 3.7666 -1.7218 0.2619 0 1
5.5332 3.7786 -1.7215 0.2619 0 1
5.5239 3.7904 -1.7213 0.2620 0 1
5.5146 3.8023 -1.7210 0.2620 0 1
5.5054 3.8141 -1.7208 0.2620 0 1
5.4961 3.8259 -1.7206 0.2621 0 1
5.4867 3.8377 -1.7203 0.2621 0 1
5.4773 3.8495 -1.7201 0.2621 0 1
5.4679 3.8612 -1.7199 0.2622 0 1
5.4584 3.8730 -1.7196 0.2622 0 1
5.4490 3.8847 -1.7194 0.2622 0 1
5.4395 3.8964 -1.7191 0.2623 0 1
5.4300 3.9080 -1.7189 0.2623 0 1
5.4205 3.9196 -1.7187 0.2624 0 1
5.4109 3.9312 -1.7184 0.2624 0 1
5.4014 3.9429 -1.7182 0.2624 0 1
5.3918 3.9545 -1.7180 0.2625 0 1
5.3822 3.9660 -1.7177 0.2625 0 1
5.3726 3.9775 -1.7175 0.2625 0 1
5.3629 3.9890 -1.7173 0.2626 0 1
5.3532 4.0005 -1.7171 0.2626 0 1
5.3435 4.0120 -1.7168 0.2626 0 1
5.3338 4.0234 -1.7166 0.2627 0 1
5.3240 4.0348 -1.7164 0.2627 0 1
5.3143 4.0462 -1.7161 0.2627 0 1
5.3045 4.0577 -1.7159 0.2628 0 1
5.2947 4.0690 -1.7157 0.2628 0 1
5.2848 4.0804 -1.7155 0.2628 0 1
5.2749 4.0916 -1.7152 0.2629 0 1
5.2651 4.1029 -1.7150 0.2629 0 1
5.2552 4.1142 -1.7148 0.2630 0 1
5.2452 4.1254 -1.7146 0.2630 0 1
5.2353 4.1366 -1.7143 0.2630 0 1
5.2253 4.1479 -1.7141 0.2631 0 1
5.2153 4.1591 -1.7139 0.2631 0 1
5.2053 4.1702 -1.7137 0.2631 0 1
5.1952 4.1813 -1.7134 0.2632 0 1
5.1851 4.1924 -1.7132 0.2632 0 1
5.1750 4.2035 -1.7130 0.2632 0 1
5.1650 4.2146 -1.7128 0.2633 0 1
5.1548 4.2256 -1.7126 0.2633 0 1
5.1447 4.2366 -1.7123 0.2633 0 1
5.1345 4.2476 -1.7121 0.2634 0 1
5.1243 4.2586 -1.7119 0.2634 0 1
5.1141 4.2695 -1.7117 0.2634 0 1
5.1038 4.2804 -1.7115 0.2635 0 1
5.0936 4.2914 -1.7113 0.2635 0 1
5.0833 4.3022 -1.7110 0.2635 0 1
5.0730 4.3131 -1.7108 0.2636 0 1
5.0627 4.3239 -1.7106 0.2636 0 1
5.0523 4.3347 -1.7104 0.2636 0 1
5.0420 4.3455 -1.7102 0.2637 0 1
5.0315 4.3563 -1.7100 0.2637 0 1
5.0211 4.3670 -1.7098 0.2637 0 1
5.0107 4.3777 -1.7095 0.2638 0 1
5.0003 4.3884 -1.7093 0.2638 0 1
4.9898 4.3991 -1.7091 0.2638 0 1
4.9793 4.4097 -1.7089 0.2639 0 1
4.9688 4.4204 -1.7087 0.2639 0 1
4.9582 4.4309 -1.7085 0.2639 0 1
4.9477 4.4415 -1.7083 0.2640 0 1
4.9371 4.4521 -1.7081 0.2640 0 1
4.9264 4.4626 -1.7079 0.2640 0 1
4.9158 4.4731 -1.7077 0.2640 0 1
4.9052 4.4836 -1.7075 0.2641 0 1
4.8945 4.4940 -1.7073 0.2641 0 1
4.8839 4.5044 -1.7070 0.2641 0 1
4.8732 4.5148 -1.7068 0.2642 0 1
4.8625 4.5252 -1.7066 0.2642 0 1
4.8517 4.5355 -1.7064 0.2642 0 1
4.8409 4.5459 -1.7062 0.2643 0 1
4.8301 4.5562 -1.7060 0.2643 0 1
4.8193 4.5665 -1.7058 0.2643 0 1
4.8085 4.5768 -1.7056 0.2644 0 1
4.7976 4.5870 -1.7054 0.2644 0 1
4.7868 4.5972 -1.7052 0.2644 0 1
4.7759 4.6074 -1.7050 0.2645 0 1
4.7650 4.6176 -1.7048 0.2645 0 1
4.7541 4.6277 -1.7046 0.2645 0 1
4.7431 4.6378 -1.7044 0.2646 0 1
4.7322 4.6479 -1.7042 0.2646 0 1
4.7212 4.6580 -1.7040 0.2646 0 1
4.7102 4.6680 -1.7038 0.2646 0 1
4.6991 4.6780 -1.7036 0.2647 0 1
5.0900 -5.0900 -1.9129 0.2433 0 1
5.1007 -5.0779 -1.9126 0.2433 0 1
5.1113 -5.0657 -1.9123 0.2433 0 1
5.1219 -5.0534 -1.9121 0.2434 0 1
5.1325 -5.0412 -1.9118 0.2434 0 1
5.1430 -5.0289 -1.9115 0.2435 0 1
5.1535 -5.0166 -1.9112 0.2435 0 1
5.1640 -5.0043 -1.9109 0.2435 0 1
5.1745 -4.9920 -1.9106 0.2436 0 1
5.1849 -4.9796 -1.9104 0.2436 0 1
5.1952 -4.9672 -1.9101 0.2436 0 1
5.2056 -4.9548 -1.9098 0.2437 0 1
5.2159 -4.9423 -1.9095 0.2437 0 1
5.2262 -4.9299 -1.9092 0.2437 0 1
5.2365 -4.9174 -1.9089 0.2438 0 1
5.2467 -4.9049 -1.9086 0.2438 0 1
5.2569 -4.8924 -1.9084 0.2439 0 1
5.2671 -4.8798 -1.9081 0.2439 0 1
5.2772 -4.8673 -1.9078 0.2439 0 1
5.2874 -4.8547 -1.9075 0.2440 0 1
5.2975 -4.8421 -1.9072 0.2440 0 1
5.3075 -4.8295 -1.9069 0.2440 0 1
5.3175 -4.8168 -1.9066 0.2441 0 1
5.3275 -4.8041 -1.9063 0.2441 0 1
5.3374 -4.7914 -1.9060 0.2442 0 1
5.3473 -4.7787 -1.9058 0.2442 0 1
5.3573 -4.7660 -1.9055 0.2442 0 1
5.3671 -4.7532 -1.9052 0.2443 0 1
5.3770 -4.7405 -1.9049 0.2443 0 1
5.3867 -4.7276 -1.9046 0.2443 0 1
5.3965 -4.7148 -1.9043 0.2444 0 1
5.4062 -4.7020 -1.9040 0.2444 0 1
5.4159 -4.6891 -1.9037 0.2445 0 1
5.4256 -4.6762 -1.9034 0.2445 0 1
5.4352 -4.6633 -1.9031 0.2445 0 1
5.4449 -4.6504 -1.9028 0.2446 0 1
5.4544 -4.6374 -1.9025 0.2446 0 1
5.4639 -4.6245 -1.9022 0.2446 0 1
5.4735 -4.6115 -1.9019 0.2447 0 1
5.4829 -4.5984 -1.9016 0.2447 0 1
5.4924 -4.5854 -1.9013 0.2448 0 1
5.5018 -4.5724 -1.9011 0.2448 0 1
5.5113 -4.5593 -1.9008 0.2448 0 1
5.5206 -4.5462 -1.9005 0.2449 0 1
5.5299 -4.5331 -1.9002 0.2449 0 1
5.5392 -4.5200 -1.8999 0.2449 0 1
5.5484 -4.5068 -1.8996 0.2450 0 1
5.5576 -4.4937 -1.8993 0.2450 0 1
5.5669 -4.4805 -1.8990 0.2451 0 1
5.5760 -4.4673 -1.8987 0.2451 0 1
5.5851 -4.4541 -1.8984 0.2451 0 1
5.5942 -4.4408 -1.8981 0.2452 0 1
5.6033 -4.4275 -1.8978 0.2452 0 1
5.6123 -4.4143 -1.8975 0.2453 0 1
5.6213 -4.4009 -1.8972 0.2453 0 1
5.6303 -4.3876 -1.8969 0.2453 0 1
5.6392 -4.3743 -1.8966 0.2454 0 1
5.6481 -4.3609 -1.8962 0.2454 0 1
5.6570 -4.3475 -1.8959 0.2455 0 1
5.6658 -4.3341 -1.8956 0.2455 0 1
5.6746 -4.3207 -1.8953 0.2455 0 1
5.6834 -4.3073 -1.8950 0.2456 0 1
5.6921 -4.2938 -1.8947 0.2456 0 1
5.7008 -4.2804 -1.8944 0.2456 0 1
5.7095 -4.2669 -1.8941 0.2457 0 1
5.7181 -4.2533 -1.8938 0.2457 0 1
5.7267 -4.2398 -1.8935 0.2458 0 1
5.7353 -4.2263 -1.8932 0.2458 0 1
5.7438 -4.2127 -1.8929 0.2458 0 1
5.7524 -4.1991 -1.8926 0.2459 0 1
5.7608 -4.1855 -1.8923 0.2459 0 1
5.7693 -4.1719 -1.8920 0.2460 0 1
5.7777 -4.1583 -1.8917 0.2460 0 1
5.7861 -4.1446 -1.8914 0.2460 0 1
5.7944 -4.1309 -1.8911 0.2461 0 1
5.8027 -4.1173 -1.8907 0.2461 0 1
5.8110 -4.1036 -1.8904 0.2462 0 1
5.8192 -4.0898 -1.8901 0.2462 0 1
5.8275 -4.0761 -1.8898 0.2462 0 1
5.8356 -4.0624 -1.8895 0.2463 0 1
5.8438 -4.0486 -1.8892 0.2463 0 1
5.8518 -4.0348 -1.8889 0.2464 0 1
5.8599 -4.0210 -1.8886 0.2464 0 1
5.8680 -4.0072 -1.8883 0.2464 0 1
5.8760 -3.9934 -1.8880 0.2465 0 1
5.8839 -3.9795 -1.8876 0.2465 0 1
5.8919 -3.9657 -1.8873 0.2466 0 1
5.8998 -3.9517 -1.8870 0.2466 0 1
5.9077 -3.9379 -1.8867 0.2467 0 1
5.9155 -3.9239 -1.8864 0.2467 0 1
5.9233 -3.9100 -1.8861 0.2467 0 1
5.9311 -3.8961 -1.8858 0.2468 0 1
5.9388 -3.8821 -1.8855 0.2468 0 1
5.9466 -3.8681 -1.8851 0.2469 0 1
5.9542 -3.8541 -1.8848 0.2469 0 1
5.9619 -3.8400 -1.8845 0.2469 0 1
5.9695 -3.8260 -1.8842 0.2470 0 1
5.9770 -3.8120 -1.8839 0.2470 0 1
5.9846 -3.7979 -1.8836 0.2471 0 1
5.9921 -3.7839 -1.8832 0.2471 0 1
5.9995 -3.7698 -1.8829 0.2471 0 1
6.0070 -3.7557 -1.8826 0.2472 0 1
6.0144 -3.7415 -1.8823 0.2472 0 1
6.0217 -3.7274 -1.8820 0.2473 0 1
6.0291 -3.7132 -1.8817 0.2473 0 1
6.0364 -3.6991 -1.8813 0.2474 0 1
6.0437 -3.6849 -1.8810 0.2474 0 1
6.0509 -3.6707 -1.8807 0.2474 0 1
6.0581 -3.6565 -1.8804 0.2475 0 1
6.0652 -3.6423 -1.8801 0.2475 0 1
6.0723 -3.6280 -1.8798 0.2476 0 1
6.0795 -3.6138 -1.8794 0.2476 0 1
6.0865 -3.5995 -1.8791 0.2476 0 1
6.0936 -3.5853 -1.8788 0.2477 0 1
6.1005 -3.5710 -1.8785 0.2477 0 1
6.1075 -3.5567 -1.8782 0.2478 0 1
6.1144 -3.5424 -1.8778 0.2478 0 1
6.1213 -3.5280 -1.8775 0.2479 0 1
6.1282 -3.5137 -1.8772 0.2479 0 1
6.1350 -3.4993 -1.8769 0.2479 0 1
6.1418 -3.4850 -1.8766 0.2480 0 1
6.1485 -3.4706 -1.8762 0.2480 0 1
6.1553 -3.4562 -1.8759 0.2481 0 1
6.1619 -3.4418 -1.8756 0.2481 0 1
6.1686 -3.4273 -1.8753 0.2482 0 1
6.1752 -3.4129 -1.8750 0.2482 0 1
6.1818 -3.3985 -1.8746 0.2482 0 1
6.1883 -3.3840 -1.8743 0.2483 0 1
6.1948 -3.3695 -1.8740 0.2483 0 1
6.2013 -3.3551 -1.8737 0.2484 0 1
6.2078 -3.3405 -1.8733 0.2484 0 1
6.2142 -3.3261 -1.8730 0.2485 0 1
6.2205 -3.3115 -1.8727 0.2485 0 1
6.2269 -3.2970 -1.8724 0.2485 0 1
6.2331 -3.2824 -1.8720 0.2486 0 1
6.2395 -3.2679 -1.8717 0.2486 0 1
6.2457 -3.2533 -1.8714 0.2487 0 1
6.2519 -3.2387 -1.8711 0.2487 0 1
6.2580 -3.2241 -1.8708 0.2488 0 1
6.2642 -3.2095 -1.8704 0.2488 0 1
6.2703 -3.1948 -1.8701 0.2488 0 1
6.2763 -3.1802 -1.8698 0.2489 0 1
6.2824 -3.1656 -1.8695 0.2489 0 1
6.2883 -3.1510 -1.8691 0.2490 0 1
6.2943 -3.1363 -1.8688 0.2490 0 1
6.3003 -3.1216 -1.8685 0.2491 0 1
6.3061 -3.1069 -1.8682 0.2491 0 1
6.3120 -3.0922 -1.8678 0.2491 0 1
6.3178 -3.0775 -1.8675 0.2492 0 1
6.3236 -3.0628 -1.8672 0.2492 0 1
6.3293 -3.0480 -1.8668 0.2493 0 1
6.3350 -3.0333 -1.8665 0.2493 0 1
6.3407 -3.0186 -1.8662 0.2494 0 1
6.3464 -3.0038 -1.8659 0.2494 0 1
6.3520 -2.9891 -1.8655 0.2495 0 1
6.3575 -2.9742 -1.8652 0.2495 0 1
6.3631 -2.9595 -1.8649 0.2495 0 1
6.3686 -2.9446 -1.8646 0.2496 0 1
6.3741 -2.9298 -1.8642 0.2496 0 1
6.3795 -2.9150 -1.8639 0.2497 0 1
6.3849 -2.9002 -1.8636 0.2497 0 1
6.3903 -2.8854 -1.8632 0.2498 0 1
6.3956 -2.8705 -1.8629 0.2498 0 1
6.4009 -2.8557 -1.8626 0.2498 0 1
6.4062 -2.8407 -1.8623 0.2499 0 1
6.4114 -2.8259 -1.8619 0.2499 0 1
6.4166 -2.8110 -1.8616 0.2500 0 1
6.4218 -2.7960 -1.8613 0.2500 0 1
6.4269 -2.7812 -1.8609 0.2501 0 1
6.4320 -2.7662 -1.8606 0.2501 0 1
6.4370 -2.7513 -1.8603 0.2502 0 1
6.4420 -2.7364 -1.8599 0.2502 0 1
6.4470 -2.7214 -1.8596 0.2502 0 1
6.4519 -2.7064 -1.8593 0.2503 0 1
6.4569 -2.6915 -1.8590 0.2503 0 1
6.4617 -2.6765 -1.8586 0.2504 0 1
6.4666 -2.6616 -1.8583 0.2504 0 1
6.4714 -2.6466 -1.8580 0.2505 0 1
6.4761 -2.6316 -1.8576 0.2505 0 1
6.4809 -2.6166 -1.8573 0.2506 0 1
6.4856 -2.6016 -1.8570 0.2506 0 1
6.4903 -2.5866 -1.8566 0.2506 0 1
6.4949 -2.5715 -1.8563 0.2507 0 1
6.4995 -2.5565 -1.8560 0.2507 0 1
6.5041 -2.5414 -1.8557 0.2508 0 1
6.5086 -2.5264 -1.8553 0.2508 0 1
6.5130 -2.5114 -1.8550 0.2509 0 1
6.5175 -2.4963 -1.8547 0.2509 0 1
6.5219 -2.4812 -1.8543 0.2510 0 1
6.5263 -2.4661 -1.8540 0.2510 0 1
6.5307 -2.4510 -1.8537 0.2511 0 1
6.5350 -2.4360 -1.8533 0.2511 0 1
6.5393 -2.4208 -1.8530 0.2511 0 1
6.5435 -2.4057 -1.8527 0.2512 0 1
6.5477 -2.3906 -1.8523 0.2512 0 1
6.5519 -2.3755 -1.8520 0.2513 0 1
6.5560 -2.3604 -1.8517 0.2513 0 1
6.5601 -2.3452 -1.8513 0.2514 0 1
6.5642 -2.3300 -1.8510 0.2514 0 1
6.5682 -2.3149 -1.8507 0.2515 0 1
6.5722 -2.2998 -1.8503 0.2515 0 1
6.5762 -2.2846 -1.8500 0.2515 0 1
6.5801 -2.2694 -1.8497 0.2516 0 1
6.5840 -2.2543 -1.8493 0.2516 0 1
6.5879 -2.2391 -1.8490 0.2517 0 1
6.5916 -2.2238 -1.8487 0.2517 0 1
6.5955 -2.2086 -1.8483 0.2518 0 1
6.5992 -2.1935 -1.8480 0.2518 0 1
6.6029 -2.1783 -1.8477 0.2519 0 1
6.6066 -2.1630 -1.8473 0.2519 0 1
6.6102 -2.1478 -1.8470 0.2520 0 1
6.6139 -2.1326 -1.8467 0.2520 0 1
6.6174 -2.1174 -1.8463 0.2520 0 1
6.6210 -2.1021 -1.8460 0.2521 0 1
6.6245 -2.0869 -1.8457 0.2521 0 1
6.6279 -2.0716 -1.8453 0.2522 0 1
6.6313 -2.0564 -1.8450 0.2522 0 1
6.6347 -2.0412 -1.8447 0.2523 0 1
6.6381 -2.0259 -1.8443 0.2523 0 1
6.6414 -2.0107 -1.8440 0.2524 0 1
6.6447 -1.9954 -1.8437 0.2524 0 1
6.6480 -1.9801 -1.8433 0.2525 0 1
6.6512 -1.9648 -1.8430 0.2525 0 1
6.6544 -1.9496 -1.8427 0.2525 0 1
6.6575 -1.9343 -1.8423 0.2526 0 1
6.6607 -1.9189 -1.8420 0.2526 0 1
6.6637 -1.9036 -1.8417 0.2527 0 1
6.6668 -1.8884 -1.8413 0.2527 0 1
6.6698 -1.8730 -1.8410 0.2528 0 1
6.6728 -1.8577 -1.8407 0.2528 0 1
6.6757 -1.8424 -1.8403 0.2529 0 1
6.6786 -1.8271 -1.8400 0.2529 0 1
6.6815 -1.8118 -1.8397 0.2530 0 1
6.6843 -1.7964 -1.8393 0.2530 0 1
6.6871 -1.7811 -1.8390 0.2531 0 1
6.6899 -1.7658 -1.8387 0.2531 0 1
6.6926 -1.7505 -1.8383 0.2531 0 1
6.6953 -1.7351 -1.8380 0.2532 0 1
6.6980 -1.7198 -1.8377 0.2532 0 1
6.7006 -1.7044 -1.8373 0.2533 0 1
6.7032 -1.6891 -1.8370 0.2533 0 1
6.7057 -1.6737 -1.8366 0.2534 0 1
6.7083 -1.6584 -1.8363 0.2534 0 1
6.7108 -1.6430 -1.8360 0.2535 0 1
6.7132 -1.6277 -1.8356 0.2535 0 1
6.7156 -1.6123 -1.8353 0.2536 0 1
6.7179 -1.5970 -1.8350 0.2536 0 1
6.7202 -1.5816 -1.8346 0.2537 0 1
6.7226 -1.5662 -1.8343 0.2537 0 1
6.7249 -1.5508 -1.8340 0.2537 0 1
6.7271 -1.5354 -1.8336 0.2538 0 1
6.7293 -1.5201 -1.8333 0.2538 0 1
6.7315 -1.5047 -1.8330 0.2539 0 1
6.7336 -1.4893 -1.8326 0.2539 0 1
6.7357 -1.4739 -1.8323 0.2540 0 1
6.7377 -1.4586 -1.8320 0.2540 0 1
6.7398 -1.4432 -1.8316 0.2541 0 1
6.7418 -1.4278 -1.8313 0.2541 0 1
6.7437 -1.4123 -1.8310 0.2542 0 1
6.7456 -1.3970 -1.8306 0.2542 0 1
6.7475 -1.3816 -1.8303 0.2543 0 1
6.7494 -1.3662 -1.8300 0.2543 0 1
6.7512 -1.3508 -1.8296 0.2543 0 1
6.7530 -1.3354 -1.8293 0.2544 0 1
6.7547 -1.3200 -1.8290 0.2544 0 1
6.7564 -1.3046 -1.8286 0.2545 0 1
6.7581 -1.2892 -1.8283 0.2545 0 1
6.7598 -1.2738 -1.8280 0.2546 0 1
6.7614 -1.2584 -1.8276 0.2546 0 1
6.7630 -1.2430 -1.8273 0.2547 0 1
6.7645 -1.2276 -1.8270 0.2547 0 1
6.7660 -1.2122 -1.8266 0.2548 0 1
6.7675 -1.1968 -1.8263 0.2548 0 1
6.7689 -1.1814 -1.8260 0.2549 0 1
6.7703 -1.1660 -1.8256 0.2549 0 1
6.7716 -1.1506 -1.8253 0.2550 0 1
6.7730 -1.1352 -1.8250 0.2550 0 1
6.7743 -1.1198 -1.8246 0.2550 0 1
6.7755 -1.1043 -1.8243 0.2551 0 1
6.7767 -1.0889 -1.8240 0.2551 0 1
6.7780 -1.0736 -1.8236 0.2552 0 1
6.7791 -1.0581 -1.8233 0.2552 0 1
6.7802 -1.0427 -1.8230 0.2553 0 1
6.7812 -1.0273 -1.8226 0.2553 0 1
6.7823 -1.0119 -1.8223 0.2554 0 1
6.7833 -0.9965 -1.8220 0.2554 0 1
6.7843 -0.9811 -1.8216 0.2555 0 1
6.7852 -0.9657 -1.8213 0.2555 0 1
6.7862 -0.9503 -1.8210 0.2556 0 1
6.7871 -0.9349 -1.8206 0.2556 0 1
6.7879 -0.9195 -1.8203 0.2557 0 1
6.7887 -0.9041 -1.8200 0.2557 0 1
6.7894 -0.8887 -1.8196 0.2557 0 1
6.7902 -0.8733 -1.8193 0.2558 0 1
6.7909 -0.8579 -1.8190 0.2558 0 1
6.7916 -0.8425 -1.8186 0.2559 0 1
6.7922 -0.8271 -1.8183 0.2559 0 1
6.7928 -0.8118 -1.8180 0.2560 0 1
6.7934 -0.7963 -1.8176 0.2560 0 1
6.7939 -0.7809 -1.8173 0.2561 0 1
6.7944 -0.7655 -1.8170 0.2561 0 1
6.7949 -0.7502 -1.8166 0.2562 0 1
6.7953 -0.7348 -1.8163 0.2562 0 1
6.7957 -0.7194 -1.8160 0.2563 0 1
6.7961 -0.7040 -1.8157 0.2563 0 1
6.7964 -0.6887 -1.8153 0.2564 0 1
6.7966 -0.6733 -1.8150 0.2564 0 1
6.7969 -0.6579 -1.8147 0.2564 0 1
6.7971 -0.6425 -1.8143 0.2565 0 1
6.7973 -0.6272 -1.8140 0.2565 0 1
6.7975 -0.6118 -1.8137 0.2566 0 1
6.7976 -0.5964 -1.8133 0.2566 0 1
6.7977 -0.5811 -1.8130 0.2567 0 1
6.7978 -0.5657 -1.8127 0.2567 0 1
6.7978 -0.5504 -1.8123 0.2568 0 1
6.7977 -0.5350 -1.8120 0.2568 0 1
6.7976 -0.5196 -1.8117 0.2569 0 1
6.7975 -0.5043 -1.8114 0.2569 0 1
6.7974 -0.4889 -1.8110 0.2570 0 1
6.7972 -0.4736 -1.8107 0.2570 0 1
6.7971 -0.4583 -1.8104 0.2571 0 1
6.7969 -0.4429 -1.8100 0.2571 0 1
6.7966 -0.4276 -1.8097 0.2571 0 1
6.7963 -0.4123 -1.8094 0.2572 0 1
6.7960 -0.3970 -1.8091 0.2572 0 1
6.7956 -0.3816 -1.8087 0.2573 0 1
6.7952 -0.3663 -1.8084 0.2573 0 1
6.7948 -0.3510 -1.8081 0.2574 0 1
6.7944 -0.3357 -1.8077 0.2574 0 1
6.7939 -0.3204 -1.8074 0.2575 0 1
6.7933 -0.3051 -1.8071 0.2575 0 1
6.7928 -0.2898 -1.8068 0.2576 0 1
6.7921 -0.2745 -1.8064 0.2576 0 1
6.7915 -0.2593 -1.8061 0.2577 0 1
6.7909 -0.2439 -1.8058 0.2577 0 1
6.7902 -0.2286 -1.8054 0.2578 0 1
6.7894 -0.2134 -1.8051 0.2578 0 1
6.7887 -0.1981 -1.8048 0.2578 0 1
6.7879 -0.1828 -1.8045 0.2579 0 1
6.7871 -0.1676 -1.8041 0.2579 0 1
6.7862 -0.1523 -1.8038 0.2580 0 1
6.7852 -0.1371 -1.8035 0.2580 0 1
6.7842 -0.1218 -1.8032 0.2581 0 1
6.7833 -0.1066 -1.8028 0.2581 0 1
6.7823 -0.0914 -1.8025 0.2582 0 1
6.7813 -0.0761 -1.8022 0.2582 0 1
6.7802 -0.0609 -1.8019 0.2583 0 1
6.7791 -0.0457 -1.8015 0.2583 0 1
6.7780 -0.0305 -1.8012 0.2584 0 1
6.7768 -0.0152 -1.8009 0.2584 0 1
6.7756 -0.0000 -1.8006 0.2585 0 1
6.7744 0.0152 -1.8002 0.2585 0 1
6.7731 0.0304 -1.7999 0.2585 0 1
6.7718 0.0455 -1.7996 0.2586 0 1
6.7705 0.0607 -1.7993 0.2586 0 1
6.7691 0.0759 -1.7989 0.2587 0 1
6.7677 0.0911 -1.7986 0.2587 0 1
6.7662 0.1062 -1.7983 0.2588 0 1
6.7647 0.1214 -1.7980 0.2588 0 1
6.7632 0.1366 -1.7976 0.2589 0 1
6.7617 0.1518 -1.7973 0.2589 0 1
6.7602 0.1669 -1.7970 0.2590 0 1
6.7586 0.1820 -1.7967 0.2590 0 1
6.7569 0.1971 -1.7964 0.2591 0 1
6.7552 0.2123 -1.7960 0.2591 0 1
6.7536 0.2273 -1.7957 0.2592 0 1
6.7518 0.2425 -1.7954 0.2592 0 1
6.7500 0.2576 -1.7951 0.2592 0 1
6.7482 0.2727 -1.7947 0.2593 0 1
6.7464 0.2878 -1.7944 0.2593 0 1
6.7445 0.3029 -1.7941 0.2594 0 1
6.7426 0.3179 -1.7938 0.2594 0 1
6.7407 0.3330 -1.7935 0.2595 0 1
6.7387 0.3480 -1.7931 0.2595 0 1
6.7367 0.3631 -1.7928 0.2596 0 1
6.7347 0.3782 -1.7925 0.2596 0 1
6.7326 0.3932 -1.7922 0.2597 0 1
6.7305 0.4083 -1.7919 0.2597 0 1
6.7284 0.4233 -1.7915 0.2598 0 1
6.7262 0.4383 -1.7912 0.2598 0 1
6.7240 0.4534 -1.7909 0.2598 0 1
6.7218 0.4683 -1.7906 0.2599 0 1
6.7195 0.4833 -1.7903 0.2599 0 1
6.7172 0.4983 -1.7899 0.2600 0 1
6.7149 0.5133 -1.7896 0.2600 0 1
6.7125 0.5283 -1.7893 0.2601 0 1
6.7101 0.5432 -1.7890 0.2601 0 1
6.7078 0.5582 -1.7887 0.2602 0 1
6.7053 0.5732 -1.7884 0.2602 0 1
6.7027 0.5881 -1.7880 0.2603 0 1
6.7002 0.6030 -1.7877 0.2603 0 1
6.6977 0.6179 -1.7874 0.2604 0 1
6.6951 0.6329 -1.7871 0.2604 0 1
6.6925 0.6478 -1.7868 0.2604 0 1
6.6898 0.6627 -1.7865 0.2605 0 1
6.6871 0.6776 -1.7861 0.2605 0 1
6.6844 0.6924 -1.7858 0.2606 0 1
6.6817 0.7073 -1.7855 0.2606 0 1
6.6789 0.7222 -1.7852 0.2607 0 1
6.6761 0.7370 -1.7849 0.2607 0 1
6.6732 0.7519 -1.7846 0.2608 0 1
6.6704 0.7667 -1.7843 0.2608 0 1
6.6675 0.7816 -1.7839 0.2609 0 1
6.6645 0.7964 -1.7836 0.2609 0 1
6.6615 0.8111 -1.7833 0.2610 0 1
6.6585 0.8260 -1.7830 0.2610 0 1
6.6555 0.8408 -1.7827 0.2610 0 1
6.6525 0.8555 -1.7824 0.2611 0 1
6.6493 0.8704 -1.7821 0.2611 0 1
6.6462 0.8851 -1.7818 0.2612 0 1
6.6430 0.8998 -1.7814 0.2612 0 1
6.6398 0.9146 -1.7811 0.2613 0 1
6.6366 0.9293 -1.7808 0.2613 0 1
6.6333 0.9441 -1.7805 0.2614 0 1
6.6300 0.9588 -1.7802 0.2614 0 1
6.6267 0.9735 -1.7799 0.2615 0 1
6.6234 0.9882 -1.7796 0.2615 0 1
6.6200 1.0029 -1.7793 0.2615 0 1
6.6166 1.0175 -1.7790 0.2616 0 1
6.6131 1.0322 -1.7787 0.2616 0 1
6.6096 1.0469 -1.7783 0.2617 0 1
6.6061 1.0615 -1.7780 0.2617 0 1
6.6026 1.0761 -1.7777 0.2618 0 1
6.5990 1.0907 -1.7774 0.2618 0 1
6.5954 1.1054 -1.7771 0.2619 0 1
6.5918 1.1200 -1.7768 0.2619 0 1
6.5881 1.1346 -1.7765 0.2620 0 1
6.5844 1.1491 -1.7762 0.2620 0 1
6.5807 1.1637 -1.7759 0.2620 0 1
6.5769 1.1783 -1.7756 0.2621 0 1
6.5731 1.1928 -1.7753 0.2621 0 1
6.5693 1.2073 -1.7750 0.2622 0 1
6.5654 1.2218 -1.7747 0.2622 0 1
6.5615 1.2364 -1.7744 0.2623 0 1
6.5576 1.2509 -1.7741 0.2623 0 1
6.5536 1.2654 -1.7737 0.2624 0 1
6.5497 1.2798 -1.7734 0.2624 0 1
6.5457 1.2943 -1.7731 0.2625 0 1
6.5416 1.3088 -1.7728 0.2625 0 1
6.5375 1.3232 -1.7725 0.2625 0 1
6.5335 1.3377 -1.7722 0.2626 0 1
6.5293 1.3521 -1.7719 0.2626 0 1
6.5252 1.3666 -1.7716 0.2627 0 1
6.5209 1.3809 -1.7713 0.2627 0 1
6.5168 1.3954 -1.7710 0.2628 0 1
6.5125 1.4097 -1.7707 0.2628 0 1
6.5082 1.4241 -1.7704 0.2629 0 1
6.5038 1.4384 -1.7701 0.2629 0 1
6.4995 1.4528 -1.7698 0.2629 0 1
6.4952 1.4671 -1.7695 0.2630 0 1
6.4907 1.4814 -1.7692 0.2630 0 1
6.4863 1.4957 -1.7689 0.2631 0 1
6.4818 1.5100 -1.7686 0.2631 0 1
6.4773 1.5243 -1.7683 0.2632 0 1
6.4728 1.5386 -1.7680 0.2632 0 1
6.4682 1.5529 -1.7677 0.2633 0 1
6.4637 1.5671 -1.7674 0.2633 0 1
6.4590 1.5813 -1.7671 0.2633 0 1
6.4544 1.5956 -1.7668 0.2634 0 1
6.4497 1.6097 -1.7665 0.2634 0 1
6.4450 1.6240 -1.7662 0.2635 0 1
6.4402 1.6382 -1.7659 0.2635 0 1
6.4355 1.6523 -1.7656 0.2636 0 1
6.4307 1.6665 -1.7653 0.2636 0 1
6.4259 1.6806 -1.7650 0.2637 0 1
6.4209 1.6948 -1.7648 0.2637 0 1
6.4161 1.7089 -1.7645 0.2637 0 1
6.4111 1.7230 -1.7642 0.2638 0 1
6.4062 1.7371 -1.7639 0.2638 0 1
6.4012 1.7512 -1.7636 0.2639 0 1
6.3962 1.7652 -1.7633 0.2639 0 1
6.3912 1.7793 -1.7630 0.2640 0 1
6.3861 1.7933 -1.7627 0.2640 0 1
6.3810 1.8073 -1.7624 0.2641 0 1
6.3759 1.8214 -1.7621 0.2641 0 1
6.3707 1.8354 -1.7618 0.2641 0 1
6.3655 1.8493 -1.7615 0.2642 0 1
6.3603 1.8633 -1.7612 0.2642 0 1
6.3551 1.8773 -1.7609 0.2643 0 1
6.3498 1.8912 -1.7607 0.2643 0 1
6.3445 1.9052 -1.7604 0.2644 0 1
6.3391 1.9191 -1.7601 0.2644 0 1
6.3337 1.9330 -1.7598 0.2644 0 1
6.3283 1.9468 -1.7595 0.2645 0 1
6.3230 1.9607 -1.7592 0.2645 0 1
6.3175 1.9746 -1.7589 0.2646 0 1
6.3120 1.9884 -1.7586 0.2646 0 1
6.3066 2.0023 -1.7583 0.2647 0 1
6.3010 2.0161 -1.7581 0.2647 0 1
6.2954 2.0299 -1.7578 0.2647 0 1
6.2898 2.0437 -1.7575 0.2648 0 1
6.2842 2.0575 -1.7572 0.2648 0 1
6.2786 2.0712 -1.7569 0.2649 0 1
6.2729 2.0850 -1.7566 0.2649 0 1
6.2671 2.0987 -1.7563 0.2650 0 1
6.2614 2.1124 -1.7561 0.2650 0 1
6.2556 2.1261 -1.7558 0.2650 0 1
6.2498 2.1398 -1.7555 0.2651 0 1
6.2440 2.1534 -1.7552 0.2651 0 1
6.2381 2.1671 -1.7549 0.2652 0 1
6.2322 2.1808 -1.7546 0.2652 0 1
6.2263 2.1944 -1.7544 0.2653 0 1
6.2204 2.2080 -1.7541 0.2653 0 1
6.2145 2.2216 -1.7538 0.2653 0 1
6.2084 2.2352 -1.7535 0.2654 0 1
6.2024 2.2487 -1.7532 0.2654 0 1
6.1964 2.2623 -1.7529 0.2655 0 1
6.1903 2.2758 -1.7527 0.2655 0 1
6.1841 2.2893 -1.7524 0.2656 0 1
6.1781 2.3028 -1.7521 0.2656 0 1
6.1719 2.3163 -1.7518 0.2656 0 1
6.1657 2.3298 -1.7515 0.2657 0 1
6.1595 2.3432 -1.7513 0.2657 0 1
6.1533 2.3567 -1.7510 0.2658 0 1
6.1469 2.3701 -1.7507 0.2658 0 1
6.1406 2.3835 -1.7504 0.2659 0 1
6.1343 2.3969 -1.7502 0.2659 0 1
6.1279 2.4103 -1.7499 0.2659 0 1
6.1215 2.4237 -1.7496 0.2660 0 1
6.1151 2.4370 -1.7493 0.2660 0 1
6.1087 2.4504 -1.7491 0.2661 0 1
6.1022 2.4637 -1.7488 0.2661 0 1
6.0957 2.4770 -1.7485 0.2661 0 1
6.0892 2.4902 -1.7482 0.2662 0 1
6.0827 2.5035 -1.7480 0.2662 0 1
6.0761 2.5167 -1.7477 0.2663 0 1
6.0694 2.5300 -1.7474 0.2663 0 1
6.0628 2.5432 -1.7471 0.2664 0 1
6.0561 2.5564 -1.7469 0.2664 0 1
6.0494 2.5696 -1.7466 0.2664 0 1
6.0427 2.5827 -1.7463 0.2665 0 1
6.0359 2.5959 -1.7461 0.2665 0 1
6.0292 2.6090 -1.7458 0.2666 0 1
6.0224 2.6221 -1.7455 0.2666 0 1
6.0155 2.6352 -1.7452 0.2666 0 1
6.0087 2.6484 -1.7450 0.2667 0 1
6.0018 2.6614 -1.7447 0.2667 0 1
5.9949 2.6745 -1.7444 0.2668 0 1
5.9879 2.6875 -1.7442 0.2668 0 1
5.9810 2.7005 -1.7439 0.2669 0 1
5.9741 2.7135 -1.7436 0.2669 0 1
5.9670 2.7265 -1.7434 0.2669 0 1
5.9600 2.7395 -1.7431 0.2670 0 1
5.9529 2.7524 -1.7428 0.2670 0 1
5.9458 2.7654 -1.7426 0.2671 0 1
5.9387 2.7783 -1.7423 0.2671 0 1
5.9315 2.7911 -1.7420 0.2671 0 1
5.9243 2.8041 -1.7418 0.2672 0 1
5.9171 2.8169 -1.7415 0.2672 0 1
5.9099 2.8297 -1.7412 0.2673 0 1
5.9027 2.8426 -1.7410 0.2673 0 1
5.8954 2.8554 -1.7407 0.2673 0 1
5.8881 2.8682 -1.7405 0.2674 0 1
5.8807 2.8809 -1.7402 0.2674 0 1
5.8734 2.8937 -1.7399 0.2675 0 1
5.8660 2.9064 -1.7397 0.2675 0 1
5.8586 2.9191 -1.7394 0.2675 0 1
5.8511 2.9318 -1.7392 0.2676 0 1
5.8436 2.9445 -1.7389 0.2676 0 1
5.8361 2.9572 -1.7386 0.2677 0 1
5.8286 2.9698 -1.7384 0.2677 0 1
5.8211 2.9825 -1.7381 0.2677 0 1
5.8135 2.9951 -1.7379 0.2678 0 1
5.8059 3.0077 -1.7376 0.2678 0 1
5.7983 3.0202 -1.7373 0.2679 0 1
5.7906 3.0328 -1.7371 0.2679 0 1
5.7830 3.0454 -1.7368 0.2679 0 1
5.7753 3.0579 -1.7366 0.2680 0 1
5.7676 3.0703 -1.7363 0.2680 0 1
5.7598 3.0828 -1.7361 0.2681 0 1
5.7520 3.0952 -1.7358 0.2681 0 1
5.7443 3.1077 -1.7356 0.2681 0 1
5.7364 3.1202 -1.7353 0.2682 0 1
5.7286 3.1325 -1.7351 0.2682 0 1
5.7207 3.1449 -1.7348 0.2683 0 1
5.7128 3.1573 -1.7346 0.2683 0 1
5.7048 3.1696 -1.7343 0.2683 0 1
5.6969 3.1820 -1.7340 0.2684 0 1
5.6889 3.1943 -1.7338 0.2684 0 1
5.6809 3.2066 -1.7335 0.2684 0 1
5.6729 3.2189 -1.7333 0.2685 0 1
5.6648 3.2311 -1.7330 0.2685 0 1
5.6568 3.2434 -1.7328 0.2686 0 1
5.6487 3.2556 -1.7326 0.2686 0 1
5.6405 3.2678 -1.7323 0.2686 0 1
5.6324 3.2800 -1.7321 0.2687 0 1
5.6242 3.2921 -1.7318 0.2687 0 1
5.6160 3.3043 -1.7316 0.2688 0 1
5.6078 3.3164 -1.7313 0.2688 0 1
5.5995 3.3285 -1.7311 0.2688 0 1
5.5912 3.3406 -1.7308 0.2689 0 1
5.5829 3.3527 -1.7306 0.2689 0 1
5.5746 3.3647 -1.7303 0.2689 0 1
5.5663 3.3767 -1.7301 0.2690 0 1
5.5579 3.3887 -1.7298 0.2690 0 1
5.5495 3.4007 -1.7296 0.2691 0 1
5.5411 3.4127 -1.7294 0.2691 0 1
5.5326 3.4246 -1.7291 0.2691 0 1
5.5242 3.4366 -1.7289 0.2692 0 1
5.5157 3.4485 -1.7286 0.2692 0 1
5.5071 3.4604 -1.7284 0.2692 0 1
5.4986 3.4722 -1.7282 0.2693 0 1
5.4900 3.4841 -1.7279 0.2693 0 1
5.4814 3.4959 -1.7277 0.2694 0 1
5.4729 3.5077 -1.7274 0.2694 0 1
5.4642 3.5195 -1.7272 0.2694 0 1
5.4555 3.5313 -1.7270 0.2695 0 1
5.4468 3.5430 -1.7267 0.2695 0 1
5.4382 3.5548 -1.7265 0.2695 0 1
5.4294 3.5664 -1.7263 0.2696 0 1
5.4206 3.5781 -1.7260 0.2696 0 1
5.4119 3.5898 -1.7258 0.2697 0 1
5.4031 3.6014 -1.7255 0.2697 0 1
5.3943 3.6130 -1.7253 0.2697 0 1
5.3854 3.6247 -1.7251 0.2698 0 1
5.3765 3.6363 -1.7248 0.2698 0 1
5.3676 3.6479 -1.7246 0.2698 0 1
5.3587 3.6594 -1.7244 0.2699 0 1
5.3497 3.6709 -1.7241 0.2699 0 1
5.3408 3.6824 -1.7239 0.2699 0 1
5.3318 3.6939 -1.7237 0.2700 0 1
5.3228 3.7053 -1.7235 0.2700 0 1
5.3137 3.7167 -1.7232 0.2701 0 1
5.3046 3.7281 -1.7230 0.2701 0 1
5.2956 3.7396 -1.7228 0.2701 0 1
5.2865 3.7509 -1.7225 0.2702 0 1
5.2773 3.7623 -1.7223 0.2702 0 1
5.2682 3.7736 -1.7221 0.2702 0 1
5.2590 3.7849 -1.7219 0.2703 0 1
5.2498 3.7962 -1.7216 0.2703 0 1
5.2406 3.8075 -1.7214 0.2703 0 1
5.2313 3.8187 -1.7212 0.2704 0 1
5.2221 3.8300 -1.7210 0.2704 0 1
5.2128 3.8412 -1.7207 0.2704 0 1
5.2035 3.8524 -1.7205 0.2705 0 1
5.1941 3.8636 -1.7203 0.2705 0 1
5.1848 3.8746 -1.7201 0.2706 0 1
5.1754 3.8858 -1.7198 0.2706 0 1
5.1660 3.8969 -1.7196 0.2706 0 1
5.1566 3.9080 -1.7194 0.2707 0 1
5.1471 3.9191 -1.7192 0.2707 0 1
5.1377 3.9301 -1.7189 0.2707 0 1
5.1282 3.9411 -1.7187 0.2708 0 1
5.1187 3.9520 -1.7185 0.2708 0 1
5.1091 3.9630 -1.7183 0.2708 0 1
5.0996 3.9739 -1.7181 0.2709 0 1
5.0900 3.9850 -1.7179 0.2709 0 1
5.0804 3.9959 -1.7176 0.2709 0 1
5.0708 4.0067 -1.7174 0.2710 0 1
5.0612 4.0176 -1.7172 0.2710 0 1
5.0515 4.0284 -1.7170 0.2710 0 1
5.0418 4.0392 -1.7168 0.2711 0 1
5.0321 4.0500 -1.7166 0.2711 0 1
5.0224 4.0608 -1.7163 0.2711 0 1
5.0127 4.0716 -1.7161 0.2712 0 1
5.0029 4.0823 -1.7159 0.2712 0 1
4.9931 4.0930 -1.7157 0.2712 0 1
4.9832 4.1037 -1.7155 0.2713 0 1
4.9734 4.1144 -1.7153 0.2713 0 1
4.9635 4.1250 -1.7151 0.2713 0 1
4.9537 4.1356 -1.7149 0.2714 0 1
4.9438 4.1462 -1.7146 0.2714 0 1
4.9339 4.1568 -1.7144 0.2714 0 1
4.9239 4.1673 -1.7142 0.2715 0 1
4.9140 4.1779 -1.7140 0.2715 0 1
4.9040 4.1884 -1.7138 0.2715 0 1
4.8940 4.1989 -1.7136 0.2716 0 1
4.8839 4.2093 -1.7134 0.2716 0 1
4.8739 4.2198 -1.7132 0.2716 0 1
4.8638 4.2302 -1.7130 0.2717 0 1
4.8537 4.2406 -1.7128 0.2717 0 1
4.8436 4.2509 -1.7126 0.2717 0 1
4.8335 4.2613 -1.7124 0.2718 0 1
4.8234 4.2716 -1.7122 0.2718 0 1
4.8132 4.2819 -1.7120 0.2718 0 1
4.8030 4.2922 -1.7117 0.2719 0 1
4.7928 4.3024 -1.7115 0.2719 0 1
4.7826 4.3127 -1.7113 0.2719 0 1
4.7723 4.3229 -1.7111 0.2720 0 1
4.7620 4.3330 -1.7109 0.2720 0 1
4.7518 4.3432 -1.7107 0.2720 0 1
4.7414 4.3534 -1.7105 0.2721 0 1
4.7311 4.3635 -1.7103 0.2721 0 1
4.7207 4.3736 -1.7101 0.2721 0 1
4.7103 4.3837 -1.7099 0.2722 0 1
4.7000 4.3937 -1.7097 0.2722 0 1
4.6896 4.4038 -1.7096 0.2722 0 1
4.6791 4.4137 -1.7094 0.2722 0 1
4.6686 4.4237 -1.7092 0.2723 0 1
4.6582 4.4337 -1.7090 0.2723 0 1
4.6477 4.4437 -1.7088 0.2723 0 1
4.6372 4.4536 -1.7086 0.2724 0 1
4.6267 4.4635 -1.7084 0.2724 0 1
4.6161 4.4733 -1.7082 0.2724 0 1
4.6055 4.4832 -1.7080 0.2725 0 1
4.5950 4.4930 -1.7078 0.2725 0 1
4.5843 4.5027 -1.7076 0.2725 0 1
4.5737 4.5125 -1.7074 0.2726 0 1
4.5630 4.5223 -1.7072 0.2726 0 1
4.5524 4.5320 -1.7070 0.2726 0 1
4.9172 -4.9172 -1.9095 0.2513 0 1
4.9275 -4.9055 -1.9092 0.2513 0 1
4.9378 -4.8937 -1.9089 0.2513 0 1
4.9481 -4.8819 -1.9087 0.2514 0 1
4.9583 -4.8701 -1.9084 0.2514 0 1
4.9685 -4.8583 -1.9081 0.2514 0 1
4.9787 -4.8464 -1.9079 0.2515 0 1
4.9888 -4.8346 -1.9076 0.2515 0 1
4.9990 -4.8227 -1.9073 0.2516 0 1
5.0091 -4.8107 -1.9070 0.2516 0 1
5.0191 -4.7987 -1.9068 0.2516 0 1
5.0291 -4.7868 -1.9065 0.2517 0 1
5.0391 -4.7748 -1.9062 0.2517 0 1
5.0491 -4.7629 -1.9059 0.2517 0 1
5.0591 -4.7508 -1.9057 0.2518 0 1
5.0690 -4.7387 -1.9054 0.2518 0 1
5.0789 -4.7267 -1.9051 0.2518 0 1
5.0887 -4.7146 -1.9048 0.2519 0 1
5.0986 -4.7025 -1.9046 0.2519 0 1
5.1084 -4.6904 -1.9043 0.2520 0 1
5.1181 -4.6782 -1.9040 0.2520 0 1
5.1279 -4.6660 -1.9037 0.2520 0 1
5.1375 -4.6538 -1.9034 0.2521 0 1
5.1472 -4.6416 -1.9032 0.2521 0 1
5.1569 -4.6293 -1.9029 0.2521 0 1
5.1665 -4.6171 -1.9026 0.2522 0 1
5.1761 -4.6048 -1.9023 0.2522 0 1
5.1856 -4.5925 -1.9020 0.2522 0 1
5.1952 -4.5802 -1.9018 0.2523 0 1
5.2046 -4.5679 -1.9015 0.2523 0 1
5.2141 -4.5555 -1.9012 0.2524 0 1
5.2236 -4.5430 -1.9009 0.2524 0 1
5.2329 -4.5306 -1.9006 0.2524 0 1
5.2423 -4.5182 -1.9003 0.2525 0 1
5.2516 -4.5058 -1.9001 0.2525 0 1
5.2609 -4.4933 -1.8998 0.2525 0 1
5.2702 -4.4808 -1.8995 0.2526 0 1
5.2795 -4.4683 -1.8992 0.2526 0 1
5.2887 -4.4558 -1.8989 0.2527 0 1
5.2979 -4.4432 -1.8986 0.2527 0 1
5.3070 -4.4307 -1.8983 0.2527 0 1
5.3162 -4.4181 -1.8981 0.2528 0 1
5.3253 -4.4055 -1.8978 0.2528 0 1
5.3343 -4.3928 -1.8975 0.2529 0 1
5.3434 -4.3802 -1.8972 0.2529 0 1
5.3524 -4.3676 -1.8969 0.2529 0 1
5.3613 -4.3548 -1.8966 0.2530 0 1
5.3703 -4.3421 -1.8963 0.2530 0 1
5.3792 -4.3294 -1.8960 0.2530 0 1
5.3880 -4.3167 -1.8958 0.2531 0 1
5.3969 -4.3039 -1.8955 0.2531 0 1
5.4057 -4.2912 -1.8952 0.2532 0 1
5.4146 -4.2783 -1.8949 0.2532 0 1
5.4233 -4.2655 -1.8946 0.2532 0 1
5.4320 -4.2527 -1.8943 0.2533 0 1
5.4407 -4.2398 -1.8940 0.2533 0 1
5.4494 -4.2270 -1.8937 0.2534 0 1
5.4580 -4.2141 -1.8934 0.2534 0 1
5.4666 -4.2012 -1.8931 0.2534 0 1
5.4751 -4.1882 -1.8928 0.2535 0 1
5.4837 -4.1754 -1.8925 0.2535 0 1
5.4922 -4.1624 -1.8923 0.2536 0 1
5.5007 -4.1494 -1.8920 0.2536 0 1
5.5091 -4.1364 -1.8917 0.2536 0 1
5.5175 -4.1234 -1.8914 0.2537 0 1
5.5259 -4.1104 -1.8911 0.2537 0 1
5.5342 -4.0973 -1.8908 0.2538 0 1
5.5426 -4.0842 -1.8905 0.2538 0 1
5.5509 -4.0711 -1.8902 0.2538 0 1
5.5591 -4.0580 -1.8899 0.2539 0 1
5.5673 -4.0449 -1.8896 0.2539 0 1
5.5755 -4.0318 -1.8893 0.2539 0 1
5.5836 -4.0186 -1.8890 0.2540 0 1
5.5918 -4.0055 -1.8887 0.2540 0 1
5.5998 -3.9923 -1.8884 0.2541 0 1
5.6079 -3.9791 -1.8881 0.2541 0 1
5.6159 -3.9658 -1.8878 0.2541 0 1
5.6240 -3.9526 -1.8875 0.2542 0 1
5.6319 -3.9394 -1.8872 0.2542 0 1
5.6398 -3.9261 -1.8869 0.2543 0 1
5.6477 -3.9128 -1.8866 0.2543 0 1
5.6556 -3.8995 -1.8863 0.2544 0 1
5.6634 -3.8862 -1.8860 0.2544 0 1
5.6712 -3.8729 -1.8857 0.2544 0 1
5.6790 -3.8595 -1.8854 0.2545 0 1
5.6867 -3.8461 -1.8851 0.2545 0 1
5.6945 -3.8327 -1.8848 0.2546 0 1
5.7021 -3.8193 -1.8845 0.2546 0 1
5.7098 -3.8059 -1.8842 0.2546 0 1
5.7174 -3.7925 -1.8839 0.2547 0 1
5.7250 -3.7790 -1.8836 0.2547 0 1
5.7325 -3.7655 -1.8833 0.2548 0 1
5.7400 -3.7521 -1.8830 0.2548 0 1
5.7475 -3.7387 -1.8827 0.2548 0 1
5.7550 -3.7251 -1.8824 0.2549 0 1
5.7623 -3.7116 -1.8821 0.2549 0 1
5.7698 -3.6980 -1.8818 0.2550 0 1
5.7771 -3.6845 -1.8815 0.2550 0 1
5.7844 -3.6709 -1.8812 0.2550 0 1
5.7917 -3.6574 -1.8809 0.2551 0 1
5.7989 -3.6437 -1.8806 0.2551 0 1
5.8061 -3.6302 -1.8803 0.2552 0 1
5.8134 -3.6165 -1.8800 0.2552 0 1
5.8205 -3.6029 -1.8797 0.2553 0 1
5.8277 -3.5892 -1.8794 0.2553 0 1
5.8347 -3.5756 -1.8790 0.2553 0 1
5.8418 -3.5619 -1.8787 0.2554 0 1
5.8488 -3.5482 -1.8784 0.2554 0 1
5.8558 -3.5345 -1.8781 0.2555 0 1
5.8628 -3.5207 -1.8778 0.2555 0 1
5.8697 -3.5070 -1.8775 0.2555 0 1
5.8766 -3.4932 -1.8772 0.2556 0 1
5.8834 -3.4795 -1.8769 0.2556 0 1
5.8903 -3.4657 -1.8766 0.2557 0 1
5.8971 -3.4519 -1.8763 0.2557 0 1
5.9038 -3.4381 -1.8760 0.2558 0 1
5.9105 -3.4243 -1.8757 0.2558 0 1
5.9173 -3.4104 -1.8754 0.2558 0 1
5.9239 -3.3966 -1.8750 0.2559 0 1
5.9305 -3.3828 -1.8747 0.2559 0 1
5.9371 -3.3689 -1.8744 0.2560 0 1
5.9437 -3.3550 -1.8741 0.2560 0 1
5.9502 -3.3411 -1.8738 0.2560 0 1
5.9567 -3.3271 -1.8735 0.2561 0 1
5.9632 -3.3132 -1.8732 0.2561 0 1
5.9696 -3.2993 -1.8729 0.2562 0 1
5.9760 -3.2854 -1.8726 0.2562 0 1
5.9824 -3.2714 -1.8723 0.2563 0 1
5.9887 -3.2574 -1.8719 0.2563 0 1
5.9950 -3.2434 -1.8716 0.2563 0 1
6.0012 -3.2295 -1.8713 0.2564 0 1
6.0075 -3.2154 -1.8710 0.2564 0 1
6.0137 -3.2014 -1.8707 0.2565 0 1
6.0198 -3.1874 -1.8704 0.2565 0 1
6.0260 -3.1733 -1.8701 0.2566 0 1
6.0321 -3.1593 -1.8698 0.2566 0 1
6.0381 -3.1452 -1.8694 0.2566 0 1
6.0441 -3.1311 -1.8691 0.2567 0 1
6.0501 -3.1170 -1.8688 0.2567 0 1
6.0561 -3.1029 -1.8685 0.2568 0 1
6.0620 -3.0888 -1.8682 0.2568 0 1
6.0680 -3.0747 -1.8679 0.2569 0 1
6.0738 -3.0605 -1.8676 0.2569 0 1
6.0796 -3.0464 -1.8672 0.2569 0 1
6.0854 -3.0322 -1.8669 0.2570 0 1
6.0912 -3.0180 -1.8666 0.2570 0 1
6.0969 -3.0039 -1.8663 0.2571 0 1
6.1026 -2.9897 -1.8660 0.2571 0 1
6.1083 -2.9755 -1.8657 0.2572 0 1
6.1139 -2.9612 -1.8654 0.2572 0 1
6.1195 -2.9470 -1.8650 0.2573 0 1
6.1251 -2.9328 -1.8647 0.2573 0 1
6.1306 -2.9186 -1.8644 0.2573 0 1
6.1361 -2.9043 -1.8641 0.2574 0 1
6.1415 -2.8900 -1.8638 0.2574 0 1
6.1470 -2.8757 -1.8635 0.2575 0 1
6.1524 -2.8614 -1.8631 0.2575 0 1
6.1577 -2.8471 -1.8628 0.2576 0 1
6.1631 -2.8329 -1.8625 0.2576 0 1
6.1684 -2.8185 -1.8622 0.2576 0 1
6.1735 -2.8042 -1.8619 0.2577 0 1
6.1788 -2.7898 -1.8616 0.2577 0 1
6.1840 -2.7755 -1.8612 0.2578 0 1
6.1891 -2.7612 -1.8609 0.2578 0 1
6.1943 -2.7468 -1.8606 0.2579 0 1
6.1994 -2.7324 -1.8603 0.2579 0 1
6.2044 -2.7180 -1.8600 0.2580 0 1
6.2094 -2.7037 -1.8597 0.2580 0 1
6.2144 -2.6893 -1.8593 0.2580 0 1
6.2194 -2.6748 -1.8590 0.2581 0 1
6.2243 -2.6604 -1.8587 0.2581 0 1
6.2292 -2.6460 -1.8584 0.2582 0 1
6.2340 -2.6316 -1.8581 0.2582 0 1
6.2388 -2.6171 -1.8577 0.2583 0 1
6.2436 -2.6027 -1.8574 0.2583 0 1
6.2484 -2.5882 -1.8571 0.2584 0 1
6.2531 -2.5737 -1.8568 0.2584 0 1
6.2578 -2.5593 -1.8565 0.2584 0 1
6.2624 -2.5448 -1.8561 0.2585 0 1
6.2670 -2.5303 -1.8558 0.2585 0 1
6.2716 -2.5157 -1.8555 0.2586 0 1
6.2762 -2.5013 -1.8552 0.2586 0 1
6.2807 -2.4868 -1.8549 0.2587 0 1
6.2852 -2.4722 -1.8545 0.2587 0 1
6.2896 -2.4577 -1.8542 0.2588 0 1
6.2941 -2.4431 -1.8539 0.2588 0 1
6.2984 -2.4286 -1.8536 0.2588 0 1
6.3027 -2.4140 -1.8533 0.2589 0 1
6.3071 -2.3995 -1.8529 0.2589 0 1
6.3113 -2.3849 -1.8526 0.2590 0 1
6.3156 -2.3703 -1.8523 0.2590 0 1
6.3198 -2.3557 -1.8520 0.2591 0 1
6.3240 -2.3411 -1.8517 0.2591 0 1
6.3281 -2.3266 -1.8513 0.2592 0 1
6.3322 -2.3119 -1.8510 0.2592 0 1
6.3363 -2.2973 -1.8507 0.2592 0 1
6.3404 -2.2827 -1.8504 0.2593 0 1
6.3443 -2.2681 -1.8501 0.2593 0 1
6.3483 -2.2534 -1.8497 0.2594 0 1
6.3522 -2.2387 -1.8494 0.2594 0 1
6.3561 -2.2241 -1.8491 0.2595 0 1
6.3600 -2.2095 -1.8488 0.2595 0 1
6.3638 -2.1948 -1.8484 0.2596 0 1
6.3676 -2.1802 -1.8481 0.2596 0 1
6.3714 -2.1655 -1.8478 0.2597 0 1
6.3751 -2.1508 -1.8475 0.2597 0 1
6.3789 -2.1361 -1.8472 0.2597 0 1
6.3825 -2.1214 -1.8468 0.2598 0 1
6.3862 -2.1068 -1.8465 0.2598 0 1
6.3897 -2.0920 -1.8462 0.2599 0 1
6.3933 -2.0773 -1.8459 0.2599 0 1
6.3968 -2.0627 -1.8455 0.2600 0 1
6.4004 -2.0479 -1.8452 0.2600 0 1
6.4038 -2.0332 -1.8449 0.2601 0 1
6.4072 -2.0185 -1.8446 0.2601 0 1
6.4106 -2.0037 -1.8443 0.2602 0 1
6.4140 -1.9889 -1.8439 0.2602 0 1
6.4173 -1.9743 -1.8436 0.2602 0 1
6.4205 -1.9595 -1.8433 0.2603 0 1
6.4238 -1.9447 -1.8430 0.2603 0 1
6.4271 -1.9300 -1.8426 0.2604 0 1
6.4302 -1.9152 -1.8423 0.2604 0 1
6.4334 -1.9005 -1.8420 0.2605 0 1
6.4365 -1.8857 -1.8417 0.2605 0 1
6.4396 -1.8709 -1.8414 0.2606 0 1
6.4427 -1.8561 -1.8410 0.2606 0 1
6.4457 -1.8413 -1.8407 0.2607 0 1
6.4487 -1.8265 -1.8404 0.2607 0 1
6.4516 -1.8118 -1.8401 0.2607 0 1
6.4545 -1.7970 -1.8397 0.2608 0 1
6.4574 -1.7821 -1.8394 0.2608 0 1
6.4602 -1.7673 -1.8391 0.2609 0 1
6.4630 -1.7526 -1.8388 0.2609 0 1
6.4658 -1.7377 -1.8384 0.2610 0 1
6.4686 -1.7229 -1.8381 0.2610 0 1
6.4713 -1.7081 -1.8378 0.2611 0 1
6.4739 -1.6932 -1.8375 0.2611 0 1
6.4766 -1.6785 -1.8372 0.2612 0 1
6.4792 -1.6636 -1.8368 0.2612 0 1
6.4818 -1.6488 -1.8365 0.2612 0 1
6.4843 -1.6339 -1.8362 0.2613 0 1
6.4868 -1.6191 -1.8359 0.2613 0 1
6.4893 -1.6043 -1.8355 0.2614 0 1
6.4917 -1.5894 -1.8352 0.2614 0 1
6.4941 -1.5746 -1.8349 0.2615 0 1
6.4966 -1.5597 -1.8346 0.2615 0 1
6.4989 -1.5448 -1.8342 0.2616 0 1
6.5012 -1.5300 -1.8339 0.2616 0 1
6.5034 -1.5151 -1.8336 0.2617 0 1
6.5057 -1.5003 -1.8333 0.2617 0 1
6.5079 -1.4854 -1.8329 0.2618 0 1
6.5100 -1.4705 -1.8326 0.2618 0 1
6.5122 -1.4557 -1.8323 0.2618 0 1
6.5143 -1.4408 -1.8320 0.2619 0 1
6.5164 -1.4259 -1.8317 0.2619 0 1
6.5184 -1.4111 -1.8313 0.2620 0 1
6.5204 -1.3962 -1.8310 0.2620 0 1
6.5224 -1.3813 -1.8307 0.2621 0 1
6.5243 -1.3664 -1.8304 0.2621 0 1
6.5262 -1.3516 -1.8300 0.2622 0 1
6.5280 -1.3366 -1.8297 0.2622 0 1
6.5299 -1.3217 -1.8294 0.2623 0 1
6.5317 -1.3069 -1.8291 0.2623 0 1
6.5334 -1.2920 -1.8287 0.2624 0 1
6.5352 -1.2771 -1.8284 0.2624 0 1
6.5369 -1.2622 -1.8281 0.2625 0 1
6.5386 -1.2473 -1.8278 0.2625 0 1
6.5402 -1.2324 -1.8275 0.2625 0 1
6.5417 -1.2175 -1.8271 0.2626 0 1
6.5433 -1.2026 -1.8268 0.2626 0 1
6.5448 -1.1877 -1.8265 0.2627 0 1
6.5463 -1.1729 -1.8262 0.2627 0 1
6.5478 -1.1579 -1.8258 0.2628 0 1
6.5492 -1.1430 -1.8255 0.2628 0 1
6.5506 -1.1281 -1.8252 0.2629 0 1
6.5520 -1.1132 -1.8249 0.2629 0 1
6.5533 -1.0983 -1.8245 0.2630 0 1
6.5545 -1.0834 -1.8242 0.2630 0 1
6.5558 -1.0685 -1.8239 0.2631 0 1
6.5570 -1.0537 -1.8236 0.2631 0 1
6.5582 -1.0387 -1.8233 0.2631 0 1
6.5594 -1.0238 -1.8229 0.2632 0 1
6.5605 -1.0089 -1.8226 0.2632 0 1
6.5616 -0.9940 -1.8223 0.2633 0 1
6.5626 -0.9791 -1.8220 0.2633 0 1
6.5636 -0.9642 -1.8216 0.2634 0 1
6.5646 -0.9493 -1.8213 0.2634 0 1
6.5656 -0.9344 -1.8210 0.2635 0 1
6.5665 -0.9195 -1.8207 0.2635 0 1
6.5674 -0.9046 -1.8204 0.2636 0 1
6.5682 -0.8897 -1.8200 0.2636 0 1
6.5691 -0.8748 -1.8197 0.2637 0 1
6.5699 -0.8600 -1.8194 0.2637 0 1
6.5706 -0.8450 -1.8191 0.2638 0 1
6.5713 -0.8301 -1.8188 0.2638 0 1
6.5720 -0.8153 -1.8184 0.2638 0 1
6.5727 -0.8004 -1.8181 0.2639 0 1
6.5733 -0.7855 -1.8178 0.2639 0 1
6.5739 -0.7706 -1.8175 0.2640 0 1
6.5744 -0.7557 -1.8171 0.2640 0 1
6.5749 -0.7409 -1.8168 0.2641 0 1
6.5754 -0.7259 -1.8165 0.2641 0 1
6.5759 -0.7111 -1.8162 0.2642 0 1
6.5763 -0.6962 -1.8159 0.2642 0 1
6.5767 -0.6813 -1.8155 0.2643 0 1
6.5771 -0.6664 -1.8152 0.2643 0 1
6.5774 -0.6516 -1.8149 0.2644 0 1
6.5777 -0.6367 -1.8146 0.2644 0 1
6.5779 -0.6218 -1.8143 0.2645 0 1
6.5781 -0.6070 -1.8139 0.2645 0 1
6.5783 -0.5921 -1.8136 0.2645 0 1
6.5784 -0.5772 -1.8133 0.2646 0 1
6.5785 -0.5624 -1.8130 0.2646 0 1
6.5786 -0.5475 -1.8127 0.2647 0 1
6.5787 -0.5327 -1.8123 0.2647 0 1
6.5787 -0.5178 -1.8120 0.2648 0 1
6.5787 -0.5029 -1.8117 0.2648 0 1
6.5786 -0.4881 -1.8114 0.2649 0 1
6.5786 -0.4732 -1.8111 0.2649 0 1
6.5785 -0.4584 -1.8108 0.2650 0 1
6.5783 -0.4436 -1.8104 0.2650 0 1
6.5781 -0.4287 -1.8101 0.2651 0 1
6.5779 -0.4139 -1.8098 0.2651 0 1
6.5777 -0.3991 -1.8095 0.2652 0 1
6.5774 -0.3842 -1.8092 0.2652 0 1
6.5771 -0.3694 -1.8088 0.2652 0 1
6.5768 -0.3546 -1.8085 0.2653 0 1
6.5764 -0.3398 -1.8082 0.2653 0 1
6.5759 -0.3249 -1.8079 0.2654 0 1
6.5755 -0.3102 -1.8076 0.2654 0 1
6.5750 -0.2953 -1.8073 0.2655 0 1
6.5746 -0.2805 -1.8069 0.2655 0 1
6.5740 -0.2657 -1.8066 0.2656 0 1
6.5734 -0.2509 -1.8063 0.2656 0 1
6.5728 -0.2361 -1.8060 0.2657 0 1
6.5722 -0.2213 -1.8057 0.2657 0 1
6.5715 -0.2065 -1.8054 0.2658 0 1
6.5708 -0.1918 -1.8050 0.2658 0 1
6.5700 -0.1770 -1.8047 0.2659 0 1
6.5693 -0.1622 -1.8044 0.2659 0 1
6.5684 -0.1474 -1.8041 0.2659 0 1
6.5677 -0.1327 -1.8038 0.2660 0 1
6.5668 -0.1179 -1.8035 0.2660 0 1
6.5659 -0.1032 -1.8031 0.2661 0 1
6.5650 -0.0884 -1.8028 0.2661 0 1
6.5640 -0.0737 -1.8025 0.2662 0 1
6.5630 -0.0589 -1.8022 0.2662 0 1
6.5620 -0.0442 -1.8019 0.2663 0 1
6.5609 -0.0295 -1.8016 0.2663 0 1
6.5598 -0.0148 -1.8012 0.2664 0 1
6.5587 -0.0000 -1.8009 0.2664 0 1
6.5575 0.0147 -1.8006 0.2665 0 1
6.5563 0.0294 -1.8003 0.2665 0 1
6.5551 0.0441 -1.8000 0.2665 0 1
6.5538 0.0588 -1.7997 0.2666 0 1
6.5525 0.0735 -1.7994 0.2666 0 1
6.5512 0.0882 -1.7991 0.2667 0 1
6.5499 0.1029 -1.7987 0.2667 0 1
6.5485 0.1175 -1.7984 0.2668 0 1
6.5471 0.1322 -1.7981 0.2668 0 1
6.5456 0.1469 -1.7978 0.2669 0 1
6.5441 0.1615 -1.7975 0.2669 0 1
6.5426 0.1762 -1.7972 0.2670 0 1
6.5410 0.1909 -1.7969 0.2670 0 1
6.5395 0.2055 -1.7966 0.2671 0 1
6.5378 0.2201 -1.7962 0.2671 0 1
6.5362 0.2348 -1.7959 0.2672 0 1
6.5345 0.2494 -1.7956 0.2672 0 1
6.5328 0.2640 -1.7953 0.2672 0 1
6.5311 0.2786 -1.7950 0.2673 0 1
6.5293 0.2932 -1.7947 0.2673 0 1
6.5275 0.3078 -1.7944 0.2674 0 1
6.5256 0.3224 -1.7941 0.2674 0 1
6.5238 0.3370 -1.7938 0.2675 0 1
6.5219 0.3516 -1.7934 0.2675 0 1
6.5200 0.3661 -1.7931 0.2676 0 1
6.5180 0.3807 -1.7928 0.2676 0 1
6.5160 0.3952 -1.7925 0.2677 0 1
6.5140 0.4098 -1.7922 0.2677 0 1
6.5119 0.4244 -1.7919 0.2678 0 1
6.5098 0.4389 -1.7916 0.2678 0 1
6.5077 0.4534 -1.7913 0.2678 0 1
6.5056 0.4680 -1.7910 0.2679 0 1
6.5034 0.4825 -1.7907 0.2679 0 1
6.5012 0.4970 -1.7904 0.2680 0 1
6.4989 0.5115 -1.7900 0.2680 0 1
6.4966 0.5259 -1.7897 0.2681 0 1
6.4943 0.5404 -1.7894 0.2681 0 1
6.4920 0.5549 -1.7891 0.2682 0 1
6.4896 0.5694 -1.7888 0.2682 0 1
6.4871 0.5838 -1.7885 0.2683 0 1
6.4847 0.5983 -1.7882 0.2683 0 1
6.4823 0.6128 -1.7879 0.2684 0 1
6.4798 0.6272 -1.7876 0.2684 0 1
6.4772 0.6416 -1.7873 0.2684 0 1
6.4747 0.6560 -1.7870 0.2685 0 1
6.4721 0.6705 -1.7867 0.2685 0 1
6.4695 0.6848 -1.7864 0.2686 0 1
6.4668 0.6993 -1.7861 0.2686 0 1
6.4641 0.7137 -1.7858 0.2687 0 1
6.4614 0.7280 -1.7855 0.2687 0 1
6.4587 0.7423 -1.7852 0.2688 0 1
6.4559 0.7568 -1.7848 0.2688 0 1
6.4531 0.7711 -1.7845 0.2689 0 1
6.4502 0.7855 -1.7842 0.2689 0 1
6.4473 0.7998 -1.7839 0.2689 0 1
6.4445 0.8141 -1.7836 0.2690 0 1
6.4415 0.8284 -1.7833 0.2690 0 1
6.4385 0.8427 -1.7830 0.2691 0 1
6.4355 0.8570 -1.7827 0.2691 0 1
6.4325 0.8713 -1.7824 0.2692 0 1
6.4295 0.8856 -1.7821 0.2692 0 1
6.4264 0.8999 -1.7818 0.2693 0 1
6.4232 0.9141 -1.7815 0.2693 0 1
6.4201 0.9284 -1.7812 0.2694 0 1
6.4169 0.9426 -1.7809 0.2694 0 1
6.4137 0.9568 -1.7806 0.2694 0 1
6.4104 0.9711 -1.7803 0.2695 0 1
6.4071 0.9853 -1.7800 0.2695 0 1
6.4039 0.9995 -1.7797 0.2696 0 1
6.4005 1.0137 -1.7794 0.2696 0 1
6.3971 1.0279 -1.7791 0.2697 0 1
6.3938 1.0421 -1.7788 0.2697 0 1
6.3904 1.0563 -1.7785 0.2698 0 1
6.3869 1.0704 -1.7782 0.2698 0 1
6.3834 1.0845 -1.7779 0.2699 0 1
6.3799 1.0987 -1.7776 0.2699 0 1
6.3763 1.1128 -1.7773 0.2699 0 1
6.3728 1.1269 -1.7770 0.2700 0 1
6.3691 1.1410 -1.7767 0.2700 0 1
