ply
format ascii 1.0
element vertex 597
property float32 x
property float32 y
property float32 z
property float32 CosAngle
property uint32 ObjIdx
property uint32 ObjTag
end_header
11.75658130645752 -2.6279101371765137 -1.7134802341461182 0.13978512585163116 0 2
7.569613933563232 -1.7277343273162842 -1.104361891746521 0.6127264499664307 0 6
7.520131587982178 -1.7519726753234863 -1.098279356956482 0.42010682821273804 0 6
7.407001972198486 -1.7607030868530273 -1.082900881767273 0.5713208913803101 0 6
7.372148036956787 -1.7874218225479126 -1.0789670944213867 0.9868212938308716 0 6
7.366567134857178 -1.8211132287979126 -1.0793358087539673 0.9612378478050232 0 6
7.390556335449219 -1.8622851371765137 -1.0840650796890259 0.9043633341789246 0 6
7.397685527801514 -1.8994140625 -1.0863491296768188 0.9024612307548523 0 6
7.404843807220459 -1.9367187023162842 -1.0886660814285278 0.9005404710769653 0 6
7.397655963897705 -1.9703515768051147 -1.0888984203338623 0.9675576686859131 0 6
7.407236099243164 -2.0085742473602295 -1.0916246175765991 0.5005112886428833 0 6
11.6076021194458 -3.2035155296325684 -1.7127439975738525 0.13984505832195282 0 2
11.592646598815918 -3.25542950630188 -1.7126755714416504 0.1398506909608841 0 2
11.577455520629883 -3.307304620742798 -1.7126070261001587 0.1398562490940094 0 2
11.562026023864746 -3.359121084213257 -1.7125381231307983 0.13986188173294067 0 2
11.546381950378418 -3.410820245742798 -1.7124691009521484 0.13986743986606598 0 2
11.530468940734863 -3.46246075630188 -1.7123998403549194 0.13987332582473755 0 2
11.514355659484863 -3.514042854309082 -1.7123303413391113 0.13987889885902405 0 2
11.497992515563965 -3.565546751022339 -1.7122606039047241 0.13988463580608368 0 2
11.48141098022461 -3.616953134536743 -1.7121905088424683 0.13989035785198212 0 2
11.464604377746582 -3.6683006286621094 -1.7121202945709229 0.13989600539207458 0 2
11.447548866271973 -3.719550609588623 -1.712049961090088 0.13990183174610138 0 2
11.430268287658691 -3.7707226276397705 -1.7119793891906738 0.1399075835943222 0 2
11.412763595581055 -3.821855306625366 -1.7119085788726807 0.13991327583789825 0 2
11.395014762878418 -3.872870922088623 -1.7118374109268188 0.1399191915988922 0 2
11.37704086303711 -3.9238085746765137 -1.7117661237716675 0.139925017952919 0 2
11.358857154846191 -3.97466778755188 -1.711694598197937 0.1399306356906891 0 2
11.340410232543945 -4.025410175323486 -1.7116228342056274 0.13993683457374573 0 2
11.321772575378418 -4.076113224029541 -1.7115510702133179 0.13994254171848297 0 2
11.302870750427246 -4.126698970794678 -1.71147882938385 0.13994856178760529 0 2
11.283769607543945 -4.177206993103027 -1.7114064693450928 0.1399543732404709 0 2
11.26442813873291 -4.227617263793945 -1.7113338708877563 0.1399603635072708 0 2
11.24486255645752 -4.277987957000732 -1.71126127243042 0.1399662345647812 0 2
11.225068092346191 -4.328203201293945 -1.7111883163452148 0.1399722844362259 0 2
11.205053329467773 -4.378359317779541 -1.7111151218414307 0.13997824490070343 0 2
11.184819221496582 -4.428398132324219 -1.7110416889190674 0.13998425006866455 0 2
11.164350509643555 -4.478359222412109 -1.7109681367874146 0.13999024033546448 0 2
11.143656730651855 -4.528242111206055 -1.7108944654464722 0.1399962604045868 0 2
11.122734069824219 -4.577988147735596 -1.7108204364776611 0.14000241458415985 0 2
11.101606369018555 -4.627655982971191 -1.7107462882995605 0.14000838994979858 0 2
11.080248832702637 -4.67724609375 -1.7106719017028809 0.14001449942588806 0 2
11.058647155761719 -4.726698875427246 -1.7105975151062012 0.1400207281112671 0 2
11.036845207214355 -4.776113033294678 -1.7105227708816528 0.14002661406993866 0 2
11.014823913574219 -4.825370788574219 -1.7104477882385254 0.14003285765647888 0 2
11.038012504577637 -4.894667625427246 -1.7174389362335205 0.14003869891166687 0 2
11.015448570251465 -4.943945407867432 -1.7173633575439453 0.14004485309123993 0 2
10.992671012878418 -4.993085861206055 -1.717287540435791 0.14005109667778015 0 2
10.969657897949219 -5.042167663574219 -1.7172117233276367 0.14005737006664276 0 2
10.94644546508789 -5.091132640838623 -1.7171355485916138 0.1400633305311203 0 2
10.923002243041992 -5.139960765838623 -1.7170592546463013 0.14006955921649933 0 2
10.899340629577637 -5.188710689544678 -1.7169827222824097 0.14007587730884552 0 2
10.875463485717773 -5.237343788146973 -1.7169060707092285 0.14008201658725739 0 2
10.85135269165039 -5.285859107971191 -1.7168291807174683 0.14008842408657074 0 2
10.827035903930664 -5.334277153015137 -1.7167521715164185 0.14009463787078857 0 2
10.802499771118164 -5.382558345794678 -1.716675043106079 0.14010103046894073 0 2
10.77774429321289 -5.430742263793945 -1.716597557067871 0.14010730385780334 0 2
10.752787590026855 -5.478827953338623 -1.716520071029663 0.1401134878396988 0 2
10.727606773376465 -5.526738166809082 -1.716442346572876 0.14011995494365692 0 2
10.702197074890137 -5.574589729309082 -1.7163643836975098 0.14012639224529266 0 2
10.676576614379883 -5.622323989868164 -1.7162864208221436 0.1401328146457672 0 2
10.650752067565918 -5.669902324676514 -1.7162083387374878 0.14013929665088654 0 2
10.624731063842773 -5.71740198135376 -1.7161298990249634 0.1401454210281372 0 2
10.598466873168945 -5.76476526260376 -1.716051459312439 0.1401519775390625 0 2
10.571996688842773 -5.81201171875 -1.715972661972046 0.1401584893465042 0 2
10.545336723327637 -5.859120845794678 -1.7158939838409424 0.14016473293304443 0 2
10.518442153930664 -5.906132698059082 -1.7158149480819702 0.14017120003700256 0 2
10.49135684967041 -5.952988147735596 -1.7157357931137085 0.14017771184444427 0 2
10.4640474319458 -5.999726295471191 -1.7156565189361572 0.140184223651886 0 2
10.436528205871582 -6.046367168426514 -1.7155770063400269 0.1401907056570053 0 2
10.408803939819336 -6.092851638793945 -1.7154974937438965 0.1401972770690918 0 2
10.380878448486328 -6.139238357543945 -1.715417742729187 0.140203595161438 0 2
10.352734565734863 -6.185468673706055 -1.7153379917144775 0.1402101367712021 0 2
10.324389457702637 -6.23156213760376 -1.7152578830718994 0.14021679759025574 0 2
10.295829772949219 -6.277558326721191 -1.7151777744293213 0.14022333920001984 0 2
10.267080307006836 -6.323417663574219 -1.715097427368164 0.14022988080978394 0 2
10.238100051879883 -6.369121074676514 -1.7150170803070068 0.14023654162883759 0 2
10.20895004272461 -6.414706707000732 -1.7149364948272705 0.1402430236339569 0 2
10.179579734802246 -6.460155963897705 -1.7148557901382446 0.14024963974952698 0 2
10.149999618530273 -6.505449295043945 -1.7147750854492188 0.1402563750743866 0 2
10.120223999023438 -6.550644397735596 -1.7146940231323242 0.14026299118995667 0 2
10.090249061584473 -6.595683574676514 -1.7146129608154297 0.14026954770088196 0 2
10.060072898864746 -6.640585899353027 -1.714531660079956 0.14027619361877441 0 2
10.029691696166992 -6.68533182144165 -1.7144503593444824 0.14028283953666687 0 2
9.999115943908691 -6.72998046875 -1.7143688201904297 0.1402893215417862 0 2
9.968329429626465 -6.774453163146973 -1.7142874002456665 0.14029617607593536 0 2
9.937353134155273 -6.818828105926514 -1.7142056226730347 0.1403028815984726 0 2
9.906176567077637 -6.863027095794678 -1.7141238451004028 0.14030951261520386 0 2
9.874804496765137 -6.907070159912109 -1.7140417098999023 0.14031626284122467 0 2
9.843232154846191 -6.950995922088623 -1.713959813117981 0.14032292366027832 0 2
9.811479568481445 -6.99474573135376 -1.713877558708191 0.14032961428165436 0 2
9.779520988464355 -7.038378715515137 -1.7137953042984009 0.1403363049030304 0 2
9.747353553771973 -7.081855297088623 -1.7137129306793213 0.14034321904182434 0 2
9.714994430541992 -7.125175476074219 -1.7136303186416626 0.1403500884771347 0 2
9.68246078491211 -7.168359279632568 -1.7135475873947144 0.14035679399967194 0 2
9.649731636047363 -7.211406230926514 -1.7134650945663452 0.14036345481872559 0 2
9.616811752319336 -7.254296779632568 -1.7133822441101074 0.1403702348470688 0 2
9.583696365356445 -7.297030925750732 -1.71329927444458 0.1403769701719284 0 2
9.55038070678711 -7.339609146118164 -1.7132161855697632 0.14038382470607758 0 2
9.516889572143555 -7.382050514221191 -1.7131332159042358 0.1403905153274536 0 2
9.483198165893555 -7.42431640625 -1.7130498886108398 0.14039750397205353 0 2
9.44930648803711 -7.46642541885376 -1.7129665613174438 0.14040452241897583 0 2
9.41524887084961 -7.508398056030273 -1.7128831148147583 0.14041128754615784 0 2
9.380995750427246 -7.550214767456055 -1.7127996683120728 0.1404181569814682 0 2
9.3465576171875 -7.591855525970459 -1.712715983390808 0.14042507112026215 0 2
9.311938285827637 -7.633359432220459 -1.712632417678833 0.14043183624744415 0 2
9.277138710021973 -7.674706935882568 -1.7125484943389893 0.14043866097927094 0 2
9.242143630981445 -7.715898036956787 -1.712464690208435 0.1404455155134201 0 2
9.206972122192383 -7.756913661956787 -1.7123807668685913 0.14045242965221405 0 2
9.171621322631836 -7.797773361206055 -1.712296724319458 0.14045929908752441 0 2
9.136093139648438 -7.838476181030273 -1.7122126817703247 0.14046601951122284 0 2
9.100360870361328 -7.878983974456787 -1.7121285200119019 0.14047323167324066 0 2
9.064472198486328 -7.919374942779541 -1.7120442390441895 0.14047999680042267 0 2
9.028398513793945 -7.959569931030273 -1.7119598388671875 0.1404869258403778 0 2
8.992133140563965 -7.999648094177246 -1.711875557899475 0.14049379527568817 0 2
8.955698013305664 -8.039511680603027 -1.7117910385131836 0.1405007690191269 0 2
8.919086456298828 -8.079218864440918 -1.711706519126892 0.14050768315792084 0 2
8.882304191589355 -8.118749618530273 -1.7116217613220215 0.14051476120948792 0 2
8.8453369140625 -8.158143997192383 -1.7115371227264404 0.14052167534828186 0 2
8.80819320678711 -8.197343826293945 -1.7114524841308594 0.1405285745859146 0 2
8.77089786529541 -8.236406326293945 -1.7113676071166992 0.14053533971309662 0 2
8.733403205871582 -8.275273323059082 -1.711282730102539 0.14054252207279205 0 2
8.695741653442383 -8.31396484375 -1.7111977338790894 0.14054948091506958 0 2
8.657910346984863 -8.352479934692383 -1.7111129760742188 0.14055649936199188 0 2
8.619916915893555 -8.390839576721191 -1.71102774143219 0.1405634582042694 0 2
8.581738471984863 -8.429022789001465 -1.7109427452087402 0.14057056605815887 0 2
8.543397903442383 -8.467050552368164 -1.710857629776001 0.14057746529579163 0 2
7.628549575805664 7.62853479385376 -1.7179059982299805 0.1556985080242157 0 2
7.662758827209473 7.594257831573486 -1.7179174423217773 0.1556975543498993 0 2
7.696816444396973 7.559863090515137 -1.717928409576416 0.15569643676280975 0 2
7.73070764541626 7.525273323059082 -1.7179391384124756 0.15569566190242767 0 2
7.764457702636719 7.490566253662109 -1.7179495096206665 0.15569457411766052 0 2
7.798037052154541 7.45568323135376 -1.7179594039916992 0.15569376945495605 0 2
7.831464767456055 7.420663833618164 -1.7179691791534424 0.15569274127483368 0 2
7.863979339599609 7.384765625 -1.71781587600708 0.15569192171096802 0 2
7.89708948135376 7.349433422088623 -1.7178246974945068 0.15569116175174713 0 2
7.930038928985596 7.31396484375 -1.717833399772644 0.1556902974843979 0 2
7.962817192077637 7.2783203125 -1.717841625213623 0.15568968653678894 0 2
7.995444297790527 7.242538928985596 -1.7178494930267334 0.15568895637989044 0 2
8.027899742126465 7.206621170043945 -1.717857003211975 0.15568825602531433 0 2
8.060199737548828 7.170546531677246 -1.7178643941879272 0.15568768978118896 0 2
8.092333793640137 7.134335994720459 -1.7178711891174316 0.15568695962429047 0 2
8.124297142028809 7.097968578338623 -1.717877745628357 0.15568634867668152 0 2
8.156098365783691 7.061445236206055 -1.717883825302124 0.1556859165430069 0 2
8.187734603881836 7.024804592132568 -1.717889666557312 0.15568530559539795 0 2
8.219208717346191 6.988007545471191 -1.7178951501846313 0.15568484365940094 0 2
8.25051212310791 6.951074123382568 -1.7179003953933716 0.15568433701992035 0 2
8.294721603393555 6.924901962280273 -1.720616102218628 0.49698135256767273 0 2
8.389418601989746 6.940312385559082 -1.7337826490402222 0.49320730566978455 0 2
8.48556137084961 6.955937385559082 -1.7471832036972046 0.489424467086792 0 2
8.583197593688965 6.97179651260376 -1.7608236074447632 0.48563244938850403 0 2
8.685033798217773 6.990077972412109 -1.775262713432312 0.4575140178203583 0 2
8.79189395904541 7.011289119720459 -1.7906556129455566 0.4535812437534332 0 2
8.900625228881836 7.032890319824219 -1.806352138519287 0.4496394693851471 0 2
9.010571479797363 7.054296493530273 -1.82222318649292 0.15568171441555023 0 1
9.042162895202637 7.01378870010376 -1.8222253322601318 0.15568144619464874 0 1
9.073549270629883 6.97314453125 -1.8222270011901855 0.15568134188652039 0 1
9.104765892028809 6.932363033294678 -1.8222283124923706 0.15568126738071442 0 1
9.135790824890137 6.891445159912109 -1.8222293853759766 0.15568125247955322 0 1
9.1666259765625 6.85037088394165 -1.8222299814224243 0.15568116307258606 0 1
9.197279930114746 6.809160232543945 -1.8222302198410034 0.15568110346794128 0 1
9.227744102478027 6.767812252044678 -1.8222302198410034 0.1556810885667801 0 1
9.25802230834961 6.726327896118164 -1.8222296237945557 0.15568125247955322 0 1
9.288115501403809 6.684706687927246 -1.8222287893295288 0.15568122267723083 0 1
9.31801700592041 6.642949104309082 -1.8222274780273438 0.15568143129348755 0 1
9.347729682922363 6.601054668426514 -1.8222259283065796 0.1556815654039383 0 1
9.377236366271973 6.559023380279541 -1.8222239017486572 0.1556817889213562 0 1
9.406577110290527 6.51687479019165 -1.8222216367721558 0.1556818038225174 0 1
9.435717582702637 6.474570274353027 -1.822218894958496 0.15568214654922485 0 1
9.464662551879883 6.432168006896973 -1.8222157955169678 0.15568235516548157 0 1
9.493408203125 6.389609336853027 -1.8222123384475708 0.15568268299102783 0 1
9.52197265625 6.346913814544678 -1.8222085237503052 0.15568310022354126 0 1
9.550346374511719 6.304081916809082 -1.8222042322158813 0.15568342804908752 0 1
9.578510284423828 6.261171817779541 -1.8221997022628784 0.1556837260723114 0 1
9.606489181518555 6.218105316162109 -1.8221948146820068 0.1556842178106308 0 1
9.63427734375 6.17492151260376 -1.822189450263977 0.15568460524082184 0 1
9.661860466003418 6.131581783294678 -1.8221838474273682 0.15568506717681885 0 1
9.689248085021973 6.088144302368164 -1.8221776485443115 0.1556856334209442 0 1
9.716435432434082 6.044569969177246 -1.8221713304519653 0.15568624436855316 0 1
9.74343204498291 6.000859260559082 -1.822164535522461 0.1556868553161621 0 1
9.77022933959961 5.957089900970459 -1.822157382965088 0.15568730235099792 0 1
9.796820640563965 5.913125038146973 -1.8221497535705566 0.15568816661834717 0 1
9.823222160339355 5.869081974029541 -1.8221418857574463 0.15568870306015015 0 1
9.849418640136719 5.824921607971191 -1.8221335411071777 0.15568940341472626 0 1
9.875410079956055 5.780624866485596 -1.8221248388290405 0.1556902825832367 0 1
9.90121078491211 5.736210823059082 -1.8221160173416138 0.15569093823432922 0 1
9.926796913146973 5.691699028015137 -1.8221065998077393 0.15569178760051727 0 1
9.952192306518555 5.647050857543945 -1.822096824645996 0.15569259226322174 0 1
9.977377891540527 5.602304458618164 -1.8220866918563843 0.1556934267282486 0 1
10.002358436584473 5.557441234588623 -1.8220762014389038 0.15569430589675903 0 1
10.027143478393555 5.512460708618164 -1.8220653533935547 0.15569525957107544 0 1
10.051718711853027 5.467363357543945 -1.822054147720337 0.15569627285003662 0 1
10.076098442077637 5.422167778015137 -1.82204270362854 0.15569719672203064 0 1
10.100268363952637 5.376835823059082 -1.8220305442810059 0.1556982845067978 0 1
10.124218940734863 5.331425666809082 -1.8220183849334717 0.15569926798343658 0 1
10.14798355102539 5.285898208618164 -1.8220056295394897 0.15570028126239777 0 1
10.17153263092041 5.240273475646973 -1.8219926357269287 0.1557013839483261 0 1
10.194868087768555 5.194530963897705 -1.8219791650772095 0.1557025909423828 0 1
10.218002319335938 5.148691177368164 -1.8219653367996216 0.15570373833179474 0 1
10.240922927856445 5.102734088897705 -1.8219512701034546 0.15570510923862457 0 1
10.263642311096191 5.056679725646973 -1.8219367265701294 0.1557062715291977 0 1
10.286147117614746 5.01052713394165 -1.821921944618225 0.15570753812789917 0 1
10.308456420898438 4.964257717132568 -1.8219066858291626 0.15570874512195587 0 1
10.33053207397461 4.917910099029541 -1.821890950202942 0.1557101309299469 0 1
10.352412223815918 4.871464729309082 -1.821874976158142 0.15571144223213196 0 1
10.3740816116333 4.824921607971191 -1.8218587636947632 0.15571284294128418 0 1
10.395526885986328 4.778261661529541 -1.8218419551849365 0.15571436285972595 0 1
10.416767120361328 4.731503963470459 -1.8218249082565308 0.1557159274816513 0 1
10.437807083129883 4.684668064117432 -1.8218075037002563 0.15571725368499756 0 1
10.458613395690918 4.637734413146973 -1.8217898607254028 0.15571878850460052 0 1
10.479218482971191 4.590683460235596 -1.821771502494812 0.15572041273117065 0 1
10.499608993530273 4.543574333190918 -1.8217530250549316 0.15572205185890198 0 1
10.51979923248291 4.49636697769165 -1.8217343091964722 0.155723437666893 0 1
10.539751052856445 4.449042797088623 -1.821714997291565 0.15572522580623627 0 1
10.559496879577637 4.401659965515137 -1.821695327758789 0.15572695434093475 0 1
10.5790376663208 4.354179382324219 -1.821675419807434 0.15572848916053772 0 1
10.59835433959961 4.306621074676514 -1.821655035018921 0.1557302623987198 0 1
10.617460250854492 4.258944988250732 -1.8216345310211182 0.15573203563690186 0 1
10.636343002319336 4.21121072769165 -1.8216134309768677 0.15573382377624512 0 1
10.655004501342773 4.163378715515137 -1.821592092514038 0.15573568642139435 0 1
10.673452377319336 4.115468502044678 -1.8215702772140503 0.15573757886886597 0 1
10.691689491271973 4.067480564117432 -1.8215482234954834 0.15573948621749878 0 1
10.709696769714355 4.019413948059082 -1.8215258121490479 0.15574145317077637 0 1
10.727495193481445 3.9712302684783936 -1.821502923965454 0.15574339032173157 0 1
10.745068550109863 3.923027276992798 -1.8214797973632812 0.15574534237384796 0 1
10.762446403503418 3.874706983566284 -1.8214563131332397 0.15574726462364197 0 1
10.779584884643555 3.826308488845825 -1.8214324712753296 0.15574927628040314 0 1
10.796499252319336 3.7778515815734863 -1.8214080333709717 0.15575148165225983 0 1
10.813202857971191 3.729316234588623 -1.8213835954666138 0.15575344860553741 0 1
10.829672813415527 3.6806836128234863 -1.821358561515808 0.15575571358203888 0 1
10.845947265625 3.6319921016693115 -1.8213332891464233 0.15575779974460602 0 1
10.861977577209473 3.583242177963257 -1.82130765914917 0.15575997531414032 0 1
10.877792358398438 3.534414052963257 -1.8212816715240479 0.1557622104883194 0 1
10.893383979797363 3.485488176345825 -1.8212554454803467 0.15576457977294922 0 1
10.908759117126465 3.4365234375 -1.8212286233901978 0.1557668000459671 0 1
10.923906326293945 3.387460947036743 -1.8212016820907593 0.15576912462711334 0 1
10.938838005065918 3.3383593559265137 -1.8211742639541626 0.15577144920825958 0 1
10.9535493850708 3.289179563522339 -1.8211464881896973 0.15577371418476105 0 1
10.968031883239746 3.239921808242798 -1.8211184740066528 0.15577618777751923 0 1
10.982295036315918 3.1906445026397705 -1.8210901021957397 0.15577852725982666 0 1
10.996333122253418 3.141249895095825 -1.8210612535476685 0.15578103065490723 0 1
11.010141372680664 3.0918359756469727 -1.8210320472717285 0.1557834893465042 0 1
11.023720741271973 3.0423240661621094 -1.8210026025772095 0.15578611195087433 0 1
11.037089347839355 2.992792844772339 -1.8209726810455322 0.15578867495059967 0 1
11.0502290725708 2.943183422088623 -1.8209426403045654 0.15579117834568024 0 1
11.06313419342041 2.8934764862060547 -1.8209121227264404 0.15579387545585632 0 1
11.075810432434082 2.8437695503234863 -1.8208812475204468 0.1557965725660324 0 1
11.088285446166992 2.7939844131469727 -1.820850133895874 0.15579915046691895 0 1
11.100512504577637 2.744140625 -1.8208184242248535 0.15580183267593384 0 1
11.112524032592773 2.6942381858825684 -1.820786714553833 0.1558045744895935 0 1
11.124311447143555 2.6443164348602295 -1.8207545280456543 0.1558072715997696 0 1
11.135878562927246 2.594316244125366 -1.8207218647003174 0.15580999851226807 0 1
11.147187232971191 2.544238328933716 -1.8206888437271118 0.1558130383491516 0 1
11.158300399780273 2.4941601753234863 -1.8206558227539062 0.1558157503604889 0 1
11.169169425964355 2.4440038204193115 -1.820622205734253 0.15581870079040527 0 1
11.179814338684082 2.393808603286743 -1.820588231086731 0.15582160651683807 0 1
11.1902437210083 2.343574285507202 -1.8205540180206299 0.1558244526386261 0 1
11.200434684753418 2.293281316757202 -1.8205195665359497 0.1558273881673813 0 1
11.210400581359863 2.2429492473602295 -1.8204845190048218 0.1558304727077484 0 1
11.220131874084473 2.192578077316284 -1.8204493522644043 0.15583357214927673 0 1
11.229658126831055 2.142148494720459 -1.8204138278961182 0.15583635866641998 0 1
11.238920211791992 2.0916991233825684 -1.8203777074813843 0.15583954751491547 0 1
11.247978210449219 2.041191339492798 -1.8203415870666504 0.155842587351799 0 1
11.256792068481445 1.9906444549560547 -1.8203049898147583 0.1558457911014557 0 1
11.265385627746582 1.9400781393051147 -1.8202680349349976 0.15584897994995117 0 1
11.273759841918945 1.8894530534744263 -1.8202308416366577 0.15585201978683472 0 1
11.281879425048828 1.8387889862060547 -1.8201932907104492 0.1558554619550705 0 1
11.28978443145752 1.7881054878234863 -1.8201552629470825 0.1558586210012436 0 1
11.297460556030273 1.7373827695846558 -1.8201171159744263 0.15586194396018982 0 1
11.304911613464355 1.686621069908142 -1.820078730583191 0.15586505830287933 0 1
11.312108993530273 1.635839819908142 -1.8200397491455078 0.15586864948272705 0 1
11.319110870361328 1.5850390195846558 -1.8200005292892456 0.15587179362773895 0 1
11.325854301452637 1.5341796875 -1.8199610710144043 0.15587520599365234 0 1
10.542377471923828 1.3799023628234863 -1.693050503730774 0.9050534963607788 593 19
10.03384780883789 1.2675585746765137 -1.610453486442566 0.9377497434616089 593 19
9.068022727966309 1.1042187213897705 -1.4546273946762085 0.996921181678772 593 19
9.732900619506836 1.1408789157867432 -1.56044340133667 0.2808154821395874 593 13
9.698344230651855 1.092714786529541 -1.5541033744812012 0.9755919575691223 593 13
9.711732864379883 1.0500975847244263 -1.5554766654968262 0.8249024748802185 593 13
11.366674423217773 1.1774804592132568 -1.8196755647659302 0.15589970350265503 0 1
11.371577262878418 1.126406192779541 -1.8196334838867188 0.15590335428714752 0 1
11.376249313354492 1.075351595878601 -1.8195910453796387 0.1559070497751236 0 1
11.38070297241211 1.024257779121399 -1.81954824924469 0.1559106707572937 0 1
11.384916305541992 0.97314453125 -1.819505214691162 0.155914306640625 0 1
11.388900756835938 0.9220312237739563 -1.8194619417190552 0.1559179723262787 0 1
11.392651557922363 0.8708788752555847 -1.8194183111190796 0.15592175722122192 0 1
11.396162033081055 0.8197265267372131 -1.8193743228912354 0.15592551231384277 0 1
11.399462699890137 0.7685351371765137 -1.819330096244812 0.15592925250530243 0 1
11.402509689331055 0.7173632383346558 -1.81928551197052 0.15593311190605164 0 1
11.405326843261719 0.6661718487739563 -1.819240689277649 0.15593701601028442 0 1
11.40792465209961 0.6149609088897705 -1.8191955089569092 0.15594080090522766 0 1
11.4102783203125 0.5637304782867432 -1.8191498517990112 0.1559448093175888 0 1
11.412416458129883 0.512499988079071 -1.8191040754318237 0.1559486836194992 0 1
11.414306640625 0.4612695276737213 -1.8190580606460571 0.15595270693302155 0 1
11.415966987609863 0.41001951694488525 -1.8190114498138428 0.15595659613609314 0 1
11.417402267456055 0.3587890565395355 -1.8189648389816284 0.15596060454845428 0 1
11.418607711791992 0.30753904581069946 -1.8189177513122559 0.155964657664299 0 1
11.419569969177246 0.25626951456069946 -1.8188705444335938 0.15596871078014374 0 1
11.420297622680664 0.2050195336341858 -1.8188228607177734 0.15597286820411682 0 1
11.420820236206055 0.1537500023841858 -1.818774938583374 0.15597684681415558 0 1
11.4210786819458 0.1024804636836052 -1.8187267780303955 0.15598107874393463 0 1
11.421117782592773 0.051249999552965164 -1.8186782598495483 0.15598523616790771 0 1
11.420937538146973 -3.9062499126885086e-05 -1.8186293840408325 0.15598931908607483 0 1
11.420507431030273 -0.05126953125 -1.8185803890228271 0.15599359571933746 0 1
11.419848442077637 -0.10251952707767487 -1.8185310363769531 0.15599793195724487 0 1
11.41896915435791 -0.15376952290534973 -1.8184814453125 0.15600205957889557 0 1
11.417841911315918 -0.20499999821186066 -1.8184313774108887 0.15600645542144775 0 1
11.41649341583252 -0.2562499940395355 -1.8183809518814087 0.15601062774658203 0 1
11.4149169921875 -0.30748045444488525 -1.8183305263519287 0.15601497888565063 0 1
11.413105010986328 -0.3586718738079071 -1.8182796239852905 0.1560194045305252 0 1
11.411064147949219 -0.40990233421325684 -1.8182286024093628 0.15602368116378784 0 1
11.408783912658691 -0.4610937535762787 -1.8181771039962769 0.1560281664133072 0 1
11.40627384185791 -0.5122851729393005 -1.8181253671646118 0.156032532453537 0 1
11.40353012084961 -0.5634374618530273 -1.8180733919143677 0.1560370773077011 0 1
11.400566101074219 -0.6146093606948853 -1.8180211782455444 0.1560414880514145 0 1
11.397353172302246 -0.6657617092132568 -1.817968726158142 0.15604613721370697 0 1
11.233656883239746 -0.7067968845367432 -1.7923442125320435 0.25277379155158997 0 2
11.044740676879883 -0.7446874976158142 -1.7627187967300415 0.2856152057647705 0 2
10.882490158081055 -0.7828124761581421 -1.737368106842041 0.28978222608566284 0 2
10.731791496276855 -0.8203905820846558 -1.7138792276382446 0.15606434643268585 0 2
10.727680206298828 -0.8685351610183716 -1.713828444480896 0.1560690701007843 0 2
10.723363876342773 -0.91664057970047 -1.7137770652770996 0.15607361495494843 0 2
10.718828201293945 -0.9647460579872131 -1.7137258052825928 0.15607818961143494 0 2
10.7140474319458 -1.012792944908142 -1.7136740684509277 0.15608316659927368 0 2
10.709076881408691 -1.0608397722244263 -1.7136222124099731 0.1560877412557602 0 2
10.703876495361328 -1.1088476181030273 -1.713570237159729 0.15609261393547058 0 2
10.698466300964355 -1.1568554639816284 -1.713517665863037 0.15609733760356903 0 2
10.692841529846191 -1.2048242092132568 -1.7134650945663452 0.15610213577747345 0 2
10.686996459960938 -1.2527538537979126 -1.7134121656417847 0.15610697865486145 0 2
10.680936813354492 -1.300683617591858 -1.713358998298645 0.15611176192760468 0 2
10.674662590026855 -1.348535180091858 -1.7133055925369263 0.15611664950847626 0 2
10.668164253234863 -1.3964061737060547 -1.7132519483566284 0.15612155199050903 0 2
10.661455154418945 -1.4442187547683716 -1.7131980657577515 0.15612651407718658 0 2
10.654525756835938 -1.4919921159744263 -1.7131438255310059 0.15613140165805817 0 2
10.647387504577637 -1.5397655963897705 -1.7130895853042603 0.15613633394241333 0 2
10.64003849029541 -1.5874804258346558 -1.713034749031067 0.15614120662212372 0 2
10.632460594177246 -1.6351561546325684 -1.712980031967163 0.15614627301692963 0 2
10.624677658081055 -1.6827929019927979 -1.7129249572753906 0.15615122020244598 0 2
10.616679191589355 -1.730410099029541 -1.7128695249557495 0.1561562865972519 0 2
10.608451843261719 -1.7779881954193115 -1.7128139734268188 0.15616147220134735 0 2
10.600019454956055 -1.825527310371399 -1.712758183479309 0.15616650879383087 0 2
10.5913667678833 -1.8730077743530273 -1.7127020359039307 0.1561717838048935 0 2
10.582514762878418 -1.9204686880111694 -1.7126456499099731 0.15617677569389343 0 2
10.573442459106445 -1.967871069908142 -1.7125890254974365 0.15618188679218292 0 2
10.564160346984863 -2.0152342319488525 -1.7125322818756104 0.1561870574951172 0 2
10.554648399353027 -2.062558650970459 -1.7124754190444946 0.15619231760501862 0 2
10.544936180114746 -2.1098437309265137 -1.7124181985855103 0.15619754791259766 0 2
10.535014152526855 -2.1570701599121094 -1.7123606204986572 0.15620270371437073 0 2
10.524858474731445 -2.2042577266693115 -1.7123029232025146 0.1562081277370453 0 2
10.514506340026855 -2.2513866424560547 -1.7122451066970825 0.15621332824230194 0 2
10.50394058227539 -2.298476457595825 -1.7121868133544922 0.1562187224626541 0 2
10.493154525756836 -2.345527410507202 -1.7121285200119019 0.15622402727603912 0 2
7.554784774780273 -1.7243359088897705 -1.2339354753494263 0.7687639594078064 0 6
7.490170955657959 -1.7449804544448853 -1.2246475219726562 0.42073172330856323 0 6
7.379672527313232 -1.7542186975479126 -1.207858920097351 0.6108476519584656 0 6
7.353720664978027 -1.7829492092132568 -1.2049075365066528 0.9868178963661194 0 6
7.349921703338623 -1.816992163658142 -1.2056087255477905 0.8076077699661255 0 6
7.375951766967773 -1.8586132526397705 -1.211234450340271 0.573651134967804 0 6
7.383212566375732 -1.8957226276397705 -1.2138115167617798 0.9019677639007568 0 6
7.390322208404541 -1.932949185371399 -1.2163933515548706 0.9000522494316101 0 6
7.387211799621582 -1.9675780534744263 -1.2173237800598145 0.9939160943031311 0 6
7.38577127456665 -2.002734422683716 -1.2185553312301636 0.818849503993988 0 6
10.360663414001465 -2.859375 -1.7114717960357666 0.15628384053707123 0 2
10.347352981567383 -2.9057421684265137 -1.7114107608795166 0.1562895029783249 0 2
10.333837509155273 -2.9520506858825684 -1.7113497257232666 0.1562950760126114 0 2
10.320107460021973 -2.998281240463257 -1.7112884521484375 0.15630073845386505 0 2
10.30618667602539 -3.0444726943969727 -1.7112268209457397 0.1563062071800232 0 2
10.292045593261719 -3.090585947036743 -1.7111648321151733 0.15631192922592163 0 2
10.2777099609375 -3.1366209983825684 -1.711102843284607 0.15631745755672455 0 2
10.26314926147461 -3.1826171875 -1.7110406160354614 0.15632328391075134 0 2
10.248383522033691 -3.228515625 -1.710978388786316 0.1563289910554886 0 2
10.233403205871582 -3.2743358612060547 -1.7109156847000122 0.15633486211299896 0 2
10.218246459960938 -3.320136547088623 -1.7108529806137085 0.15634043514728546 0 2
10.202860832214355 -3.365839719772339 -1.7107899188995361 0.1563461571931839 0 2
10.187284469604492 -3.4114646911621094 -1.7107267379760742 0.15635184943675995 0 2
10.171483993530273 -3.4570116996765137 -1.7106633186340332 0.1563577800989151 0 2
10.155488014221191 -3.5024805068969727 -1.710599660873413 0.15636371076107025 0 2
10.139301300048828 -3.547929525375366 -1.7105358839035034 0.15636922419071198 0 2
10.122549057006836 -3.593144416809082 -1.7104135751724243 0.15643928945064545 0 2
10.105966567993164 -3.6383984088897705 -1.7103536128997803 0.15644480288028717 0 2
10.089174270629883 -3.6835741996765137 -1.7102936506271362 0.15645043551921844 0 2
10.072192192077637 -3.728691339492798 -1.710233449935913 0.15645596385002136 0 2
10.055005073547363 -3.7737302780151367 -1.7101730108261108 0.1564614474773407 0 2
10.037626266479492 -3.8186912536621094 -1.7101125717163086 0.15646669268608093 0 2
10.020009994506836 -3.8635547161102295 -1.7100518941879272 0.15647251904010773 0 2
10.002225875854492 -3.908339738845825 -1.7099909782409668 0.15647798776626587 0 2
9.98421859741211 -3.9530467987060547 -1.7099299430847168 0.15648354589939117 0 2
9.966015815734863 -3.997675657272339 -1.7098685503005981 0.15648934245109558 0 2
9.947627067565918 -4.042245864868164 -1.7098073959350586 0.15649473667144775 0 2
9.929022789001465 -4.086659908294678 -1.7097457647323608 0.15650056302547455 0 2
9.910229682922363 -4.131054401397705 -1.709684133529663 0.1565059870481491 0 2
9.891225814819336 -4.175312519073486 -1.7096221446990967 0.15651188790798187 0 2
9.8720064163208 -4.21951150894165 -1.7095571756362915 0.15645897388458252 0 2
9.852587699890137 -4.263613224029541 -1.709490418434143 0.15646520256996155 0 2
9.83297348022461 -4.307636737823486 -1.7094236612319946 0.15647108852863312 0 2
9.813163757324219 -4.3515625 -1.709356665611267 0.1564771682024002 0 2
9.7931489944458 -4.395370960235596 -1.70928955078125 0.15648332238197327 0 2
9.772939682006836 -4.439101696014404 -1.7092220783233643 0.15648961067199707 0 2
9.75252914428711 -4.482734203338623 -1.7091546058654785 0.1564958095550537 0 2
9.731928825378418 -4.526288986206055 -1.7090868949890137 0.15650197863578796 0 2
9.711137771606445 -4.569746017456055 -1.7090191841125488 0.15650805830955505 0 2
9.690146446228027 -4.61306619644165 -1.7089512348175049 0.15651440620422363 0 2
9.668959617614746 -4.656347751617432 -1.7088830471038818 0.15652060508728027 0 2
9.647578239440918 -4.69949197769165 -1.7088146209716797 0.15652687847614288 0 2
9.62601089477539 -4.742578029632568 -1.708746314048767 0.15653301775455475 0 2
9.604232788085938 -4.785527229309082 -1.7086776494979858 0.15653938055038452 0 2
9.582280158996582 -4.828378677368164 -1.7086089849472046 0.1565456986427307 0 2
9.560126304626465 -4.871152400970459 -1.7085399627685547 0.15655192732810974 0 2
9.5377779006958 -4.913808345794678 -1.7084710597991943 0.1565583497285843 0 2
9.515254020690918 -4.956347465515137 -1.7084017992019653 0.1565646529197693 0 2
9.49251937866211 -4.99880838394165 -1.7083325386047363 0.15657110512256622 0 2
9.4696044921875 -5.041152000427246 -1.7082630395889282 0.15657742321491241 0 2
9.44649887084961 -5.083398342132568 -1.708193302154541 0.15658383071422577 0 2
9.423208236694336 -5.125527381896973 -1.7081235647201538 0.1565902829170227 0 2
9.438589096069336 -5.188886642456055 -1.715110421180725 0.15659624338150024 0 2
9.414823532104492 -5.230996131896973 -1.7150400876998901 0.15660259127616882 0 2
9.390853881835938 -5.272968769073486 -1.7149696350097656 0.1566092073917389 0 2
9.366713523864746 -5.314863204956055 -1.714898943901062 0.15661558508872986 0 2
9.342391967773438 -5.356620788574219 -1.7148281335830688 0.15662187337875366 0 2
9.317866325378418 -5.398281097412109 -1.7147573232650757 0.15662844479084015 0 2
9.293158531188965 -5.439785003662109 -1.714686393737793 0.15663504600524902 0 2
9.268285751342773 -5.48123025894165 -1.7146151065826416 0.15664122998714447 0 2
9.243193626403809 -5.522539138793945 -1.7145438194274902 0.1566479206085205 0 2
9.21792984008789 -5.56374979019165 -1.7144726514816284 0.15665443241596222 0 2
9.192475318908691 -5.604843616485596 -1.7144008874893188 0.1566610336303711 0 2
9.166854858398438 -5.64578104019165 -1.7143293619155884 0.1566675454378128 0 2
9.141044616699219 -5.68664026260376 -1.7142574787139893 0.1566740870475769 0 2
9.1150484085083 -5.727343559265137 -1.7141857147216797 0.15668076276779175 0 2
9.088857650756836 -5.767988204956055 -1.7141135931015015 0.15668731927871704 0 2
9.062509536743164 -5.808456897735596 -1.7140413522720337 0.15669389069080353 0 2
9.035971641540527 -5.848808288574219 -1.7139692306518555 0.1567005068063736 0 2
9.009238243103027 -5.889042854309082 -1.7138968706130981 0.1567072868347168 0 2
8.982353210449219 -5.929179668426514 -1.7138243913650513 0.15671372413635254 0 2
8.955273628234863 -5.969179630279541 -1.7137517929077148 0.15672029554843903 0 2
8.92800235748291 -6.009081840515137 -1.7136789560317993 0.15672701597213745 0 2
8.900566101074219 -6.048828125 -1.7136062383651733 0.15673357248306274 0 2
8.87294864654541 -6.088418006896973 -1.7135332822799683 0.1567404717206955 0 2
8.845160484313965 -6.127949237823486 -1.7134603261947632 0.1567470282316208 0 2
8.817201614379883 -6.167304515838623 -1.713387131690979 0.15675364434719086 0 2
8.789052963256836 -6.20654296875 -1.7133138179779053 0.15676061809062958 0 2
8.760737419128418 -6.245664119720459 -1.713240623474121 0.1567670702934265 0 2
8.732245445251465 -6.284648418426514 -1.7131670713424683 0.1567738801240921 0 2
8.70357894897461 -6.323495864868164 -1.7130935192108154 0.15678070485591888 0 2
8.674736022949219 -6.362226486206055 -1.7130199670791626 0.15678735077381134 0 2
8.64571762084961 -6.400820255279541 -1.7129461765289307 0.15679414570331573 0 2
8.61654281616211 -6.439296722412109 -1.7128722667694092 0.1568007916212082 0 2
8.58719253540039 -6.477617263793945 -1.7127984762191772 0.156807541847229 0 2
8.557661056518555 -6.515800476074219 -1.7127244472503662 0.15681441128253937 0 2
8.527958869934082 -6.553847312927246 -1.7126502990722656 0.15682122111320496 0 2
8.49808120727539 -6.591757774353027 -1.712576150894165 0.15682817995548248 0 2
8.468066215515137 -6.629589557647705 -1.7125017642974854 0.15683457255363464 0 2
8.437846183776855 -6.667226314544678 -1.7124273777008057 0.15684154629707336 0 2
8.407475471496582 -6.704745769500732 -1.7123528718948364 0.15684829652309418 0 2
8.376928329467773 -6.742089748382568 -1.7122783660888672 0.15685538947582245 0 2
8.346220970153809 -6.779335975646973 -1.7122036218643188 0.15686209499835968 0 2
8.315351486206055 -6.816425800323486 -1.71212899684906 0.15686887502670288 0 2
8.284306526184082 -6.853378772735596 -1.7120542526245117 0.15687592327594757 0 2
8.253125190734863 -6.890195369720459 -1.7119793891906738 0.15688250958919525 0 2
8.221747398376465 -6.926855087280273 -1.7119044065475464 0.15688955783843994 0 2
8.190204620361328 -6.96337890625 -1.7118295431137085 0.1568966507911682 0 2
8.158530235290527 -6.999765396118164 -1.7117544412612915 0.15690314769744873 0 2
8.126669883728027 -7.035995960235596 -1.711679220199585 0.15691028535366058 0 2
8.094657897949219 -7.072070121765137 -1.7116039991378784 0.15691713988780975 0 2
8.062475204467773 -7.10802698135376 -1.7115287780761719 0.15692411363124847 0 2
8.030136108398438 -7.143808364868164 -1.7114533185958862 0.1569310873746872 0 2
7.997651100158691 -7.17947244644165 -1.7113778591156006 0.15693776309490204 0 2
7.964999675750732 -7.21496057510376 -1.711302399635315 0.1569449007511139 0 2
7.932187557220459 -7.250312328338623 -1.7112269401550293 0.15695184469223022 0 2
7.899218559265137 -7.285527229309082 -1.711151361465454 0.15695858001708984 0 2
7.866103172302246 -7.320605278015137 -1.7110756635665894 0.15696541965007782 0 2
7.832802772521973 -7.35546875 -1.710999846458435 0.15697266161441803 0 2
7.799379825592041 -7.390233993530273 -1.7109241485595703 0.1569794863462448 0 2
7.765795707702637 -7.424824237823486 -1.710848331451416 0.15698644518852234 0 2
7.7320556640625 -7.459296703338623 -1.7107723951339722 0.15699328482151031 0 2
7.698163986206055 -7.493574142456055 -1.7106965780258179 0.15700018405914307 0 2
7.664101600646973 -7.527714729309082 -1.7106205224990845 0.15700741112232208 0 2
7.629902362823486 -7.561718463897705 -1.7105443477630615 0.15701423585414886 0 2
6.882480144500732 6.882460594177246 -1.7162429094314575 0.17209576070308685 0 2
6.918310165405273 6.856484413146973 -1.7174878120422363 0.5670340061187744 0 2
6.944057464599609 6.820507526397705 -1.7162632942199707 0.1720936894416809 0 2
6.974643230438232 6.789316177368164 -1.7162728309631348 0.1720927357673645 0 2
7.005087852478027 6.757987976074219 -1.7162823677062988 0.17209169268608093 0 2
7.035375595092773 6.726503849029541 -1.7162913084030151 0.17209087312221527 0 2
7.073574066162109 6.702519416809082 -1.718255877494812 0.5486010313034058 0 2
7.151220321655273 6.715410232543945 -1.7297762632369995 0.5449473261833191 0 2
7.229897499084473 6.728496074676514 -1.7414836883544922 0.5412833094596863 0 2
7.310981273651123 6.742988109588623 -1.7537106275558472 0.5303937792778015 0 2
7.393471717834473 6.757909774780273 -1.7662022113800049 0.5266427397727966 0 2
7.477123737335205 6.773027420043945 -1.7789082527160645 0.5228804349899292 0 2
7.563559532165527 6.789804458618164 -1.792206048965454 0.5008692741394043 0 2
7.652177333831787 6.807578086853027 -1.8059446811676025 0.4970581829547882 0 2
7.742172718048096 6.825624942779541 -1.81993567943573 0.4932367503643036 0 2
7.774672508239746 6.792519569396973 -1.8203911781311035 0.17208370566368103 0 1
7.805107116699219 6.757577896118164 -1.820397138595581 0.17208299040794373 0 1
7.835385799407959 6.722499847412109 -1.82040274143219 0.1720825731754303 0 1
7.865498065948486 6.687265396118164 -1.8204079866409302 0.17208212614059448 0 1
7.895449161529541 6.651914119720459 -1.8204128742218018 0.17208163440227509 0 1
7.925243854522705 6.616445064544678 -1.8204174041748047 0.17208120226860046 0 1
7.954877853393555 6.58083963394165 -1.8204216957092285 0.17208068072795868 0 1
7.984350204467773 6.545077800750732 -1.8204256296157837 0.17208032310009003 0 1
8.013662338256836 6.509199142456055 -1.8204292058944702 0.1720798909664154 0 1
8.04281234741211 6.473164081573486 -1.820432424545288 0.1720796674489975 0 1
8.07180118560791 6.43701171875 -1.8204352855682373 0.1720794290304184 0 1
8.100600242614746 6.400742053985596 -1.8204379081726074 0.17207922041416168 0 1
8.129262924194336 6.364316463470459 -1.8204400539398193 0.17207908630371094 0 1
8.157758712768555 6.327773094177246 -1.8204419612884521 0.17207875847816467 0 1
8.186074256896973 6.291113376617432 -1.8204435110092163 0.17207865417003632 0 1
8.214238166809082 6.254316329956055 -1.8204447031021118 0.17207857966423035 0 1
8.24222183227539 6.217382907867432 -1.8204456567764282 0.17207857966423035 0 1
8.270049095153809 6.180331707000732 -1.8204461336135864 0.1720784455537796 0 1
8.297704696655273 6.143164157867432 -1.8204463720321655 0.1720784604549408 0 1
8.325185775756836 6.105859279632568 -1.820446252822876 0.17207840085029602 0 1
8.352499961853027 6.068437576293945 -1.8204457759857178 0.17207852005958557 0 1
8.379652976989746 6.03087854385376 -1.8204450607299805 0.17207854986190796 0 1
8.406630516052246 5.993203163146973 -1.8204439878463745 0.1720786839723587 0 1
8.433427810668945 5.955410003662109 -1.8204424381256104 0.17207875847816467 0 1
8.460062980651855 5.917500019073486 -1.820440649986267 0.17207902669906616 0 1
8.48653793334961 5.879472732543945 -1.8204386234283447 0.17207911610603333 0 1
8.512826919555664 5.841328144073486 -1.8204362392425537 0.17207929491996765 0 1
8.538930892944336 5.803027153015137 -1.820433259010315 0.17207971215248108 0 1
8.564882278442383 5.764628887176514 -1.8204302787780762 0.17207996547222137 0 1
8.590649604797363 5.726132869720459 -1.8204267024993896 0.17208035290241241 0 1
8.616250038146973 5.6875 -1.820422887802124 0.17208071053028107 0 1
8.641654968261719 5.648769378662109 -1.8204189538955688 0.17208117246627808 0 1
8.666909217834473 5.609921932220459 -1.820414423942566 0.17208150029182434 0 1
8.69198226928711 5.570937156677246 -1.8204096555709839 0.17208188772201538 0 1
8.716859817504883 5.531855583190918 -1.8204044103622437 0.17208245396614075 0 1
8.741567611694336 5.492695331573486 -1.8203991651535034 0.17208296060562134 0 1
8.76611328125 5.453359127044678 -1.8203933238983154 0.17208348214626312 0 1
8.790468215942383 5.413964748382568 -1.8203872442245483 0.1720840185880661 0 1
8.814648628234863 5.374433517456055 -1.820380687713623 0.17208468914031982 0 1
8.83864688873291 5.334804534912109 -1.8203738927841187 0.17208531498908997 0 1
8.86246109008789 5.295039176940918 -1.8203667402267456 0.17208607494831085 0 1
8.886103630065918 5.255214691162109 -1.8203593492507935 0.17208658158779144 0 1
8.909555435180664 5.215253829956055 -1.820351481437683 0.17208735644817352 0 1
8.932831764221191 5.175195217132568 -1.8203433752059937 0.1720881462097168 0 1
8.9559326171875 5.135019302368164 -1.820335030555725 0.17208902537822723 0 1
8.978842735290527 5.094746112823486 -1.8203262090682983 0.17208988964557648 0 1
9.001571655273438 5.054394245147705 -1.820317029953003 0.17209066450595856 0 1
9.024121284484863 5.013925552368164 -1.8203076124191284 0.17209142446517944 0 1
9.046488761901855 4.973339557647705 -1.8202978372573853 0.17209239304065704 0 1
9.0686616897583 4.932675838470459 -1.8202877044677734 0.17209336161613464 0 1
9.090659141540527 4.89187479019165 -1.820277214050293 0.1720944046974182 0 1
9.112465858459473 4.850996017456055 -1.8202664852142334 0.17209546267986298 0 1
9.134086608886719 4.809999942779541 -1.8202553987503052 0.17209658026695251 0 1
9.155527114868164 4.768945217132568 -1.8202439546585083 0.1720976084470749 0 1
9.176776885986328 4.727753639221191 -1.8202321529388428 0.1720987856388092 0 1
9.19784164428711 4.6865234375 -1.8202201128005981 0.1720997393131256 0 1
9.218720436096191 4.645156383514404 -1.8202075958251953 0.1721010059118271 0 1
9.23940372467041 4.603710651397705 -1.820194959640503 0.17210227251052856 0 1
9.25991153717041 4.562167644500732 -1.8201818466186523 0.17210344970226288 0 1
9.280224800109863 4.520546913146973 -1.820168375968933 0.17210470139980316 0 1
9.3003511428833 4.47878885269165 -1.8201546669006348 0.172106072306633 0 1
9.320282936096191 4.436972618103027 -1.8201406002044678 0.17210732400417328 0 1
9.3400239944458 4.395058631896973 -1.8201262950897217 0.17210876941680908 0 1
9.35958480834961 4.353066444396973 -1.8201115131378174 0.1721101552248001 0 1
9.378945350646973 4.310976505279541 -1.8200963735580444 0.17211155593395233 0 1
9.398119926452637 4.26882791519165 -1.820081114768982 0.17211292684078217 0 1
9.417098999023438 4.2265625 -1.8200653791427612 0.17211458086967468 0 1
9.435893058776855 4.184199333190918 -1.8200494050979614 0.17211604118347168 0 1
9.45449161529541 4.141796588897705 -1.8200329542160034 0.17211754620075226 0 1
9.472900390625 4.099277019500732 -1.8200162649154663 0.17211903631687164 0 1
9.49111270904541 4.056699275970459 -1.81999933719635 0.17212070524692535 0 1
9.509135246276855 4.014003753662109 -1.8199819326400757 0.17212232947349548 0 1
9.526952743530273 3.97124981880188 -1.8199642896652222 0.17212410271167755 0 1
9.544599533081055 3.928417921066284 -1.8199462890625 0.1721256524324417 0 1
9.56203556060791 3.885507822036743 -1.8199279308319092 0.17212741076946259 0 1
9.579272270202637 3.842519521713257 -1.8199093341827393 0.17212924361228943 0 1
9.596318244934082 3.799433469772339 -1.8198903799057007 0.17213106155395508 0 1
9.613173484802246 3.756289005279541 -1.819871187210083 0.17213279008865356 0 1
9.629838943481445 3.713066339492798 -1.8198516368865967 0.17213469743728638 0 1
9.646303176879883 3.6697850227355957 -1.8198316097259521 0.17213642597198486 0 1
9.66256332397461 3.6264257431030273 -1.8198113441467285 0.17213842272758484 0 1
9.678627967834473 3.5829882621765137 -1.8197909593582153 0.1721404492855072 0 1
9.694501876831055 3.539433479309082 -1.8197699785232544 0.17214243113994598 0 1
9.71017074584961 3.495859384536743 -1.8197487592697144 0.17214441299438477 0 1
9.725659370422363 3.45220685005188 -1.8197273015975952 0.17214645445346832 0 1
9.740937232971191 3.4084765911102295 -1.8197054862976074 0.17214839160442352 0 1
9.75600528717041 3.364687442779541 -1.8196831941604614 0.17215067148208618 0 1
9.77089786529541 3.3208398818969727 -1.8196607828140259 0.17215274274349213 0 1
9.7855806350708 3.27691388130188 -1.8196380138397217 0.17215484380722046 0 1
9.800053596496582 3.23291015625 -1.8196147680282593 0.1721571385860443 0 1
9.81435489654541 3.188847541809082 -1.8195912837982178 0.17215922474861145 0 1
9.828432083129883 3.1447460651397705 -1.8195676803588867 0.17216145992279053 0 1
9.842313766479492 3.1005663871765137 -1.8195436000823975 0.17216378450393677 0 1
9.856000900268555 3.056288957595825 -1.819519281387329 0.1721661239862442 0 1
9.869482040405273 3.012011766433716 -1.819494605064392 0.17216846346855164 0 1
9.882768630981445 2.967656135559082 -1.8194695711135864 0.1721707433462143 0 1
9.895849227905273 2.923222541809082 -1.819444179534912 0.17217318713665009 0 1
9.90872573852539 2.878730297088623 -1.8194185495376587 0.17217564582824707 0 1
9.921405792236328 2.8341991901397705 -1.8193926811218262 0.17217814922332764 0 1
9.933886528015137 2.7895898818969727 -1.819366455078125 0.17218059301376343 0 1
9.946162223815918 2.744941234588623 -1.8193398714065552 0.17218302190303802 0 1
9.958231925964355 2.700253963470459 -1.8193130493164062 0.17218564450740814 0 1
9.970097541809082 2.6554882526397705 -1.8192858695983887 0.1721881777048111 0 1
9.981762886047363 2.6106834411621094 -1.819258213043213 0.1721908003091812 0 1
9.993231773376465 2.5658202171325684 -1.8192304372787476 0.17219337821006775 0 1
10.004496574401855 2.5208983421325684 -1.8192024230957031 0.17219603061676025 0 1
