ply
format ascii 1.0
element vertex 1372
property float32 x
property float32 y
property float32 z
property float32 CosAngle
property uint32 ObjIdx
property uint32 ObjTag
end_header
1.4292 0.9902 -0.4929 0.1028 458 14
1.4289 0.9948 -0.4936 0.1027 458 14
1.4287 0.9994 -0.4943 0.1025 458 14
1.4284 1.0039 -0.4949 0.1024 458 14
1.4281 1.0086 -0.4956 0.1023 458 14
1.4278 1.0131 -0.4963 0.1021 458 14
1.4275 1.0178 -0.4970 0.1020 458 14
1.4271 1.0223 -0.4977 0.1018 458 14
1.4268 1.0269 -0.4983 0.1017 458 14
1.4264 1.0315 -0.4990 0.1016 458 14
1.4260 1.0361 -0.4997 0.1014 458 14
1.4256 1.0407 -0.5003 0.1013 458 14
1.4251 1.0453 -0.5010 0.1012 458 14
1.4246 1.0498 -0.5017 0.1010 458 14
1.4241 1.0544 -0.5023 0.1009 458 14
1.4236 1.0589 -0.5030 0.1008 458 14
1.4231 1.0635 -0.5036 0.1006 458 14
1.4226 1.0681 -0.5043 0.1005 458 14
1.4220 1.0727 -0.5049 0.1004 458 14
1.4214 1.0773 -0.5056 0.1002 458 14
1.4208 1.0818 -0.5062 0.1001 458 14
1.4201 1.0864 -0.5069 0.1000 458 14
1.4195 1.0909 -0.5075 0.0999 458 14
1.4188 1.0955 -0.5081 0.0997 458 14
1.4181 1.1000 -0.5088 0.0996 458 14
1.4174 1.1046 -0.5094 0.0995 458 14
1.4167 1.1091 -0.5100 0.0994 458 14
1.4159 1.1137 -0.5107 0.0992 458 14
1.4151 1.1182 -0.5113 0.0991 458 14
1.4143 1.1228 -0.5119 0.0990 458 14
1.4135 1.1273 -0.5125 0.0989 458 14
1.4127 1.1318 -0.5131 0.0988 458 14
1.4118 1.1363 -0.5137 0.0986 458 14
1.4109 1.1408 -0.5143 0.0985 458 14
1.4100 1.1453 -0.5150 0.0984 458 14
1.4091 1.1498 -0.5156 0.0983 458 14
1.4081 1.1543 -0.5162 0.0982 458 14
1.4071 1.1588 -0.5167 0.0981 458 14
1.4061 1.1633 -0.5173 0.0980 458 14
1.4054 1.1680 -0.5180 0.1004 458 14
1.4046 1.1727 -0.5187 0.1003 458 14
4.7683 3.9990 -1.7642 0.2795 0 1
4.7590 4.0095 -1.7641 0.2795 0 1
4.7498 4.0200 -1.7640 0.2795 0 1
4.7405 4.0304 -1.7639 0.2795 0 1
4.7312 4.0409 -1.7638 0.2795 0 1
4.7219 4.0512 -1.7637 0.2796 0 1
4.7125 4.0616 -1.7636 0.2796 0 1
4.7031 4.0720 -1.7635 0.2796 0 1
4.6937 4.0823 -1.7634 0.2796 0 1
4.6843 4.0926 -1.7633 0.2796 0 1
4.6749 4.1029 -1.7632 0.2796 0 1
4.6654 4.1132 -1.7631 0.2797 0 1
4.6559 4.1234 -1.7630 0.2797 0 1
4.6464 4.1336 -1.7629 0.2797 0 1
4.6235 4.1318 -1.7577 0.4648 0 2
4.5955 4.1254 -1.7506 0.4667 0 2
4.5679 4.1191 -1.7436 0.4686 0 2
4.5404 4.1129 -1.7366 0.4704 0 2
4.5131 4.1066 -1.7297 0.4723 0 2
4.4861 4.1005 -1.7229 0.4742 0 2
4.4592 4.0944 -1.7161 0.4761 0 2
4.4326 4.0883 -1.7094 0.4779 0 2
4.4061 4.0822 -1.7027 0.4798 0 2
4.3800 4.0763 -1.6961 0.4817 0 2
4.3539 4.0704 -1.6896 0.4835 0 2
4.3281 4.0644 -1.6831 0.4854 0 2
4.3052 4.0611 -1.6777 0.5610 0 2
4.2841 4.0594 -1.6730 0.5626 0 2
4.2632 4.0578 -1.6684 0.5641 0 2
4.2423 4.0561 -1.6638 0.5657 0 2
4.2259 4.0587 -1.6610 0.2799 0 2
4.2166 4.0679 -1.6609 0.2799 0 2
4.2073 4.0772 -1.6608 0.2800 0 2
4.1979 4.0864 -1.6607 0.2800 0 2
4.1885 4.0956 -1.6606 0.2800 0 2
4.1791 4.1048 -1.6606 0.2800 0 2
4.1696 4.1139 -1.6605 0.2800 0 2
4.1602 4.1231 -1.6604 0.2800 0 2
4.1508 4.1322 -1.6603 0.2800 0 2
4.4688 -4.4687 -1.8480 0.2746 0 1
4.4785 -4.4585 -1.8479 0.2746 0 1
4.4882 -4.4482 -1.8477 0.2746 0 1
4.4980 -4.4378 -1.8476 0.2746 0 1
4.5076 -4.4274 -1.8475 0.2746 0 1
4.5173 -4.4171 -1.8474 0.2746 0 1
4.5269 -4.4066 -1.8473 0.2747 0 1
4.5365 -4.3962 -1.8472 0.2747 0 1
4.5461 -4.3858 -1.8471 0.2747 0 1
4.5556 -4.3752 -1.8470 0.2747 0 1
4.5652 -4.3647 -1.8468 0.2747 0 1
4.5747 -4.3543 -1.8467 0.2747 0 1
4.5842 -4.3437 -1.8466 0.2748 0 1
4.5936 -4.3331 -1.8465 0.2748 0 1
4.6031 -4.3226 -1.8464 0.2748 0 1
4.6125 -4.3120 -1.8463 0.2748 0 1
4.6219 -4.3013 -1.8462 0.2748 0 1
4.6312 -4.2907 -1.8461 0.2748 0 1
4.6405 -4.2800 -1.8459 0.2749 0 1
4.6498 -4.2693 -1.8458 0.2749 0 1
4.6591 -4.2586 -1.8457 0.2749 0 1
4.6684 -4.2479 -1.8456 0.2749 0 1
4.6776 -4.2371 -1.8455 0.2749 0 1
4.6868 -4.2263 -1.8454 0.2750 0 1
4.6960 -4.2155 -1.8453 0.2750 0 1
4.7052 -4.2047 -1.8451 0.2750 0 1
4.7143 -4.1939 -1.8450 0.2750 0 1
4.7234 -4.1831 -1.8449 0.2750 0 1
4.7325 -4.1722 -1.8448 0.2750 0 1
4.7415 -4.1613 -1.8447 0.2751 0 1
4.7505 -4.1504 -1.8446 0.2751 0 1
4.7595 -4.1395 -1.8444 0.2751 0 1
4.7685 -4.1285 -1.8443 0.2751 0 1
4.7774 -4.1176 -1.8442 0.2751 0 1
4.7864 -4.1065 -1.8441 0.2751 0 1
4.7953 -4.0955 -1.8440 0.2752 0 1
4.8042 -4.0846 -1.8439 0.2752 0 1
4.8130 -4.0735 -1.8437 0.2752 0 1
4.8218 -4.0624 -1.8436 0.2752 0 1
4.8306 -4.0513 -1.8435 0.2752 0 1
4.8394 -4.0402 -1.8434 0.2752 0 1
4.8481 -4.0291 -1.8433 0.2753 0 1
4.8569 -4.0179 -1.8432 0.2753 0 1
4.8655 -4.0068 -1.8430 0.2753 0 1
4.8742 -3.9956 -1.8429 0.2753 0 1
4.8829 -3.9844 -1.8428 0.2753 0 1
4.8915 -3.9732 -1.8427 0.2754 0 1
4.9001 -3.9619 -1.8426 0.2754 0 1
4.9086 -3.9507 -1.8424 0.2754 0 1
4.9171 -3.9394 -1.8423 0.2754 0 1
4.9256 -3.9280 -1.8422 0.2754 0 1
4.9342 -3.9167 -1.8421 0.2754 0 1
4.9426 -3.9054 -1.8420 0.2755 0 1
4.9510 -3.8941 -1.8419 0.2755 0 1
4.9594 -3.8827 -1.8417 0.2755 0 1
4.9678 -3.8713 -1.8416 0.2755 0 1
4.9761 -3.8599 -1.8415 0.2755 0 1
4.9845 -3.8485 -1.8414 0.2755 0 1
4.9928 -3.8370 -1.8413 0.2756 0 1
5.0011 -3.8256 -1.8411 0.2756 0 1
5.0093 -3.8141 -1.8410 0.2756 0 1
5.0175 -3.8026 -1.8409 0.2756 0 1
5.0257 -3.7911 -1.8408 0.2756 0 1
5.0338 -3.7796 -1.8406 0.2757 0 1
5.0420 -3.7680 -1.8405 0.2757 0 1
5.0501 -3.7564 -1.8404 0.2757 0 1
5.0582 -3.7448 -1.8403 0.2757 0 1
5.0663 -3.7332 -1.8402 0.2757 0 1
5.0743 -3.7216 -1.8400 0.2757 0 1
5.0823 -3.7099 -1.8399 0.2758 0 1
5.0902 -3.6983 -1.8398 0.2758 0 1
5.0982 -3.6866 -1.8397 0.2758 0 1
5.1061 -3.6749 -1.8395 0.2758 0 1
5.1140 -3.6632 -1.8394 0.2758 0 1
5.1219 -3.6515 -1.8393 0.2759 0 1
5.1297 -3.6397 -1.8392 0.2759 0 1
5.1375 -3.6279 -1.8391 0.2759 0 1
5.1453 -3.6162 -1.8389 0.2759 0 1
5.1531 -3.6044 -1.8388 0.2759 0 1
5.1608 -3.5926 -1.8387 0.2760 0 1
5.1685 -3.5807 -1.8386 0.2760 0 1
5.1762 -3.5688 -1.8384 0.2760 0 1
5.1838 -3.5570 -1.8383 0.2760 0 1
5.1914 -3.5451 -1.8382 0.2760 0 1
5.1990 -3.5332 -1.8381 0.2760 0 1
5.2066 -3.5213 -1.8379 0.2761 0 1
5.2141 -3.5094 -1.8378 0.2761 0 1
5.2216 -3.4974 -1.8377 0.2761 0 1
5.2291 -3.4855 -1.8376 0.2761 0 1
5.2366 -3.4734 -1.8374 0.2761 0 1
5.2440 -3.4615 -1.8373 0.2762 0 1
5.2514 -3.4495 -1.8372 0.2762 0 1
5.2587 -3.4375 -1.8371 0.2762 0 1
5.2661 -3.4254 -1.8369 0.2762 0 1
5.2734 -3.4134 -1.8368 0.2762 0 1
5.2807 -3.4013 -1.8367 0.2763 0 1
5.2879 -3.3893 -1.8366 0.2763 0 1
5.2952 -3.3771 -1.8364 0.2763 0 1
5.3024 -3.3650 -1.8363 0.2763 0 1
5.3095 -3.3529 -1.8362 0.2763 0 1
5.3167 -3.3407 -1.8361 0.2763 0 1
5.3238 -3.3285 -1.8359 0.2764 0 1
5.3309 -3.3163 -1.8358 0.2764 0 1
5.3380 -3.3041 -1.8357 0.2764 0 1
5.3450 -3.2919 -1.8356 0.2764 0 1
5.3520 -3.2797 -1.8354 0.2764 0 1
5.3590 -3.2674 -1.8353 0.2765 0 1
5.3659 -3.2552 -1.8352 0.2765 0 1
5.3728 -3.2429 -1.8350 0.2765 0 1
5.3797 -3.2306 -1.8349 0.2765 0 1
5.3866 -3.2183 -1.8348 0.2765 0 1
5.3934 -3.2060 -1.8347 0.2766 0 1
5.4002 -3.1937 -1.8345 0.2766 0 1
5.4070 -3.1813 -1.8344 0.2766 0 1
5.4137 -3.1690 -1.8343 0.2766 0 1
5.4204 -3.1566 -1.8341 0.2766 0 1
5.4271 -3.1442 -1.8340 0.2767 0 1
5.4338 -3.1318 -1.8339 0.2767 0 1
5.4404 -3.1194 -1.8338 0.2767 0 1
5.4470 -3.1069 -1.8336 0.2767 0 1
5.4536 -3.0945 -1.8335 0.2767 0 1
5.4602 -3.0820 -1.8334 0.2767 0 1
5.4667 -3.0696 -1.8332 0.2768 0 1
5.4732 -3.0571 -1.8331 0.2768 0 1
5.4796 -3.0446 -1.8330 0.2768 0 1
5.4860 -3.0320 -1.8329 0.2768 0 1
5.4925 -3.0195 -1.8327 0.2768 0 1
5.4988 -3.0069 -1.8326 0.2769 0 1
5.5052 -2.9944 -1.8325 0.2769 0 1
5.5115 -2.9818 -1.8323 0.2769 0 1
5.5178 -2.9693 -1.8322 0.2769 0 1
5.5240 -2.9566 -1.8321 0.2769 0 1
5.5303 -2.9440 -1.8319 0.2770 0 1
5.5364 -2.9314 -1.8318 0.2770 0 1
5.5426 -2.9188 -1.8317 0.2770 0 1
5.5488 -2.9061 -1.8316 0.2770 0 1
5.5549 -2.8934 -1.8314 0.2770 0 1
5.5610 -2.8808 -1.8313 0.2771 0 1
5.5670 -2.8681 -1.8312 0.2771 0 1
5.5730 -2.8554 -1.8310 0.2771 0 1
5.5790 -2.8426 -1.8309 0.2771 0 1
5.5850 -2.8299 -1.8308 0.2771 0 1
5.5909 -2.8172 -1.8306 0.2772 0 1
5.5968 -2.8044 -1.8305 0.2772 0 1
5.6027 -2.7917 -1.8304 0.2772 0 1
5.6085 -2.7789 -1.8302 0.2772 0 1
5.6144 -2.7661 -1.8301 0.2772 0 1
5.6202 -2.7533 -1.8300 0.2773 0 1
5.6260 -2.7404 -1.8299 0.2773 0 1
5.6316 -2.7277 -1.8297 0.2773 0 1
5.6373 -2.7148 -1.8296 0.2773 0 1
5.6430 -2.7020 -1.8295 0.2773 0 1
5.6487 -2.6891 -1.8293 0.2774 0 1
5.6543 -2.6762 -1.8292 0.2774 0 1
5.6599 -2.6633 -1.8291 0.2774 0 1
5.6654 -2.6504 -1.8289 0.2774 0 1
5.6710 -2.6375 -1.8288 0.2774 0 1
5.6764 -2.6246 -1.8287 0.2775 0 1
5.6819 -2.6116 -1.8285 0.2775 0 1
5.6873 -2.5987 -1.8284 0.2775 0 1
5.6927 -2.5858 -1.8283 0.2775 0 1
5.6981 -2.5728 -1.8281 0.2775 0 1
5.7034 -2.5598 -1.8280 0.2776 0 1
5.7088 -2.5468 -1.8279 0.2776 0 1
5.7141 -2.5338 -1.8277 0.2776 0 1
5.7193 -2.5208 -1.8276 0.2776 0 1
5.7245 -2.5078 -1.8275 0.2776 0 1
5.7297 -2.4947 -1.8273 0.2777 0 1
5.7349 -2.4817 -1.8272 0.2777 0 1
5.7400 -2.4687 -1.8271 0.2777 0 1
5.7451 -2.4556 -1.8269 0.2777 0 1
5.7502 -2.4425 -1.8268 0.2777 0 1
5.7553 -2.4294 -1.8267 0.2778 0 1
5.7603 -2.4163 -1.8265 0.2778 0 1
5.7652 -2.4032 -1.8264 0.2778 0 1
5.7702 -2.3901 -1.8263 0.2778 0 1
5.7751 -2.3770 -1.8261 0.2778 0 1
5.7800 -2.3638 -1.8260 0.2779 0 1
5.7849 -2.3507 -1.8259 0.2779 0 1
5.7897 -2.3375 -1.8257 0.2779 0 1
5.7945 -2.3243 -1.8256 0.2779 0 1
5.7993 -2.3112 -1.8255 0.2779 0 1
5.8041 -2.2980 -1.8253 0.2780 0 1
5.8088 -2.2848 -1.8252 0.2780 0 1
5.8135 -2.2715 -1.8251 0.2780 0 1
5.8181 -2.2584 -1.8249 0.2780 0 1
5.8227 -2.2452 -1.8248 0.2781 0 1
5.8273 -2.2319 -1.8247 0.2781 0 1
5.8319 -2.2186 -1.8245 0.2781 0 1
5.8364 -2.2054 -1.8244 0.2781 0 1
5.8409 -2.1921 -1.8242 0.2781 0 1
5.8454 -2.1788 -1.8241 0.2782 0 1
5.8498 -2.1656 -1.8240 0.2782 0 1
5.8542 -2.1522 -1.8238 0.2782 0 1
5.8586 -2.1390 -1.8237 0.2782 0 1
5.8630 -2.1256 -1.8236 0.2782 0 1
5.8673 -2.1123 -1.8234 0.2783 0 1
5.8716 -2.0990 -1.8233 0.2783 0 1
5.8759 -2.0857 -1.8232 0.2783 0 1
5.8801 -2.0724 -1.8230 0.2783 0 1
5.8843 -2.0590 -1.8229 0.2783 0 1
5.8884 -2.0456 -1.8228 0.2784 0 1
5.8926 -2.0322 -1.8226 0.2784 0 1
5.8967 -2.0188 -1.8225 0.2784 0 1
5.9007 -2.0054 -1.8224 0.2784 0 1
5.9048 -1.9921 -1.8222 0.2784 0 1
5.9088 -1.9787 -1.8221 0.2785 0 1
5.9128 -1.9653 -1.8219 0.2785 0 1
5.9168 -1.9519 -1.8218 0.2785 0 1
5.9206 -1.9385 -1.8217 0.2785 0 1
5.9246 -1.9250 -1.8215 0.2785 0 1
5.9284 -1.9116 -1.8214 0.2786 0 1
5.9322 -1.8981 -1.8213 0.2786 0 1
5.9361 -1.8846 -1.8211 0.2786 0 1
5.9398 -1.8712 -1.8210 0.2786 0 1
5.9435 -1.8577 -1.8209 0.2787 0 1
5.9473 -1.8442 -1.8207 0.2787 0 1
5.9509 -1.8307 -1.8206 0.2787 0 1
5.9546 -1.8172 -1.8204 0.2787 0 1
5.9582 -1.8037 -1.8203 0.2787 0 1
5.9618 -1.7902 -1.8202 0.2788 0 1
5.9654 -1.7767 -1.8200 0.2788 0 1
5.9688 -1.7632 -1.8199 0.2788 0 1
5.9724 -1.7496 -1.8198 0.2788 0 1
5.9758 -1.7361 -1.8196 0.2788 0 1
5.9793 -1.7226 -1.8195 0.2789 0 1
5.9826 -1.7090 -1.8194 0.2789 0 1
5.9860 -1.6955 -1.8192 0.2789 0 1
5.9894 -1.6819 -1.8191 0.2789 0 1
5.9927 -1.6684 -1.8189 0.2789 0 1
5.9960 -1.6547 -1.8188 0.2790 0 1
5.9992 -1.6412 -1.8187 0.2790 0 1
6.0024 -1.6276 -1.8185 0.2790 0 1
6.0056 -1.6140 -1.8184 0.2790 0 1
6.0087 -1.6004 -1.8183 0.2791 0 1
6.0119 -1.5868 -1.8181 0.2791 0 1
6.0150 -1.5732 -1.8180 0.2791 0 1
6.0180 -1.5596 -1.8178 0.2791 0 1
6.0211 -1.5459 -1.8177 0.2791 0 1
6.0241 -1.5323 -1.8176 0.2792 0 1
6.0270 -1.5187 -1.8174 0.2792 0 1
6.0300 -1.5050 -1.8173 0.2792 0 1
6.0329 -1.4914 -1.8172 0.2792 0 1
6.0357 -1.4777 -1.8170 0.2792 0 1
6.0386 -1.4640 -1.8169 0.2793 0 1
6.0414 -1.4504 -1.8167 0.2793 0 1
6.0442 -1.4368 -1.8166 0.2793 0 1
6.0470 -1.4230 -1.8165 0.2793 0 1
6.0496 -1.4094 -1.8163 0.2793 0 1
6.0524 -1.3957 -1.8162 0.2794 0 1
6.0550 -1.3820 -1.8161 0.2794 0 1
6.0576 -1.3683 -1.8159 0.2794 0 1
6.0602 -1.3546 -1.8158 0.2794 0 1
6.0628 -1.3409 -1.8156 0.2795 0 1
6.0653 -1.3272 -1.8155 0.2795 0 1
6.0678 -1.3135 -1.8154 0.2795 0 1
6.0703 -1.2998 -1.8152 0.2795 0 1
6.0728 -1.2861 -1.8151 0.2795 0 1
6.0752 -1.2723 -1.8150 0.2796 0 1
6.0776 -1.2586 -1.8148 0.2796 0 1
6.0799 -1.2448 -1.8147 0.2796 0 1
6.0822 -1.2311 -1.8145 0.2796 0 1
6.0845 -1.2174 -1.8144 0.2796 0 1
6.0867 -1.2036 -1.8143 0.2797 0 1
6.0890 -1.1899 -1.8141 0.2797 0 1
6.0912 -1.1761 -1.8140 0.2797 0 1
6.0934 -1.1624 -1.8139 0.2797 0 1
6.0954 -1.1486 -1.8137 0.2797 0 1
6.0976 -1.1348 -1.8136 0.2798 0 1
6.0996 -1.1210 -1.8134 0.2798 0 1
6.1017 -1.1072 -1.8133 0.2798 0 1
6.1037 -1.0935 -1.8132 0.2798 0 1
6.1056 -1.0797 -1.8130 0.2799 0 1
6.1076 -1.0659 -1.8129 0.2799 0 1
6.1095 -1.0521 -1.8128 0.2799 0 1
6.1114 -1.0383 -1.8126 0.2799 0 1
6.1132 -1.0246 -1.8125 0.2799 0 1
6.1150 -1.0108 -1.8123 0.2800 0 1
6.1168 -0.9970 -1.8122 0.2800 0 1
6.1186 -0.9831 -1.8121 0.2800 0 1
6.1203 -0.9693 -1.8119 0.2800 0 1
6.1220 -0.9555 -1.8118 0.2800 0 1
6.1237 -0.9417 -1.8117 0.2801 0 1
6.1253 -0.9279 -1.8115 0.2801 0 1
6.1269 -0.9141 -1.8114 0.2801 0 1
6.1285 -0.9003 -1.8112 0.2801 0 1
6.1300 -0.8865 -1.8111 0.2802 0 1
6.1315 -0.8727 -1.8110 0.2802 0 1
6.1330 -0.8588 -1.8108 0.2802 0 1
6.1344 -0.8449 -1.8107 0.2802 0 1
6.1359 -0.8312 -1.8106 0.2802 0 1
6.1372 -0.8173 -1.8104 0.2803 0 1
6.1386 -0.8035 -1.8103 0.2803 0 1
6.1399 -0.7896 -1.8101 0.2803 0 1
6.1412 -0.7758 -1.8100 0.2803 0 1
6.1424 -0.7620 -1.8099 0.2803 0 1
6.1437 -0.7481 -1.8097 0.2804 0 1
6.1449 -0.7343 -1.8096 0.2804 0 1
6.1460 -0.7204 -1.8095 0.2804 0 1
6.1472 -0.7066 -1.8093 0.2804 0 1
6.1483 -0.6927 -1.8092 0.2805 0 1
6.1494 -0.6789 -1.8090 0.2805 0 1
6.1504 -0.6650 -1.8089 0.2805 0 1
6.1514 -0.6511 -1.8088 0.2805 0 1
6.1524 -0.6373 -1.8086 0.2805 0 1
6.1533 -0.6235 -1.8085 0.2806 0 1
6.1542 -0.6096 -1.8083 0.2806 0 1
6.1551 -0.5958 -1.8082 0.2806 0 1
6.1560 -0.5819 -1.8081 0.2806 0 1
6.1568 -0.5680 -1.8079 0.2806 0 1
6.1576 -0.5542 -1.8078 0.2807 0 1
6.1584 -0.5403 -1.8077 0.2807 0 1
6.1591 -0.5265 -1.8075 0.2807 0 1
6.1598 -0.5126 -1.8074 0.2807 0 1
6.1604 -0.4987 -1.8072 0.2808 0 1
6.1611 -0.4848 -1.8071 0.2808 0 1
6.1617 -0.4710 -1.8070 0.2808 0 1
6.1623 -0.4571 -1.8068 0.2808 0 1
6.1628 -0.4433 -1.8067 0.2808 0 1
6.1633 -0.4294 -1.8066 0.2809 0 1
6.1638 -0.4155 -1.8064 0.2809 0 1
6.1642 -0.4017 -1.8063 0.2809 0 1
6.1646 -0.3879 -1.8062 0.2809 0 1
6.1651 -0.3739 -1.8060 0.2809 0 1
6.1654 -0.3601 -1.8059 0.2810 0 1
6.1657 -0.3462 -1.8057 0.2810 0 1
6.1660 -0.3324 -1.8056 0.2810 0 1
6.1663 -0.3185 -1.8055 0.2810 0 1
6.1665 -0.3047 -1.8053 0.2810 0 1
6.1667 -0.2908 -1.8052 0.2811 0 1
6.1669 -0.2769 -1.8051 0.2811 0 1
6.1670 -0.2631 -1.8049 0.2811 0 1
6.1671 -0.2493 -1.8048 0.2811 0 1
6.1672 -0.2354 -1.8046 0.2812 0 1
6.1672 -0.2215 -1.8045 0.2812 0 1
6.1673 -0.2077 -1.8044 0.2812 0 1
6.1673 -0.1938 -1.8042 0.2812 0 1
6.1672 -0.1799 -1.8041 0.2812 0 1
6.1671 -0.1661 -1.8040 0.2813 0 1
6.1670 -0.1522 -1.8038 0.2813 0 1
6.1668 -0.1384 -1.8037 0.2813 0 1
6.1667 -0.1246 -1.8036 0.2813 0 1
6.1665 -0.1107 -1.8034 0.2813 0 1
6.1663 -0.0969 -1.8033 0.2814 0 1
6.1660 -0.0830 -1.8031 0.2814 0 1
6.1657 -0.0692 -1.8030 0.2814 0 1
6.1654 -0.0553 -1.8029 0.2814 0 1
6.1650 -0.0415 -1.8027 0.2815 0 1
6.1646 -0.0277 -1.8026 0.2815 0 1
6.1642 -0.0138 -1.8025 0.2815 0 1
6.1638 0.0001 -1.8023 0.2815 0 1
6.1633 0.0139 -1.8022 0.2815 0 1
6.1628 0.0277 -1.8021 0.2816 0 1
6.1622 0.0415 -1.8019 0.2816 0 1
6.1616 0.0553 -1.8018 0.2816 0 1
6.1611 0.0692 -1.8016 0.2816 0 1
6.1604 0.0830 -1.8015 0.2816 0 1
6.1597 0.0968 -1.8014 0.2817 0 1
6.1591 0.1106 -1.8012 0.2817 0 1
6.1583 0.1244 -1.8011 0.2817 0 1
6.1576 0.1382 -1.8010 0.2817 0 1
6.1568 0.1520 -1.8008 0.2818 0 1
6.1560 0.1658 -1.8007 0.2818 0 1
6.1551 0.1796 -1.8006 0.2818 0 1
6.1542 0.1934 -1.8004 0.2818 0 1
6.1533 0.2072 -1.8003 0.2818 0 1
6.1524 0.2210 -1.8002 0.2819 0 1
6.1514 0.2348 -1.8000 0.2819 0 1
6.1504 0.2486 -1.7999 0.2819 0 1
6.1494 0.2623 -1.7998 0.2819 0 1
6.1483 0.2761 -1.7996 0.2819 0 1
6.1472 0.2899 -1.7995 0.2820 0 1
6.1461 0.3037 -1.7993 0.2820 0 1
6.1449 0.3174 -1.7992 0.2820 0 1
6.1437 0.3312 -1.7991 0.2820 0 1
6.1425 0.3449 -1.7989 0.2820 0 1
6.1413 0.3588 -1.7988 0.2821 0 1
6.1400 0.3725 -1.7987 0.2821 0 1
6.1387 0.3863 -1.7985 0.2821 0 1
6.1373 0.4000 -1.7984 0.2821 0 1
6.1360 0.4137 -1.7983 0.2822 0 1
6.1346 0.4274 -1.7981 0.2822 0 1
6.1331 0.4412 -1.7980 0.2822 0 1
6.1317 0.4549 -1.7979 0.2822 0 1
6.1302 0.4686 -1.7977 0.2822 0 1
6.1286 0.4823 -1.7976 0.2823 0 1
6.1271 0.4961 -1.7975 0.2823 0 1
6.1255 0.5098 -1.7973 0.2823 0 1
6.1239 0.5235 -1.7972 0.2823 0 1
6.1222 0.5372 -1.7971 0.2823 0 1
6.1206 0.5509 -1.7969 0.2824 0 1
6.1189 0.5646 -1.7968 0.2824 0 1
6.1171 0.5783 -1.7967 0.2824 0 1
6.1154 0.5920 -1.7965 0.2824 0 1
6.1136 0.6056 -1.7964 0.2824 0 1
6.1117 0.6193 -1.7963 0.2825 0 1
6.1099 0.6329 -1.7961 0.2825 0 1
6.1080 0.6466 -1.7960 0.2825 0 1
6.1061 0.6602 -1.7959 0.2825 0 1
6.1041 0.6739 -1.7957 0.2826 0 1
6.1021 0.6876 -1.7956 0.2826 0 1
6.1001 0.7012 -1.7955 0.2826 0 1
6.0981 0.7148 -1.7953 0.2826 0 1
6.0960 0.7285 -1.7952 0.2826 0 1
6.0939 0.7421 -1.7951 0.2827 0 1
6.0918 0.7557 -1.7949 0.2827 0 1
6.0896 0.7693 -1.7948 0.2827 0 1
6.0874 0.7829 -1.7947 0.2827 0 1
6.0852 0.7965 -1.7945 0.2827 0 1
6.0830 0.8101 -1.7944 0.2828 0 1
6.0807 0.8237 -1.7943 0.2828 0 1
6.0784 0.8373 -1.7941 0.2828 0 1
6.0761 0.8509 -1.7940 0.2828 0 1
6.0737 0.8645 -1.7939 0.2828 0 1
6.0713 0.8780 -1.7937 0.2829 0 1
6.0689 0.8915 -1.7936 0.2829 0 1
6.0664 0.9051 -1.7935 0.2829 0 1
6.0639 0.9187 -1.7934 0.2829 0 1
6.0613 0.9322 -1.7932 0.2829 0 1
6.0588 0.9457 -1.7931 0.2830 0 1
1.5042 0.2383 -0.4453 0.0306 458 14
1.4950 0.2403 -0.4427 0.0307 458 14
1.4924 0.2433 -0.4421 0.1843 458 14
1.4910 0.2465 -0.4419 0.1844 458 14
1.4896 0.2497 -0.4417 0.1845 458 14
1.4892 0.2530 -0.4417 0.1748 458 14
1.4888 0.2564 -0.4418 0.1747 458 14
1.4885 0.2598 -0.4418 0.1747 458 14
1.4881 0.2632 -0.4419 0.1747 458 14
1.4877 0.2666 -0.4420 0.1747 458 14
1.4873 0.2699 -0.4420 0.1746 458 14
1.4869 0.2733 -0.4421 0.1746 458 14
1.4865 0.2767 -0.4421 0.1746 458 14
1.4861 0.2801 -0.4422 0.1746 458 14
1.4856 0.2835 -0.4423 0.1745 458 14
1.4852 0.2868 -0.4423 0.1745 458 14
1.4847 0.2902 -0.4424 0.1745 458 14
1.4843 0.2936 -0.4424 0.1745 458 14
1.4838 0.2969 -0.4425 0.1745 458 14
1.4833 0.3003 -0.4425 0.1744 458 14
1.4828 0.3036 -0.4426 0.1744 458 14
1.4822 0.3070 -0.4426 0.1744 458 14
1.4817 0.3104 -0.4427 0.1744 458 14
1.4812 0.3137 -0.4427 0.1744 458 14
1.4806 0.3171 -0.4428 0.1743 458 14
1.4800 0.3204 -0.4428 0.1743 458 14
1.4795 0.3237 -0.4428 0.1743 458 14
1.4789 0.3271 -0.4429 0.1743 458 14
1.4782 0.3304 -0.4429 0.1743 458 14
1.4776 0.3338 -0.4430 0.1743 458 14
1.4770 0.3371 -0.4430 0.1742 458 14
1.4764 0.3405 -0.4430 0.1742 458 14
1.4757 0.3438 -0.4431 0.1742 458 14
1.4750 0.3471 -0.4431 0.1742 458 14
1.4744 0.3505 -0.4431 0.1742 458 14
1.4737 0.3538 -0.4432 0.1742 458 14
1.4729 0.3572 -0.4432 0.1742 458 14
1.4722 0.3605 -0.4432 0.1742 458 14
1.4715 0.3638 -0.4432 0.1741 458 14
1.4708 0.3671 -0.4433 0.1741 458 14
1.4700 0.3704 -0.4433 0.1741 458 14
1.4693 0.3738 -0.4433 0.1741 458 14
1.4685 0.3771 -0.4433 0.1741 458 14
1.4677 0.3804 -0.4433 0.1741 458 14
1.4669 0.3837 -0.4434 0.1741 458 14
1.4661 0.3870 -0.4434 0.1741 458 14
1.4653 0.3903 -0.4434 0.1741 458 14
1.4644 0.3936 -0.4434 0.1741 458 14
1.4636 0.3969 -0.4434 0.1741 458 14
1.4627 0.4002 -0.4434 0.1741 458 14
1.4618 0.4035 -0.4434 0.1741 458 14
1.4610 0.4068 -0.4435 0.1741 458 14
1.4601 0.4100 -0.4435 0.1741 458 14
1.4592 0.4133 -0.4435 0.1741 458 14
1.4583 0.4166 -0.4435 0.1741 458 14
1.4573 0.4199 -0.4435 0.1741 458 14
1.4564 0.4232 -0.4435 0.1741 458 14
1.4554 0.4264 -0.4435 0.1741 458 14
1.4545 0.4297 -0.4435 0.1741 458 14
1.4535 0.4329 -0.4435 0.1741 458 14
1.4525 0.4362 -0.4435 0.1741 458 14
1.4515 0.4394 -0.4435 0.1741 458 14
1.4505 0.4427 -0.4435 0.1741 458 14
1.4495 0.4460 -0.4434 0.1741 458 14
1.4484 0.4492 -0.4434 0.1741 458 14
1.4474 0.4524 -0.4434 0.1741 458 14
1.4463 0.4556 -0.4434 0.1741 458 14
1.4453 0.4589 -0.4434 0.1741 458 14
1.4442 0.4621 -0.4434 0.1741 458 14
1.4431 0.4653 -0.4434 0.1741 458 14
1.4420 0.4685 -0.4434 0.1741 458 14
1.4409 0.4718 -0.4433 0.1741 458 14
1.4397 0.4750 -0.4433 0.1741 458 14
1.4386 0.4782 -0.4433 0.1741 458 14
1.4375 0.4814 -0.4433 0.1741 458 14
1.4363 0.4846 -0.4432 0.1741 458 14
1.4352 0.4878 -0.4432 0.1742 458 14
1.4339 0.4910 -0.4432 0.1742 458 14
1.4328 0.4942 -0.4432 0.1742 458 14
1.4316 0.4974 -0.4431 0.1742 458 14
1.4303 0.5005 -0.4431 0.1742 458 14
1.4291 0.5037 -0.4431 0.1742 458 14
1.4279 0.5069 -0.4430 0.1742 458 14
1.4266 0.5100 -0.4430 0.1742 458 14
1.4254 0.5132 -0.4430 0.1743 458 14
1.4241 0.5163 -0.4429 0.1743 458 14
1.4228 0.5195 -0.4429 0.1743 458 14
1.4215 0.5226 -0.4429 0.1743 458 14
1.4202 0.5258 -0.4428 0.1743 458 14
1.4189 0.5289 -0.4428 0.1743 458 14
1.4175 0.5320 -0.4427 0.1743 458 14
1.4162 0.5352 -0.4427 0.1744 458 14
1.4148 0.5383 -0.4426 0.1744 458 14
1.4135 0.5414 -0.4426 0.1744 458 14
1.4121 0.5445 -0.4425 0.1744 458 14
1.4107 0.5476 -0.4425 0.1744 458 14
1.4093 0.5507 -0.4424 0.1745 458 14
1.4079 0.5538 -0.4424 0.1745 458 14
1.4065 0.5569 -0.4423 0.1745 458 14
1.4050 0.5599 -0.4423 0.1745 458 14
1.4036 0.5631 -0.4422 0.1746 458 14
1.4022 0.5662 -0.4422 0.1746 458 14
1.4007 0.5692 -0.4421 0.1746 458 14
1.3992 0.5723 -0.4420 0.1746 458 14
1.3977 0.5753 -0.4420 0.1746 458 14
1.3962 0.5784 -0.4419 0.1747 458 14
1.3947 0.5814 -0.4418 0.1747 458 14
1.3932 0.5844 -0.4418 0.1747 458 14
1.3917 0.5875 -0.4417 0.1748 458 14
1.3901 0.5905 -0.4416 0.1748 458 14
1.3886 0.5935 -0.4416 0.1748 458 14
1.3870 0.5966 -0.4415 0.1748 458 14
1.3855 0.5996 -0.4414 0.1749 458 14
1.3839 0.6026 -0.4414 0.1749 458 14
1.3823 0.6056 -0.4413 0.1749 458 14
1.3807 0.6086 -0.4412 0.1753 458 14
1.3791 0.6115 -0.4411 0.1753 458 14
1.3775 0.6145 -0.4410 0.1753 458 14
1.3759 0.6175 -0.4410 0.1754 458 14
1.3742 0.6205 -0.4409 0.1754 458 14
1.3726 0.6235 -0.4408 0.1754 458 14
1.3709 0.6264 -0.4407 0.1755 458 14
1.3692 0.6294 -0.4407 0.1755 458 14
1.3676 0.6323 -0.4406 0.1755 458 14
1.3659 0.6353 -0.4405 0.1756 458 14
1.3642 0.6382 -0.4404 0.1756 458 14
1.3625 0.6412 -0.4403 0.1756 458 14
1.3608 0.6441 -0.4402 0.1757 458 14
1.3590 0.6470 -0.4401 0.1757 458 14
1.3573 0.6500 -0.4400 0.1757 458 14
1.3555 0.6528 -0.4399 0.1758 458 14
1.3538 0.6557 -0.4399 0.1758 458 14
1.3520 0.6586 -0.4398 0.1759 458 14
1.3503 0.6615 -0.4397 0.1759 458 14
1.3485 0.6644 -0.4396 0.1759 458 14
1.3467 0.6673 -0.4395 0.1760 458 14
1.3449 0.6702 -0.4394 0.1760 458 14
1.3431 0.6730 -0.4393 0.1761 458 14
1.3412 0.6759 -0.4392 0.1761 458 14
1.3394 0.6787 -0.4391 0.1761 458 14
1.3376 0.6816 -0.4389 0.1762 458 14
1.3357 0.6844 -0.4388 0.1762 458 14
1.3338 0.6872 -0.4387 0.1763 458 14
1.3319 0.6900 -0.4386 0.1763 458 14
1.3301 0.6929 -0.4385 0.1764 458 14
1.3282 0.6957 -0.4384 0.1764 458 14
1.3263 0.6985 -0.4383 0.1764 458 14
1.3243 0.7012 -0.4382 0.1765 458 14
1.3224 0.7040 -0.4381 0.1765 458 14
1.3205 0.7068 -0.4379 0.1766 458 14
1.3186 0.7096 -0.4378 0.1766 458 14
1.3180 0.7131 -0.4382 0.1190 458 14
1.3184 0.7171 -0.4388 0.1188 458 14
1.3188 0.7212 -0.4395 0.1187 458 14
1.3192 0.7253 -0.4402 0.1185 458 14
1.3196 0.7294 -0.4409 0.1183 458 14
1.3199 0.7334 -0.4415 0.1181 458 14
1.3203 0.7375 -0.4422 0.1179 458 14
1.3206 0.7416 -0.4429 0.1178 458 14
1.3210 0.7457 -0.4435 0.1176 458 14
1.3213 0.7497 -0.4442 0.1174 458 14
1.3215 0.7538 -0.4449 0.1172 458 14
1.3218 0.7579 -0.4455 0.1170 458 14
1.3221 0.7620 -0.4462 0.1169 458 14
1.3224 0.7662 -0.4469 0.1167 458 14
1.3226 0.7702 -0.4475 0.1165 458 14
1.3228 0.7743 -0.4482 0.1164 458 14
1.3230 0.7785 -0.4488 0.1162 458 14
1.3232 0.7826 -0.4495 0.1160 458 14
1.3233 0.7867 -0.4502 0.1158 458 14
1.3235 0.7908 -0.4508 0.1157 458 14
1.3236 0.7949 -0.4515 0.1155 458 14
1.3238 0.7990 -0.4521 0.1153 458 14
1.3239 0.8031 -0.4528 0.1152 458 14
1.3240 0.8073 -0.4534 0.1150 458 14
1.3241 0.8114 -0.4541 0.1148 458 14
1.3241 0.8156 -0.4547 0.1147 458 14
1.3242 0.8197 -0.4554 0.1145 458 14
1.3242 0.8238 -0.4560 0.1144 458 14
1.3242 0.8279 -0.4567 0.1142 458 14
1.3242 0.8321 -0.4573 0.1140 458 14
1.3242 0.8363 -0.4579 0.1139 458 14
1.3242 0.8404 -0.4586 0.1137 458 14
1.3241 0.8445 -0.4592 0.1136 458 14
1.3240 0.8487 -0.4599 0.1134 458 14
1.3240 0.8528 -0.4605 0.1132 458 14
1.3239 0.8570 -0.4611 0.1131 458 14
1.3238 0.8611 -0.4618 0.1129 458 14
1.3236 0.8652 -0.4624 0.1128 458 14
1.3234 0.8694 -0.4630 0.1126 458 14
1.3233 0.8735 -0.4636 0.1125 458 14
1.3231 0.8777 -0.4643 0.1123 458 14
1.3229 0.8818 -0.4649 0.1122 458 14
1.3227 0.8860 -0.4655 0.1120 458 14
1.3225 0.8901 -0.4661 0.1119 458 14
1.3222 0.8943 -0.4668 0.1117 458 14
1.3220 0.8985 -0.4674 0.1116 458 14
1.3217 0.9026 -0.4680 0.1114 458 14
1.3214 0.9068 -0.4686 0.1113 458 14
1.3211 0.9109 -0.4692 0.1111 458 14
1.3207 0.9151 -0.4698 0.1110 458 14
1.3204 0.9192 -0.4704 0.1109 458 14
1.3200 0.9233 -0.4710 0.1107 458 14
1.3196 0.9275 -0.4716 0.1106 458 14
1.3192 0.9316 -0.4722 0.1104 458 14
1.3188 0.9357 -0.4728 0.1103 458 14
1.3183 0.9399 -0.4734 0.1102 458 14
1.3179 0.9440 -0.4740 0.1100 458 14
1.3174 0.9482 -0.4746 0.1099 458 14
1.3169 0.9523 -0.4752 0.1097 458 14
1.3164 0.9564 -0.4758 0.1096 458 14
1.3158 0.9606 -0.4764 0.1095 458 14
1.3153 0.9647 -0.4770 0.1093 458 14
1.3147 0.9688 -0.4775 0.1092 458 14
1.3141 0.9730 -0.4781 0.1091 458 14
1.3135 0.9771 -0.4787 0.1089 458 14
1.3129 0.9812 -0.4793 0.1088 458 14
1.3123 0.9853 -0.4798 0.1087 458 14
1.3116 0.9895 -0.4804 0.1085 458 14
1.3110 0.9935 -0.4810 0.1084 458 14
1.3103 0.9977 -0.4816 0.1083 458 14
1.3096 1.0018 -0.4821 0.1082 458 14
1.3088 1.0059 -0.4827 0.1080 458 14
1.3081 1.0100 -0.4832 0.1079 458 14
1.3073 1.0140 -0.4838 0.1078 458 14
1.3065 1.0182 -0.4843 0.1077 458 14
1.3057 1.0223 -0.4849 0.1076 458 14
1.3049 1.0263 -0.4854 0.1102 458 14
1.3043 1.0306 -0.4861 0.1101 458 14
1.3037 1.0349 -0.4867 0.1100 458 14
1.3030 1.0392 -0.4873 0.1098 458 14
1.3023 1.0434 -0.4880 0.1097 458 14
1.3017 1.0477 -0.4886 0.1095 458 14
1.3009 1.0519 -0.4892 0.1094 458 14
1.3002 1.0562 -0.4898 0.1093 458 14
1.2995 1.0604 -0.4904 0.1091 458 14
1.2987 1.0646 -0.4911 0.1090 458 14
1.2980 1.0689 -0.4917 0.1089 458 14
1.2972 1.0732 -0.4923 0.1087 458 14
1.2963 1.0774 -0.4929 0.1086 458 14
1.2955 1.0816 -0.4935 0.1085 458 14
1.2946 1.0858 -0.4941 0.1083 458 14
1.2938 1.0901 -0.4947 0.1082 458 14
1.2929 1.0943 -0.4953 0.1081 458 14
1.2920 1.0985 -0.4959 0.1079 458 14
1.2911 1.1027 -0.4965 0.1078 458 14
1.2901 1.1069 -0.4971 0.1077 458 14
1.2892 1.1111 -0.4977 0.1075 458 14
1.2881 1.1153 -0.4982 0.1074 458 14
1.2872 1.1195 -0.4988 0.1073 458 14
1.2862 1.1237 -0.4994 0.1072 458 14
1.2851 1.1279 -0.5000 0.1070 458 14
1.2841 1.1321 -0.5005 0.1069 458 14
1.2830 1.1362 -0.5011 0.1068 458 14
1.2819 1.1404 -0.5017 0.1067 458 14
1.2808 1.1446 -0.5023 0.1066 458 14
1.2796 1.1487 -0.5028 0.1064 458 14
1.2784 1.1529 -0.5034 0.1063 458 14
1.2773 1.1571 -0.5039 0.1062 458 14
1.2761 1.1612 -0.5045 0.1061 458 14
1.2749 1.1654 -0.5050 0.1060 458 14
1.2736 1.1694 -0.5056 0.1059 458 14
1.2724 1.1736 -0.5061 0.1057 458 14
4.4069 4.0829 -1.7567 0.4786 0 2
4.3807 4.0769 -1.7498 0.4804 0 2
4.3546 4.0710 -1.7431 0.4823 0 2
4.3289 4.0651 -1.7364 0.4842 0 2
4.3032 4.0592 -1.7298 0.4860 0 2
4.2778 4.0535 -1.7232 0.4879 0 2
4.2526 4.0477 -1.7167 0.4897 0 2
4.2275 4.0420 -1.7103 0.4916 0 2
4.2027 4.0363 -1.7039 0.4934 0 2
4.1780 4.0307 -1.6975 0.4953 0 2
4.1535 4.0251 -1.6912 0.4971 0 2
4.1292 4.0196 -1.6850 0.4989 0 2
4.1066 4.0155 -1.6795 0.5767 0 2
4.0867 4.0140 -1.6750 0.5782 0 2
4.0668 4.0125 -1.6705 0.5798 0 2
4.0470 4.0109 -1.6661 0.5813 0 2
4.0274 4.0094 -1.6617 0.5829 0 2
4.3329 -4.3329 -1.8467 0.2825 0 1
4.3424 -4.3229 -1.8466 0.2825 0 1
4.3518 -4.3129 -1.8465 0.2825 0 1
4.3612 -4.3029 -1.8464 0.2825 0 1
4.3706 -4.2928 -1.8463 0.2826 0 1
4.3799 -4.2828 -1.8462 0.2826 0 1
4.3893 -4.2727 -1.8461 0.2826 0 1
4.3986 -4.2626 -1.8460 0.2826 0 1
4.4079 -4.2525 -1.8459 0.2826 0 1
4.4172 -4.2423 -1.8458 0.2826 0 1
4.4264 -4.2321 -1.8457 0.2826 0 1
4.4357 -4.2219 -1.8456 0.2827 0 1
4.4449 -4.2117 -1.8454 0.2827 0 1
4.4540 -4.2015 -1.8453 0.2827 0 1
4.4632 -4.1912 -1.8452 0.2827 0 1
4.4723 -4.1810 -1.8451 0.2827 0 1
4.4814 -4.1707 -1.8450 0.2827 0 1
4.4905 -4.1603 -1.8449 0.2828 0 1
4.4996 -4.1500 -1.8448 0.2828 0 1
4.5085 -4.1397 -1.8447 0.2828 0 1
4.5176 -4.1293 -1.8446 0.2828 0 1
4.5266 -4.1189 -1.8445 0.2828 0 1
4.5355 -4.1085 -1.8443 0.2829 0 1
4.5445 -4.0980 -1.8442 0.2829 0 1
4.5534 -4.0876 -1.8441 0.2829 0 1
4.5622 -4.0771 -1.8440 0.2829 0 1
4.5711 -4.0666 -1.8439 0.2829 0 1
4.5800 -4.0561 -1.8438 0.2829 0 1
4.5887 -4.0456 -1.8437 0.2830 0 1
4.5975 -4.0350 -1.8436 0.2830 0 1
4.6063 -4.0245 -1.8435 0.2830 0 1
4.6150 -4.0138 -1.8433 0.2830 0 1
4.6237 -4.0032 -1.8432 0.2830 0 1
4.6325 -3.9926 -1.8431 0.2830 0 1
4.6411 -3.9820 -1.8430 0.2831 0 1
4.6497 -3.9712 -1.8429 0.2831 0 1
4.6584 -3.9606 -1.8428 0.2831 0 1
4.6670 -3.9499 -1.8427 0.2831 0 1
4.6755 -3.9391 -1.8425 0.2831 0 1
4.6841 -3.9284 -1.8424 0.2831 0 1
4.6926 -3.9176 -1.8423 0.2832 0 1
4.7010 -3.9069 -1.8422 0.2832 0 1
4.7095 -3.8961 -1.8421 0.2832 0 1
4.7179 -3.8852 -1.8420 0.2832 0 1
4.7264 -3.8744 -1.8419 0.2832 0 1
4.7347 -3.8636 -1.8417 0.2833 0 1
4.7431 -3.8527 -1.8416 0.2833 0 1
4.7514 -3.8418 -1.8415 0.2833 0 1
4.7598 -3.8309 -1.8414 0.2833 0 1
4.7680 -3.8199 -1.8413 0.2833 0 1
4.7763 -3.8090 -1.8412 0.2833 0 1
4.7845 -3.7980 -1.8411 0.2834 0 1
4.7928 -3.7871 -1.8409 0.2834 0 1
4.8010 -3.7760 -1.8408 0.2834 0 1
4.8091 -3.7650 -1.8407 0.2834 0 1
4.8172 -3.7540 -1.8406 0.2834 0 1
4.8253 -3.7429 -1.8405 0.2834 0 1
4.8334 -3.7319 -1.8404 0.2835 0 1
4.8415 -3.7208 -1.8402 0.2835 0 1
4.8495 -3.7096 -1.8401 0.2835 0 1
4.8575 -3.6985 -1.8400 0.2835 0 1
4.8655 -3.6873 -1.8399 0.2835 0 1
4.8734 -3.6762 -1.8398 0.2836 0 1
4.8814 -3.6650 -1.8397 0.2836 0 1
4.8893 -3.6538 -1.8395 0.2836 0 1
4.8971 -3.6426 -1.8394 0.2836 0 1
4.9050 -3.6314 -1.8393 0.2836 0 1
4.9128 -3.6201 -1.8392 0.2836 0 1
4.9206 -3.6089 -1.8391 0.2837 0 1
4.9283 -3.5976 -1.8389 0.2837 0 1
4.9361 -3.5863 -1.8388 0.2837 0 1
4.9438 -3.5750 -1.8387 0.2837 0 1
4.9515 -3.5636 -1.8386 0.2837 0 1
4.9592 -3.5523 -1.8385 0.2838 0 1
4.9668 -3.5410 -1.8384 0.2838 0 1
4.9744 -3.5296 -1.8382 0.2838 0 1
4.9820 -3.5182 -1.8381 0.2838 0 1
4.9896 -3.5068 -1.8380 0.2838 0 1
4.9971 -3.4953 -1.8379 0.2838 0 1
5.0046 -3.4838 -1.8378 0.2839 0 1
5.0121 -3.4724 -1.8376 0.2839 0 1
5.0195 -3.4609 -1.8375 0.2839 0 1
5.0270 -3.4494 -1.8374 0.2839 0 1
5.0344 -3.4379 -1.8373 0.2839 0 1
5.0417 -3.4264 -1.8372 0.2840 0 1
5.0491 -3.4148 -1.8370 0.2840 0 1
5.0564 -3.4032 -1.8369 0.2840 0 1
5.0637 -3.3917 -1.8368 0.2840 0 1
5.0709 -3.3801 -1.8367 0.2840 0 1
5.0782 -3.3685 -1.8366 0.2841 0 1
5.0854 -3.3568 -1.8364 0.2841 0 1
5.0925 -3.3452 -1.8363 0.2841 0 1
5.0997 -3.3335 -1.8362 0.2841 0 1
5.1069 -3.3219 -1.8361 0.2841 0 1
5.1140 -3.3102 -1.8359 0.2841 0 1
5.1210 -3.2985 -1.8358 0.2842 0 1
5.1281 -3.2867 -1.8357 0.2842 0 1
5.1351 -3.2750 -1.8356 0.2842 0 1
5.1421 -3.2633 -1.8355 0.2842 0 1
5.1491 -3.2515 -1.8353 0.2842 0 1
5.1560 -3.2397 -1.8352 0.2843 0 1
5.1629 -3.2279 -1.8351 0.2843 0 1
5.1698 -3.2161 -1.8350 0.2843 0 1
5.1767 -3.2043 -1.8348 0.2843 0 1
5.1835 -3.1925 -1.8347 0.2843 0 1
5.1903 -3.1806 -1.8346 0.2844 0 1
5.1971 -3.1687 -1.8345 0.2844 0 1
5.2038 -3.1569 -1.8343 0.2844 0 1
5.2105 -3.1449 -1.8342 0.2844 0 1
5.2172 -3.1331 -1.8341 0.2844 0 1
5.2239 -3.1211 -1.8340 0.2845 0 1
5.2305 -3.1092 -1.8339 0.2845 0 1
5.2371 -3.0972 -1.8337 0.2845 0 1
5.2437 -3.0853 -1.8336 0.2845 0 1
5.2503 -3.0733 -1.8335 0.2845 0 1
5.2568 -3.0613 -1.8334 0.2845 0 1
5.2633 -3.0492 -1.8332 0.2846 0 1
5.2698 -3.0372 -1.8331 0.2846 0 1
5.2762 -3.0252 -1.8330 0.2846 0 1
5.2826 -3.0131 -1.8329 0.2846 0 1
5.2890 -3.0011 -1.8327 0.2846 0 1
5.2954 -2.9890 -1.8326 0.2847 0 1
5.3017 -2.9769 -1.8325 0.2847 0 1
5.3080 -2.9648 -1.8324 0.2847 0 1
5.3143 -2.9527 -1.8322 0.2847 0 1
5.3205 -2.9406 -1.8321 0.2847 0 1
5.3267 -2.9284 -1.8320 0.2848 0 1
5.3329 -2.9162 -1.8319 0.2848 0 1
5.3391 -2.9041 -1.8317 0.2848 0 1
5.3453 -2.8919 -1.8316 0.2848 0 1
5.3513 -2.8797 -1.8315 0.2848 0 1
5.3575 -2.8674 -1.8314 0.2849 0 1
5.3635 -2.8553 -1.8312 0.2849 0 1
5.3695 -2.8430 -1.8311 0.2849 0 1
5.3755 -2.8307 -1.8310 0.2849 0 1
5.3815 -2.8185 -1.8308 0.2849 0 1
5.3874 -2.8062 -1.8307 0.2850 0 1
5.3933 -2.7939 -1.8306 0.2850 0 1
5.3992 -2.7816 -1.8305 0.2850 0 1
5.4051 -2.7693 -1.8303 0.2850 0 1
5.4109 -2.7570 -1.8302 0.2850 0 1
5.4167 -2.7447 -1.8301 0.2851 0 1
5.4225 -2.7323 -1.8300 0.2851 0 1
5.4282 -2.7199 -1.8298 0.2851 0 1
5.4339 -2.7075 -1.8297 0.2851 0 1
5.4396 -2.6951 -1.8296 0.2851 0 1
5.4452 -2.6828 -1.8295 0.2852 0 1
5.4509 -2.6703 -1.8293 0.2852 0 1
5.4565 -2.6579 -1.8292 0.2852 0 1
5.4620 -2.6455 -1.8291 0.2852 0 1
5.4676 -2.6331 -1.8289 0.2852 0 1
5.4731 -2.6206 -1.8288 0.2853 0 1
5.4786 -2.6081 -1.8287 0.2853 0 1
5.4840 -2.5956 -1.8286 0.2853 0 1
5.4895 -2.5831 -1.8284 0.2853 0 1
5.4948 -2.5706 -1.8283 0.2853 0 1
5.5002 -2.5581 -1.8282 0.2854 0 1
5.5056 -2.5456 -1.8280 0.2854 0 1
5.5109 -2.5330 -1.8279 0.2854 0 1
5.5162 -2.5205 -1.8278 0.2854 0 1
5.5214 -2.5079 -1.8277 0.2854 0 1
5.5266 -2.4953 -1.8275 0.2855 0 1
5.5318 -2.4828 -1.8274 0.2855 0 1
5.5370 -2.4702 -1.8273 0.2855 0 1
5.5421 -2.4575 -1.8271 0.2855 0 1
5.5472 -2.4450 -1.8270 0.2855 0 1
5.5523 -2.4323 -1.8269 0.2856 0 1
5.5574 -2.4197 -1.8268 0.2856 0 1
5.5624 -2.4071 -1.8266 0.2856 0 1
5.5674 -2.3944 -1.8265 0.2856 0 1
5.5724 -2.3817 -1.8264 0.2856 0 1
5.5773 -2.3691 -1.8262 0.2857 0 1
5.5822 -2.3563 -1.8261 0.2857 0 1
5.5871 -2.3436 -1.8260 0.2857 0 1
5.5919 -2.3309 -1.8258 0.2857 0 1
5.5967 -2.3182 -1.8257 0.2857 0 1
5.6015 -2.3055 -1.8256 0.2858 0 1
5.6063 -2.2928 -1.8255 0.2858 0 1
5.6110 -2.2800 -1.8253 0.2858 0 1
5.6157 -2.2672 -1.8252 0.2858 0 1
5.6204 -2.2545 -1.8251 0.2858 0 1
5.6250 -2.2417 -1.8249 0.2859 0 1
5.6296 -2.2289 -1.8248 0.2859 0 1
5.6342 -2.2161 -1.8247 0.2859 0 1
5.6388 -2.2034 -1.8245 0.2859 0 1
5.6433 -2.1905 -1.8244 0.2859 0 1
5.6478 -2.1777 -1.8243 0.2860 0 1
5.6523 -2.1648 -1.8242 0.2860 0 1
5.6567 -2.1520 -1.8240 0.2860 0 1
5.6611 -2.1392 -1.8239 0.2860 0 1
5.6655 -2.1263 -1.8238 0.2860 0 1
5.6698 -2.1134 -1.8236 0.2861 0 1
5.6742 -2.1005 -1.8235 0.2861 0 1
5.6785 -2.0877 -1.8234 0.2861 0 1
5.6827 -2.0747 -1.8232 0.2861 0 1
5.6869 -2.0619 -1.8231 0.2861 0 1
5.6912 -2.0489 -1.8230 0.2862 0 1
5.6953 -2.0360 -1.8228 0.2862 0 1
5.6995 -2.0231 -1.8227 0.2862 0 1
5.7036 -2.0101 -1.8226 0.2862 0 1
5.7077 -1.9972 -1.8224 0.2863 0 1
5.7117 -1.9842 -1.8223 0.2863 0 1
5.7158 -1.9712 -1.8222 0.2863 0 1
5.7198 -1.9583 -1.8221 0.2863 0 1
5.7237 -1.9453 -1.8219 0.2863 0 1
5.7276 -1.9323 -1.8218 0.2864 0 1
5.7315 -1.9193 -1.8217 0.2864 0 1
5.7354 -1.9063 -1.8215 0.2864 0 1
5.7393 -1.8933 -1.8214 0.2864 0 1
5.7431 -1.8803 -1.8213 0.2864 0 1
5.7469 -1.8673 -1.8211 0.2865 0 1
5.7507 -1.8542 -1.8210 0.2865 0 1
5.7544 -1.8412 -1.8209 0.2865 0 1
5.7581 -1.8281 -1.8207 0.2865 0 1
5.7617 -1.8150 -1.8206 0.2865 0 1
5.7654 -1.8020 -1.8205 0.2866 0 1
5.7690 -1.7889 -1.8203 0.2866 0 1
5.7726 -1.7759 -1.8202 0.2866 0 1
5.7762 -1.7628 -1.8201 0.2866 0 1
5.7796 -1.7497 -1.8199 0.2866 0 1
5.7831 -1.7366 -1.8198 0.2867 0 1
5.7866 -1.7235 -1.8197 0.2867 0 1
5.7900 -1.7104 -1.8195 0.2867 0 1
5.7935 -1.6972 -1.8194 0.2867 0 1
5.7968 -1.6841 -1.8193 0.2867 0 1
5.8001 -1.6710 -1.8191 0.2868 0 1
5.8035 -1.6578 -1.8190 0.2868 0 1
5.8067 -1.6447 -1.8189 0.2868 0 1
5.8100 -1.6315 -1.8187 0.2868 0 1
5.8132 -1.6184 -1.8186 0.2869 0 1
5.8164 -1.6052 -1.8185 0.2869 0 1
5.8196 -1.5921 -1.8183 0.2869 0 1
5.8227 -1.5789 -1.8182 0.2869 0 1
5.8258 -1.5657 -1.8181 0.2869 0 1
5.8289 -1.5525 -1.8179 0.2870 0 1
5.8319 -1.5393 -1.8178 0.2870 0 1
5.8350 -1.5261 -1.8177 0.2870 0 1
5.8379 -1.5129 -1.8175 0.2870 0 1
5.8409 -1.4997 -1.8174 0.2870 0 1
5.8438 -1.4864 -1.8173 0.2871 0 1
5.8467 -1.4732 -1.8172 0.2871 0 1
5.8495 -1.4600 -1.8170 0.2871 0 1
5.8524 -1.4468 -1.8169 0.2871 0 1
5.8552 -1.4335 -1.8168 0.2871 0 1
5.8579 -1.4203 -1.8166 0.2872 0 1
5.8607 -1.4070 -1.8165 0.2872 0 1
5.8634 -1.3938 -1.8164 0.2872 0 1
5.8661 -1.3805 -1.8162 0.2872 0 1
5.8688 -1.3672 -1.8161 0.2873 0 1
5.8714 -1.3540 -1.8160 0.2873 0 1
5.8740 -1.3407 -1.8158 0.2873 0 1
5.8765 -1.3274 -1.8157 0.2873 0 1
5.8791 -1.3141 -1.8156 0.2873 0 1
5.8815 -1.3008 -1.8154 0.2874 0 1
5.8840 -1.2875 -1.8153 0.2874 0 1
5.8865 -1.2742 -1.8152 0.2874 0 1
5.8889 -1.2609 -1.8150 0.2874 0 1
5.8912 -1.2476 -1.8149 0.2874 0 1
5.8936 -1.2343 -1.8148 0.2875 0 1
5.8959 -1.2210 -1.8146 0.2875 0 1
5.8982 -1.2077 -1.8145 0.2875 0 1
5.9005 -1.1943 -1.8143 0.2875 0 1
5.9027 -1.1810 -1.8142 0.2875 0 1
5.9049 -1.1677 -1.8141 0.2876 0 1
5.9071 -1.1544 -1.8139 0.2876 0 1
5.9092 -1.1410 -1.8138 0.2876 0 1
5.9113 -1.1276 -1.8137 0.2876 0 1
5.9134 -1.1143 -1.8135 0.2877 0 1
5.9154 -1.1009 -1.8134 0.2877 0 1
5.9175 -1.0876 -1.8133 0.2877 0 1
5.9195 -1.0742 -1.8131 0.2877 0 1
5.9214 -1.0609 -1.8130 0.2877 0 1
5.9233 -1.0475 -1.8129 0.2878 0 1
5.9253 -1.0341 -1.8127 0.2878 0 1
5.9271 -1.0207 -1.8126 0.2878 0 1
5.9290 -1.0073 -1.8125 0.2878 0 1
5.9308 -0.9940 -1.8123 0.2878 0 1
5.9326 -0.9806 -1.8122 0.2879 0 1
5.9343 -0.9672 -1.8121 0.2879 0 1
5.9360 -0.9538 -1.8119 0.2879 0 1
5.9377 -0.9404 -1.8118 0.2879 0 1
5.9394 -0.9270 -1.8117 0.2880 0 1
5.9410 -0.9136 -1.8115 0.2880 0 1
5.9426 -0.9002 -1.8114 0.2880 0 1
5.9442 -0.8868 -1.8113 0.2880 0 1
5.9457 -0.8734 -1.8111 0.2880 0 1
5.9472 -0.8600 -1.8110 0.2881 0 1
5.9487 -0.8466 -1.8109 0.2881 0 1
5.9501 -0.8332 -1.8107 0.2881 0 1
1.9280 -0.2656 -0.5866 0.0137 458 14
1.8839 -0.2551 -0.5730 0.0140 458 14
1.8416 -0.2452 -0.5599 0.0143 458 14
1.8010 -0.2357 -0.5474 0.0146 458 14
1.7621 -0.2266 -0.5354 0.0150 458 14
1.7567 -0.2219 -0.5336 0.0262 458 14
1.7558 -0.2178 -0.5332 0.0262 458 14
1.7547 -0.2136 -0.5328 0.0263 458 14
1.7537 -0.2096 -0.5323 0.0263 458 14
1.7525 -0.2054 -0.5318 0.0263 458 14
1.7512 -0.2012 -0.5312 0.0263 458 14
1.7498 -0.1971 -0.5307 0.0264 458 14
1.7483 -0.1930 -0.5301 0.0264 458 14
1.7468 -0.1888 -0.5295 0.0264 458 14
1.7451 -0.1847 -0.5289 0.0265 458 14
1.7434 -0.1805 -0.5282 0.0265 458 14
1.7416 -0.1764 -0.5276 0.0265 458 14
1.7397 -0.1722 -0.5269 0.0266 458 14
1.7377 -0.1682 -0.5262 0.0266 458 14
1.7356 -0.1640 -0.5254 0.0266 458 14
1.7334 -0.1599 -0.5246 0.0267 458 14
1.7312 -0.1558 -0.5239 0.0267 458 14
1.7289 -0.1517 -0.5231 0.0268 458 14
1.7264 -0.1475 -0.5222 0.0268 458 14
1.7239 -0.1434 -0.5214 0.0268 458 14
1.7213 -0.1394 -0.5205 0.0269 458 14
1.7187 -0.1353 -0.5196 0.0269 458 14
1.7160 -0.1312 -0.5187 0.0270 458 14
1.7131 -0.1271 -0.5177 0.0270 458 14
1.7103 -0.1230 -0.5168 0.0271 458 14
1.7073 -0.1189 -0.5158 0.0271 458 14
1.7042 -0.1149 -0.5148 0.0272 458 14
1.7011 -0.1108 -0.5138 0.0272 458 14
1.6979 -0.1068 -0.5127 0.0273 458 14
1.6946 -0.1028 -0.5117 0.0273 458 14
1.6912 -0.0988 -0.5106 0.0274 458 14
1.6879 -0.0947 -0.5095 0.0275 458 14
1.6844 -0.0908 -0.5084 0.0275 458 14
1.6808 -0.0868 -0.5072 0.0276 458 14
1.6772 -0.0828 -0.5061 0.0276 458 14
1.6735 -0.0789 -0.5049 0.0277 458 14
1.6697 -0.0750 -0.5037 0.0278 458 14
1.6659 -0.0711 -0.5025 0.0278 458 14
1.6620 -0.0671 -0.5013 0.0279 458 14
1.6580 -0.0633 -0.5001 0.0280 458 14
1.6540 -0.0593 -0.4988 0.0281 458 14
1.6499 -0.0555 -0.4975 0.0281 458 14
1.6457 -0.0517 -0.4962 0.0282 458 14
1.6415 -0.0479 -0.4949 0.0283 458 14
1.6373 -0.0440 -0.4936 0.0283 458 14
1.6329 -0.0403 -0.4923 0.0284 458 14
1.6286 -0.0365 -0.4909 0.0285 458 14
1.6241 -0.0328 -0.4896 0.0286 458 14
1.6196 -0.0290 -0.4882 0.0287 458 14
1.6151 -0.0253 -0.4868 0.0287 458 14
1.6105 -0.0217 -0.4854 0.0288 458 14
1.6059 -0.0180 -0.4840 0.0289 458 14
1.6011 -0.0143 -0.4826 0.0290 458 14
1.5963 -0.0107 -0.4811 0.0291 458 14
1.5916 -0.0071 -0.4797 0.0292 458 14
1.5867 -0.0035 -0.4782 0.0293 458 14
1.5819 0.0001 -0.4767 0.0293 458 14
1.5769 0.0036 -0.4753 0.0294 458 14
1.5720 0.0071 -0.4738 0.0295 458 14
1.5669 0.0106 -0.4722 0.0296 458 14
1.5619 0.0141 -0.4707 0.0297 458 14
1.5568 0.0175 -0.4692 0.0298 458 14
1.5516 0.0209 -0.4677 0.0299 458 14
1.5464 0.0243 -0.4661 0.0300 458 14
1.5412 0.0277 -0.4646 0.0301 458 14
1.5359 0.0311 -0.4630 0.0302 458 14
1.5306 0.0344 -0.4614 0.0303 458 14
1.5253 0.0377 -0.4598 0.0304 458 14
1.5200 0.0410 -0.4583 0.0305 458 14
1.5146 0.0442 -0.4567 0.0306 458 14
1.5091 0.0475 -0.4550 0.0307 458 14
1.5037 0.0507 -0.4534 0.0309 458 14
1.4982 0.0538 -0.4518 0.0310 458 14
1.4927 0.0570 -0.4502 0.0311 458 14
1.4871 0.0602 -0.4486 0.0312 458 14
1.4816 0.0632 -0.4469 0.0313 458 14
1.4790 0.0665 -0.4462 0.1878 458 14
1.4782 0.0697 -0.4460 0.1879 458 14
1.4774 0.0730 -0.4458 0.1879 458 14
1.4767 0.0763 -0.4456 0.1880 458 14
1.4759 0.0796 -0.4454 0.1881 458 14
1.4751 0.0829 -0.4453 0.1882 458 14
1.4743 0.0862 -0.4451 0.1883 458 14
1.4735 0.0894 -0.4449 0.1883 458 14
1.4726 0.0927 -0.4447 0.1884 458 14
1.4718 0.0959 -0.4445 0.1885 458 14
1.4710 0.0992 -0.4443 0.1886 458 14
1.4701 0.1025 -0.4441 0.1887 458 14
1.4692 0.1057 -0.4439 0.1887 458 14
1.4684 0.1090 -0.4437 0.1888 458 14
1.4674 0.1122 -0.4436 0.1889 458 14
1.4665 0.1154 -0.4434 0.1890 458 14
1.4656 0.1187 -0.4432 0.1891 458 14
1.4647 0.1219 -0.4430 0.1892 458 14
1.4638 0.1251 -0.4428 0.1892 458 14
1.4628 0.1283 -0.4426 0.1893 458 14
1.4619 0.1316 -0.4424 0.1894 458 14
1.4609 0.1348 -0.4422 0.1895 458 14
1.4599 0.1380 -0.4420 0.1896 458 14
1.4590 0.1412 -0.4418 0.1897 458 14
1.4580 0.1445 -0.4416 0.1898 458 14
1.4570 0.1476 -0.4414 0.1898 458 14
1.4560 0.1509 -0.4411 0.1899 458 14
1.4549 0.1540 -0.4409 0.1900 458 14
1.4539 0.1572 -0.4407 0.1901 458 14
1.4529 0.1604 -0.4405 0.1902 458 14
1.4518 0.1636 -0.4403 0.1903 458 14
1.4507 0.1668 -0.4401 0.1904 458 14
1.4497 0.1699 -0.4399 0.1905 458 14
1.4486 0.1731 -0.4397 0.1906 458 14
1.4475 0.1763 -0.4395 0.1907 458 14
1.4464 0.1795 -0.4393 0.1907 458 14
1.4453 0.1826 -0.4390 0.1908 458 14
1.4442 0.1857 -0.4388 0.1909 458 14
1.4430 0.1889 -0.4386 0.1910 458 14
1.4419 0.1921 -0.4384 0.1911 458 14
1.4408 0.1952 -0.4382 0.1912 458 14
1.4396 0.1983 -0.4380 0.1913 458 14
1.4384 0.2015 -0.4377 0.1914 458 14
1.4372 0.2046 -0.4375 0.1915 458 14
1.4360 0.2077 -0.4373 0.1916 458 14
1.4348 0.2108 -0.4371 0.1917 458 14
1.4336 0.2139 -0.4368 0.1918 458 14
1.4324 0.2170 -0.4366 0.1919 458 14
1.4311 0.2201 -0.4364 0.1920 458 14
1.4299 0.2232 -0.4362 0.1921 458 14
1.4286 0.2263 -0.4359 0.1922 458 14
1.4274 0.2294 -0.4357 0.1923 458 14
1.4261 0.2325 -0.4355 0.1924 458 14
1.4248 0.2355 -0.4353 0.1925 458 14
1.4236 0.2387 -0.4350 0.1926 458 14
1.4222 0.2417 -0.4348 0.1927 458 14
1.4210 0.2447 -0.4346 0.1928 458 14
1.4197 0.2478 -0.4343 0.1929 458 14
1.4186 0.2509 -0.4342 0.1828 458 14
1.4182 0.2541 -0.4342 0.1828 458 14
1.4178 0.2573 -0.4343 0.1827 458 14
1.4174 0.2605 -0.4343 0.1827 458 14
1.4170 0.2637 -0.4344 0.1827 458 14
1.4166 0.2670 -0.4345 0.1827 458 14
1.4162 0.2702 -0.4345 0.1826 458 14
1.4158 0.2734 -0.4346 0.1826 458 14
1.4153 0.2766 -0.4346 0.1826 458 14
1.4148 0.2798 -0.4347 0.1826 458 14
1.4144 0.2830 -0.4347 0.1826 458 14
1.4139 0.2862 -0.4348 0.1825 458 14
1.4134 0.2895 -0.4348 0.1825 458 14
1.4129 0.2926 -0.4349 0.1825 458 14
1.4124 0.2958 -0.4349 0.1825 458 14
1.4118 0.2990 -0.4349 0.1825 458 14
1.4113 0.3022 -0.4350 0.1825 458 14
1.4107 0.3054 -0.4350 0.1824 458 14
1.4102 0.3086 -0.4351 0.1824 458 14
1.4096 0.3118 -0.4351 0.1824 458 14
1.4090 0.3150 -0.4351 0.1824 458 14
1.4084 0.3182 -0.4352 0.1824 458 14
1.4078 0.3213 -0.4352 0.1824 458 14
1.4072 0.3246 -0.4352 0.1823 458 14
1.4066 0.3278 -0.4353 0.1823 458 14
1.4059 0.3309 -0.4353 0.1823 458 14
1.4053 0.3341 -0.4353 0.1823 458 14
1.4046 0.3373 -0.4354 0.1823 458 14
1.4040 0.3404 -0.4354 0.1823 458 14
1.4032 0.3436 -0.4354 0.1823 458 14
1.4026 0.3468 -0.4354 0.1823 458 14
1.4019 0.3499 -0.4355 0.1823 458 14
1.4011 0.3531 -0.4355 0.1822 458 14
1.4004 0.3562 -0.4355 0.1822 458 14
1.3997 0.3594 -0.4355 0.1822 458 14
1.3989 0.3626 -0.4355 0.1822 458 14
1.3981 0.3657 -0.4356 0.1822 458 14
1.3974 0.3689 -0.4356 0.1822 458 14
1.3966 0.3720 -0.4356 0.1822 458 14
1.3958 0.3752 -0.4356 0.1822 458 14
1.3950 0.3783 -0.4356 0.1822 458 14
1.3942 0.3814 -0.4356 0.1822 458 14
1.3934 0.3846 -0.4356 0.1822 458 14
1.3925 0.3877 -0.4356 0.1822 458 14
1.3917 0.3908 -0.4356 0.1822 458 14
1.3908 0.3940 -0.4356 0.1822 458 14
1.3899 0.3971 -0.4357 0.1822 458 14
1.3890 0.4002 -0.4357 0.1822 458 14
1.3881 0.4033 -0.4357 0.1822 458 14
1.3872 0.4064 -0.4357 0.1822 458 14
1.3863 0.4096 -0.4357 0.1822 458 14
1.3854 0.4127 -0.4357 0.1822 458 14
1.3845 0.4158 -0.4356 0.1822 458 14
1.3835 0.4188 -0.4356 0.1822 458 14
1.3825 0.4220 -0.4356 0.1822 458 14
1.3816 0.4250 -0.4356 0.1822 458 14
1.3806 0.4281 -0.4356 0.1822 458 14
1.3796 0.4312 -0.4356 0.1822 458 14
1.3786 0.4343 -0.4356 0.1822 458 14
1.3776 0.4374 -0.4356 0.1822 458 14
1.3765 0.4405 -0.4356 0.1822 458 14
1.3755 0.4436 -0.4356 0.1822 458 14
1.3744 0.4466 -0.4355 0.1822 458 14
1.3734 0.4497 -0.4355 0.1822 458 14
1.3723 0.4528 -0.4355 0.1822 458 14
1.3712 0.4558 -0.4355 0.1822 458 14
1.3701 0.4589 -0.4355 0.1823 458 14
1.3690 0.4619 -0.4354 0.1823 458 14
1.3679 0.4650 -0.4354 0.1823 458 14
1.3668 0.4680 -0.4354 0.1823 458 14
1.3656 0.4710 -0.4354 0.1823 458 14
1.3645 0.4740 -0.4353 0.1823 458 14
1.3633 0.4771 -0.4353 0.1823 458 14
1.3622 0.4802 -0.4353 0.1823 458 14
1.3610 0.4831 -0.4353 0.1823 458 14
1.3598 0.4862 -0.4352 0.1824 458 14
1.3586 0.4891 -0.4352 0.1824 458 14
1.3574 0.4922 -0.4352 0.1824 458 14
1.3562 0.4952 -0.4351 0.1824 458 14
1.3550 0.4982 -0.4351 0.1824 458 14
1.3537 0.5012 -0.4350 0.1824 458 14
1.3525 0.5042 -0.4350 0.1824 458 14
1.3512 0.5071 -0.4350 0.1825 458 14
1.3499 0.5101 -0.4349 0.1825 458 14
1.3486 0.5131 -0.4349 0.1825 458 14
1.3473 0.5161 -0.4348 0.1825 458 14
1.3460 0.5191 -0.4348 0.1825 458 14
1.3447 0.5220 -0.4347 0.1826 458 14
1.3434 0.5249 -0.4347 0.1826 458 14
1.3421 0.5279 -0.4346 0.1826 458 14
1.3407 0.5309 -0.4346 0.1826 458 14
1.3394 0.5338 -0.4345 0.1826 458 14
1.3380 0.5368 -0.4345 0.1827 458 14
1.3366 0.5397 -0.4344 0.1827 458 14
1.3352 0.5426 -0.4344 0.1827 458 14
1.3338 0.5455 -0.4343 0.1831 458 14
1.3324 0.5485 -0.4343 0.1831 458 14
1.3310 0.5513 -0.4342 0.1831 458 14
1.3296 0.5543 -0.4341 0.1832 458 14
1.3282 0.5572 -0.4341 0.1832 458 14
1.3268 0.5601 -0.4340 0.1832 458 14
1.3253 0.5630 -0.4340 0.1832 458 14
1.3238 0.5659 -0.4339 0.1833 458 14
1.3224 0.5687 -0.4338 0.1833 458 14
1.3209 0.5716 -0.4338 0.1833 458 14
1.3194 0.5745 -0.4337 0.1833 458 14
1.3179 0.5774 -0.4336 0.1834 458 14
1.3164 0.5803 -0.4336 0.1834 458 14
1.3149 0.5831 -0.4335 0.1834 458 14
1.3133 0.5859 -0.4334 0.1835 458 14
1.3118 0.5888 -0.4334 0.1835 458 14
1.3103 0.5916 -0.4333 0.1835 458 14
1.3087 0.5945 -0.4332 0.1835 458 14
1.3071 0.5973 -0.4331 0.1836 458 14
1.3055 0.6002 -0.4330 0.1836 458 14
1.3040 0.6029 -0.4330 0.1836 458 14
1.3024 0.6057 -0.4329 0.1837 458 14
1.3008 0.6086 -0.4328 0.1837 458 14
1.2992 0.6114 -0.4327 0.1837 458 14
1.2975 0.6142 -0.4326 0.1838 458 14
1.2959 0.6170 -0.4326 0.1838 458 14
1.2942 0.6197 -0.4325 0.1839 458 14
1.2926 0.6225 -0.4324 0.1839 458 14
1.2910 0.6253 -0.4323 0.1839 458 14
1.2892 0.6281 -0.4322 0.1840 458 14
1.2876 0.6308 -0.4321 0.1840 458 14
1.2859 0.6335 -0.4320 0.1840 458 14
1.2842 0.6363 -0.4319 0.1841 458 14
1.2825 0.6391 -0.4318 0.1841 458 14
1.2808 0.6418 -0.4317 0.1842 458 14
1.2790 0.6445 -0.4317 0.1842 458 14
1.2773 0.6472 -0.4316 0.1843 458 14
1.2755 0.6500 -0.4315 0.1843 458 14
1.2738 0.6527 -0.4314 0.1843 458 14
1.2720 0.6554 -0.4313 0.1844 458 14
1.2703 0.6581 -0.4312 0.1844 458 14
1.2685 0.6608 -0.4310 0.1845 458 14
1.2667 0.6635 -0.4309 0.1845 458 14
1.2649 0.6661 -0.4308 0.1846 458 14
1.2631 0.6688 -0.4307 0.1846 458 14
1.2613 0.6714 -0.4306 0.1846 458 14
1.2594 0.6741 -0.4305 0.1847 458 14
1.2576 0.6768 -0.4304 0.1847 458 14
1.2557 0.6794 -0.4303 0.1848 458 14
1.2539 0.6821 -0.4302 0.1848 458 14
1.2521 0.6847 -0.4301 0.1849 458 14
1.2502 0.6873 -0.4300 0.1849 458 14
1.2483 0.6900 -0.4298 0.1850 458 14
1.2464 0.6925 -0.4297 0.1850 458 14
1.2445 0.6952 -0.4296 0.1851 458 14
1.2425 0.6978 -0.4295 0.1851 458 14
1.2406 0.7003 -0.4294 0.1852 458 14
1.2387 0.7029 -0.4292 0.1852 458 14
1.2368 0.7055 -0.4291 0.1853 458 14
1.2348 0.7081 -0.4290 0.1853 458 14
1.2329 0.7106 -0.4289 0.1854 458 14
1.2329 0.7144 -0.4294 0.1249 458 14
1.2330 0.7181 -0.4300 0.1247 458 14
1.2331 0.7219 -0.4306 0.1245 458 14
1.2331 0.7256 -0.4312 0.1243 458 14
1.2332 0.7293 -0.4318 0.1242 458 14
1.2332 0.7331 -0.4324 0.1240 458 14
1.2333 0.7369 -0.4330 0.1238 458 14
1.2333 0.7407 -0.4336 0.1237 458 14
