ply
format ascii 1.0
element vertex 1413
property float32 x
property float32 y
property float32 z
property float32 CosAngle
property uint32 ObjIdx
property uint32 ObjTag
end_header
7.5607 7.2940 -1.6151 0.1607 0 2
7.5435 7.3102 -1.6149 0.1607 0 2
7.5263 7.3263 -1.6148 0.1607 0 2
7.5090 7.3423 -1.6146 0.1608 0 2
7.4917 7.3584 -1.6144 0.1608 0 2
7.4744 7.3744 -1.6142 0.1608 0 2
7.4570 7.3904 -1.6141 0.1608 0 2
7.4396 7.4063 -1.6139 0.1608 0 2
8.2714 -8.2713 -1.8972 0.1524 0 1
8.2888 -8.2517 -1.8970 0.1524 0 1
8.3062 -8.2320 -1.8967 0.1525 0 1
8.3236 -8.2122 -1.8965 0.1525 0 1
8.3409 -8.1925 -1.8962 0.1525 0 1
8.3581 -8.1727 -1.8960 0.1525 0 1
8.3754 -8.1528 -1.8957 0.1525 0 1
8.3925 -8.1329 -1.8955 0.1526 0 1
8.4096 -8.1130 -1.8952 0.1526 0 1
8.4267 -8.0930 -1.8950 0.1526 0 1
8.4437 -8.0730 -1.8947 0.1526 0 1
8.4607 -8.0529 -1.8945 0.1526 0 1
8.4776 -8.0329 -1.8942 0.1527 0 1
8.4945 -8.0127 -1.8940 0.1527 0 1
8.5113 -7.9926 -1.8937 0.1527 0 1
8.5281 -7.9724 -1.8934 0.1527 0 1
8.5448 -7.9522 -1.8932 0.1527 0 1
8.5614 -7.9319 -1.8929 0.1528 0 1
8.5780 -7.9116 -1.8927 0.1528 0 1
8.5946 -7.8913 -1.8924 0.1528 0 1
8.6112 -7.8709 -1.8922 0.1528 0 1
8.6276 -7.8505 -1.8919 0.1528 0 1
8.6440 -7.8301 -1.8917 0.1529 0 1
8.6604 -7.8096 -1.8914 0.1529 0 1
8.6767 -7.7891 -1.8911 0.1529 0 1
8.6930 -7.7685 -1.8909 0.1529 0 1
8.7092 -7.7479 -1.8906 0.1530 0 1
8.7254 -7.7273 -1.8904 0.1530 0 1
8.7415 -7.7067 -1.8901 0.1530 0 1
8.7576 -7.6860 -1.8898 0.1530 0 1
8.7736 -7.6653 -1.8896 0.1530 0 1
8.7896 -7.6445 -1.8893 0.1531 0 1
8.8055 -7.6237 -1.8891 0.1531 0 1
8.8214 -7.6029 -1.8888 0.1531 0 1
8.8372 -7.5820 -1.8885 0.1531 0 1
8.8529 -7.5611 -1.8883 0.1531 0 1
8.8687 -7.5402 -1.8880 0.1532 0 1
8.8843 -7.5192 -1.8878 0.1532 0 1
8.8999 -7.4982 -1.8875 0.1532 0 1
8.9155 -7.4772 -1.8872 0.1532 0 1
8.9310 -7.4561 -1.8870 0.1532 0 1
8.9465 -7.4350 -1.8867 0.1533 0 1
8.9619 -7.4139 -1.8864 0.1533 0 1
8.9772 -7.3927 -1.8862 0.1533 0 1
8.9925 -7.3715 -1.8859 0.1533 0 1
9.0078 -7.3503 -1.8856 0.1534 0 1
9.0230 -7.3290 -1.8854 0.1534 0 1
9.0381 -7.3078 -1.8851 0.1534 0 1
9.0532 -7.2864 -1.8848 0.1534 0 1
9.0683 -7.2650 -1.8846 0.1534 0 1
9.0833 -7.2437 -1.8843 0.1535 0 1
9.0982 -7.2222 -1.8840 0.1535 0 1
9.1131 -7.2007 -1.8838 0.1535 0 1
9.1279 -7.1793 -1.8835 0.1535 0 1
9.1427 -7.1577 -1.8832 0.1536 0 1
9.1575 -7.1362 -1.8830 0.1536 0 1
9.1721 -7.1146 -1.8827 0.1536 0 1
9.1868 -7.0930 -1.8824 0.1536 0 1
9.2014 -7.0714 -1.8822 0.1536 0 1
9.2159 -7.0497 -1.8819 0.1537 0 1
9.2303 -7.0280 -1.8816 0.1537 0 1
9.2447 -7.0062 -1.8814 0.1537 0 1
9.2591 -6.9845 -1.8811 0.1537 0 1
9.2734 -6.9627 -1.8808 0.1537 0 1
9.2877 -6.9408 -1.8805 0.1538 0 1
9.3019 -6.9190 -1.8803 0.1538 0 1
9.3161 -6.8971 -1.8800 0.1538 0 1
9.3302 -6.8752 -1.8797 0.1538 0 1
9.3442 -6.8532 -1.8795 0.1539 0 1
9.3582 -6.8312 -1.8792 0.1539 0 1
9.3722 -6.8093 -1.8789 0.1539 0 1
9.3860 -6.7872 -1.8786 0.1539 0 1
9.3999 -6.7652 -1.8784 0.1539 0 1
9.4137 -6.7430 -1.8781 0.1540 0 1
9.4274 -6.7209 -1.8778 0.1540 0 1
9.4411 -6.6988 -1.8775 0.1540 0 1
9.4547 -6.6766 -1.8773 0.1540 0 1
9.4683 -6.6544 -1.8770 0.1541 0 1
9.4818 -6.6321 -1.8767 0.1541 0 1
9.4953 -6.6099 -1.8764 0.1541 0 1
9.5087 -6.5876 -1.8762 0.1541 0 1
9.5220 -6.5653 -1.8759 0.1542 0 1
9.5353 -6.5429 -1.8756 0.1542 0 1
9.5486 -6.5205 -1.8753 0.1542 0 1
9.5618 -6.4982 -1.8751 0.1542 0 1
9.5749 -6.4757 -1.8748 0.1542 0 1
9.5880 -6.4532 -1.8745 0.1543 0 1
9.6010 -6.4308 -1.8742 0.1543 0 1
9.6140 -6.4083 -1.8739 0.1543 0 1
9.6269 -6.3857 -1.8737 0.1543 0 1
9.6398 -6.3632 -1.8734 0.1544 0 1
9.6526 -6.3405 -1.8731 0.1544 0 1
9.6653 -6.3179 -1.8728 0.1544 0 1
9.6781 -6.2953 -1.8726 0.1544 0 1
9.6907 -6.2727 -1.8723 0.1545 0 1
9.7033 -6.2500 -1.8720 0.1545 0 1
9.7159 -6.2272 -1.8717 0.1545 0 1
9.7284 -6.2045 -1.8714 0.1545 0 1
9.7408 -6.1817 -1.8711 0.1545 0 1
9.7532 -6.1589 -1.8709 0.1546 0 1
9.7655 -6.1361 -1.8706 0.1546 0 1
9.7778 -6.1132 -1.8703 0.1546 0 1
9.7900 -6.0904 -1.8700 0.1546 0 1
9.8022 -6.0675 -1.8697 0.1547 0 1
9.8143 -6.0445 -1.8695 0.1547 0 1
9.8263 -6.0216 -1.8692 0.1547 0 1
9.8383 -5.9986 -1.8689 0.1547 0 1
9.8503 -5.9756 -1.8686 0.1548 0 1
9.8621 -5.9526 -1.8683 0.1548 0 1
9.8740 -5.9295 -1.8680 0.1548 0 1
9.8858 -5.9064 -1.8678 0.1548 0 1
9.8975 -5.8834 -1.8675 0.1548 0 1
9.9092 -5.8603 -1.8672 0.1549 0 1
9.9208 -5.8371 -1.8669 0.1549 0 1
9.9323 -5.8139 -1.8666 0.1549 0 1
9.9438 -5.7908 -1.8663 0.1549 0 1
9.9553 -5.7675 -1.8660 0.1550 0 1
9.9667 -5.7443 -1.8658 0.1550 0 1
9.9780 -5.7211 -1.8655 0.1550 0 1
9.9893 -5.6978 -1.8652 0.1550 0 1
10.0005 -5.6745 -1.8649 0.1551 0 1
10.0117 -5.6512 -1.8646 0.1551 0 1
10.0228 -5.6278 -1.8643 0.1551 0 1
10.0339 -5.6045 -1.8640 0.1551 0 1
10.0449 -5.5811 -1.8638 0.1552 0 1
10.0558 -5.5576 -1.8635 0.1552 0 1
10.0667 -5.5342 -1.8632 0.1552 0 1
10.0775 -5.5108 -1.8629 0.1552 0 1
10.0883 -5.4873 -1.8626 0.1553 0 1
10.0991 -5.4637 -1.8623 0.1553 0 1
10.1097 -5.4403 -1.8620 0.1553 0 1
10.1204 -5.4167 -1.8617 0.1553 0 1
10.1309 -5.3932 -1.8615 0.1553 0 1
10.1414 -5.3696 -1.8612 0.1554 0 1
10.1518 -5.3460 -1.8609 0.1554 0 1
10.1622 -5.3223 -1.8606 0.1554 0 1
10.1726 -5.2987 -1.8603 0.1554 0 1
10.1829 -5.2751 -1.8600 0.1555 0 1
10.1931 -5.2514 -1.8597 0.1555 0 1
10.2032 -5.2277 -1.8594 0.1555 0 1
10.2134 -5.2039 -1.8591 0.1555 0 1
10.2234 -5.1802 -1.8589 0.1556 0 1
10.2334 -5.1564 -1.8586 0.1556 0 1
10.2433 -5.1327 -1.8583 0.1556 0 1
10.2532 -5.1089 -1.8580 0.1556 0 1
10.2631 -5.0850 -1.8577 0.1557 0 1
10.2729 -5.0612 -1.8574 0.1557 0 1
10.2826 -5.0373 -1.8571 0.1557 0 1
10.2922 -5.0135 -1.8568 0.1557 0 1
10.3018 -4.9896 -1.8565 0.1558 0 1
10.3114 -4.9657 -1.8562 0.1558 0 1
10.3209 -4.9418 -1.8559 0.1558 0 1
10.3303 -4.9178 -1.8556 0.1558 0 1
10.3397 -4.8939 -1.8554 0.1559 0 1
10.3490 -4.8698 -1.8551 0.1559 0 1
10.3583 -4.8459 -1.8548 0.1559 0 1
10.3675 -4.8219 -1.8545 0.1559 0 1
10.3766 -4.7978 -1.8542 0.1560 0 1
10.3857 -4.7737 -1.8539 0.1560 0 1
10.3948 -4.7497 -1.8536 0.1560 0 1
10.4038 -4.7256 -1.8533 0.1560 0 1
10.4127 -4.7015 -1.8530 0.1561 0 1
10.4216 -4.6774 -1.8527 0.1561 0 1
10.4304 -4.6532 -1.8524 0.1561 0 1
10.4391 -4.6291 -1.8521 0.1561 0 1
10.4478 -4.6049 -1.8518 0.1562 0 1
10.4565 -4.5807 -1.8515 0.1562 0 1
10.4651 -4.5565 -1.8512 0.1562 0 1
10.4736 -4.5323 -1.8509 0.1562 0 1
10.4821 -4.5081 -1.8507 0.1563 0 1
10.4905 -4.4839 -1.8504 0.1563 0 1
10.4989 -4.4596 -1.8501 0.1563 0 1
10.5072 -4.4353 -1.8498 0.1563 0 1
10.5154 -4.4110 -1.8495 0.1564 0 1
10.5236 -4.3867 -1.8492 0.1564 0 1
10.5317 -4.3624 -1.8489 0.1564 0 1
10.5398 -4.3380 -1.8486 0.1564 0 1
10.5478 -4.3137 -1.8483 0.1565 0 1
10.5558 -4.2893 -1.8480 0.1565 0 1
10.5637 -4.2650 -1.8477 0.1565 0 1
10.5716 -4.2405 -1.8474 0.1565 0 1
10.5793 -4.2161 -1.8471 0.1566 0 1
10.5871 -4.1917 -1.8468 0.1566 0 1
10.5948 -4.1673 -1.8465 0.1566 0 1
10.6024 -4.1428 -1.8462 0.1566 0 1
10.6099 -4.1184 -1.8459 0.1567 0 1
10.6174 -4.0939 -1.8456 0.1567 0 1
10.6249 -4.0694 -1.8453 0.1567 0 1
10.6323 -4.0449 -1.8450 0.1567 0 1
10.6397 -4.0204 -1.8447 0.1568 0 1
10.6469 -3.9959 -1.8444 0.1568 0 1
10.6541 -3.9713 -1.8441 0.1568 0 1
10.6613 -3.9468 -1.8438 0.1568 0 1
10.6684 -3.9221 -1.8435 0.1569 0 1
10.6754 -3.8976 -1.8432 0.1569 0 1
10.6825 -3.8730 -1.8429 0.1569 0 1
10.6894 -3.8484 -1.8427 0.1569 0 1
10.6963 -3.8238 -1.8424 0.1570 0 1
10.7031 -3.7991 -1.8421 0.1570 0 1
10.7098 -3.7745 -1.8418 0.1570 0 1
10.7165 -3.7499 -1.8415 0.1570 0 1
10.7232 -3.7252 -1.8412 0.1571 0 1
10.7298 -3.7005 -1.8409 0.1571 0 1
10.7363 -3.6758 -1.8406 0.1571 0 1
10.7428 -3.6512 -1.8403 0.1571 0 1
10.7492 -3.6264 -1.8400 0.1572 0 1
10.7556 -3.6017 -1.8397 0.1572 0 1
10.7620 -3.5771 -1.8394 0.1581 0 1
10.7684 -3.5523 -1.8391 0.1581 0 1
10.7747 -3.5277 -1.8388 0.1581 0 1
10.7809 -3.5029 -1.8385 0.1582 0 1
10.7871 -3.4782 -1.8383 0.1582 0 1
10.7933 -3.4535 -1.8380 0.1582 0 1
10.7994 -3.4287 -1.8377 0.1582 0 1
10.8054 -3.4039 -1.8374 0.1583 0 1
10.8114 -3.3792 -1.8372 0.1583 0 1
10.8172 -3.3544 -1.8369 0.1577 0 1
10.8229 -3.3296 -1.8366 0.1577 0 1
10.8285 -3.3047 -1.8362 0.1577 0 1
10.8341 -3.2798 -1.8359 0.1578 0 1
10.8396 -3.2550 -1.8356 0.1578 0 1
10.8451 -3.2301 -1.8353 0.1578 0 1
10.8505 -3.2052 -1.8350 0.1578 0 1
10.8559 -3.1804 -1.8347 0.1579 0 1
10.8612 -3.1554 -1.8344 0.1579 0 1
10.8664 -3.1305 -1.8341 0.1579 0 1
10.8716 -3.1056 -1.8338 0.1579 0 1
10.8767 -3.0807 -1.8335 0.1580 0 1
10.8818 -3.0558 -1.8332 0.1580 0 1
10.8868 -3.0308 -1.8329 0.1580 0 1
10.8917 -3.0059 -1.8326 0.1580 0 1
10.8966 -2.9809 -1.8323 0.1581 0 1
10.9015 -2.9560 -1.8320 0.1581 0 1
10.9062 -2.9311 -1.8317 0.1581 0 1
10.9110 -2.9061 -1.8313 0.1582 0 1
10.9156 -2.8811 -1.8310 0.1582 0 1
10.9203 -2.8561 -1.8307 0.1582 0 1
10.9248 -2.8311 -1.8304 0.1582 0 1
10.9293 -2.8062 -1.8301 0.1583 0 1
10.9337 -2.7812 -1.8298 0.1583 0 1
10.9381 -2.7562 -1.8295 0.1583 0 1
10.9424 -2.7312 -1.8292 0.1583 0 1
10.9467 -2.7061 -1.8289 0.1584 0 1
10.9509 -2.6811 -1.8286 0.1584 0 1
10.9551 -2.6561 -1.8283 0.1584 0 1
10.9592 -2.6311 -1.8280 0.1582 0 1
10.9632 -2.6060 -1.8277 0.1582 0 1
10.9673 -2.5810 -1.8274 0.1582 0 1
10.9712 -2.5559 -1.8271 0.1583 0 1
10.9751 -2.5309 -1.8268 0.1583 0 1
10.9790 -2.5059 -1.8265 0.1583 0 1
10.9828 -2.4808 -1.8262 0.1583 0 1
10.9865 -2.4558 -1.8259 0.1584 0 1
10.9902 -2.4307 -1.8256 0.1584 0 1
10.9825 -2.4032 -1.8234 0.6995 0 2
10.9635 -2.3732 -1.8194 0.7011 0 2
10.9445 -2.3434 -1.8153 0.7026 0 2
10.9256 -2.3138 -1.8113 0.7042 0 2
10.9068 -2.2843 -1.8074 0.7057 0 2
10.8881 -2.2548 -1.8034 0.7073 0 2
10.8694 -2.2255 -1.7995 0.7088 0 2
10.8509 -2.1964 -1.7956 0.7103 0 2
10.8331 -2.1675 -1.7918 0.7146 0 2
10.8167 -2.1389 -1.7883 0.7160 0 2
10.8004 -2.1106 -1.7849 0.7174 0 2
10.7841 -2.0823 -1.7814 0.7188 0 2
10.7679 -2.0541 -1.7779 0.7202 0 2
10.7518 -2.0260 -1.7745 0.7216 0 2
10.7355 -1.9980 -1.7711 0.7262 0 2
10.7193 -1.9701 -1.7677 0.7276 0 2
10.7031 -1.9423 -1.7643 0.7290 0 2
10.6870 -1.9146 -1.7609 0.7303 0 2
10.6710 -1.8871 -1.7576 0.7317 0 2
10.6550 -1.8596 -1.7543 0.7331 0 2
10.6390 -1.8322 -1.7509 0.7345 0 2
10.6231 -1.8050 -1.7477 0.7359 0 2
10.6073 -1.7778 -1.7444 0.7373 0 2
10.5915 -1.7507 -1.7412 0.7386 0 2
10.5758 -1.7237 -1.7379 0.7400 0 2
10.5602 -1.6968 -1.7347 0.7414 0 2
10.5445 -1.6701 -1.7315 0.7427 0 2
10.5285 -1.6433 -1.7283 0.7219 0 2
10.5116 -1.6165 -1.7249 0.7234 0 2
10.4948 -1.5899 -1.7216 0.7248 0 2
10.4781 -1.5633 -1.7182 0.7262 0 2
10.4612 -1.5368 -1.7149 0.7304 0 2
10.4471 -1.5107 -1.7120 0.1593 0 2
10.4487 -1.4871 -1.7118 0.1593 0 2
10.4503 -1.4634 -1.7115 0.1593 0 2
10.4519 -1.4397 -1.7112 0.1593 0 2
10.4533 -1.4160 -1.7109 0.1594 0 2
10.4548 -1.3923 -1.7106 0.1594 0 2
10.4561 -1.3686 -1.7103 0.1594 0 2
10.4574 -1.3449 -1.7101 0.1594 0 2
10.4587 -1.3212 -1.7098 0.1595 0 2
10.4599 -1.2975 -1.7095 0.1595 0 2
10.4611 -1.2739 -1.7092 0.1595 0 2
10.4622 -1.2502 -1.7089 0.1596 0 2
10.4633 -1.2265 -1.7087 0.1596 0 2
10.5439 -1.2120 -1.7214 0.7172 0 2
10.5283 -1.1863 -1.7184 0.6959 0 2
10.5132 -1.1607 -1.7155 0.6971 0 2
10.4981 -1.1351 -1.7126 0.6983 0 2
10.4830 -1.1097 -1.7097 0.6994 0 2
10.4685 -1.0844 -1.7070 0.1597 0 2
10.4691 -1.0607 -1.7067 0.1598 0 2
10.4698 -1.0371 -1.7064 0.1598 0 2
10.4704 -1.0134 -1.7061 0.1598 0 2
10.4709 -0.9898 -1.7058 0.1598 0 2
10.4713 -0.9661 -1.7056 0.1599 0 2
10.4717 -0.9425 -1.7053 0.1599 0 2
10.4721 -0.9188 -1.7050 0.1599 0 2
10.4724 -0.8952 -1.7047 0.1599 0 2
10.4727 -0.8715 -1.7044 0.1600 0 2
10.4729 -0.8479 -1.7042 0.1600 0 2
10.4730 -0.8243 -1.7039 0.1600 0 2
10.4731 -0.8006 -1.7036 0.1601 0 2
10.4732 -0.7770 -1.7033 0.1601 0 2
10.4732 -0.7534 -1.7030 0.1601 0 2
10.4731 -0.7297 -1.7028 0.1601 0 2
10.4730 -0.7061 -1.7025 0.1602 0 2
10.4729 -0.6825 -1.7022 0.1602 0 2
10.4726 -0.6589 -1.7019 0.1602 0 2
10.4724 -0.6353 -1.7016 0.1602 0 2
10.4721 -0.6116 -1.7014 0.1603 0 2
10.4717 -0.5880 -1.7011 0.1603 0 2
10.4713 -0.5645 -1.7008 0.1603 0 2
10.4708 -0.5409 -1.7005 0.1603 0 2
10.4702 -0.5173 -1.7002 0.1604 0 2
10.4696 -0.4937 -1.7000 0.1604 0 2
10.4690 -0.4702 -1.6997 0.1604 0 2
10.4683 -0.4466 -1.6994 0.1604 0 2
10.4676 -0.4230 -1.6991 0.1605 0 2
10.4668 -0.3995 -1.6988 0.1605 0 2
10.4659 -0.3759 -1.6986 0.1605 0 2
10.4650 -0.3524 -1.6983 0.1606 0 2
10.4641 -0.3288 -1.6980 0.1606 0 2
10.4631 -0.3053 -1.6977 0.1606 0 2
10.4620 -0.2818 -1.6975 0.1606 0 2
10.4609 -0.2583 -1.6972 0.1607 0 2
10.4598 -0.2348 -1.6969 0.1607 0 2
10.4586 -0.2112 -1.6966 0.1607 0 2
10.4573 -0.1877 -1.6963 0.1607 0 2
10.4560 -0.1642 -1.6961 0.1608 0 2
10.4546 -0.1408 -1.6958 0.1608 0 2
10.4532 -0.1173 -1.6955 0.1608 0 2
10.4517 -0.0938 -1.6952 0.1608 0 2
10.4502 -0.0704 -1.6950 0.1609 0 2
10.4486 -0.0469 -1.6947 0.1609 0 2
10.4470 -0.0235 -1.6944 0.1609 0 2
10.4453 0.0000 -1.6941 0.1609 0 2
10.4436 0.0234 -1.6939 0.1610 0 2
10.4418 0.0469 -1.6936 0.1610 0 2
10.4400 0.0703 -1.6933 0.1610 0 2
10.4381 0.0937 -1.6930 0.1611 0 2
10.4361 0.1171 -1.6927 0.1611 0 2
10.4342 0.1405 -1.6925 0.1611 0 2
10.4321 0.1639 -1.6922 0.1611 0 2
10.4300 0.1873 -1.6919 0.1612 0 2
10.4279 0.2106 -1.6916 0.1612 0 2
10.4257 0.2340 -1.6914 0.1612 0 2
10.4234 0.2573 -1.6911 0.1612 0 2
10.4211 0.2807 -1.6908 0.1613 0 2
10.4188 0.3040 -1.6905 0.1613 0 2
10.4164 0.3274 -1.6903 0.1613 0 2
10.4139 0.3507 -1.6900 0.1613 0 2
10.4114 0.3739 -1.6897 0.1614 0 2
10.4089 0.3973 -1.6894 0.1614 0 2
10.4063 0.4206 -1.6892 0.1614 0 2
10.4036 0.4439 -1.6889 0.1614 0 2
10.4009 0.4671 -1.6886 0.1615 0 2
10.3982 0.4904 -1.6884 0.1615 0 2
10.3954 0.5136 -1.6881 0.1615 0 2
10.3925 0.5368 -1.6878 0.1616 0 2
10.3896 0.5601 -1.6875 0.1616 0 2
10.3866 0.5833 -1.6873 0.1616 0 2
10.3836 0.6065 -1.6870 0.1616 0 2
10.3805 0.6297 -1.6867 0.1617 0 2
10.3774 0.6529 -1.6864 0.1617 0 2
10.3743 0.6761 -1.6862 0.1617 0 2
10.3710 0.6992 -1.6859 0.1617 0 2
10.3678 0.7224 -1.6856 0.1618 0 2
10.3645 0.7455 -1.6854 0.1618 0 2
10.3611 0.7687 -1.6851 0.1618 0 2
10.3577 0.7918 -1.6848 0.1618 0 2
10.3542 0.8149 -1.6845 0.1619 0 2
10.3507 0.8380 -1.6843 0.1619 0 2
10.3471 0.8611 -1.6840 0.1619 0 2
10.3435 0.8842 -1.6837 0.1619 0 2
10.3398 0.9072 -1.6835 0.1620 0 2
10.3361 0.9303 -1.6832 0.1620 0 2
10.3323 0.9533 -1.6829 0.1620 0 2
10.3285 0.9763 -1.6827 0.1620 0 2
10.3246 0.9993 -1.6824 0.1621 0 2
10.3207 1.0224 -1.6821 0.1621 0 2
10.3168 1.0454 -1.6818 0.1621 0 2
10.3127 1.0683 -1.6816 0.1622 0 2
10.3086 1.0913 -1.6813 0.1622 0 2
10.3045 1.1143 -1.6810 0.1622 0 2
10.3004 1.1372 -1.6808 0.1622 0 2
10.2961 1.1601 -1.6805 0.1623 0 2
10.2919 1.1830 -1.6802 0.1623 0 2
10.2876 1.2059 -1.6800 0.1623 0 2
10.2832 1.2288 -1.6797 0.1623 0 2
10.2788 1.2517 -1.6794 0.1624 0 2
10.2743 1.2745 -1.6792 0.1624 0 2
10.2698 1.2974 -1.6789 0.1624 0 2
10.2652 1.3202 -1.6786 0.1624 0 2
10.2606 1.3430 -1.6784 0.1625 0 2
10.2559 1.3658 -1.6781 0.1625 0 2
10.2512 1.3886 -1.6778 0.1625 0 2
10.2464 1.4114 -1.6776 0.1625 0 2
10.2416 1.4342 -1.6773 0.1626 0 2
10.2368 1.4569 -1.6770 0.1626 0 2
10.2319 1.4796 -1.6768 0.1626 0 2
10.2269 1.5023 -1.6765 0.1626 0 2
10.2219 1.5250 -1.6762 0.1627 0 2
10.2168 1.5477 -1.6760 0.1627 0 2
10.2117 1.5704 -1.6757 0.1627 0 2
10.2066 1.5931 -1.6754 0.1627 0 2
10.2013 1.6157 -1.6752 0.1628 0 2
10.1961 1.6384 -1.6749 0.1628 0 2
10.1908 1.6610 -1.6747 0.1628 0 2
10.1854 1.6836 -1.6744 0.1628 0 2
10.1800 1.7062 -1.6741 0.1629 0 2
10.1746 1.7287 -1.6739 0.1629 0 2
10.1691 1.7513 -1.6736 0.1629 0 2
10.1635 1.7738 -1.6733 0.1629 0 2
10.1579 1.7963 -1.6731 0.1630 0 2
10.1523 1.8188 -1.6728 0.1630 0 2
10.1466 1.8414 -1.6726 0.1630 0 2
10.1408 1.8638 -1.6723 0.1631 0 2
10.1350 1.8862 -1.6720 0.1631 0 2
10.1292 1.9087 -1.6718 0.1631 0 2
10.1233 1.9311 -1.6715 0.1631 0 2
10.1174 1.9536 -1.6712 0.1632 0 2
10.1114 1.9759 -1.6710 0.1632 0 2
10.1054 1.9983 -1.6707 0.1632 0 2
10.0993 2.0207 -1.6705 0.1632 0 2
10.0932 2.0430 -1.6702 0.1633 0 2
10.0870 2.0653 -1.6699 0.1633 0 2
10.0807 2.0876 -1.6697 0.1633 0 2
10.0745 2.1099 -1.6694 0.1633 0 2
10.0682 2.1322 -1.6692 0.1634 0 2
10.0618 2.1544 -1.6689 0.1634 0 2
10.0554 2.1767 -1.6687 0.1634 0 2
10.0489 2.1989 -1.6684 0.1634 0 2
10.0424 2.2211 -1.6681 0.1635 0 2
10.0359 2.2433 -1.6679 0.1635 0 2
10.0292 2.2655 -1.6676 0.1635 0 2
10.0226 2.2876 -1.6674 0.1635 0 2
10.0159 2.3097 -1.6671 0.1636 0 2
10.0091 2.3318 -1.6669 0.1636 0 2
10.0023 2.3539 -1.6666 0.1636 0 2
9.9955 2.3760 -1.6663 0.1636 0 2
9.9886 2.3981 -1.6661 0.1637 0 2
9.9817 2.4201 -1.6658 0.1637 0 2
9.9747 2.4421 -1.6656 0.1637 0 2
9.9676 2.4641 -1.6653 0.1637 0 2
9.9606 2.4861 -1.6651 0.1638 0 2
9.9535 2.5081 -1.6648 0.1638 0 2
9.9463 2.5300 -1.6646 0.1638 0 2
9.9391 2.5520 -1.6643 0.1638 0 2
9.9318 2.5738 -1.6641 0.1639 0 2
9.9245 2.5957 -1.6638 0.1639 0 2
9.9171 2.6176 -1.6635 0.1639 0 2
9.9097 2.6394 -1.6633 0.1639 0 2
9.9023 2.6612 -1.6630 0.1640 0 2
9.8948 2.6830 -1.6628 0.1640 0 2
9.8873 2.7048 -1.6625 0.1640 0 2
9.8797 2.7266 -1.6623 0.1640 0 2
9.8720 2.7484 -1.6620 0.1641 0 2
9.8643 2.7701 -1.6618 0.1641 0 2
9.8566 2.7918 -1.6615 0.1641 0 2
9.8488 2.8135 -1.6613 0.1641 0 2
9.8410 2.8351 -1.6610 0.1642 0 2
9.8331 2.8568 -1.6608 0.1642 0 2
9.8252 2.8784 -1.6605 0.1642 0 2
9.8173 2.9000 -1.6603 0.1642 0 2
9.8093 2.9216 -1.6600 0.1643 0 2
9.8012 2.9432 -1.6598 0.1643 0 2
9.7931 2.9647 -1.6595 0.1643 0 2
9.7850 2.9862 -1.6593 0.1643 0 2
9.7768 3.0077 -1.6590 0.1644 0 2
9.7686 3.0293 -1.6588 0.1644 0 2
9.7603 3.0507 -1.6585 0.1644 0 2
9.7520 3.0721 -1.6583 0.1644 0 2
9.7436 3.0935 -1.6581 0.1645 0 2
9.7352 3.1149 -1.6578 0.1645 0 2
9.7267 3.1363 -1.6576 0.1645 0 2
9.7182 3.1577 -1.6573 0.1645 0 2
9.7097 3.1789 -1.6571 0.1645 0 2
9.7011 3.2003 -1.6568 0.1646 0 2
9.6924 3.2216 -1.6566 0.1646 0 2
9.6838 3.2429 -1.6563 0.1646 0 2
9.6750 3.2641 -1.6561 0.1646 0 2
9.6663 3.2853 -1.6558 0.1647 0 2
9.6575 3.3065 -1.6556 0.1647 0 2
9.6486 3.3277 -1.6554 0.1647 0 2
9.6397 3.3488 -1.6551 0.1647 0 2
9.6307 3.3699 -1.6549 0.1648 0 2
9.6217 3.3910 -1.6546 0.1648 0 2
9.6127 3.4121 -1.6544 0.1648 0 2
9.6036 3.4332 -1.6541 0.1648 0 2
9.5945 3.4542 -1.6539 0.1649 0 2
9.5853 3.4752 -1.6537 0.1649 0 2
9.5761 3.4962 -1.6534 0.1649 0 2
9.5668 3.5172 -1.6532 0.1649 0 2
9.5575 3.5381 -1.6529 0.1650 0 2
9.5482 3.5591 -1.6527 0.1650 0 2
9.5388 3.5799 -1.6525 0.1650 0 2
9.5293 3.6009 -1.6522 0.1650 0 2
9.5199 3.6217 -1.6520 0.1651 0 2
9.5103 3.6425 -1.6517 0.1651 0 2
9.5008 3.6633 -1.6515 0.1651 0 2
9.4912 3.6841 -1.6513 0.1651 0 2
9.4815 3.7048 -1.6510 0.1651 0 2
9.4718 3.7256 -1.6508 0.1652 0 2
9.4621 3.7463 -1.6506 0.1652 0 2
9.4523 3.7670 -1.6503 0.1652 0 2
9.4424 3.7877 -1.6501 0.1652 0 2
9.4326 3.8083 -1.6499 0.1653 0 2
9.4226 3.8289 -1.6496 0.1653 0 2
9.4127 3.8495 -1.6494 0.1653 0 2
9.4027 3.8700 -1.6491 0.1653 0 2
9.3926 3.8905 -1.6489 0.1654 0 2
9.3825 3.9111 -1.6487 0.1654 0 2
9.3724 3.9316 -1.6484 0.1654 0 2
9.3622 3.9520 -1.6482 0.1654 0 2
9.3520 3.9724 -1.6480 0.1655 0 2
9.3418 3.9929 -1.6477 0.1655 0 2
9.3315 4.0133 -1.6475 0.1655 0 2
9.3211 4.0336 -1.6473 0.1655 0 2
9.3107 4.0540 -1.6470 0.1656 0 2
9.3003 4.0743 -1.6468 0.1656 0 2
9.2898 4.0946 -1.6466 0.1656 0 2
9.2793 4.1148 -1.6464 0.1656 0 2
9.2688 4.1350 -1.6461 0.1656 0 2
9.2582 4.1553 -1.6459 0.1657 0 2
9.2475 4.1754 -1.6457 0.1657 0 2
9.2369 4.1956 -1.6454 0.1657 0 2
9.2261 4.2157 -1.6452 0.1657 0 2
9.2154 4.2358 -1.6450 0.1658 0 2
9.2045 4.2559 -1.6447 0.1658 0 2
9.1937 4.2759 -1.6445 0.1658 0 2
9.1828 4.2960 -1.6443 0.1658 0 2
9.1719 4.3159 -1.6441 0.1659 0 2
9.1609 4.3359 -1.6438 0.1659 0 2
9.1499 4.3559 -1.6436 0.1659 0 2
9.1388 4.3758 -1.6434 0.1659 0 2
9.1277 4.3957 -1.6432 0.1659 0 2
9.1166 4.4155 -1.6429 0.1660 0 2
9.1054 4.4354 -1.6427 0.1660 0 2
9.0942 4.4552 -1.6425 0.1660 0 2
9.0829 4.4750 -1.6423 0.1660 0 2
9.0716 4.4948 -1.6420 0.1661 0 2
9.0603 4.5145 -1.6418 0.1661 0 2
9.0489 4.5342 -1.6416 0.1661 0 2
9.0375 4.5538 -1.6414 0.1661 0 2
9.0260 4.5735 -1.6411 0.1661 0 2
9.0145 4.5931 -1.6409 0.1662 0 2
9.0029 4.6127 -1.6407 0.1662 0 2
8.9914 4.6323 -1.6405 0.1662 0 2
8.9797 4.6518 -1.6402 0.1662 0 2
8.9680 4.6713 -1.6400 0.1663 0 2
8.9563 4.6908 -1.6398 0.1663 0 2
8.9446 4.7102 -1.6396 0.1663 0 2
8.9328 4.7297 -1.6394 0.1663 0 2
8.9210 4.7491 -1.6391 0.1663 0 2
8.9091 4.7684 -1.6389 0.1664 0 2
8.8972 4.7878 -1.6387 0.1664 0 2
8.8852 4.8071 -1.6385 0.1664 0 2
8.8732 4.8264 -1.6383 0.1664 0 2
8.8612 4.8456 -1.6380 0.1665 0 2
8.8491 4.8648 -1.6378 0.1665 0 2
8.8370 4.8841 -1.6376 0.1665 0 2
8.8249 4.9032 -1.6374 0.1665 0 2
8.8127 4.9223 -1.6372 0.1665 0 2
8.8005 4.9415 -1.6370 0.1666 0 2
8.7882 4.9605 -1.6367 0.1666 0 2
8.7759 4.9796 -1.6365 0.1666 0 2
8.7635 4.9986 -1.6363 0.1666 0 2
8.7511 5.0176 -1.6361 0.1667 0 2
8.7387 5.0366 -1.6359 0.1667 0 2
8.7263 5.0555 -1.6357 0.1667 0 2
8.7137 5.0745 -1.6355 0.1667 0 2
8.7012 5.0933 -1.6353 0.1667 0 2
8.6886 5.1122 -1.6350 0.1668 0 2
8.6760 5.1310 -1.6348 0.1668 0 2
8.6634 5.1498 -1.6346 0.1668 0 2
8.6506 5.1685 -1.6344 0.1668 0 2
8.6379 5.1873 -1.6342 0.1669 0 2
8.6252 5.2060 -1.6340 0.1669 0 2
8.6123 5.2246 -1.6338 0.1669 0 2
8.5995 5.2433 -1.6336 0.1669 0 2
8.5866 5.2618 -1.6334 0.1669 0 2
8.5737 5.2804 -1.6331 0.1670 0 2
8.5607 5.2990 -1.6329 0.1670 0 2
8.5477 5.3175 -1.6327 0.1670 0 2
8.5347 5.3360 -1.6325 0.1670 0 2
8.5216 5.3545 -1.6323 0.1670 0 2
8.5085 5.3729 -1.6321 0.1671 0 2
8.4953 5.3913 -1.6319 0.1671 0 2
8.4821 5.4096 -1.6317 0.1671 0 2
8.4689 5.4280 -1.6315 0.1671 0 2
8.4556 5.4463 -1.6313 0.1672 0 2
8.4423 5.4645 -1.6311 0.1672 0 2
8.4290 5.4828 -1.6309 0.1672 0 2
8.4156 5.5010 -1.6307 0.1672 0 2
8.4022 5.5192 -1.6305 0.1672 0 2
8.3887 5.5373 -1.6303 0.1673 0 2
8.3752 5.5554 -1.6301 0.1673 0 2
8.3617 5.5736 -1.6299 0.1673 0 2
8.3482 5.5916 -1.6296 0.1673 0 2
8.3346 5.6096 -1.6294 0.1673 0 2
8.3209 5.6276 -1.6292 0.1674 0 2
8.3072 5.6456 -1.6290 0.1674 0 2
8.2935 5.6635 -1.6288 0.1674 0 2
8.2798 5.6814 -1.6286 0.1674 0 2
8.2660 5.6993 -1.6284 0.1674 0 2
8.2522 5.7171 -1.6282 0.1675 0 2
8.2383 5.7349 -1.6280 0.1675 0 2
8.2244 5.7527 -1.6278 0.1675 0 2
8.2105 5.7704 -1.6276 0.1675 0 2
8.1965 5.7881 -1.6275 0.1675 0 2
8.1825 5.8058 -1.6273 0.1676 0 2
8.1685 5.8235 -1.6271 0.1676 0 2
8.1544 5.8411 -1.6269 0.1676 0 2
8.1403 5.8586 -1.6267 0.1676 0 2
8.1262 5.8762 -1.6265 0.1676 0 2
8.1120 5.8937 -1.6263 0.1677 0 2
8.0978 5.9112 -1.6261 0.1677 0 2
8.0835 5.9286 -1.6259 0.1677 0 2
8.0692 5.9460 -1.6257 0.1677 0 2
8.0549 5.9634 -1.6255 0.1677 0 2
8.0405 5.9808 -1.6253 0.1678 0 2
8.0262 5.9981 -1.6251 0.1678 0 2
8.0117 6.0154 -1.6249 0.1678 0 2
7.9973 6.0326 -1.6247 0.1678 0 2
7.9828 6.0499 -1.6245 0.1678 0 2
7.9682 6.0670 -1.6243 0.1679 0 2
7.9537 6.0842 -1.6242 0.1679 0 2
7.9391 6.1013 -1.6240 0.1679 0 2
7.9244 6.1184 -1.6238 0.1679 0 2
7.9098 6.1354 -1.6236 0.1679 0 2
7.8950 6.1524 -1.6234 0.1680 0 2
7.8803 6.1694 -1.6232 0.1680 0 2
7.8655 6.1864 -1.6230 0.1680 0 2
7.8507 6.2033 -1.6228 0.1680 0 2
7.8359 6.2202 -1.6226 0.1680 0 2
7.8210 6.2370 -1.6225 0.1681 0 2
7.8061 6.2538 -1.6223 0.1681 0 2
7.7911 6.2707 -1.6221 0.1681 0 2
7.7761 6.2874 -1.6219 0.1681 0 2
7.7611 6.3041 -1.6217 0.1681 0 2
7.7461 6.3207 -1.6215 0.1682 0 2
7.7310 6.3374 -1.6213 0.1682 0 2
7.7159 6.3541 -1.6212 0.1682 0 2
7.7008 6.3706 -1.6210 0.1682 0 2
7.6856 6.3871 -1.6208 0.1682 0 2
7.6704 6.4037 -1.6206 0.1683 0 2
7.6551 6.4201 -1.6204 0.1683 0 2
7.6398 6.4366 -1.6202 0.1683 0 2
7.6245 6.4530 -1.6201 0.1683 0 2
7.6313 6.4882 -1.6246 0.1683 0 2
7.6159 6.5046 -1.6244 0.1683 0 2
7.6004 6.5209 -1.6242 0.1684 0 2
7.5849 6.5373 -1.6241 0.1684 0 2
7.5694 6.5536 -1.6239 0.1684 0 2
7.5539 6.5698 -1.6237 0.1684 0 2
7.5383 6.5860 -1.6235 0.1684 0 2
7.5226 6.6022 -1.6234 0.1685 0 2
7.5070 6.6183 -1.6232 0.1685 0 2
7.4913 6.6344 -1.6230 0.1685 0 2
7.4756 6.6505 -1.6228 0.1685 0 2
7.4598 6.6665 -1.6226 0.1685 0 2
7.4441 6.6825 -1.6225 0.1685 0 2
7.4282 6.6985 -1.6223 0.1686 0 2
7.4124 6.7144 -1.6221 0.1686 0 2
7.3965 6.7303 -1.6219 0.1686 0 2
7.3806 6.7461 -1.6218 0.1686 0 2
7.3646 6.7620 -1.6216 0.1686 0 2
7.3487 6.7778 -1.6214 0.1687 0 2
7.3327 6.7935 -1.6212 0.1687 0 2
7.3166 6.8093 -1.6211 0.1687 0 2
7.3005 6.8249 -1.6209 0.1687 0 2
7.2844 6.8405 -1.6207 0.1687 0 2
7.2683 6.8561 -1.6206 0.1687 0 2
7.2521 6.8717 -1.6204 0.1688 0 2
7.2359 6.8873 -1.6202 0.1688 0 2
7.2197 6.9028 -1.6201 0.1688 0 2
7.2034 6.9182 -1.6199 0.1688 0 2
7.1871 6.9336 -1.6197 0.1688 0 2
7.1708 6.9490 -1.6195 0.1689 0 2
7.1545 6.9644 -1.6194 0.1689 0 2
7.1381 6.9797 -1.6192 0.1689 0 2
7.1217 6.9950 -1.6190 0.1689 0 2
7.1052 7.0102 -1.6189 0.1689 0 2
7.0888 7.0254 -1.6187 0.1689 0 2
7.0723 7.0406 -1.6185 0.1690 0 2
7.8411 -7.8411 -1.8925 0.1606 0 1
7.8577 -7.8225 -1.8923 0.1606 0 1
7.8742 -7.8038 -1.8920 0.1606 0 1
7.8907 -7.7852 -1.8918 0.1606 0 1
7.9072 -7.7665 -1.8915 0.1606 0 1
7.9236 -7.7478 -1.8913 0.1607 0 1
7.9400 -7.7290 -1.8911 0.1607 0 1
7.9563 -7.7102 -1.8908 0.1607 0 1
7.9726 -7.6913 -1.8906 0.1607 0 1
7.9888 -7.6725 -1.8904 0.1607 0 1
8.0050 -7.6536 -1.8901 0.1608 0 1
8.0212 -7.6346 -1.8899 0.1608 0 1
8.0372 -7.6156 -1.8896 0.1608 0 1
8.0533 -7.5966 -1.8894 0.1608 0 1
8.0693 -7.5775 -1.8892 0.1608 0 1
8.0853 -7.5585 -1.8889 0.1609 0 1
8.1012 -7.5393 -1.8887 0.1609 0 1
8.1170 -7.5202 -1.8884 0.1609 0 1
8.1328 -7.5010 -1.8882 0.1609 0 1
8.1486 -7.4818 -1.8880 0.1609 0 1
8.1643 -7.4625 -1.8877 0.1610 0 1
8.1800 -7.4432 -1.8875 0.1610 0 1
8.1956 -7.4239 -1.8872 0.1610 0 1
8.2112 -7.4045 -1.8870 0.1610 0 1
8.2267 -7.3851 -1.8867 0.1611 0 1
8.2422 -7.3657 -1.8865 0.1611 0 1
8.2577 -7.3462 -1.8863 0.1611 0 1
8.2730 -7.3267 -1.8860 0.1611 0 1
8.2884 -7.3071 -1.8858 0.1611 0 1
8.3037 -7.2876 -1.8855 0.1612 0 1
8.3189 -7.2680 -1.8853 0.1612 0 1
8.3341 -7.2484 -1.8850 0.1612 0 1
8.3493 -7.2287 -1.8848 0.1612 0 1
8.3644 -7.2090 -1.8845 0.1612 0 1
8.3794 -7.1893 -1.8843 0.1613 0 1
8.3945 -7.1695 -1.8840 0.1613 0 1
8.4094 -7.1497 -1.8838 0.1613 0 1
8.4243 -7.1299 -1.8835 0.1613 0 1
8.4392 -7.1100 -1.8833 0.1613 0 1
8.4540 -7.0902 -1.8830 0.1614 0 1
8.4688 -7.0702 -1.8828 0.1614 0 1
8.4835 -7.0503 -1.8825 0.1614 0 1
8.4982 -7.0303 -1.8823 0.1614 0 1
8.5128 -7.0103 -1.8820 0.1615 0 1
8.5274 -6.9902 -1.8818 0.1615 0 1
8.5419 -6.9701 -1.8815 0.1615 0 1
8.5564 -6.9500 -1.8813 0.1615 0 1
8.5708 -6.9299 -1.8810 0.1615 0 1
8.5852 -6.9097 -1.8808 0.1616 0 1
8.5995 -6.8895 -1.8805 0.1616 0 1
8.6138 -6.8693 -1.8803 0.1616 0 1
8.6280 -6.8490 -1.8800 0.1616 0 1
8.6422 -6.8287 -1.8798 0.1616 0 1
8.6563 -6.8084 -1.8795 0.1617 0 1
8.6704 -6.7880 -1.8793 0.1617 0 1
8.6845 -6.7676 -1.8790 0.1617 0 1
8.6985 -6.7472 -1.8788 0.1617 0 1
8.7124 -6.7268 -1.8785 0.1618 0 1
8.7263 -6.7062 -1.8783 0.1618 0 1
8.7401 -6.6857 -1.8780 0.1618 0 1
8.7539 -6.6652 -1.8777 0.1618 0 1
8.7676 -6.6446 -1.8775 0.1618 0 1
8.7813 -6.6241 -1.8772 0.1619 0 1
8.7950 -6.6035 -1.8770 0.1619 0 1
8.8086 -6.5828 -1.8767 0.1619 0 1
8.8221 -6.5621 -1.8765 0.1619 0 1
8.8356 -6.5414 -1.8762 0.1620 0 1
8.8490 -6.5207 -1.8759 0.1620 0 1
8.8624 -6.4999 -1.8757 0.1620 0 1
8.8758 -6.4791 -1.8754 0.1620 0 1
8.8891 -6.4582 -1.8752 0.1620 0 1
8.9023 -6.4375 -1.8749 0.1621 0 1
8.9155 -6.4166 -1.8747 0.1621 0 1
8.9286 -6.3957 -1.8744 0.1621 0 1
8.9417 -6.3747 -1.8741 0.1621 0 1
8.9548 -6.3537 -1.8739 0.1622 0 1
8.9678 -6.3327 -1.8736 0.1622 0 1
8.9807 -6.3118 -1.8734 0.1622 0 1
8.9936 -6.2907 -1.8731 0.1622 0 1
9.0064 -6.2696 -1.8728 0.1622 0 1
9.0192 -6.2485 -1.8726 0.1623 0 1
9.0320 -6.2274 -1.8723 0.1623 0 1
9.0446 -6.2062 -1.8720 0.1623 0 1
9.0573 -6.1850 -1.8718 0.1623 0 1
9.0698 -6.1639 -1.8715 0.1624 0 1
9.0824 -6.1426 -1.8713 0.1624 0 1
9.0949 -6.1214 -1.8710 0.1624 0 1
9.1073 -6.1001 -1.8707 0.1624 0 1
9.1197 -6.0787 -1.8705 0.1625 0 1
9.1320 -6.0575 -1.8702 0.1625 0 1
9.1443 -6.0361 -1.8699 0.1625 0 1
9.1565 -6.0147 -1.8697 0.1625 0 1
9.1687 -5.9933 -1.8694 0.1625 0 1
9.1808 -5.9719 -1.8691 0.1626 0 1
9.1929 -5.9504 -1.8689 0.1626 0 1
9.2049 -5.9289 -1.8686 0.1626 0 1
9.2169 -5.9074 -1.8684 0.1626 0 1
9.2288 -5.8859 -1.8681 0.1627 0 1
9.2407 -5.8643 -1.8678 0.1627 0 1
9.2525 -5.8427 -1.8676 0.1627 0 1
9.2643 -5.8211 -1.8673 0.1627 0 1
9.2760 -5.7995 -1.8670 0.1628 0 1
9.2876 -5.7778 -1.8668 0.1628 0 1
9.2993 -5.7561 -1.8665 0.1628 0 1
9.3108 -5.7345 -1.8662 0.1628 0 1
9.3223 -5.7127 -1.8660 0.1628 0 1
9.3338 -5.6910 -1.8657 0.1629 0 1
9.3452 -5.6692 -1.8654 0.1629 0 1
9.3565 -5.6474 -1.8651 0.1629 0 1
9.3678 -5.6256 -1.8649 0.1629 0 1
9.3791 -5.6037 -1.8646 0.1630 0 1
9.3903 -5.5818 -1.8643 0.1630 0 1
9.4014 -5.5600 -1.8641 0.1630 0 1
9.4125 -5.5381 -1.8638 0.1630 0 1
9.4235 -5.5161 -1.8635 0.1631 0 1
9.4345 -5.4941 -1.8633 0.1631 0 1
9.4455 -5.4722 -1.8630 0.1631 0 1
9.4564 -5.4502 -1.8627 0.1631 0 1
9.4672 -5.4282 -1.8625 0.1632 0 1
9.4780 -5.4061 -1.8622 0.1632 0 1
9.4887 -5.3841 -1.8619 0.1632 0 1
9.4994 -5.3620 -1.8616 0.1632 0 1
9.5100 -5.3398 -1.8614 0.1632 0 1
9.5205 -5.3177 -1.8611 0.1633 0 1
9.5311 -5.2955 -1.8608 0.1633 0 1
9.5415 -5.2734 -1.8606 0.1633 0 1
9.5519 -5.2512 -1.8603 0.1633 0 1
9.5623 -5.2290 -1.8600 0.1634 0 1
9.5726 -5.2068 -1.8597 0.1634 0 1
9.5829 -5.1845 -1.8595 0.1634 0 1
9.5931 -5.1622 -1.8592 0.1634 0 1
9.6032 -5.1399 -1.8589 0.1635 0 1
9.6133 -5.1176 -1.8586 0.1635 0 1
9.6234 -5.0953 -1.8584 0.1635 0 1
9.6333 -5.0729 -1.8581 0.1635 0 1
9.6433 -5.0506 -1.8578 0.1636 0 1
9.6532 -5.0281 -1.8575 0.1636 0 1
9.6630 -5.0057 -1.8573 0.1636 0 1
9.6728 -4.9833 -1.8570 0.1636 0 1
9.6825 -4.9609 -1.8567 0.1637 0 1
9.6922 -4.9384 -1.8564 0.1637 0 1
9.7018 -4.9159 -1.8562 0.1637 0 1
9.7114 -4.8934 -1.8559 0.1637 0 1
9.7209 -4.8709 -1.8556 0.1638 0 1
9.7303 -4.8483 -1.8553 0.1638 0 1
9.7397 -4.8257 -1.8551 0.1638 0 1
9.7491 -4.8032 -1.8548 0.1638 0 1
9.7584 -4.7805 -1.8545 0.1639 0 1
9.7676 -4.7579 -1.8542 0.1639 0 1
9.7768 -4.7353 -1.8540 0.1639 0 1
9.7860 -4.7127 -1.8537 0.1639 0 1
9.7951 -4.6900 -1.8534 0.1639 0 1
9.8041 -4.6673 -1.8531 0.1640 0 1
9.8131 -4.6446 -1.8529 0.1640 0 1
9.8220 -4.6218 -1.8526 0.1640 0 1
9.8309 -4.5991 -1.8523 0.1640 0 1
9.8397 -4.5764 -1.8520 0.1641 0 1
9.8485 -4.5536 -1.8517 0.1641 0 1
9.8572 -4.5308 -1.8515 0.1641 0 1
9.8658 -4.5080 -1.8512 0.1641 0 1
9.8744 -4.4852 -1.8509 0.1642 0 1
9.8830 -4.4623 -1.8506 0.1642 0 1
9.8915 -4.4395 -1.8504 0.1642 0 1
9.8999 -4.4166 -1.8501 0.1642 0 1
9.9083 -4.3937 -1.8498 0.1643 0 1
9.9167 -4.3708 -1.8495 0.1643 0 1
9.9250 -4.3479 -1.8492 0.1643 0 1
9.9332 -4.3250 -1.8490 0.1643 0 1
9.9414 -4.3020 -1.8487 0.1644 0 1
9.9495 -4.2791 -1.8484 0.1644 0 1
9.9576 -4.2561 -1.8481 0.1644 0 1
9.9656 -4.2330 -1.8478 0.1644 0 1
9.9736 -4.2100 -1.8476 0.1645 0 1
9.9815 -4.1870 -1.8473 0.1645 0 1
9.9893 -4.1639 -1.8470 0.1645 0 1
9.9971 -4.1409 -1.8467 0.1645 0 1
10.0049 -4.1179 -1.8464 0.1646 0 1
10.0126 -4.0948 -1.8462 0.1646 0 1
10.0202 -4.0717 -1.8459 0.1646 0 1
10.0278 -4.0486 -1.8456 0.1646 0 1
10.0354 -4.0254 -1.8453 0.1656 0 1
10.0429 -4.0023 -1.8451 0.1656 0 1
10.0505 -3.9793 -1.8448 0.1656 0 1
10.0579 -3.9561 -1.8445 0.1657 0 1
10.0654 -3.9330 -1.8443 0.1657 0 1
10.0727 -3.9098 -1.8440 0.1657 0 1
10.0800 -3.8867 -1.8438 0.1657 0 1
10.0873 -3.8635 -1.8435 0.1657 0 1
10.0945 -3.8403 -1.8432 0.1658 0 1
10.1017 -3.8171 -1.8430 0.1658 0 1
10.1087 -3.7939 -1.8427 0.1658 0 1
10.1158 -3.7706 -1.8424 0.1658 0 1
10.1228 -3.7474 -1.8422 0.1659 0 1
10.1297 -3.7241 -1.8419 0.1659 0 1
10.1366 -3.7009 -1.8417 0.1659 0 1
10.1434 -3.6776 -1.8414 0.1659 0 1
10.1502 -3.6543 -1.8411 0.1660 0 1
10.1569 -3.6310 -1.8409 0.1660 0 1
10.1636 -3.6077 -1.8406 0.1660 0 1
10.1702 -3.5843 -1.8403 0.1660 0 1
10.1768 -3.5610 -1.8401 0.1661 0 1
10.1833 -3.5376 -1.8398 0.1661 0 1
10.1897 -3.5143 -1.8395 0.1654 0 1
10.1959 -3.4908 -1.8392 0.1655 0 1
10.2021 -3.4674 -1.8390 0.1655 0 1
10.2082 -3.4440 -1.8387 0.1655 0 1
10.2144 -3.4205 -1.8384 0.1656 0 1
10.2204 -3.3970 -1.8381 0.1656 0 1
10.2264 -3.3736 -1.8378 0.1656 0 1
10.2323 -3.3501 -1.8375 0.1656 0 1
10.2382 -3.3266 -1.8372 0.1657 0 1
10.2440 -3.3031 -1.8369 0.1657 0 1
10.2498 -3.2796 -1.8366 0.1657 0 1
10.2555 -3.2561 -1.8363 0.1657 0 1
10.2611 -3.2325 -1.8360 0.1658 0 1
10.2667 -3.2089 -1.8358 0.1658 0 1
10.2723 -3.1854 -1.8355 0.1658 0 1
10.2778 -3.1618 -1.8352 0.1658 0 1
10.2832 -3.1383 -1.8349 0.1659 0 1
10.2886 -3.1147 -1.8346 0.1659 0 1
10.2940 -3.0911 -1.8343 0.1659 0 1
10.2992 -3.0675 -1.8340 0.1659 0 1
10.3044 -3.0439 -1.8337 0.1660 0 1
10.3096 -3.0203 -1.8334 0.1660 0 1
10.3147 -2.9967 -1.8331 0.1660 0 1
10.3198 -2.9731 -1.8329 0.1660 0 1
10.3248 -2.9495 -1.8326 0.1661 0 1
10.3298 -2.9258 -1.8323 0.1661 0 1
10.3346 -2.9021 -1.8320 0.1661 0 1
10.3395 -2.8785 -1.8317 0.1662 0 1
10.3443 -2.8548 -1.8314 0.1662 0 1
10.3490 -2.8312 -1.8311 0.1662 0 1
10.3537 -2.8075 -1.8308 0.1662 0 1
10.3584 -2.7838 -1.8305 0.1663 0 1
10.3629 -2.7601 -1.8302 0.1663 0 1
10.3674 -2.7364 -1.8299 0.1663 0 1
10.3719 -2.7127 -1.8297 0.1663 0 1
10.3763 -2.6890 -1.8294 0.1664 0 1
10.3806 -2.6653 -1.8291 0.1664 0 1
10.3850 -2.6416 -1.8288 0.1664 0 1
10.3892 -2.6179 -1.8285 0.1664 0 1
10.3934 -2.5941 -1.8282 0.1665 0 1
10.3976 -2.5704 -1.8279 0.1665 0 1
10.4016 -2.5466 -1.8276 0.1665 0 1
10.4057 -2.5229 -1.8273 0.1666 0 1
10.4096 -2.4991 -1.8270 0.1666 0 1
10.4136 -2.4754 -1.8267 0.1666 0 1
10.4174 -2.4516 -1.8265 0.1666 0 1
10.4212 -2.4279 -1.8262 0.1667 0 1
10.4250 -2.4041 -1.8259 0.1667 0 1
10.4287 -2.3803 -1.8256 0.1667 0 1
10.4324 -2.3565 -1.8253 0.1667 0 1
10.4360 -2.3327 -1.8250 0.1668 0 1
10.4395 -2.3089 -1.8247 0.1668 0 1
10.4430 -2.2851 -1.8244 0.1668 0 1
10.4464 -2.2613 -1.8241 0.1668 0 1
10.4498 -2.2375 -1.8238 0.1669 0 1
10.4532 -2.2137 -1.8235 0.1669 0 1
10.4564 -2.1899 -1.8233 0.1669 0 1
10.4596 -2.1661 -1.8230 0.1670 0 1
10.4628 -2.1423 -1.8227 0.1670 0 1
10.4659 -2.1185 -1.8224 0.1670 0 1
10.4690 -2.0946 -1.8221 0.1670 0 1
10.4720 -2.0708 -1.8218 0.1671 0 1
10.4749 -2.0470 -1.8215 0.1671 0 1
10.4778 -2.0231 -1.8212 0.1671 0 1
10.4807 -1.9993 -1.8209 0.1671 0 1
10.4834 -1.9754 -1.8206 0.1672 0 1
10.4862 -1.9516 -1.8203 0.1672 0 1
10.4888 -1.9277 -1.8201 0.1672 0 1
10.4915 -1.9039 -1.8198 0.1672 0 1
10.4941 -1.8801 -1.8195 0.1670 0 1
10.4966 -1.8562 -1.8192 0.1670 0 1
10.4991 -1.8323 -1.8189 0.1671 0 1
10.5016 -1.8085 -1.8186 0.1671 0 1
10.5040 -1.7847 -1.8183 0.1671 0 1
10.5063 -1.7608 -1.8181 0.1671 0 1
10.5086 -1.7370 -1.8178 0.1672 0 1
10.5108 -1.7131 -1.8175 0.1672 0 1
10.5129 -1.6893 -1.8172 0.1672 0 1
10.5133 -1.6652 -1.8166 0.7130 0 2
10.4946 -1.6380 -1.8127 0.7145 0 2
10.4760 -1.6111 -1.8089 0.7160 0 2
10.4575 -1.5842 -1.8051 0.7175 0 2
10.4390 -1.5575 -1.8013 0.7190 0 2
10.4206 -1.5308 -1.7975 0.7205 0 2
10.4023 -1.5043 -1.7938 0.7220 0 2
10.3840 -1.4779 -1.7900 0.7235 0 2
10.3664 -1.4516 -1.7864 0.7339 0 2
10.3501 -1.4257 -1.7831 0.7353 0 2
10.3339 -1.3998 -1.7797 0.7367 0 2
10.3177 -1.3741 -1.7764 0.7381 0 2
10.3016 -1.3484 -1.7731 0.7394 0 2
10.2855 -1.3228 -1.7698 0.7408 0 2
10.2695 -1.2973 -1.7666 0.7422 0 2
10.2535 -1.2720 -1.7633 0.7436 0 2
10.2376 -1.2466 -1.7601 0.7449 0 2
10.2218 -1.2214 -1.7569 0.7463 0 2
10.2059 -1.1963 -1.7537 0.7476 0 2
10.1902 -1.1713 -1.7506 0.7490 0 2
10.1745 -1.1464 -1.7474 0.7503 0 2
10.1589 -1.1215 -1.7443 0.7517 0 2
10.1432 -1.0968 -1.7412 0.7530 0 2
10.1277 -1.0721 -1.7381 0.7543 0 2
10.1121 -1.0475 -1.7350 0.7587 0 2
10.0965 -1.0230 -1.7319 0.7600 0 2
10.0810 -0.9986 -1.7289 0.7614 0 2
10.0654 -0.9743 -1.7258 0.7627 0 2
10.0500 -0.9500 -1.7228 0.7640 0 2
10.0346 -0.9258 -1.7198 0.7654 0 2
10.0192 -0.9018 -1.7168 0.7667 0 2
10.0039 -0.8778 -1.7139 0.7680 0 2
9.9886 -0.8538 -1.7109 0.7694 0 2
9.9734 -0.8300 -1.7080 0.7707 0 2
9.9582 -0.8062 -1.7051 0.7720 0 2
9.9528 -0.7833 -1.7038 0.1682 0 2
9.9530 -0.7609 -1.7036 0.1682 0 2
9.9531 -0.7384 -1.7033 0.1682 0 2
9.9532 -0.7159 -1.7030 0.1682 0 2
9.9532 -0.6935 -1.7028 0.1683 0 2
9.9532 -0.6710 -1.7025 0.1683 0 2
9.9532 -0.6486 -1.7022 0.1683 0 2
9.9530 -0.6262 -1.7020 0.1683 0 2
9.9528 -0.6037 -1.7017 0.1684 0 2
9.9526 -0.5813 -1.7015 0.1684 0 2
9.9523 -0.5589 -1.7012 0.1684 0 2
9.9520 -0.5365 -1.7009 0.1685 0 2
9.9517 -0.5141 -1.7007 0.1685 0 2
9.9512 -0.4917 -1.7004 0.1685 0 2
10.0377 -0.4734 -1.7150 0.7327 0 2
10.0239 -0.4502 -1.7124 0.7338 0 2
10.0101 -0.4271 -1.7099 0.7349 0 2
9.9963 -0.4040 -1.7074 0.7360 0 2
9.9826 -0.3810 -1.7049 0.7370 0 2
9.9689 -0.3581 -1.7024 0.7381 0 2
9.9553 -0.3352 -1.7000 0.7392 0 2
9.9460 -0.3126 -1.6983 0.1687 0 2
9.9452 -0.2902 -1.6980 0.1687 0 2
9.9442 -0.2678 -1.6977 0.1688 0 2
9.9433 -0.2455 -1.6975 0.1688 0 2
9.9423 -0.2231 -1.6972 0.1688 0 2
9.9412 -0.2008 -1.6970 0.1688 0 2
9.9401 -0.1784 -1.6967 0.1689 0 2
9.9389 -0.1561 -1.6964 0.1689 0 2
9.9377 -0.1338 -1.6962 0.1689 0 2
9.9364 -0.1115 -1.6959 0.1689 0 2
9.9351 -0.0892 -1.6956 0.1690 0 2
9.9337 -0.0669 -1.6954 0.1690 0 2
9.9323 -0.0446 -1.6951 0.1690 0 2
9.9308 -0.0223 -1.6948 0.1691 0 2
9.9293 0.0000 -1.6946 0.1691 0 2
9.9278 0.0223 -1.6943 0.1691 0 2
9.9261 0.0445 -1.6941 0.1691 0 2
9.9245 0.0668 -1.6938 0.1692 0 2
9.9227 0.0891 -1.6935 0.1692 0 2
9.9210 0.1113 -1.6933 0.1692 0 2
9.9192 0.1336 -1.6930 0.1692 0 2
9.9173 0.1558 -1.6927 0.1693 0 2
9.9154 0.1780 -1.6925 0.1693 0 2
9.9135 0.2002 -1.6922 0.1693 0 2
9.9115 0.2225 -1.6920 0.1693 0 2
9.9094 0.2446 -1.6917 0.1694 0 2
9.9073 0.2668 -1.6914 0.1694 0 2
9.9051 0.2891 -1.6912 0.1694 0 2
9.9029 0.3112 -1.6909 0.1694 0 2
9.9007 0.3334 -1.6907 0.1695 0 2
9.8984 0.3555 -1.6904 0.1695 0 2
9.8960 0.3777 -1.6901 0.1695 0 2
9.8936 0.3998 -1.6899 0.1696 0 2
9.8912 0.4220 -1.6896 0.1696 0 2
9.8887 0.4441 -1.6893 0.1696 0 2
9.8862 0.4662 -1.6891 0.1696 0 2
9.8836 0.4884 -1.6888 0.1697 0 2
9.8809 0.5104 -1.6886 0.1697 0 2
9.8782 0.5325 -1.6883 0.1697 0 2
9.8755 0.5546 -1.6880 0.1697 0 2
9.8727 0.5767 -1.6878 0.1698 0 2
9.8699 0.5987 -1.6875 0.1698 0 2
9.8670 0.6208 -1.6873 0.1698 0 2
9.8641 0.6428 -1.6870 0.1698 0 2
9.8611 0.6649 -1.6868 0.1699 0 2
9.8581 0.6869 -1.6865 0.1699 0 2
9.8550 0.7089 -1.6862 0.1699 0 2
9.8519 0.7309 -1.6860 0.1699 0 2
9.8487 0.7529 -1.6857 0.1700 0 2
9.8455 0.7748 -1.6855 0.1700 0 2
9.8422 0.7968 -1.6852 0.1700 0 2
9.8389 0.8188 -1.6849 0.1700 0 2
9.8355 0.8407 -1.6847 0.1701 0 2
9.8321 0.8627 -1.6844 0.1701 0 2
9.8286 0.8846 -1.6842 0.1701 0 2
9.8251 0.9065 -1.6839 0.1702 0 2
9.8216 0.9284 -1.6837 0.1702 0 2
9.8180 0.9503 -1.6834 0.1702 0 2
9.8143 0.9722 -1.6831 0.1702 0 2
9.8106 0.9941 -1.6829 0.1703 0 2
9.8069 1.0159 -1.6826 0.1703 0 2
9.8031 1.0378 -1.6824 0.1703 0 2
9.7992 1.0596 -1.6821 0.1703 0 2
9.7953 1.0814 -1.6819 0.1704 0 2
9.7914 1.1032 -1.6816 0.1704 0 2
9.7874 1.1250 -1.6814 0.1704 0 2
9.7834 1.1468 -1.6811 0.1704 0 2
9.7793 1.1686 -1.6809 0.1705 0 2
9.7752 1.1904 -1.6806 0.1705 0 2
9.7710 1.2121 -1.6803 0.1705 0 2
9.7668 1.2339 -1.6801 0.1705 0 2
9.7625 1.2556 -1.6798 0.1706 0 2
9.7582 1.2773 -1.6796 0.1706 0 2
9.7538 1.2990 -1.6793 0.1706 0 2
9.7494 1.3207 -1.6791 0.1706 0 2
9.7450 1.3423 -1.6788 0.1707 0 2
9.7405 1.3640 -1.6786 0.1707 0 2
9.7359 1.3856 -1.6783 0.1707 0 2
9.7313 1.4073 -1.6781 0.1707 0 2
9.7267 1.4289 -1.6778 0.1708 0 2
9.7220 1.4505 -1.6776 0.1708 0 2
9.7172 1.4721 -1.6773 0.1708 0 2
9.7125 1.4937 -1.6771 0.1708 0 2
9.7076 1.5152 -1.6768 0.1709 0 2
9.7028 1.5368 -1.6766 0.1709 0 2
9.6978 1.5583 -1.6763 0.1709 0 2
9.6928 1.5798 -1.6761 0.1710 0 2
9.6878 1.6013 -1.6758 0.1710 0 2
9.6828 1.6228 -1.6755 0.1710 0 2
9.6776 1.6443 -1.6753 0.1710 0 2
9.6725 1.6658 -1.6750 0.1711 0 2
9.6673 1.6872 -1.6748 0.1711 0 2
9.6620 1.7087 -1.6745 0.1711 0 2
9.6567 1.7301 -1.6743 0.1711 0 2
9.6514 1.7514 -1.6741 0.1712 0 2
9.6460 1.7729 -1.6738 0.1712 0 2
9.6406 1.7943 -1.6736 0.1712 0 2
9.6351 1.8156 -1.6733 0.1712 0 2
9.6296 1.8370 -1.6731 0.1713 0 2
9.6240 1.8582 -1.6728 0.1713 0 2
9.6184 1.8796 -1.6726 0.1713 0 2
9.6127 1.9009 -1.6723 0.1713 0 2
9.6070 1.9222 -1.6721 0.1714 0 2
9.6012 1.9434 -1.6718 0.1714 0 2
9.5954 1.9647 -1.6716 0.1714 0 2
9.5896 1.9859 -1.6713 0.1714 0 2
9.5837 2.0071 -1.6711 0.1715 0 2
9.5777 2.0284 -1.6708 0.1715 0 2
9.5718 2.0495 -1.6706 0.1715 0 2
9.5657 2.0707 -1.6703 0.1715 0 2
9.5597 2.0918 -1.6701 0.1716 0 2
9.5535 2.1130 -1.6698 0.1716 0 2
9.5474 2.1341 -1.6696 0.1716 0 2
9.5412 2.1552 -1.6694 0.1716 0 2
9.5349 2.1763 -1.6691 0.1717 0 2
9.5286 2.1973 -1.6689 0.1717 0 2
9.5223 2.2184 -1.6686 0.1717 0 2
9.5159 2.2395 -1.6684 0.1717 0 2
9.5094 2.2605 -1.6681 0.1718 0 2
9.5029 2.2814 -1.6679 0.1718 0 2
9.4964 2.3024 -1.6677 0.1718 0 2
9.4898 2.3234 -1.6674 0.1718 0 2
9.4832 2.3443 -1.6672 0.1719 0 2
9.4766 2.3653 -1.6669 0.1719 0 2
9.4698 2.3862 -1.6667 0.1719 0 2
9.4631 2.4071 -1.6664 0.1719 0 2
9.4563 2.4280 -1.6662 0.1720 0 2
9.4495 2.4488 -1.6660 0.1720 0 2
9.4426 2.4697 -1.6657 0.1720 0 2
9.4356 2.4905 -1.6655 0.1720 0 2
9.4287 2.5113 -1.6652 0.1721 0 2
9.4216 2.5321 -1.6650 0.1721 0 2
9.4146 2.5529 -1.6648 0.1721 0 2
9.4075 2.5736 -1.6645 0.1721 0 2
9.4003 2.5943 -1.6643 0.1722 0 2
9.3931 2.6150 -1.6640 0.1722 0 2
9.3859 2.6357 -1.6638 0.1722 0 2
9.3786 2.6564 -1.6636 0.1722 0 2
9.3713 2.6771 -1.6633 0.1723 0 2
9.3639 2.6977 -1.6631 0.1723 0 2
9.3565 2.7183 -1.6628 0.1723 0 2
9.3490 2.7389 -1.6626 0.1723 0 2
9.3415 2.7595 -1.6624 0.1724 0 2
9.3340 2.7801 -1.6621 0.1724 0 2
9.3264 2.8006 -1.6619 0.1724 0 2
9.3187 2.8211 -1.6617 0.1724 0 2
9.3111 2.8416 -1.6614 0.1725 0 2
9.3033 2.8621 -1.6612 0.1725 0 2
9.2956 2.8826 -1.6609 0.1725 0 2
9.2878 2.9030 -1.6607 0.1725 0 2
9.2799 2.9234 -1.6605 0.1726 0 2
9.2720 2.9438 -1.6602 0.1726 0 2
9.2641 2.9642 -1.6600 0.1726 0 2
9.2561 2.9846 -1.6598 0.1726 0 2
9.2481 3.0048 -1.6595 0.1727 0 2
9.2400 3.0252 -1.6593 0.1727 0 2
9.2319 3.0455 -1.6591 0.1727 0 2
9.2237 3.0658 -1.6588 0.1727 0 2
9.2155 3.0860 -1.6586 0.1727 0 2
9.2073 3.1063 -1.6584 0.1728 0 2
9.1990 3.1265 -1.6581 0.1728 0 2
9.1907 3.1467 -1.6579 0.1728 0 2
9.1823 3.1668 -1.6577 0.1728 0 2
9.1739 3.1870 -1.6574 0.1729 0 2
9.1655 3.2071 -1.6572 0.1729 0 2
9.1570 3.2272 -1.6570 0.1729 0 2
9.1484 3.2473 -1.6568 0.1729 0 2
9.1398 3.2674 -1.6565 0.1730 0 2
9.1312 3.2874 -1.6563 0.1730 0 2
9.1225 3.3075 -1.6561 0.1730 0 2
9.1138 3.3275 -1.6558 0.1730 0 2
9.1051 3.3475 -1.6556 0.1731 0 2
9.0963 3.3674 -1.6554 0.1731 0 2
9.0875 3.3873 -1.6551 0.1731 0 2
9.0786 3.4073 -1.6549 0.1731 0 2
9.0697 3.4271 -1.6547 0.1732 0 2
9.0607 3.4470 -1.6545 0.1732 0 2
9.0517 3.4669 -1.6542 0.1732 0 2
9.0426 3.4867 -1.6540 0.1732 0 2
9.0336 3.5065 -1.6538 0.1733 0 2
9.0244 3.5263 -1.6536 0.1733 0 2
9.0153 3.5461 -1.6533 0.1733 0 2
9.0061 3.5657 -1.6531 0.1733 0 2
8.9968 3.5854 -1.6529 0.1733 0 2
8.9875 3.6052 -1.6526 0.1734 0 2
8.9782 3.6248 -1.6524 0.1734 0 2
8.9688 3.6445 -1.6522 0.1734 0 2
8.9594 3.6641 -1.6520 0.1734 0 2
8.9499 3.6837 -1.6518 0.1735 0 2
8.9404 3.7032 -1.6515 0.1735 0 2
8.9309 3.7228 -1.6513 0.1735 0 2
8.9213 3.7423 -1.6511 0.1735 0 2
8.9117 3.7618 -1.6509 0.1736 0 2
8.9020 3.7813 -1.6506 0.1736 0 2
8.8923 3.8007 -1.6504 0.1736 0 2
8.8826 3.8202 -1.6502 0.1736 0 2
8.8728 3.8396 -1.6500 0.1737 0 2
8.8630 3.8589 -1.6497 0.1737 0 2
8.8531 3.8783 -1.6495 0.1737 0 2
8.8432 3.8977 -1.6493 0.1737 0 2
8.8332 3.9170 -1.6491 0.1737 0 2
8.8232 3.9363 -1.6489 0.1738 0 2
8.8132 3.9555 -1.6486 0.1738 0 2
8.8031 3.9748 -1.6484 0.1738 0 2
8.7930 3.9940 -1.6482 0.1738 0 2
8.7829 4.0132 -1.6480 0.1739 0 2
8.7727 4.0323 -1.6478 0.1739 0 2
8.7625 4.0515 -1.6476 0.1739 0 2
8.7522 4.0706 -1.6473 0.1739 0 2
8.7419 4.0896 -1.6471 0.1740 0 2
8.7315 4.1087 -1.6469 0.1740 0 2
8.7211 4.1278 -1.6467 0.1740 0 2
8.7107 4.1468 -1.6465 0.1740 0 2
8.7002 4.1658 -1.6463 0.1740 0 2
8.6898 4.1848 -1.6460 0.1741 0 2
8.6792 4.2037 -1.6458 0.1741 0 2
8.6686 4.2226 -1.6456 0.1741 0 2
8.6580 4.2415 -1.6454 0.1741 0 2
8.6473 4.2604 -1.6452 0.1742 0 2
8.6366 4.2792 -1.6450 0.1742 0 2
8.6259 4.2980 -1.6447 0.1742 0 2
8.6151 4.3168 -1.6445 0.1742 0 2
8.6042 4.3355 -1.6443 0.1742 0 2
8.5934 4.3543 -1.6441 0.1743 0 2
8.5825 4.3730 -1.6439 0.1743 0 2
8.5715 4.3917 -1.6437 0.1743 0 2
8.5606 4.4104 -1.6435 0.1743 0 2
8.5495 4.4290 -1.6433 0.1744 0 2
8.5385 4.4476 -1.6431 0.1744 0 2
8.5274 4.4661 -1.6428 0.1744 0 2
8.5163 4.4847 -1.6426 0.1744 0 2
8.5051 4.5032 -1.6424 0.1745 0 2
8.4939 4.5217 -1.6422 0.1745 0 2
8.4826 4.5402 -1.6420 0.1745 0 2
8.4714 4.5586 -1.6418 0.1745 0 2
8.4600 4.5771 -1.6416 0.1745 0 2
8.4486 4.5954 -1.6414 0.1746 0 2
8.4373 4.6138 -1.6412 0.1746 0 2
8.4258 4.6321 -1.6410 0.1746 0 2
8.4143 4.6504 -1.6408 0.1746 0 2
8.4028 4.6687 -1.6405 0.1746 0 2
8.3913 4.6870 -1.6403 0.1747 0 2
8.3797 4.7052 -1.6401 0.1747 0 2
8.3681 4.7234 -1.6399 0.1747 0 2
8.3564 4.7416 -1.6397 0.1747 0 2
8.3447 4.7597 -1.6395 0.1748 0 2
8.3329 4.7779 -1.6393 0.1748 0 2
8.3212 4.7959 -1.6391 0.1748 0 2
8.3093 4.8140 -1.6389 0.1748 0 2
8.2975 4.8320 -1.6387 0.1748 0 2
8.2856 4.8500 -1.6385 0.1749 0 2
8.2737 4.8680 -1.6383 0.1749 0 2
8.2617 4.8860 -1.6381 0.1749 0 2
8.2497 4.9039 -1.6379 0.1749 0 2
8.2376 4.9218 -1.6377 0.1750 0 2
8.2256 4.9396 -1.6375 0.1750 0 2
8.2135 4.9575 -1.6373 0.1750 0 2
8.2013 4.9753 -1.6371 0.1750 0 2
8.1891 4.9931 -1.6369 0.1750 0 2
8.1769 5.0108 -1.6367 0.1751 0 2
8.1646 5.0285 -1.6365 0.1751 0 2
8.1524 5.0462 -1.6363 0.1751 0 2
8.1400 5.0639 -1.6361 0.1751 0 2
8.1277 5.0816 -1.6359 0.1751 0 2
8.1152 5.0991 -1.6357 0.1752 0 2
8.1028 5.1168 -1.6355 0.1752 0 2
8.0903 5.1343 -1.6353 0.1752 0 2
8.0778 5.1518 -1.6351 0.1752 0 2
8.0653 5.1693 -1.6349 0.1753 0 2
8.0527 5.1868 -1.6347 0.1753 0 2
8.0401 5.2042 -1.6345 0.1753 0 2
8.0274 5.2216 -1.6343 0.1753 0 2
8.0147 5.2390 -1.6341 0.1753 0 2
8.0020 5.2563 -1.6339 0.1754 0 2
7.9892 5.2736 -1.6337 0.1754 0 2
7.9764 5.2909 -1.6335 0.1754 0 2
7.9636 5.3082 -1.6333 0.1754 0 2
7.9507 5.3254 -1.6332 0.1754 0 2
7.9378 5.3426 -1.6330 0.1755 0 2
7.9249 5.3598 -1.6328 0.1755 0 2
7.9119 5.3769 -1.6326 0.1755 0 2
7.8989 5.3940 -1.6324 0.1755 0 2
7.8858 5.4111 -1.6322 0.1755 0 2
7.8727 5.4281 -1.6320 0.1756 0 2
7.8596 5.4451 -1.6318 0.1756 0 2
7.8464 5.4621 -1.6316 0.1756 0 2
7.8333 5.4791 -1.6314 0.1756 0 2
7.8201 5.4961 -1.6312 0.1756 0 2
7.8068 5.5129 -1.6311 0.1757 0 2
7.7935 5.5298 -1.6309 0.1757 0 2
7.7802 5.5466 -1.6307 0.1757 0 2
7.7668 5.5634 -1.6305 0.1757 0 2
7.7534 5.5802 -1.6303 0.1757 0 2
7.7400 5.5970 -1.6301 0.1758 0 2
7.7265 5.6136 -1.6299 0.1758 0 2
7.7130 5.6303 -1.6297 0.1758 0 2
7.6995 5.6470 -1.6296 0.1758 0 2
7.6859 5.6636 -1.6294 0.1758 0 2
7.6723 5.6802 -1.6292 0.1759 0 2
7.6587 5.6968 -1.6290 0.1759 0 2
7.6450 5.7133 -1.6288 0.1759 0 2
7.6314 5.7298 -1.6286 0.1759 0 2
7.6176 5.7462 -1.6285 0.1759 0 2
7.6038 5.7627 -1.6283 0.1760 0 2
7.5900 5.7791 -1.6281 0.1760 0 2
7.5762 5.7955 -1.6279 0.1760 0 2
7.5623 5.8118 -1.6277 0.1760 0 2
7.5484 5.8281 -1.6275 0.1760 0 2
7.5345 5.8444 -1.6274 0.1761 0 2
7.5205 5.8606 -1.6272 0.1761 0 2
7.5065 5.8768 -1.6270 0.1761 0 2
7.4925 5.8930 -1.6268 0.1761 0 2
7.4784 5.9091 -1.6266 0.1761 0 2
7.4643 5.9253 -1.6265 0.1762 0 2
7.4502 5.9413 -1.6263 0.1762 0 2
7.4360 5.9574 -1.6261 0.1762 0 2
7.4218 5.9734 -1.6259 0.1762 0 2
7.4076 5.9894 -1.6258 0.1762 0 2
7.3934 6.0053 -1.6256 0.1763 0 2
7.3791 6.0213 -1.6254 0.1763 0 2
7.3647 6.0371 -1.6252 0.1763 0 2
7.3504 6.0530 -1.6251 0.1763 0 2
7.3360 6.0689 -1.6249 0.1763 0 2
7.3215 6.0846 -1.6247 0.1764 0 2
7.3071 6.1004 -1.6245 0.1764 0 2
7.2926 6.1161 -1.6244 0.1764 0 2
7.2781 6.1318 -1.6242 0.1764 0 2
7.2635 6.1475 -1.6240 0.1764 0 2
7.2489 6.1631 -1.6238 0.1764 0 2
7.2343 6.1787 -1.6237 0.1765 0 2
7.2197 6.1943 -1.6235 0.1765 0 2
7.2050 6.2098 -1.6233 0.1765 0 2
7.1903 6.2253 -1.6231 0.1765 0 2
7.1755 6.2408 -1.6230 0.1765 0 2
7.1608 6.2562 -1.6228 0.1766 0 2
7.1460 6.2716 -1.6226 0.1766 0 2
7.1311 6.2869 -1.6225 0.1766 0 2
7.1163 6.3023 -1.6223 0.1766 0 2
7.1014 6.3176 -1.6221 0.1766 0 2
7.0865 6.3329 -1.6220 0.1767 0 2
7.0715 6.3481 -1.6218 0.1767 0 2
7.0565 6.3632 -1.6216 0.1767 0 2
7.0415 6.3784 -1.6215 0.1767 0 2
7.0264 6.3936 -1.6213 0.1767 0 2
7.0113 6.4087 -1.6211 0.1767 0 2
6.9962 6.4237 -1.6210 0.1768 0 2
6.9811 6.4387 -1.6208 0.1768 0 2
6.9659 6.4537 -1.6206 0.1768 0 2
6.9507 6.4687 -1.6205 0.1768 0 2
6.9355 6.4836 -1.6203 0.1768 0 2
6.9202 6.4985 -1.6201 0.1768 0 2
6.9049 6.5134 -1.6200 0.1769 0 2
6.8896 6.5282 -1.6198 0.1769 0 2
6.8743 6.5430 -1.6197 0.1769 0 2
6.8589 6.5577 -1.6195 0.1769 0 2
6.8434 6.5725 -1.6193 0.1769 0 2
6.8280 6.5871 -1.6192 0.1770 0 2
6.8125 6.6018 -1.6190 0.1770 0 2
6.7970 6.6164 -1.6189 0.1770 0 2
6.7815 6.6310 -1.6187 0.1770 0 2
6.7659 6.6456 -1.6185 0.1770 0 2
6.7503 6.6601 -1.6184 0.1770 0 2
6.7347 6.6746 -1.6182 0.1771 0 2
6.7191 6.6890 -1.6181 0.1771 0 2
7.4523 -7.4523 -1.8882 0.1687 0 1
7.4681 -7.4346 -1.8880 0.1687 0 1
7.4839 -7.4170 -1.8878 0.1687 0 1
7.4996 -7.3993 -1.8875 0.1688 0 1
7.5153 -7.3816 -1.8873 0.1688 0 1
