ply
format ascii 1.0
element vertex 595
property float32 x
property float32 y
property float32 z
property float32 CosAngle
property uint32 ObjIdx
property uint32 ObjTag
end_header
16.286279678344727 0.8046679496765137 -1.7686699628829956 0.10995810478925705 0 1
16.289657592773438 0.7315624952316284 -1.7686649560928345 0.10995851457118988 0 1
16.292762756347656 0.6584374904632568 -1.768660545349121 0.1099586933851242 0 1
16.29547882080078 0.5853124856948853 -1.768656849861145 0.10995915532112122 0 1
16.29793930053711 0.5121679306030273 -1.7686538696289062 0.10995909571647644 0 1
16.300067901611328 0.4390234351158142 -1.7686513662338257 0.10995922237634659 0 1
16.301864624023438 0.3658789098262787 -1.7686498165130615 0.10995936393737793 0 1
16.30329132080078 0.29271483421325684 -1.7686489820480347 0.10995952039957047 0 1
16.304481506347656 0.21953123807907104 -1.768648624420166 0.1099594458937645 0 1
16.30526351928711 0.1463671773672104 -1.7686491012573242 0.10995952785015106 0 1
16.305789947509766 0.0731835886836052 -1.7686501741409302 0.10995937138795853 0 1
16.305967330932617 -0.0 -1.7686519622802734 0.10995923727750778 0 1
10.328076362609863 -0.046367187052965164 -1.1202645301818848 0.844556450843811 593 13
10.325654029846191 -0.09269531071186066 -1.12003493309021 0.875015377998352 593 13
10.820966720581055 -0.14570312201976776 -1.1738193035125732 0.9315846562385559 593 19
10.174521446228027 -0.18265624344348907 -1.1037731170654297 0.902941882610321 593 19
10.174756050109863 -0.2283593714237213 -1.1038988828659058 0.902839183807373 593 19
10.277509689331055 -0.27681639790534973 -1.1151697635650635 0.5742174386978149 593 13
10.266357421875 -0.32261717319488525 -1.1141058206558228 0.6457130908966064 593 13
10.295126914978027 -0.3697851598262787 -1.117395281791687 0.5230678915977478 593 13
16.293115615844727 -0.658496081829071 -1.768699049949646 0.10995625704526901 0 1
16.290067672729492 -0.7316015362739563 -1.7687077522277832 0.10995570570230484 0 1
16.286727905273438 -0.8046875 -1.7687170505523682 0.10995519161224365 0 1
16.283037185668945 -0.8777734041213989 -1.7687270641326904 0.10995444655418396 0 1
16.27901268005371 -0.9508593678474426 -1.768738031387329 0.10995397716760635 0 1
16.274717330932617 -1.0239062309265137 -1.7687493562698364 0.10995315760374069 0 1
16.270048141479492 -1.0969531536102295 -1.7687615156173706 0.10995248705148697 0 1
16.26506805419922 -1.1699804067611694 -1.7687742710113525 0.10995159298181534 0 1
16.259775161743164 -1.2429686784744263 -1.7687878608703613 0.10995085537433624 0 1
16.254169464111328 -1.3159375190734863 -1.7688018083572388 0.1099500060081482 0 1
16.248231887817383 -1.3889062404632568 -1.7688168287277222 0.10994908213615417 0 1
16.241981506347656 -1.461816430091858 -1.7688323259353638 0.1099480465054512 0 1
16.23539924621582 -1.5346875190734863 -1.7688485383987427 0.10994715988636017 0 1
16.228525161743164 -1.6075586080551147 -1.7688654661178589 0.10994594544172287 0 1
16.221338272094727 -1.6804101467132568 -1.7688829898834229 0.10994473844766617 0 1
16.2137393951416 -1.75320303440094 -1.7689013481140137 0.10994384437799454 0 1
16.205907821655273 -1.8259764909744263 -1.7689204216003418 0.10994257777929306 0 1
16.197704315185547 -1.89871084690094 -1.7689400911331177 0.1099414974451065 0 1
16.189247131347656 -1.9714062213897705 -1.7689603567123413 0.1099400594830513 0 1
16.180400848388672 -2.044081926345825 -1.7689813375473022 0.10993878543376923 0 1
16.1712589263916 -2.1166796684265137 -1.76900315284729 0.10993742197751999 0 1
15.86733341217041 -2.1493945121765137 -1.7367968559265137 0.14039695262908936 0 2
15.386513710021973 -2.1546287536621094 -1.6852067708969116 0.18473245203495026 0 2
15.219247817993164 -2.200859308242798 -1.667950987815857 0.10993323475122452 0 2
15.209423065185547 -2.269179582595825 -1.6679738759994507 0.10993164032697678 0 2
15.19930648803711 -2.337460994720459 -1.6679977178573608 0.10993009805679321 0 2
15.188876152038574 -2.4056835174560547 -1.6680219173431396 0.10992845892906189 0 2
15.178173065185547 -2.473867177963257 -1.6680468320846558 0.109926737844944 0 2
15.16713809967041 -2.5419921875 -1.6680724620819092 0.10992519557476044 0 2
15.155810356140137 -2.6100780963897705 -1.6680986881256104 0.10992342233657837 0 2
15.14418888092041 -2.6781249046325684 -1.6681256294250488 0.10992155224084854 0 2
15.132274627685547 -2.74609375 -1.6681530475616455 0.10991974920034409 0 2
15.120048522949219 -2.814042806625366 -1.668181300163269 0.10991799831390381 0 2
15.107528686523438 -2.8819334506988525 -1.6682101488113403 0.10991602391004562 0 2
15.09471607208252 -2.9497461318969727 -1.6682393550872803 0.10991410166025162 0 2
15.081591606140137 -3.0174999237060547 -1.6682696342468262 0.10991211235523224 0 2
15.068193435668945 -3.085214853286743 -1.6683002710342407 0.1099100336432457 0 2
15.054462432861328 -3.15289044380188 -1.6683316230773926 0.10990801453590393 0 2
15.040438652038574 -3.2204883098602295 -1.6683635711669922 0.10990593582391739 0 2
15.026142120361328 -3.2880077362060547 -1.668396234512329 0.10990390181541443 0 2
15.0115327835083 -3.3554883003234863 -1.6684294939041138 0.10990151762962341 0 2
14.996610641479492 -3.4228711128234863 -1.6684633493423462 0.1098993718624115 0 2
14.981415748596191 -3.490234375 -1.668497920036316 0.10989714413881302 0 2
14.965927124023438 -3.557499885559082 -1.6685329675674438 0.10989484935998917 0 2
14.950106620788574 -3.6247265338897705 -1.6685688495635986 0.10989249497652054 0 2
14.934032440185547 -3.691835880279541 -1.6686052083969116 0.10989005863666534 0 2
14.917646408081055 -3.758925676345825 -1.668642282485962 0.10988759249448776 0 2
14.900985717773438 -3.825917959213257 -1.6686797142028809 0.10988505929708481 0 2
14.883974075317383 -3.8928515911102295 -1.6687182188034058 0.10988259315490723 0 2
14.866727828979492 -3.9596874713897705 -1.6687570810317993 0.10987997055053711 0 2
14.849130630493164 -4.026464939117432 -1.6687966585159302 0.10987742990255356 0 2
14.831278800964355 -4.093163967132568 -1.6688369512557983 0.10987482219934464 0 2
14.81313419342041 -4.159785270690918 -1.6688777208328247 0.10987203568220139 0 2
14.794677734375 -4.22634744644165 -1.6689190864562988 0.1098693460226059 0 2
14.775946617126465 -4.292792797088623 -1.6689611673355103 0.10986649990081787 0 2
14.756884574890137 -4.359179496765137 -1.6690038442611694 0.10986386984586716 0 2
14.737567901611328 -4.425487995147705 -1.669047236442566 0.10986092686653137 0 2
14.717939376831055 -4.491679668426514 -1.6690911054611206 0.10985809564590454 0 2
14.698017120361328 -4.557812213897705 -1.6691356897354126 0.10985510051250458 0 2
14.677841186523438 -4.623867034912109 -1.6691807508468628 0.10985193401575089 0 2
14.65731430053711 -4.689824104309082 -1.6692266464233398 0.10984916239976883 0 2
14.636513710021973 -4.755683422088623 -1.669273018836975 0.1098460853099823 0 2
14.615439414978027 -4.821484088897705 -1.669319987297058 0.10984300822019577 0 2
14.594091415405273 -4.887148380279541 -1.6693676710128784 0.10983975976705551 0 2
14.57241153717041 -4.952734470367432 -1.669415831565857 0.10983677208423615 0 2
14.550458908081055 -5.018241882324219 -1.6694648265838623 0.10983351618051529 0 2
14.528251647949219 -5.083652019500732 -1.6695142984390259 0.1098300889134407 0 2
14.505693435668945 -5.14892578125 -1.6695644855499268 0.1098269522190094 0 2
14.482919692993164 -5.214159965515137 -1.6696151494979858 0.10982339084148407 0 2
14.459794998168945 -5.279257774353027 -1.6696664094924927 0.10982009768486023 0 2
14.436376571655273 -5.344296932220459 -1.6697183847427368 0.10981682687997818 0 2
14.412724494934082 -5.4091796875 -1.6697709560394287 0.10981328040361404 0 2
14.38875961303711 -5.474003791809082 -1.6698241233825684 0.1098097413778305 0 2
14.364501953125 -5.538671970367432 -1.6698778867721558 0.10980638116598129 0 2
14.339970588684082 -5.603281021118164 -1.669932246208191 0.1098027229309082 0 2
14.315165519714355 -5.667734146118164 -1.6699873208999634 0.1097991093993187 0 2
14.290048599243164 -5.732148170471191 -1.670042872428894 0.10979535430669785 0 2
14.264677047729492 -5.796406269073486 -1.670099139213562 0.10979165881872177 0 2
14.238993644714355 -5.860566139221191 -1.6701558828353882 0.1097879707813263 0 2
14.213056564331055 -5.924609184265137 -1.670213222503662 0.10978418588638306 0 2
14.186806678771973 -5.98855447769165 -1.6702712774276733 0.10978043079376221 0 2
14.160283088684082 -6.052382469177246 -1.6703298091888428 0.109776571393013 0 2
14.13344669342041 -6.116093635559082 -1.6703890562057495 0.10977263003587723 0 2
14.10635757446289 -6.1796875 -1.670448899269104 0.10976876318454742 0 2
13.61522388458252 -6.037480354309082 -1.6154731512069702 0.40832918882369995 0 3
13.534384727478027 -6.074452877044678 -1.609103798866272 0.9034417271614075 0 3
13.53506851196289 -6.147910118103027 -1.612451434135437 0.8999535441398621 0 3
13.5359468460083 -6.221757888793945 -1.6158663034439087 0.8980511426925659 0 3
13.536845207214355 -6.2958984375 -1.6193276643753052 0.8961305022239685 0 3
13.53774356842041 -6.370370864868164 -1.6228402853012085 0.894192099571228 0 3
13.538641929626465 -6.445175647735596 -1.6264011859893799 0.8922353386878967 0 3
13.539443016052246 -6.520253658294678 -1.6299972534179688 0.8914093971252441 0 3
13.54012680053711 -6.595605373382568 -1.633626937866211 0.889892041683197 0 3
13.400771141052246 -6.602284908294678 -1.6203714609146118 0.44927436113357544 0 3
12.123993873596191 -6.041015625 -1.4692515134811401 0.439864844083786 0 3
11.988993644714355 -6.041054725646973 -1.4561699628829956 0.4525037705898285 0 3
11.858173370361328 -6.042031288146973 -1.4435561895370483 0.456425279378891 0 3
11.808837890625 -6.083827972412109 -1.4408586025238037 0.8798060417175293 0 3
11.809423446655273 -6.151328086853027 -1.4442819356918335 0.877720057964325 0 3
11.810009956359863 -6.219160079956055 -1.4477508068084717 0.8756167888641357 0 3
11.810830116271973 -6.287460803985596 -1.4512954950332642 0.8716875910758972 0 3
11.811630249023438 -6.356112957000732 -1.4548879861831665 0.8695351481437683 0 3
11.812470436096191 -6.42507791519165 -1.4585267305374146 0.8673655986785889 0 3
11.813251495361328 -6.494394302368164 -1.46220862865448 0.8664548993110657 0 3
11.81387710571289 -6.56396484375 -1.4659210443496704 0.8642604947090149 0 3
11.814579963684082 -6.633886337280273 -1.4696835279464722 0.8620491027832031 0 3
11.815204620361328 -6.704160213470459 -1.4734885692596436 0.8603357672691345 0 3
11.815771102905273 -6.774804592132568 -1.477339267730713 0.8580927848815918 0 3
10.435263633728027 -6.045624732971191 -1.3081090450286865 0.4948127269744873 0 3
10.327704429626465 -6.045390605926514 -1.2980163097381592 0.4986599087715149 0 3
10.295438766479492 -6.088691234588623 -1.2973812818527222 0.8541962504386902 0 3
10.29555606842041 -6.151328086853027 -1.3008660078048706 0.8519074320793152 0 3
10.295732498168945 -6.214296817779541 -1.304396390914917 0.8480830192565918 0 3
10.296103477478027 -6.277734279632568 -1.3079992532730103 0.8457474708557129 0 3
10.296454429626465 -6.341523170471191 -1.3116463422775269 0.8433944582939148 0 3
10.296826362609863 -6.405663967132568 -1.3153440952301025 0.8410248756408691 0 3
10.297216415405273 -6.470156192779541 -1.319085955619812 0.8384882211685181 0 3
10.297607421875 -6.535058498382568 -1.3228813409805298 0.8360836505889893 0 3
10.29799747467041 -6.600331783294678 -1.3267227411270142 0.8336620330810547 0 3
10.298407554626465 -6.665976524353027 -1.330613374710083 0.8312239646911621 0 3
10.298779487609863 -6.731992244720459 -1.334557056427002 0.828768789768219 0 3
10.299189567565918 -6.798418045043945 -1.3385480642318726 0.8262972831726074 0 3
10.299579620361328 -6.865273475646973 -1.3425921201705933 0.8238088488578796 0 3
10.300009727478027 -6.932480335235596 -1.3466869592666626 0.8213039040565491 0 3
10.300399780273438 -7.000155925750732 -1.3508336544036865 0.8187824487686157 0 3
10.300790786743164 -7.068202972412109 -1.3550347089767456 0.8162446022033691 0 3
10.301220893859863 -7.136699199676514 -1.3592884540557861 0.8136900067329407 0 3
10.301610946655273 -7.205625057220459 -1.363595962524414 0.8111189603805542 0 3
10.302041053771973 -7.274999618530273 -1.367959976196289 0.8085317015647888 0 3
10.302470207214355 -7.344804286956787 -1.3723781108856201 0.8059285283088684 0 3
10.30288028717041 -7.415078163146973 -1.3768541812896729 0.8033092021942139 0 3
10.30331039428711 -7.485800743103027 -1.3813852071762085 0.8007527589797974 0 3
10.303720474243164 -7.556972503662109 -1.3859738111495972 0.7981019616127014 0 3
10.304130554199219 -7.628632545471191 -1.3906207084655762 0.7954351902008057 0 3
10.304560661315918 -7.700761318206787 -1.395328164100647 0.7927523255348206 0 3
10.304970741271973 -7.773398399353027 -1.4000931978225708 0.7900528907775879 0 3
10.305380821228027 -7.846542835235596 -1.4049216508865356 0.787338137626648 0 3
10.305830001831055 -7.920175552368164 -1.4098114967346191 0.7846075296401978 0 3
10.30624008178711 -7.994335651397705 -1.414764404296875 0.7818607091903687 0 3
10.306669235229492 -8.069023132324219 -1.4197790622711182 0.779098629951477 0 3
10.307138442993164 -8.144238471984863 -1.4248614311218262 0.7763206958770752 0 3
10.307548522949219 -8.220000267028809 -1.4300057888031006 0.7735266089439392 0 3
10.307997703552246 -8.29628849029541 -1.4352182149887085 0.7707176804542542 0 3
10.308446884155273 -8.373144149780273 -1.440498948097229 0.7678928375244141 0 3
9.018017768859863 -7.392441272735596 -1.264823317527771 0.9898278713226318 0 3
8.903935432434082 -7.365956783294678 -1.253420114517212 0.2238386571407318 0 3
8.562861442565918 -7.148769378662109 -1.2099131345748901 0.5159329175949097 0 3
8.474638938903809 -7.13992166519165 -1.2019611597061157 0.8472834825515747 0 3
8.465917587280273 -7.197773456573486 -1.2052979469299316 0.8449448943138123 0 3
8.457128524780273 -7.255956649780273 -1.2086611986160278 0.8425867557525635 0 3
8.386689186096191 -7.261132717132568 -1.2032495737075806 0.6560224294662476 0 3
8.311630249023438 -7.261640548706055 -1.1971451044082642 0.6593681573867798 0 3
8.237334251403809 -7.262167930603027 -1.191123127937317 0.6627007722854614 0 3
8.1343355178833 -7.236542701721191 -1.180920958518982 0.6660205721855164 0 3
8.09090805053711 -7.263222694396973 -1.1793323755264282 0.6693258285522461 0 3
8.018798828125 -7.263710975646973 -1.1735615730285645 0.6726184487342834 0 3
7.947362899780273 -7.264257431030273 -1.1678669452667236 0.6758971214294434 0 3
7.744755744934082 -7.143105506896973 -1.1427936553955078 0.7843535542488098 0 3
7.685849666595459 -7.152851581573486 -1.1388238668441772 0.7870876789093018 0 3
7.65237283706665 -7.186074256896973 -1.1386321783065796 0.6035290360450745 0 3
7.62600564956665 -7.225996017456055 -1.1395227909088135 0.9391064643859863 0 3
7.581767559051514 -7.248925685882568 -1.1377625465393066 0.9405598044395447 0 3
7.537675380706787 -7.271777153015137 -1.1360291242599487 0.9419941902160645 0 3
7.493700981140137 -7.294569969177246 -1.134324550628662 0.9434099197387695 0 3
7.449853420257568 -7.317294597625732 -1.1326489448547363 0.9448063969612122 0 3
7.40612268447876 -7.339970588684082 -1.1309984922409058 0.9461841583251953 0 3
9.47793960571289 9.47793960571289 -1.6797164678573608 0.12586428225040436 0 2
9.519872665405273 9.434833526611328 -1.6796278953552246 0.1258709877729416 0 2
9.56161117553711 9.391493797302246 -1.6795400381088257 0.12587754428386688 0 2
9.60317325592041 9.348017692565918 -1.6794524192810059 0.1258840262889862 0 2
9.644559860229492 9.30434513092041 -1.6793653964996338 0.12589047849178314 0 2
9.685673713684082 9.260488510131836 -1.6792787313461304 0.1258971095085144 0 2
9.72665023803711 9.216444969177246 -1.6791924238204956 0.12590359151363373 0 2
9.767412185668945 9.172255516052246 -1.6791067123413086 0.12591007351875305 0 2
9.807997703552246 9.127851486206055 -1.6790212392807007 0.12591645121574402 0 2
9.848349571228027 9.083281517028809 -1.6789361238479614 0.1259227693080902 0 2
9.888525009155273 9.038535118103027 -1.67885160446167 0.1259291023015976 0 2
9.928485870361328 8.993613243103027 -1.6787675619125366 0.12593534588813782 0 2
9.968271255493164 8.948515892028809 -1.6786837577819824 0.12594157457351685 0 2
10.007841110229492 8.903242111206055 -1.678600788116455 0.12594786286354065 0 2
10.0471773147583 8.857783317565918 -1.6785178184509277 0.1259542852640152 0 2
10.08633804321289 8.812177658081055 -1.6784354448318481 0.1259603351354599 0 2
10.125283241271973 8.766406059265137 -1.6783535480499268 0.1259666383266449 0 2
10.164052963256836 8.720449447631836 -1.678272008895874 0.12597262859344482 0 2
10.202588081359863 8.67431640625 -1.6781911849975586 0.12597881257534027 0 2
10.240927696228027 8.628046989440918 -1.6781104803085327 0.12598468363285065 0 2
10.279052734375 8.581562042236328 -1.6780303716659546 0.12599079310894012 0 2
10.31698226928711 8.534960746765137 -1.6779505014419556 0.12599672377109528 0 2
10.354677200317383 8.488163948059082 -1.6778714656829834 0.12600284814834595 0 2
10.39217758178711 8.441210746765137 -1.6777926683425903 0.1260085552930832 0 2
10.429462432861328 8.394082069396973 -1.6777143478393555 0.12601451575756073 0 2
10.466552734375 8.346816062927246 -1.6776365041732788 0.12602044641971588 0 2
10.503427505493164 8.299355506896973 -1.6775590181350708 0.12602601945400238 0 2
10.540106773376465 8.251776695251465 -1.6774821281433105 0.12603187561035156 0 2
10.576552391052246 8.204023361206055 -1.6774054765701294 0.1260375827550888 0 2
10.612763404846191 8.15609359741211 -1.677329659461975 0.1260434240102768 0 2
10.648778915405273 8.108027458190918 -1.6772539615631104 0.12604904174804688 0 2
10.684579849243164 8.059765815734863 -1.6771788597106934 0.1260547786951065 0 2
10.720166206359863 8.01138687133789 -1.6771043539047241 0.126060351729393 0 2
10.755537033081055 7.962851524353027 -1.6770299673080444 0.12606596946716309 0 2
10.790693283081055 7.914140224456787 -1.6769564151763916 0.12607142329216003 0 2
10.825634956359863 7.865293025970459 -1.6768832206726074 0.12607696652412415 0 2
10.860361099243164 7.816288948059082 -1.6768102645874023 0.12608236074447632 0 2
10.894853591918945 7.767148494720459 -1.6767381429672241 0.12608793377876282 0 2
10.929150581359863 7.717832088470459 -1.676666259765625 0.12609319388866425 0 2
10.963173866271973 7.668378829956055 -1.6765949726104736 0.12609873712062836 0 2
10.997021675109863 7.61876916885376 -1.676524043083191 0.12610401213169098 0 2
11.030614852905273 7.569023132324219 -1.676453709602356 0.12610934674739838 0 2
11.06405258178711 7.519140243530273 -1.6763836145401 0.12611456215381622 0 2
11.097216606140137 7.469101428985596 -1.676314353942871 0.1261197030544281 0 2
11.1301851272583 7.418925762176514 -1.6762453317642212 0.12612488865852356 0 2
11.1628999710083 7.368574142456055 -1.676176905632019 0.12612995505332947 0 2
11.19540023803711 7.318124771118164 -1.676108956336975 0.1261352300643921 0 2
11.22768497467041 7.267519474029541 -1.6760413646697998 0.12614034116268158 0 2
11.259736061096191 7.216757774353027 -1.6759743690490723 0.12614533305168152 0 2
11.291532516479492 7.165859222412109 -1.675907850265503 0.12615038454532623 0 2
11.32315444946289 7.114843368530273 -1.6758418083190918 0.12615527212619781 0 2
11.354501724243164 7.063671588897705 -1.6757763624191284 0.12616030871868134 0 2
11.38565444946289 7.012362957000732 -1.6757111549377441 0.1261652708053589 0 2
11.41659164428711 6.9609375 -1.6756466627120972 0.12616996467113495 0 2
11.447294235229492 6.909355163574219 -1.6755825281143188 0.1261747181415558 0 2
11.477724075317383 6.857636451721191 -1.6755191087722778 0.12617965042591095 0 2
11.50795841217041 6.805800437927246 -1.675455927848816 0.1261843889951706 0 2
11.537959098815918 6.753828048706055 -1.6753933429718018 0.12618914246559143 0 2
11.567724227905273 6.701757431030273 -1.6753312349319458 0.1261938363313675 0 2
11.597274780273438 6.649511337280273 -1.675269603729248 0.12619835138320923 0 2
11.626571655273438 6.59716796875 -1.675208568572998 0.1262030005455017 0 2
11.655634880065918 6.544667720794678 -1.6751480102539062 0.126207634806633 0 2
11.68448257446289 6.492070198059082 -1.675087809562683 0.12621206045150757 0 2
11.713075637817383 6.439335823059082 -1.6750283241271973 0.12621644139289856 0 2
11.741435050964355 6.386484146118164 -1.67496919631958 0.12622112035751343 0 2
11.769579887390137 6.33349609375 -1.6749106645584106 0.12622541189193726 0 2
11.79745101928711 6.280371189117432 -1.6748526096343994 0.12622980773448944 0 2
11.825146675109863 6.22716760635376 -1.6747950315475464 0.12623415887355804 0 2
11.852567672729492 6.173828125 -1.6747379302978516 0.12623843550682068 0 2
11.879735946655273 6.120351314544678 -1.674681544303894 0.12624260783195496 0 2
11.906689643859863 6.066757678985596 -1.6746255159378052 0.12624692916870117 0 2
11.9334077835083 6.013085842132568 -1.6745699644088745 0.12625111639499664 0 2
11.95987319946289 5.95925760269165 -1.6745150089263916 0.12625527381896973 0 2
11.986162185668945 5.905351638793945 -1.6744604110717773 0.12625917792320251 0 2
12.03676700592041 5.863320350646973 -1.677847981452942 0.44615983963012695 0 2
12.169208526611328 5.860371112823486 -1.6926209926605225 0.4422617554664612 0 2
12.303974151611328 5.857402324676514 -1.7076919078826904 0.43835869431495667 0 2
12.441142082214355 5.854374885559082 -1.7230652570724487 0.4344475269317627 0 2
12.58950138092041 5.855292797088623 -1.7399554252624512 0.4120831787586212 0 2
12.7410249710083 5.856386661529541 -1.7572451829910278 0.40802839398384094 0 2
12.89559555053711 5.857460975646973 -1.774921178817749 0.40396538376808167 0 2
12.927451133728027 5.802089691162109 -1.7757021188735962 0.1262907087802887 0 1
12.9529390335083 5.743827819824219 -1.7756494283676147 0.12629461288452148 0 1
12.978212356567383 5.685468673706055 -1.775597095489502 0.1262984275817871 0 1
13.003212928771973 5.627011775970459 -1.775545358657837 0.12630213797092438 0 1
13.02797794342041 5.568437576293945 -1.7754942178726196 0.12630575895309448 0 1
13.052490234375 5.509746074676514 -1.7754435539245605 0.1263090968132019 0 1
13.076669692993164 5.45095682144165 -1.7753936052322388 0.12631285190582275 0 1
13.100653648376465 5.392070293426514 -1.7753440141677856 0.12631618976593018 0 1
13.124364852905273 5.333086013793945 -1.7752950191497803 0.12631988525390625 0 1
13.147802352905273 5.273984432220459 -1.7752467393875122 0.1263231635093689 0 1
13.17098617553711 5.214785099029541 -1.7751989364624023 0.12632666528224945 0 1
13.193915367126465 5.155488014221191 -1.7751516103744507 0.12633003294467926 0 1
13.216571807861328 5.096093654632568 -1.7751049995422363 0.12633326649665833 0 1
13.238993644714355 5.036581993103027 -1.7750588655471802 0.12633655965328217 0 1
13.261083602905273 4.976992130279541 -1.7750134468078613 0.12633973360061646 0 1
13.282958984375 4.917284965515137 -1.7749685049057007 0.12634311616420746 0 1
13.304521560668945 4.857519626617432 -1.7749241590499878 0.12634633481502533 0 1
13.325868606567383 4.79763650894165 -1.774880290031433 0.12634941935539246 0 1
13.3469820022583 4.737656116485596 -1.7748370170593262 0.12635236978530884 0 1
13.36776351928711 4.677597522735596 -1.7747942209243774 0.12635548412799835 0 1
13.388310432434082 4.61746072769165 -1.774752140045166 0.12635847926139832 0 1
13.408583641052246 4.557226657867432 -1.7747106552124023 0.12636131048202515 0 1
13.428603172302246 4.496894359588623 -1.7746696472167969 0.1263643205165863 0 1
13.44832992553711 4.436464786529541 -1.7746291160583496 0.12636718153953552 0 1
13.467822074890137 4.375937461853027 -1.7745893001556396 0.12637005746364594 0 1
13.487021446228027 4.315371036529541 -1.7745500802993774 0.12637273967266083 0 1
13.505927085876465 4.254706859588623 -1.7745115756988525 0.12637577950954437 0 1
13.524619102478027 4.193964958190918 -1.7744734287261963 0.12637829780578613 0 1
13.543017387390137 4.133124828338623 -1.7744358777999878 0.12638099491596222 0 1
13.561141967773438 4.072226524353027 -1.774398922920227 0.12638366222381592 0 1
13.57901382446289 4.011250019073486 -1.7743624448776245 0.1263861507177353 0 1
13.59659194946289 3.9501757621765137 -1.7743268013000488 0.1263888031244278 0 1
13.613935470581055 3.889042854309082 -1.7742915153503418 0.12639126181602478 0 1
13.630966186523438 3.827831983566284 -1.7742568254470825 0.12639373540878296 0 1
13.647783279418945 3.766542911529541 -1.7742228507995605 0.12639598548412323 0 1
13.664267539978027 3.705195188522339 -1.7741894721984863 0.12639854848384857 0 1
13.680498123168945 3.643749952316284 -1.7741564512252808 0.12640075385570526 0 1
13.696474075317383 3.582265615463257 -1.7741241455078125 0.1264030933380127 0 1
13.712177276611328 3.520683526992798 -1.7740923166275024 0.12640540301799774 0 1
13.727567672729492 3.45904278755188 -1.7740612030029297 0.1264076679944992 0 1
13.742743492126465 3.397343635559082 -1.7740306854248047 0.12640973925590515 0 1
13.757587432861328 3.335566282272339 -1.7740007638931274 0.12641192972660065 0 1
13.772196769714355 3.2737302780151367 -1.7739715576171875 0.12641407549381256 0 1
13.786513328552246 3.2118358612060547 -1.7739427089691162 0.1264161914587021 0 1
13.800615310668945 3.1498827934265137 -1.7739144563674927 0.1264180839061737 0 1
13.81436538696289 3.0878710746765137 -1.773886799812317 0.12642009556293488 0 1
13.827899932861328 3.0258007049560547 -1.7738598585128784 0.12642188370227814 0 1
13.841142654418945 2.963691234588623 -1.7738332748413086 0.12642380595207214 0 1
13.854071617126465 2.901484251022339 -1.7738075256347656 0.12642565369606018 0 1
13.866766929626465 2.8392186164855957 -1.7737822532653809 0.12642744183540344 0 1
13.879169464111328 2.776933431625366 -1.7737575769424438 0.12642934918403625 0 1
13.891318321228027 2.7145702838897705 -1.7737334966659546 0.12643103301525116 0 1
13.903173446655273 2.652167797088623 -1.773710012435913 0.1264326423406601 0 1
13.914735794067383 2.5897068977355957 -1.7736871242523193 0.1264343559741974 0 1
13.9260835647583 2.5272068977355957 -1.7736648321151733 0.12643583118915558 0 1
13.937118530273438 2.464648485183716 -1.7736430168151855 0.12643741071224213 0 1
13.94784164428711 2.402050733566284 -1.773621916770935 0.12643910944461823 0 1
13.958349227905273 2.3393945693969727 -1.7736012935638428 0.12644019722938538 0 1
13.968524932861328 2.2767186164855957 -1.7735815048217773 0.12644173204898834 0 1
13.978446960449219 2.2139647006988525 -1.7735620737075806 0.12644319236278534 0 1
13.9880952835083 2.151191473007202 -1.773543357849121 0.12644457817077637 0 1
13.997489929199219 2.08837890625 -1.7735252380371094 0.12644588947296143 0 1
14.006552696228027 2.025507688522339 -1.7735075950622559 0.12644711136817932 0 1
14.015360832214355 1.9625976085662842 -1.77349054813385 0.12644825875759125 0 1
14.023935317993164 1.8996679782867432 -1.7734743356704712 0.12644948065280914 0 1
14.032157897949219 1.83669912815094 -1.773458480834961 0.12645064294338226 0 1
14.040145874023438 1.7736718654632568 -1.7734432220458984 0.12645171582698822 0 1
14.047861099243164 1.7106444835662842 -1.7734285593032837 0.12645268440246582 0 1
14.055302619934082 1.6475781202316284 -1.7734147310256958 0.12645374238491058 0 1
14.06241226196289 1.5844531059265137 -1.7734014987945557 0.12645471096038818 0 1
14.069286346435547 1.5213085412979126 -1.7733886241912842 0.12645559012889862 0 1
14.075888633728027 1.4581445455551147 -1.773376226425171 0.1264563798904419 0 1
14.08217716217041 1.394960880279541 -1.773364782333374 0.12645743787288666 0 1
14.088232040405273 1.3317382335662842 -1.7733536958694458 0.1264580488204956 0 1
14.093994140625 1.268496036529541 -1.7733433246612549 0.12645871937274933 0 1
14.099462509155273 1.2052148580551147 -1.7733334302902222 0.1264594942331314 0 1
14.10463809967041 1.1419140100479126 -1.7733242511749268 0.12646016478538513 0 1
14.109560012817383 1.0785937309265137 -1.773315668106079 0.1264607310295105 0 1
14.114208221435547 1.0152539014816284 -1.7733075618743896 0.1264612078666687 0 1
14.11856460571289 0.9518945217132568 -1.7733001708984375 0.12646174430847168 0 1
14.122626304626465 0.8885155916213989 -1.773293375968933 0.12646237015724182 0 1
14.126435279846191 0.8251171708106995 -1.7732871770858765 0.12646272778511047 0 1
14.129950523376465 0.76171875 -1.7732815742492676 0.1264631450176239 0 1
14.133173942565918 0.6983007788658142 -1.773276686668396 0.1264636218547821 0 1
14.13614273071289 0.6348437070846558 -1.7732720375061035 0.1264638453722 0 1
14.138798713684082 0.5713866949081421 -1.773268222808838 0.12646415829658508 0 1
14.14120101928711 0.5079296827316284 -1.77326500415802 0.1264643371105194 0 1
14.143329620361328 0.44447264075279236 -1.7732625007629395 0.1264646053314209 0 1
14.14516544342041 0.38099607825279236 -1.7732603549957275 0.1264645904302597 0 1
14.146708488464355 0.3174999952316284 -1.773258924484253 0.1264648139476776 0 1
14.147977828979492 0.2540039122104645 -1.7732582092285156 0.12646494805812836 0 1
14.148974418640137 0.19050781428813934 -1.773257851600647 0.12646497786045074 0 1
14.149697303771973 0.1270117163658142 -1.7732583284378052 0.12646490335464478 0 1
14.150126457214355 0.06349609047174454 -1.7732592821121216 0.12646488845348358 0 1
10.43026351928711 -0.0 -1.307079792022705 0.3857801556587219 593 13
10.364951133728027 -0.04652343690395355 -1.2989118099212646 0.40025389194488525 593 13
10.369325637817383 -0.09306640177965164 -1.2994967699050903 0.22077742218971252 593 13
10.899091720581055 -0.1467578113079071 -1.3659566640853882 0.8680024743080139 593 19
10.296981811523438 -0.18486328423023224 -1.2905856370925903 0.9076104164123535 593 19
10.076766967773438 -0.22615234553813934 -1.2631014585494995 0.9098492860794067 593 19
10.351396560668945 -0.27880859375 -1.2976664304733276 0.593497097492218 593 13
10.3269624710083 -0.3245312571525574 -1.2947731018066406 0.9863510727882385 593 13
10.348994255065918 -0.37171873450279236 -1.2977334260940552 0.5890928506851196 593 13
14.13907241821289 -0.5714257955551147 -1.7733018398284912 0.12646175920963287 0 1
14.136435508728027 -0.6348632574081421 -1.7733092308044434 0.12646132707595825 0 1
14.133505821228027 -0.6983007788658142 -1.773317575454712 0.12646062672138214 0 1
14.130302429199219 -0.76171875 -1.7733262777328491 0.1264599710702896 0 1
14.126806259155273 -0.8251562118530273 -1.773335576057434 0.12645941972732544 0 1
14.123056411743164 -0.8885546922683716 -1.7733455896377563 0.12645858526229858 0 1
14.118993759155273 -0.9519335627555847 -1.7733559608459473 0.1264578253030777 0 1
14.11465835571289 -1.015293002128601 -1.7733672857284546 0.12645713984966278 0 1
14.110068321228027 -1.0786328315734863 -1.773378849029541 0.12645620107650757 0 1
14.105165481567383 -1.1419726610183716 -1.7733913660049438 0.12645548582077026 0 1
14.100028991699219 -1.2052733898162842 -1.7734042406082153 0.12645435333251953 0 1
14.094560623168945 -1.2685351371765137 -1.7734178304672241 0.12645363807678223 0 1
14.08885669708252 -1.3317968845367432 -1.7734317779541016 0.1264524757862091 0 1
14.0828218460083 -1.3950390815734863 -1.7734465599060059 0.12645158171653748 0 1
14.076591491699219 -1.4582030773162842 -1.7734618186950684 0.12645024061203003 0 1
14.069990158081055 -1.521386742591858 -1.7734777927398682 0.1264493465423584 0 1
14.063173294067383 -1.5845311880111694 -1.7734942436218262 0.12644802033901215 0 1
14.056044578552246 -1.6476562023162842 -1.773511290550232 0.126446932554245 0 1
14.0486421585083 -1.7107421159744263 -1.773529052734375 0.12644575536251068 0 1
14.040986061096191 -1.7737890481948853 -1.7735472917556763 0.12644416093826294 0 1
14.033037185668945 -1.8367968797683716 -1.7735662460327148 0.1264428347349167 0 1
14.024833679199219 -1.8997851610183716 -1.7735857963562012 0.12644141912460327 0 1
14.016279220581055 -1.962734341621399 -1.7736058235168457 0.12644009292125702 0 1
14.007509231567383 -2.025644540786743 -1.7736263275146484 0.12643852829933167 0 1
13.998427391052246 -2.088515520095825 -1.7736477851867676 0.12643705308437347 0 1
13.989091873168945 -2.1513476371765137 -1.7736696004867554 0.12643548846244812 0 1
13.779364585876465 -2.182441473007202 -1.7483018636703491 0.16213014721870422 0 2
13.4290132522583 -2.188769578933716 -1.7050800323486328 0.19073320925235748 0 2
13.161474227905273 -2.205859422683716 -1.672350525856018 0.12643064558506012 0 2
13.151650428771973 -2.2649219036102295 -1.6723732948303223 0.1264287829399109 0 2
13.14151382446289 -2.323964834213257 -1.6723967790603638 0.12642715871334076 0 2
13.131122589111328 -2.382949113845825 -1.6724207401275635 0.12642545998096466 0 2
13.120497703552246 -2.44189453125 -1.6724451780319214 0.12642347812652588 0 2
13.109619140625 -2.500800609588623 -1.6724703311920166 0.12642155587673187 0 2
13.098466873168945 -2.559648275375366 -1.6724958419799805 0.1264195591211319 0 2
13.087040901184082 -2.618457078933716 -1.6725220680236816 0.1264176368713379 0 2
13.07534122467041 -2.677187442779541 -1.672548770904541 0.12641580402851105 0 2
13.063426971435547 -2.735898494720459 -1.6725759506225586 0.1264135241508484 0 2
13.051239967346191 -2.794550657272339 -1.672603726387024 0.12641136348247528 0 2
13.038798332214355 -2.853144407272339 -1.672632098197937 0.12640926241874695 0 2
13.026063919067383 -2.9116601943969727 -1.6726610660552979 0.12640726566314697 0 2
13.013114929199219 -2.970156192779541 -1.672690510749817 0.12640485167503357 0 2
12.999873161315918 -3.028574228286743 -1.6727205514907837 0.12640269100666046 0 2
12.986395835876465 -3.0869531631469727 -1.6727510690689087 0.12640027701854706 0 2
12.97264575958252 -3.145253896713257 -1.672782301902771 0.1263979822397232 0 2
12.95864200592041 -3.2035155296325684 -1.6728140115737915 0.12639561295509338 0 2
12.944384574890137 -3.2616991996765137 -1.6728461980819702 0.1263931691646576 0 2
12.929872512817383 -3.31982421875 -1.6728789806365967 0.12639066576957703 0 2
12.915106773376465 -3.3778905868530273 -1.6729122400283813 0.1263880878686905 0 2
12.900087356567383 -3.4358787536621094 -1.6729460954666138 0.12638546526432037 0 2
12.884794235229492 -3.493828058242798 -1.6729806661605835 0.1263829618692398 0 2
12.869247436523438 -3.5516796112060547 -1.6730153560638428 0.12638020515441895 0 2
12.853446960449219 -3.609492063522339 -1.6730509996414185 0.12637756764888763 0 2
12.837372779846191 -3.6672070026397705 -1.6730871200561523 0.12637509405612946 0 2
12.821084022521973 -3.724863290786743 -1.6731235980987549 0.12637220323085785 0 2
12.804540634155273 -3.7824413776397705 -1.6731606721878052 0.126369446516037 0 2
12.787704467773438 -3.839980363845825 -1.6731984615325928 0.12636645138263702 0 2
12.770634651184082 -3.897402286529541 -1.673236608505249 0.1263636201620102 0 2
12.753291130065918 -3.954785108566284 -1.6732754707336426 0.1263607293367386 0 2
12.735713005065918 -4.012070178985596 -1.6733148097991943 0.12635783851146698 0 2
12.717900276184082 -4.069296836853027 -1.6733545064926147 0.12635472416877747 0 2
12.699813842773438 -4.126406192779541 -1.6733949184417725 0.12635193765163422 0 2
12.681474685668945 -4.183476448059082 -1.6734358072280884 0.1263485848903656 0 2
12.662919998168945 -4.240429401397705 -1.6734771728515625 0.1263454109430313 0 2
12.644071578979492 -4.297343730926514 -1.6735191345214844 0.12634219229221344 0 2
12.624970436096191 -4.354159832000732 -1.673561692237854 0.1263391524553299 0 2
12.605634689331055 -4.410898208618164 -1.6736047267913818 0.1263357549905777 0 2
12.58602523803711 -4.467538833618164 -1.6736483573913574 0.12633250653743744 0 2
12.566181182861328 -4.524081707000732 -1.6736924648284912 0.12632928788661957 0 2
12.546083450317383 -4.58056640625 -1.6737371683120728 0.12632587552070618 0 2
12.5256929397583 -4.636972427368164 -1.6737823486328125 0.12632262706756592 0 2
12.505146026611328 -4.693261623382568 -1.673828125 0.1263190507888794 0 2
12.48428726196289 -4.749453067779541 -1.6738743782043457 0.1263156533241272 0 2
12.4631929397583 -4.805585861206055 -1.67392098903656 0.12631192803382874 0 2
12.441864967346191 -4.861581802368164 -1.6739683151245117 0.1263083815574646 0 2
12.420263290405273 -4.917519569396973 -1.6740161180496216 0.12630484998226166 0 2
12.398447036743164 -4.973359107971191 -1.6740646362304688 0.1263011395931244 0 2
12.376357078552246 -5.029101371765137 -1.674113392829895 0.1262974888086319 0 2
12.354032516479492 -5.08474588394165 -1.674162745475769 0.12629370391368866 0 2
12.33145523071289 -5.140292644500732 -1.6742125749588013 0.1262899488210678 0 2
12.308603286743164 -5.195742130279541 -1.6742632389068604 0.12628622353076935 0 2
12.285536766052246 -5.251074314117432 -1.674314022064209 0.12628236413002014 0 2
12.262255668640137 -5.306327819824219 -1.674365520477295 0.12627838551998138 0 2
12.238661766052246 -5.361484050750732 -1.6744177341461182 0.12627464532852173 0 2
12.214872360229492 -5.416543006896973 -1.6744701862335205 0.1262705773115158 0 2
12.19083023071289 -5.47146463394165 -1.6745232343673706 0.12626658380031586 0 2
12.166552543640137 -5.526308536529541 -1.6745766401290894 0.12626244127750397 0 2
12.142041206359863 -5.581015586853027 -1.674630880355835 0.12625843286514282 0 2
12.117216110229492 -5.635644435882568 -1.6746854782104492 0.12625446915626526 0 2
12.09219741821289 -5.690175533294678 -1.6747405529022217 0.12625020742416382 0 2
12.066943168640137 -5.744550704956055 -1.674796223640442 0.12624605000019073 0 2
12.041455268859863 -5.798847675323486 -1.6748522520065308 0.12624181807041168 0 2
12.01571273803711 -5.85302734375 -1.674908995628357 0.1262374371290207 0 2
11.98973560333252 -5.907109260559082 -1.6749660968780518 0.12623319029808044 0 2
11.963505744934082 -5.96105432510376 -1.6750237941741943 0.12622889876365662 0 2
11.937060356140137 -6.014882564544678 -1.6750820875167847 0.12622447311878204 0 2
11.877978324890137 -6.052128791809082 -1.6705899238586426 0.4547801613807678 0 3
11.809033393859863 -6.083886623382568 -1.664711594581604 0.8780851364135742 0 3
11.80971622467041 -6.15148401260376 -1.6686855554580688 0.8741976022720337 0 3
11.810556411743164 -6.219452857971191 -1.672729730606079 0.8720847964286804 0 3
11.811376571655273 -6.287753582000732 -1.6768261194229126 0.8699543476104736 0 3
11.812196731567383 -6.356406211853027 -1.6809760332107544 0.8678063154220581 0 3
11.812997817993164 -6.42540979385376 -1.685181975364685 0.8656408786773682 0 3
11.728642463684082 -6.447851181030273 -1.6772539615631104 0.4806032180786133 0 3
11.60561466217041 -6.448222637176514 -1.6637831926345825 0.4844948947429657 0 3
11.561708450317383 -6.491913795471191 -1.6616475582122803 0.12572473287582397 0 3
11.532782554626465 -6.543925762176514 -1.6616957187652588 0.12572117149829865 0 3
11.503662109375 -6.59581995010376 -1.6617439985275269 0.12571747601032257 0 3
10.451298713684082 -6.054941177368164 -1.5136425495147705 0.49310606718063354 0 3
10.343485832214355 -6.054628849029541 -1.501948356628418 0.4969452917575836 0 3
10.296161651611328 -6.08914041519165 -1.4990284442901611 0.852476954460144 0 3
10.296338081359863 -6.151777267456055 -1.5030579566955566 0.8501929640769958 0 3
10.29647445678711 -6.214726448059082 -1.5071340799331665 0.847892165184021 0 3
10.296649932861328 -6.278046607971191 -1.5112667083740234 0.8455736041069031 0 3
10.296806335449219 -6.341699123382568 -1.5154519081115723 0.8432385325431824 0 3
10.297119140625 -6.405820369720459 -1.5197168588638306 0.8393689393997192 0 3
10.29750919342041 -6.470351219177246 -1.5240418910980225 0.8369871973991394 0 3
10.297861099243164 -6.535234451293945 -1.5284250974655151 0.8344379663467407 0 3
10.29825210571289 -6.600507736206055 -1.5328643321990967 0.8320212364196777 0 3
10.298681259155273 -6.666152000427246 -1.5373605489730835 0.829587996006012 0 3
10.299072265625 -6.732187271118164 -1.541914939880371 0.8271377682685852 0 3
10.29946231842041 -6.79861307144165 -1.5465270280838013 0.8246710300445557 0 3
10.29989242553711 -6.865429401397705 -1.5511982440948486 0.8221871852874756 0 3
10.300263404846191 -6.932675838470459 -1.5559301376342773 0.8196868896484375 0 3
10.300673484802246 -7.000331878662109 -1.5607223510742188 0.8171701431274414 0 3
10.301064491271973 -7.068398475646973 -1.5655733346939087 0.814637303352356 0 3
10.301513671875 -7.136894226074219 -1.5704901218414307 0.8120877742767334 0 3
10.301923751831055 -7.205820083618164 -1.5754677057266235 0.8095220923423767 0 3
10.30233383178711 -7.275195121765137 -1.5805089473724365 0.8069400787353516 0 3
10.302762985229492 -7.34499979019165 -1.5856139659881592 0.8043419122695923 0 3
10.303174018859863 -7.415253639221191 -1.5907844305038452 0.8017268180847168 0 3
10.303603172302246 -7.486015319824219 -1.5960218906402588 0.7990961670875549 0 3
10.304033279418945 -7.557187557220459 -1.6013262271881104 0.7964497208595276 0 3
10.304443359375 -7.628867149353027 -1.6066975593566895 0.7937865257263184 0 3
10.304931640625 -7.701015472412109 -1.6121402978897095 0.7911074757575989 0 3
10.305341720581055 -7.773671627044678 -1.617647409439087 0.7884131073951721 0 3
10.305770874023438 -7.846835613250732 -1.6232311725616455 0.7857019901275635 0 3
10.30624008178711 -7.920487880706787 -1.628881812095642 0.7829758524894714 0 3
10.306669235229492 -7.994668006896973 -1.6346081495285034 0.7802332639694214 0 3
10.307119369506836 -8.069355010986328 -1.6404056549072266 0.7774755954742432 0 3
10.307568550109863 -8.144609451293945 -1.6462805271148682 0.7747015357017517 0 3
10.308056831359863 -8.220351219177246 -1.6522289514541626 0.7719127535820007 0 3
10.308485984802246 -8.29671859741211 -1.6582543849945068 0.7691837549209595 0 3
10.308935165405273 -8.373574256896973 -1.6643534898757935 0.7663645148277283 0 3
9.018271446228027 -7.392636775970459 -1.4613056182861328 0.9878816604614258 0 3
8.903251647949219 -7.365409851074219 -1.4480252265930176 0.22342067956924438 0 3
8.562763214111328 -7.14871072769165 -1.3978506326675415 0.5149373412132263 0 3
8.47500991821289 -7.140214920043945 -1.3887386322021484 0.8456035852432251 0 3
8.466259956359863 -7.198066234588623 -1.3925787210464478 0.8432695269584656 0 3
8.457480430603027 -7.256249904632568 -1.3964873552322388 0.8409161567687988 0 3
8.386698722839355 -7.261113166809082 -1.3901680707931519 0.654748797416687 0 3
8.311630249023438 -7.261640548706055 -1.3831138610839844 0.6580880880355835 0 3
8.237334251403809 -7.262167930603027 -1.3761587142944336 0.6614143252372742 0 3
8.13436508178711 -7.236542701721191 -1.3643691539764404 0.6647278666496277 0 3
8.090917587280273 -7.263203144073486 -1.3625348806381226 0.6680271029472351 0 3
8.018789291381836 -7.263710975646973 -1.3558660745620728 0.6713130474090576 0 3
7.94738245010376 -7.264218807220459 -1.349287986755371 0.6745854020118713 0 3
7.744814395904541 -7.143163681030273 -1.3203284740447998 0.7828256487846375 0 3
7.685898303985596 -7.152910232543945 -1.3157427310943604 0.7855543494224548 0 3
7.65283203125 -7.186484336853027 -1.3155858516693115 0.602321982383728 0 3
7.626132488250732 -7.226113319396973 -1.3165652751922607 0.9372676014900208 0 3
7.58190393447876 -7.249042987823486 -1.3145300149917603 0.9387180805206299 0 3
7.537802696228027 -7.271894454956055 -1.3125277757644653 0.9401499032974243 0 3
7.493827819824219 -7.294697284698486 -1.3105595111846924 0.9415624141693115 0 3
7.44998025894165 -7.317421913146973 -1.3086222410202026 0.9429565668106079 0 3
7.406259536743164 -7.340087890625 -1.3067175149917603 0.9443313479423523 0 3
8.362500190734863 8.362470626831055 -1.6821345090866089 0.14233611524105072 0 2
8.399540901184082 8.324481964111328 -1.6820564270019531 0.1423427164554596 0 2
8.436415672302246 8.286317825317383 -1.681978702545166 0.14234933257102966 0 2
8.473134994506836 8.247998237609863 -1.6819013357162476 0.14235597848892212 0 2
8.509696960449219 8.209511756896973 -1.6818243265151978 0.1423623263835907 0 2
8.54604434967041 8.170868873596191 -1.6817476749420166 0.14236895740032196 0 2
8.582255363464355 8.132070541381836 -1.6816716194152832 0.1423753947019577 0 2
8.618270874023438 8.0930757522583 -1.6815956830978394 0.1423817276954651 0 2
8.654091835021973 8.053955078125 -1.6815202236175537 0.14238835871219635 0 2
8.689775466918945 8.014687538146973 -1.6814451217651367 0.14239449799060822 0 2
8.725282669067383 7.975263595581055 -1.6813703775405884 0.1424008458852768 0 2
8.760615348815918 7.93566370010376 -1.6812959909439087 0.14240705966949463 0 2
8.795732498168945 7.895927429199219 -1.6812222003936768 0.14241330325603485 0 2
8.830693244934082 7.856034755706787 -1.681148648262024 0.14241968095302582 0 2
8.865478515625 7.815976619720459 -1.6810754537582397 0.1424257457256317 0 2
8.900087356567383 7.775781154632568 -1.6810026168823242 0.14243194460868835 0 2
8.934540748596191 7.735419750213623 -1.6809301376342773 0.14243805408477783 0 2
8.968740463256836 7.694901943206787 -1.6808582544326782 0.14244432747364044 0 2
9.002782821655273 7.654238224029541 -1.6807866096496582 0.14245040714740753 0 2
9.036688804626465 7.613437175750732 -1.6807153224945068 0.14245618879795074 0 2
9.070380210876465 7.572480201721191 -1.6806445121765137 0.1424623280763626 0 2
9.103896141052246 7.531405925750732 -1.6805741786956787 0.14246848225593567 0 2
9.137216567993164 7.490136623382568 -1.6805040836334229 0.14247426390647888 0 2
9.170361518859863 7.448750019073486 -1.6804345846176147 0.14248016476631165 0 2
9.203349113464355 7.4072265625 -1.6803652048110962 0.14248593151569366 0 2
9.236123085021973 7.365527153015137 -1.6802963018417358 0.14249172806739807 0 2
9.26870059967041 7.323710918426514 -1.6802278757095337 0.14249758422374725 0 2
9.3010835647583 7.281757831573486 -1.6801600456237793 0.14250347018241882 0 2
9.333291053771973 7.239667892456055 -1.680092453956604 0.14250916242599487 0 2
9.365302085876465 7.197402000427246 -1.6800251007080078 0.14251495897769928 0 2
9.397157669067383 7.155019283294678 -1.679958462715149 0.14252051711082458 0 2
9.428817749023438 7.112480163574219 -1.6798919439315796 0.14252611994743347 0 2
9.4602632522583 7.06982421875 -1.679826021194458 0.14253173768520355 0 2
9.4915132522583 7.027011394500732 -1.679760456085205 0.14253731071949005 0 2
9.522587776184082 6.984062194824219 -1.6796953678131104 0.14254291355609894 0 2
9.553466796875 6.940996170043945 -1.6796305179595947 0.14254824817180634 0 2
9.58413028717041 6.897792816162109 -1.6795662641525269 0.14255383610725403 0 2
9.614638328552246 6.854453086853027 -1.6795023679733276 0.1425592005252838 0 2
9.644950866699219 6.810976505279541 -1.6794389486312866 0.1425647735595703 0 2
9.675067901611328 6.76736307144165 -1.6793757677078247 0.14256981015205383 0 2
9.704951286315918 6.7236328125 -1.6793131828308105 0.14257526397705078 0 2
9.7346773147583 6.679746150970459 -1.679250955581665 0.14258047938346863 0 2
9.764208793640137 6.635761737823486 -1.6791890859603882 0.1425858438014984 0 2
9.79354476928711 6.591620922088623 -1.679127812385559 0.1425909698009491 0 2
9.822646141052246 6.54736328125 -1.679066777229309 0.14259618520736694 0 2
9.851572036743164 6.502988338470459 -1.6790063381195068 0.1426013857126236 0 2
9.880322456359863 6.458476543426514 -1.6789461374282837 0.1426064819097519 0 2
9.908857345581055 6.413827896118164 -1.6788864135742188 0.1426115185022354 0 2
9.937196731567383 6.369081974029541 -1.678827166557312 0.14261643588542938 0 2
9.965341567993164 6.324199199676514 -1.6787683963775635 0.1426214575767517 0 2
9.993270874023438 6.279179573059082 -1.6787099838256836 0.14262646436691284 0 2
10.021005630493164 6.234081745147705 -1.678652048110962 0.14263129234313965 0 2
10.048524856567383 6.188808441162109 -1.6785945892333984 0.142636239528656 0 2
10.075849533081055 6.143437385559082 -1.6785376071929932 0.1426413357257843 0 2
10.102997779846191 6.097949028015137 -1.6784807443618774 0.14264604449272156 0 2
10.129931449890137 6.052343845367432 -1.678424596786499 0.14265061914920807 0 2
10.15665054321289 6.006640434265137 -1.6783688068389893 0.14265529811382294 0 2
10.183173179626465 5.960781097412109 -1.6783136129379272 0.14266029000282288 0 2
10.209463119506836 5.91482400894165 -1.6782586574554443 0.14266487956047058 0 2
