ply
format ascii 1.0
element vertex 616
property float32 x
property float32 y
property float32 z
property float32 CosAngle
property uint32 ObjIdx
property uint32 ObjTag
end_header
11.431503295898438 9.719042778015137 6.052680492401123 0.9103080034255981 0 9
11.514452934265137 9.6128511428833 6.050677299499512 0.9106094837188721 0 9
11.59706974029541 9.50650405883789 6.049019813537598 0.9108594655990601 0 9
11.679374694824219 9.3999605178833 6.047701358795166 0.9110575914382935 0 9
18.00679588317871 14.228163719177246 9.257572174072266 0.4945143163204193 0 9
17.92704963684082 13.905585289001465 9.15202522277832 0.8244293928146362 0 9
18.148984909057617 13.818632125854492 9.201663970947266 0.8199821710586548 0 9
18.373106002807617 13.730507850646973 9.25242805480957 0.8154832124710083 0 9
18.59941291809082 13.6411714553833 9.30433464050293 0.8109336495399475 0 9
18.677518844604492 13.442343711853027 9.28270149230957 0.37995994091033936 0 9
18.690507888793945 13.19863224029541 9.22988224029541 0.38213449716567993 0 9
18.70427703857422 12.95833969116211 9.178877830505371 0.38425782322883606 0 9
18.71888542175293 12.721308708190918 9.129647254943848 0.38633015751838684 0 9
18.38849639892578 12.256953239440918 8.914484977722168 0.40546727180480957 0 9
18.737323760986328 12.247987747192383 9.029928207397461 0.3089352250099182 0 9
18.430389404296875 11.812636375427246 8.830561637878418 0.4850342869758606 0 9
18.406171798706055 11.565370559692383 8.768878936767578 0.48844611644744873 0 9
18.38134765625 11.320878982543945 8.70826530456543 0.4918455481529236 0 9
19.21107292175293 11.59537124633789 9.051679611206055 0.7553223371505737 0 9
19.416776657104492 11.482988357543945 9.099660873413086 0.7513390779495239 0 9
19.624120712280273 11.369120597839355 9.148641586303711 0.7473169565200806 0 9
19.83314323425293 11.253690719604492 9.198636054992676 0.7432552576065063 0 9
19.88296890258789 11.04720687866211 9.175381660461426 0.07516588270664215 0 9
20.256542205810547 11.017988204956055 9.301749229431152 0.7350160479545593 0 9
20.445703506469727 10.884199142456055 9.343374252319336 0.9284283518791199 0 9
20.47673797607422 10.665976524353027 9.313438415527344 0.9314128160476685 0 9
20.507381439208984 10.449003219604492 9.284350395202637 0.9343305230140686 0 9
20.537694931030273 10.233281135559082 9.256113052368164 0.9371811151504517 0 9
20.56767463684082 10.018789291381836 9.228704452514648 0.9399642944335938 0 9
22.794960021972656 10.851659774780273 10.18398380279541 0.7059884071350098 0 9
22.339452743530273 10.389902114868164 9.9384126663208 0.343278169631958 0 9
22.95326042175293 10.425800323486328 10.169439315795898 0.3354794979095459 0 9
23.596210479736328 10.463397979736328 10.412277221679688 0.3276554346084595 0 9
24.270605087280273 10.50277328491211 10.66781997680664 0.3198065459728241 0 9
24.838417053222656 10.484824180603027 10.87557601928711 0.5364315509796143 0 9
24.614492416381836 10.130956649780273 10.737297058105469 0.5433394312858582 0 9
24.39579963684082 9.785840034484863 10.603158950805664 0.5502133965492249 0 9
24.182050704956055 9.448984146118164 10.472965240478516 0.5570534467697144 0 9
23.973026275634766 9.120136260986328 10.346574783325195 0.5638582110404968 0 9
25.40558624267578 9.404960632324219 10.927957534790039 0.7996450066566467 0 9
34.40834045410156 12.3877534866333 14.751971244812012 0.9202709197998047 0 9
34.57109451293945 12.09691333770752 14.774630546569824 0.9188604354858398 0 9
34.7336311340332 11.804941177368164 14.798209190368652 0.9173959493637085 0 9
34.89593505859375 11.5117769241333 14.822741508483887 0.915878176689148 0 9
34.52614974975586 11.047147750854492 14.62295150756836 0.2842121124267578 0 9
34.21419906616211 10.60976505279541 14.449907302856445 0.31557410955429077 0 9
35.3815803527832 10.624608993530273 14.902048110961914 0.9110034704208374 0 9
35.54304504394531 10.326190948486328 14.93042278289795 0.909272313117981 0 9
8.05240249633789 8.052324295043945 4.484884262084961 0.7065697908401489 0 9
8.716288566589355 8.5610933303833 4.811638832092285 0.7212512493133545 0 9
8.85341739654541 8.540995597839355 4.844806671142578 0.7163131237030029 0 9
8.992206573486328 8.520390510559082 4.878710746765137 0.7113355398178101 0 9
9.127734184265137 8.494647979736328 4.910679340362549 0.7695053219795227 0 9
9.258222579956055 8.46230411529541 4.939818859100342 0.764966607093811 0 9
9.419218063354492 8.455507278442383 4.985012531280518 0.6961665153503418 0 9
9.565234184265137 8.432812690734863 5.022042274475098 0.6910336017608643 0 9
9.638925552368164 8.345194816589355 5.021182060241699 0.9283389449119568 0 9
11.512460708618164 9.787890434265137 5.951170444488525 0.9068794846534729 0 9
11.595975875854492 9.680917739868164 5.949184417724609 0.9071819186210632 0 9
11.67919921875 9.573808670043945 5.947543621063232 0.9074325561523438 0 9
11.762089729309082 9.466504096984863 5.946237564086914 0.9076313972473145 0 9
11.844667434692383 9.35904312133789 5.945273399353027 0.9077785015106201 0 9
18.021894454956055 13.97916030883789 8.982492446899414 0.8227905631065369 0 9
18.245527267456055 13.892128944396973 9.031472206115723 0.8183286786079407 0 9
18.471385955810547 13.803964614868164 9.081561088562012 0.813815176486969 0 9
12.72787094116211 9.334823608398438 6.21628999710083 0.4136342406272888 0 9
13.019667625427246 9.37027359008789 6.317452430725098 0.4070100784301758 0 9
13.320507049560547 9.406445503234863 6.422214031219482 0.4003710150718689 0 9
18.415508270263672 12.758261680603027 8.823086738586426 0.3915683627128601 0 9
18.43144416809082 12.525976181030273 8.776494979858398 0.3936471939086914 0 9
18.448144912719727 12.296698570251465 8.731534004211426 0.3956741690635681 0 9
18.456073760986328 12.064140319824219 8.683699607849121 0.5703715085983276 0 9
18.737655639648438 12.009550094604492 8.765101432800293 0.4786512851715088 0 9
18.710878372192383 11.756796836853027 8.702863693237305 0.48207414150238037 0 9
18.683456420898438 11.506933212280273 8.641722679138184 0.4854849874973297 0 9
18.65542984008789 11.25999927520752 8.581653594970703 0.4888829290866852 0 9
19.40572166442871 11.476503372192383 8.879068374633789 0.5973871946334839 0 9
19.342557907104492 11.206034660339355 8.803777694702148 0.6024957895278931 0 9
20.00013542175293 11.348437309265137 9.056339263916016 0.7394765615463257 0 9
19.847089767456055 11.027284622192383 8.941861152648926 0.07554949820041656 0 9
20.428983688354492 11.111796379089355 9.158717155456543 0.7312102317810059 0 9
20.498905181884766 10.912538528442383 9.145783424377441 0.9290661811828613 0 9
20.529882431030273 10.693632125854492 9.116403579711914 0.9320605993270874 0 9
20.560468673706055 10.476035118103027 9.087864875793457 0.9349877238273621 0 9
20.590682983398438 10.259706497192383 9.060151100158691 0.9378476142883301 0 9
20.620546340942383 10.044550895690918 9.033256530761719 0.9406402111053467 0 9
22.69560432434082 10.804374694824219 9.899393081665039 0.7114137411117554 0 9
22.36751937866211 10.402968406677246 9.715163230895996 0.34397628903388977 0 9
22.982772827148438 10.439218521118164 9.941292762756348 0.33615198731422424 0 9
23.62726593017578 10.477148056030273 10.178991317749023 0.3283020853996277 0 9
23.897871017456055 10.341504096984863 10.255167961120605 0.9365899562835693 0 9
24.76412010192871 10.45345687866211 10.58619499206543 0.6191436052322388 0 9
24.748788833618164 10.186230659484863 10.540131568908691 0.5421707034111023 0 9
24.527225494384766 9.838515281677246 10.407732009887695 0.549067497253418 0 9
24.31072235107422 9.499277114868164 10.279257774353027 0.5559297800064087 0 9
25.478124618530273 9.692733764648438 10.735675811767578 0.610522985458374 0 9
25.661367416381836 9.49966812133789 10.776506423950195 0.6082098484039307 0 9
34.632694244384766 12.468515396118164 14.49643611907959 0.917319118976593 0 9
34.796875 12.17593765258789 14.518834114074707 0.9159038066864014 0 9
33.99968719482422 11.555487632751465 14.142365455627441 0.5698931217193604 0 9
34.45956802368164 11.367793083190918 14.290629386901855 0.5639802813529968 0 9
34.25927734375 10.961776733398438 14.166181564331055 0.31530383229255676 0 9
35.41009521484375 10.980605125427246 14.60070514678955 0.5520030856132507 0 9
35.61466598510742 10.694608688354492 14.644877433776855 0.908021092414856 0 9
34.168846130371094 9.926972389221191 14.01315689086914 0.07787278294563293 0 9
35.84060287475586 10.064725875854492 14.66112995147705 0.6092038154602051 0 9
35.74587631225586 9.692811965942383 14.58619213104248 0.6123335361480713 0 9
35.65281295776367 9.324843406677246 14.5134916305542 0.6154007911682129 0 9
35.561424255371094 8.960702896118164 14.442947387695312 0.6184064149856567 0 9
7.565019130706787 7.564921855926514 4.111849784851074 0.5823626518249512 0 9
8.164374351501465 8.019022941589355 4.398312568664551 0.7053680419921875 0 9
8.91982364654541 8.605077743530273 4.763476371765137 0.7132651805877686 0 9
9.060136795043945 8.584784507751465 4.797061920166016 0.7082712650299072 0 9
9.190800666809082 8.553339958190918 4.825425148010254 0.7666791081428528 0 9
9.322616577148438 8.52115249633789 4.85425329208374 0.7621256113052368 0 9
9.455741882324219 8.488320350646973 4.883717060089111 0.7575270533561707 0 9
9.583105087280273 8.448534965515137 4.910133361816406 0.9294263124465942 0 9
9.642401695251465 8.348222732543945 4.901924133300781 0.9309829473495483 0 9
11.594100952148438 9.857284545898438 5.848879337310791 0.9033892154693604 0 9
11.678183555603027 9.749550819396973 5.846916198730469 0.9036926627159119 0 9
11.761972427368164 9.6416597366333 5.845286846160889 0.9039438962936401 0 9
11.845429420471191 9.53359317779541 5.843997478485107 0.9041434526443481 0 9
11.928534507751465 9.425332069396973 5.843045711517334 0.9042912125587463 0 9
12.011425971984863 9.316913604736328 5.842427730560303 0.9043867588043213 0 9
12.315038681030273 9.376582145690918 5.948940277099609 0.42315852642059326 0 9
12.595507621765137 9.412734031677246 6.043359279632568 0.416547566652298 0 9
12.884550094604492 9.44970703125 6.141080379486084 0.4099186956882477 0 9
13.182499885559082 9.487441062927246 6.242264270782471 0.4032745361328125 0 9
13.489940643310547 9.526093482971191 6.347103118896484 0.3966134488582611 0 9
19.33072280883789 13.392343521118164 9.038312911987305 0.9468754529953003 0 9
19.46497917175293 13.228339195251465 9.045214653015137 0.9461532831192017 0 9
18.510723114013672 12.3384370803833 8.54996109008789 0.4054148495197296 0 9
18.366424560546875 12.005566596984863 8.433198928833008 0.3172277808189392 0 9
18.724180221557617 12.000898361206055 8.547652244567871 0.5672982335090637 0 9
19.02375030517578 11.953378677368164 8.635079383850098 0.47566965222358704 0 9
18.99365234375 11.698007583618164 8.573408126831055 0.4790915250778198 0 9
18.962968826293945 11.445624351501465 8.512829780578613 0.4825006127357483 0 9
18.931659698486328 11.19613265991211 8.453329086303711 0.48589640855789185 0 9
19.543046951293945 11.322187423706055 8.680591583251953 0.5982319116592407 0 9
20.168827056884766 11.444159507751465 8.912568092346191 0.7356472611427307 0 9
19.8115234375 11.007519721984863 8.71065616607666 0.07592853158712387 0 9
20.520858764648438 11.161757469177246 8.97811508178711 0.9265698790550232 0 9
20.55207061767578 10.940839767456055 8.948455810546875 0.9296408891677856 0 9
20.582948684692383 10.721288681030273 8.919631958007812 0.932644784450531 0 9
20.613475799560547 10.503066062927246 8.891636848449707 0.9355814456939697 0 9
20.643573760986328 10.286054611206055 8.864449501037598 0.9384504556655884 0 9
20.673358917236328 10.070273399353027 8.83807373046875 0.9412519931793213 0 9
23.005449295043945 10.951874732971191 9.792634010314941 0.2458086758852005 0 9
22.395448684692383 10.415956497192383 9.492803573608398 0.34465116262435913 0 9
23.012128829956055 10.452577590942383 9.714037895202637 0.3368018567562103 0 9
23.637285232543945 10.481620788574219 9.937810897827148 0.3651655316352844 0 9
23.963125228881836 10.369726181030273 10.035262107849121 0.9370424747467041 0 9
23.981990814208984 10.123300552368164 10.004714012145996 0.9399034976959229 0 9
24.773983001708984 10.196600914001465 10.29652214050293 0.6232132911682129 0 9
24.659198760986328 9.891484260559082 10.211490631103516 0.5478839874267578 0 9
24.439863204956055 9.549726486206055 10.084765434265137 0.5547685623168945 0 9
25.30679702758789 9.627558708190918 10.406413078308105 0.616631805896759 0 9
25.488162994384766 9.435526847839355 10.445722579956055 0.6143113374710083 0 9
25.67138671875 9.242206573486328 10.48641300201416 0.6119277477264404 0 9
35.0241584777832 12.255488395690918 14.261367797851562 0.9128848314285278 0 9
33.90296936035156 11.522636413574219 13.762168884277344 0.5733557939529419 0 9
34.30937576293945 11.31826114654541 13.88534927368164 0.3149348199367523 0 9
34.82804489135742 11.143750190734863 14.054213523864746 0.5614413619041443 0 9
35.12957000732422 10.8936128616333 14.135855674743652 0.7001593112945557 0 9
35.79501724243164 10.748749732971191 14.364222526550293 0.5493245720863342 0 9
35.71568298339844 10.37636661529541 14.294434547424316 0.611728310585022 0 9
35.62091827392578 10.003007888793945 14.220019340515137 0.6149296760559082 0 9
35.52792739868164 9.63369083404541 14.147784233093262 0.6180691123008728 0 9
35.436561584472656 9.268301010131836 14.07768440246582 0.6211466789245605 0 9
7.529120922088623 7.529042720794678 3.9918887615203857 0.5869739651679993 0 9
8.24550724029541 8.0986909866333 4.332981586456299 0.7006181478500366 0 9
8.276659965515137 7.984589576721191 4.3115153312683105 0.7041063904762268 0 9
9.122694969177246 8.644062042236328 4.711629867553711 0.7683237791061401 0 9
9.25439453125 8.612519264221191 4.73953104019165 0.7638001441955566 0 9
9.387479782104492 8.580429077148438 4.7680439949035645 0.7592320442199707 0 9
9.521952629089355 8.54775333404541 4.797186851501465 0.7546197772026062 0 9
9.586601257324219 8.451621055603027 4.791346073150635 0.932002067565918 0 9
9.645936965942383 8.351269721984863 4.783330917358398 0.9335638284683228 0 9
11.676347732543945 9.927226066589355 5.74578857421875 0.8998374938964844 0 9
11.761034965515137 9.818710327148438 5.74384880065918 0.9001418948173523 0 9
11.845351219177246 9.7100191116333 5.742237567901611 0.9003941416740417 0 9
11.929394721984863 9.601171493530273 5.740960597991943 0.900594174861908 0 9
11.915058135986328 9.414668083190918 5.69317626953125 0.432668000459671 0 9
12.096542358398438 9.382929801940918 5.739405155181885 0.9008381366729736 0 9
12.179706573486328 9.273534774780273 5.739127159118652 0.9008818864822388 0 9
12.27896499633789 9.176191329956055 5.746872425079346 0.580492377281189 0 9
12.229199409484863 8.969061851501465 5.685669898986816 0.5867406129837036 0 9
12.180526733398438 8.766327857971191 5.626236438751221 0.5929390788078308 0 9
12.13296890258789 8.567831993103027 5.568495750427246 0.599087119102478 0 9
12.086347579956055 8.373358726501465 5.512398719787598 0.6051836609840393 0 9
18.117225646972656 12.312440872192383 8.212276458740234 0.41301536560058594 0 9
18.571874618530273 12.379179000854492 8.367642402648926 0.40534675121307373 0 9
18.1881046295166 11.888983726501465 8.146330833435059 0.32134178280830383 0 9
18.683534622192383 11.974863052368164 8.319762229919434 0.5703136920928955 0 9
18.99736213684082 11.936816215515137 8.41143798828125 0.5640973448753357 0 9
19.312225341796875 11.894218444824219 8.503235816955566 0.4726654887199402 0 9
19.278711318969727 11.636191368103027 8.442153930664062 0.4760850965976715 0 9
19.244667053222656 11.38124942779541 8.38217544555664 0.479491651058197 0 9
19.21011734008789 11.129277229309082 8.323267936706543 0.4828852117061615 0 9
19.67888641357422 11.166152000427246 8.482601165771484 0.5990403294563293 0 9
19.7763671875 10.987988471984863 8.481772422790527 0.07630199939012527 0 9
20.57402229309082 11.190683364868164 8.780440330505371 0.9270718097686768 0 9
20.605194091796875 10.969120979309082 8.751358032226562 0.9301522970199585 0 9
20.63591766357422 10.74886703491211 8.723097801208496 0.9331656098365784 0 9
20.666366577148438 10.529980659484863 8.695647239685059 0.936111569404602 0 9
20.6964054107666 10.312362670898438 8.668994903564453 0.9389898180961609 0 9
20.726112365722656 10.095956802368164 8.643123626708984 0.9417998790740967 0 9
23.949979782104492 11.401542663574219 9.944454193115234 0.9252804517745972 0 9
22.423242568969727 10.42886734008789 9.2712984085083 0.34530267119407654 0 9
23.03125 10.46126937866211 9.48346996307373 0.37443777918815613 0 9
23.604764938354492 10.46718692779541 9.680542945861816 0.3668149709701538 0 9
24.02828025817871 10.397929191589355 9.815552711486816 0.937431275844574 0 9
24.04701042175293 10.150761604309082 9.785595893859863 0.9403010606765747 0 9
24.065448760986328 9.904980659484863 9.756521224975586 0.9431033730506897 0 9
24.785350799560547 9.942070007324219 10.011800765991211 0.6271639466285706 0 9
24.961191177368164 9.753437042236328 10.04705810546875 0.6249632239341736 0 9
25.1387882232666 9.56363296508789 10.083584785461426 0.6226989030838013 0 9
25.318300247192383 9.372675895690918 10.121434211730957 0.6203708648681641 0 9
25.49968719482422 9.180429458618164 10.160593032836914 0.6179798245429993 0 9
34.90925598144531 12.215272903442383 13.865680694580078 0.3086046576499939 0 9
33.80738067626953 11.49013614654541 13.386514663696289 0.576779305934906 0 9
34.262596130371094 11.302831649780273 13.526054382324219 0.5708290934562683 0 9
34.72779083251953 11.11166000366211 13.669767379760742 0.564827561378479 0 9
35.2033576965332 10.916483879089355 13.817837715148926 0.5587753057479858 0 9
35.13956832885742 10.551933288574219 13.755057334899902 0.7040807008743286 0 9
34.95183563232422 10.154433250427246 13.645353317260742 0.7097417116165161 0 9
35.405391693115234 9.942461013793945 13.787031173706055 0.6206134557723999 0 9
35.31398391723633 9.57568359375 13.71742057800293 0.6237627267837524 0 9
35.224178314208984 9.212714195251465 13.649858474731445 0.6268500089645386 0 9
7.493788719177246 7.493691444396973 3.8737881183624268 0.5915448665618896 0 9
8.327733993530273 8.179452896118164 4.266751289367676 0.6958205103874207 0 9
8.35878849029541 8.063827514648438 4.245404243469238 0.6993192434310913 0 9
8.389257431030273 7.949101448059082 4.224477291107178 0.7027835845947266 0 9
9.3184175491333 8.672128677368164 4.652983665466309 0.7608699202537537 0 9
9.452851295471191 8.6401948928833 4.681171417236328 0.7562874555587769 0 9
9.530508041381836 8.555429458618164 4.681424140930176 0.9328741431236267 0 9
9.590078353881836 8.454687118530273 4.673206329345703 0.9345144629478455 0 9
9.649354934692383 8.354238510131836 4.665384769439697 0.936080813407898 0 9
10.005175590515137 8.506366729736328 4.80029296875 0.7375199794769287 0 9
11.844491958618164 9.888379096984863 5.639954566955566 0.8965299129486084 0 9
11.527265548706055 9.4492769241333 5.448306560516357 0.44215497374534607 0 9
9.82177734375 7.904882431030273 4.608470439910889 0.06160527467727661 0 9
9.421405792236328 7.444296836853027 4.3890910148620605 0.06468456983566284 0 9
12.182304382324219 9.449453353881836 5.635560035705566 0.8972283601760864 0 9
12.26601505279541 9.339277267456055 5.635284423828125 0.8972722887992859 0 9
12.26025390625 9.162206649780273 5.594610691070557 0.5831553936004639 0 9
12.210761070251465 8.955527305603027 5.535121917724609 0.5894227027893066 0 9
12.162363052368164 8.753241539001465 5.477344989776611 0.5956406593322754 0 9
12.115038871765137 8.55517578125 5.421219348907471 0.6018072366714478 0 9
12.068671226501465 8.361113548278809 5.366686820983887 0.6079220771789551 0 9
19.482831954956055 13.240488052368164 8.610417366027832 0.9511492848396301 0 9
18.633026123046875 12.419960975646973 8.185242652893066 0.40525150299072266 0 9
18.014354705810547 11.775409698486328 7.866708755493164 0.3254338204860687 0 9
18.506561279296875 11.861445426940918 8.0348482131958 0.3186238706111908 0 9
18.9560546875 11.910859107971191 8.183239936828613 0.5670554637908936 0 9
19.275800704956055 11.871796607971191 8.2749605178833 0.5607702732086182 0 9
19.603065490722656 11.831953048706055 8.369499206542969 0.5544359087944031 0 9
19.566190719604492 11.571367263793945 8.309082984924316 0.47305426001548767 0 9
19.528749465942383 11.313886642456055 8.249722480773926 0.4764583110809326 0 9
19.49085807800293 11.059453010559082 8.191435813903809 0.4798485338687897 0 9
19.741464614868164 10.96859359741211 8.255057334899902 0.07667035609483719 0 9
20.627147674560547 11.21957015991211 8.58296012878418 0.927510678768158 0 9
20.658184051513672 10.997323989868164 8.55445671081543 0.9306005835533142 0 9
20.688905715942383 10.776464462280273 8.526768684387207 0.9336232542991638 0 9
20.719219207763672 10.556933403015137 8.49986457824707 0.9365780353546143 0 9
20.74917984008789 10.338651657104492 8.473742485046387 0.9394649863243103 0 9
20.778789520263672 10.121601104736328 8.448393821716309 0.9422838687896729 0 9
24.015722274780273 11.432831764221191 9.722372055053711 0.9255683422088623 0 9
22.45101547241211 10.441777229309082 9.050616264343262 0.34593063592910767 0 9
23.00046730041504 10.447265625 9.233925819396973 0.3760857582092285 0 9
23.57255744934082 10.452909469604492 9.42556381225586 0.3684391379356384 0 9
24.09339714050293 10.426093101501465 9.596009254455566 0.9377561211585999 0 9
24.11197280883789 10.178183555603027 9.566645622253418 0.9406347274780273 0 9
24.130252838134766 9.931679725646973 9.538147926330566 0.9434455633163452 0 9
24.14824104309082 9.686503410339355 9.51049518585205 0.9461883902549744 0 9
24.79818344116211 9.689764976501465 9.73182487487793 0.6309946179389954 0 9
24.974023818969727 9.500956535339355 9.76697826385498 0.6287232637405396 0 9
25.151737213134766 9.311015129089355 9.80338191986084 0.6263884902000427 0 9
35.01576232910156 12.606425285339355 13.603437423706055 0.8370586037635803 0 9
35.213905334472656 12.321855545043945 13.636894226074219 0.8350048661231995 0 9
33.94843673706055 11.5380859375 13.106194496154785 0.3159755766391754 0 9
34.16585922241211 11.270917892456055 13.150556564331055 0.5741952061653137 0 9
34.62873077392578 11.079999923706055 13.289884567260742 0.5681755542755127 0 9
35.10183334350586 10.885019302368164 13.433415412902832 0.5621047616004944 0 9
35.338008880615234 10.611503601074219 13.486794471740723 0.7022676467895508 0 9
35.14763641357422 10.211347579956055 13.378631591796875 0.7079456448554993 0 9
34.959686279296875 9.817323684692383 13.272998809814453 0.7135793566703796 0 9
34.774044036865234 9.429277420043945 13.169865608215332 0.7191677093505859 0 9
7.458984375 7.458886623382568 3.7574923038482666 0.596075713634491 0 9
8.411093711853027 8.261347770690918 4.1995978355407715 0.6909754276275635 0 9
8.44205093383789 8.144179344177246 4.178377151489258 0.6944847106933594 0 9
8.472421646118164 8.0278902053833 4.157576084136963 0.697959303855896 0 9
8.502245903015137 7.912519454956055 4.137187480926514 0.7013992071151733 0 9
9.458476066589355 8.645331382751465 4.564548492431641 0.8288601040840149 0 9
9.533926010131836 8.558515548706055 4.563704490661621 0.9353180527687073 0 9
9.593476295471191 8.457715034484863 4.555689334869385 0.9369634985923767 0 9
9.652812004089355 8.357245445251465 4.548065185546875 0.9385343790054321 0 9
9.712011337280273 8.257109642028809 4.540824890136719 0.9400307536125183 0 9
9.493046760559082 7.925253868103027 4.405022144317627 0.06299483776092529 0 9
9.109004020690918 7.46691370010376 4.195534706115723 0.06613984704017639 0 9
11.923378944396973 9.596327781677246 5.451937198638916 0.43187785148620605 0 9
12.184199333190918 9.627324104309082 5.531469821929932 0.8934610486030579 0 9
12.268827438354492 9.516562461853027 5.530871391296387 0.8935574293136597 0 9
12.292109489440918 9.359121322631836 5.503255367279053 0.5794426798820496 0 9
12.241718292236328 9.148359298706055 5.443730354309082 0.5857785940170288 0 9
12.192461013793945 8.942129135131836 5.385930061340332 0.5920649766921997 0 9
12.144354820251465 8.7402925491333 5.329793453216553 0.5983011722564697 0 9
12.097265243530273 8.54263687133789 5.275259971618652 0.6044861078262329 0 9
12.051152229309082 8.348983764648438 5.222269058227539 0.6106196045875549 0 9
18.929960250854492 12.864765167236328 8.152790069580078 0.9729300141334534 0 9
18.000526428222656 11.998358726501465 7.705787181854248 0.5885857343673706 0 9
18.29878807067871 11.961347579956055 7.787197113037109 0.5824324488639832 0 9
18.32874870300293 11.747499465942383 7.754754543304443 0.3226737976074219 0 9
18.834197998046875 11.834296226501465 7.923350811004639 0.3158080279827118 0 9
19.233789443969727 11.845917701721191 8.046392440795898 0.5636707544326782 0 9
19.559783935546875 11.805839538574219 8.138118743896484 0.5573176741600037 0 9
19.765117645263672 11.689043045043945 8.179549217224121 0.35797858238220215 0 9
19.5478515625 11.32494068145752 8.047243118286133 0.3638637065887451 0 9
19.33818244934082 10.972831726074219 7.92005729675293 0.36970722675323486 0 9
19.135623931884766 10.63199234008789 7.797708511352539 0.3755079209804535 0 9
20.680273056030273 11.248476028442383 8.385661125183105 0.9278863072395325 0 9
20.711210250854492 11.025586128234863 8.357742309570312 0.9309855699539185 0 9
20.7418155670166 10.80404281616211 8.330615043640137 0.9340171813964844 0 9
20.772029876708984 10.58382797241211 8.304262161254883 0.9369808435440063 0 9
20.80189323425293 10.364941596984863 8.278682708740234 0.9398761987686157 0 9
20.831445693969727 10.147284507751465 8.253851890563965 0.9427035450935364 0 9
24.081405639648438 11.464081764221191 9.50041389465332 0.9257931709289551 0 9
22.4786319732666 10.4546480178833 8.830705642700195 0.3465351164340973 0 9
22.96988296508789 10.433378219604492 8.986547470092773 0.3777082562446594 0 9
23.540584564208984 10.438730239868164 9.172799110412598 0.3700388967990875 0 9
24.13558578491211 10.4443359375 9.367741584777832 0.3623385429382324 0 9
24.1768741607666 10.20556640625 9.347831726074219 0.940904438495636 0 9
24.195058822631836 9.95833969116211 9.319907188415527 0.9437238574028015 0 9
24.21286964416504 9.7124605178833 9.292816162109375 0.9464747905731201 0 9
24.638221740722656 9.627225875854492 9.422526359558105 0.6369833946228027 0 9
24.812381744384766 9.439472198486328 9.456344604492188 0.6347053050994873 0 9
24.988338470458984 9.250507354736328 9.491372108459473 0.6323633790016174 0 9
34.9518928527832 12.583436965942383 13.232422828674316 0.8410869836807251 0 9
35.0285530090332 12.257011413574219 13.219261169433594 0.6862136125564575 0 9
35.34832000732422 12.013867378234863 13.298698425292969 0.8368954062461853 0 9
34.0703125 11.239394187927246 12.779407501220703 0.577522337436676 0 9
34.530799865722656 11.048632621765137 12.914423942565918 0.5714846253395081 0 9
35.001502990722656 10.85390567779541 13.053507804870605 0.5653958320617676 0 9
35.15296936035156 10.555936813354492 13.074131965637207 0.5729266405105591 0 9
35.3444709777832 10.268515586853027 13.1105318069458 0.7061015367507935 0 9
35.153865814208984 9.871835708618164 13.00645637512207 0.7117516994476318 0 9
36.78419876098633 9.974355697631836 13.575980186462402 0.5581064224243164 0 9
7.424726486206055 7.424609184265137 3.6429433822631836 0.6005666255950928 0 9
8.495683670043945 8.344433784484863 4.131492614746094 0.6860834360122681 0 9
8.526484489440918 8.225625038146973 4.11040735244751 0.6896030306816101 0 9
8.556737899780273 8.107792854309082 4.089739799499512 0.6930878162384033 0 9
8.58642578125 7.990898132324219 4.069485187530518 0.6965373754501343 0 9
8.615585327148438 7.874902248382568 4.0496344566345215 0.6999517679214478 0 9
9.537363052368164 8.5615816116333 4.446593284606934 0.9376986622810364 0 9
9.596933364868164 8.460741996765137 4.438780307769775 0.9393485188484192 0 9
9.196015357971191 7.961738109588623 4.2201313972473145 0.06423035264015198 0 9
8.825937271118164 7.503769397735596 4.019221305847168 0.06744110584259033 0 9
10.293807983398438 8.593789100646973 4.652356147766113 0.7265375256538391 0 9
10.440526962280273 8.558417320251465 4.683760166168213 0.7216667532920837 0 9
10.58902359008789 8.522401809692383 4.715867042541504 0.7167527079582214 0 9
12.27083969116211 9.69580078125 5.425901889801025 0.8897292017936707 0 9
12.324667930603027 9.55990219116211 5.411534309387207 0.5756039023399353 0 9
12.273417472839355 9.344902038574219 5.351983547210693 0.5820079445838928 0 9
12.223340034484863 9.134628295898438 5.294180870056152 0.5883629322052002 0 9
12.174394607543945 8.92886734008789 5.238048076629639 0.594667375087738 0 9
12.1265230178833 8.72744083404541 5.183536052703857 0.6009211540222168 0 9
12.0796480178833 8.530195236206055 5.130578517913818 0.6071243286132812 0 9
18.82046890258789 13.03880786895752 7.943556785583496 0.9754082560539246 0 9
18.951854705810547 12.879648208618164 7.94990348815918 0.9746291637420654 0 9
19.083417892456055 12.720175743103027 7.956878662109375 0.9737748503684998 0 9
18.260448455810547 11.936288833618164 7.568769454956055 0.5853495001792908 0 9
18.564199447631836 11.898378372192383 7.650087833404541 0.5791271328926086 0 9
18.65214729309082 11.719922065734863 7.642672061920166 0.31981584429740906 0 9
19.1715030670166 11.807538986206055 7.811729431152344 0.3128945827484131 0 9
19.517011642456055 11.78001880645752 7.909106254577637 0.5601612329483032 0 9
19.544179916381836 11.558359146118164 7.877749919891357 0.36307618021965027 0 9
19.33285140991211 11.200409889221191 7.751731872558594 0.3689783811569214 0 9
19.128808975219727 10.854022979736328 7.630544185638428 0.3748384714126587 0 9
19.672792434692383 10.930429458618164 7.808095455169678 0.07739146053791046 0 9
20.05941390991211 10.910780906677246 7.922342300415039 0.47369644045829773 0 9
20.764179229736328 11.053730010986328 8.161171913146973 0.931307315826416 0 9
20.794647216796875 10.831562042236328 8.134614944458008 0.9343478083610535 0 9
20.824804306030273 10.610722541809082 8.108818054199219 0.9373198747634888 0 9
20.8546085357666 10.391210556030273 8.083775520324707 0.9402238130569458 0 9
20.884023666381836 10.172870635986328 8.059470176696777 0.9430592060089111 0 9
24.14710807800293 11.495370864868164 9.278549194335938 0.9259553551673889 0 9
24.166698455810547 11.23974609375 9.246936798095703 0.9291212558746338 0 9
22.939647674560547 10.419648170471191 8.741276741027832 0.37930434942245483 0 9
23.50894546508789 10.424687385559082 8.922195434570312 0.3716129958629608 0 9
24.102420806884766 10.43001937866211 9.111557006835938 0.36389023065567017 0 9
24.241796493530273 10.2329683303833 9.129130363464355 0.9411104917526245 0 9
24.259765625 9.984941482543945 9.101791381835938 0.9439380764961243 0 9
24.2774600982666 9.738359451293945 9.075263023376465 0.9466968178749084 0 9
24.294862747192383 9.493085861206055 9.049544334411621 0.9493870735168457 0 9
24.653749465942383 9.379120826721191 9.151506423950195 0.640643835067749 0 9
34.69267654418945 12.843027114868164 12.834660530090332 0.8470510840415955 0 9
34.888671875 12.560683250427246 12.86492919921875 0.8450581431388855 0 9
35.08574295043945 12.27701187133789 12.896454811096191 0.8429923057556152 0 9
35.284061431884766 11.992011070251465 12.92924976348877 0.8408541679382324 0 9
35.48355484008789 11.7056245803833 12.963327407836914 0.8386436104774475 0 9
34.43400192260742 11.017695426940918 12.54326057434082 0.5747550129890442 0 9
34.86601638793945 10.811894416809082 12.664779663085938 0.5843918919563293 0 9
35.29277420043945 10.597929000854492 12.784720420837402 0.5789092183113098 0 9
35.54226303100586 10.325995445251465 12.841008186340332 0.7042093276977539 0 9
35.34906005859375 9.92665958404541 12.738508224487305 0.7098762392997742 0 9
36.62627029418945 9.931523323059082 13.166107177734375 0.5621399283409119 0 9
7.390956878662109 7.390839576721191 3.5300869941711426 0.6050155758857727 0 9
8.581483840942383 8.428671836853027 4.062405109405518 0.6811448335647583 0 9
8.61214828491211 8.30826187133789 4.041463375091553 0.6846745014190674 0 9
8.642265319824219 8.188847541809082 4.02094030380249 0.6881688833236694 0 9
8.671815872192383 8.070331573486328 4.000827312469482 0.6916285753250122 0 9
8.70083999633789 7.952812194824219 3.9811177253723145 0.6950525045394897 0 9
8.729315757751465 7.83621072769165 3.9618024826049805 0.6984409093856812 0 9
8.56851577758789 7.554062366485596 3.8578853607177734 0.06858876347541809 0 9
9.65966796875 8.363163948059082 4.31521463394165 0.9432498216629028 0 9
9.718847274780273 8.262948989868164 4.308339595794678 0.9447548389434814 0 9
10.368085861206055 8.655780792236328 4.561500072479248 0.7233722805976868 0 9
10.516386032104492 8.62060546875 4.592515468597412 0.7184873819351196 0 9
10.666464805603027 8.584726333618164 4.62422513961792 0.7135597467422485 0 9
10.818456649780273 8.548144340515137 4.656656742095947 0.7085903286933899 0 9
12.305878639221191 9.545331954956055 5.259821891784668 0.5781115889549255 0 9
12.2549409866333 9.330820083618164 5.202028751373291 0.5845339894294739 0 9
12.205078125 9.120976448059082 5.145927429199219 0.5909063816070557 0 9
12.156445503234863 8.915702819824219 5.091452121734619 0.5972293615341187 0 9
12.108808517456055 8.714726448059082 5.038540363311768 0.6035003066062927 0 9
12.062207221984863 8.517851829528809 4.987136363983154 0.6097211837768555 0 9
18.842069625854492 13.053789138793945 7.741520881652832 0.9770433306694031 0 9
18.9736328125 12.89443302154541 7.747716903686523 0.9762620329856873 0 9
19.105390548706055 12.734824180603027 7.754521369934082 0.9754053950309753 0 9
14.0645112991333 9.193456649780273 5.674793720245361 0.2626802325248718 0 9
13.92789077758789 8.9267578125 5.587114334106445 0.2668028771877289 0 9
18.83460807800293 11.834569931030273 7.512515544891357 0.575696587562561 0 9
18.98503875732422 11.692694664001465 7.530340194702148 0.31686124205589294 0 9
19.474647521972656 11.7544527053833 7.682384014129639 0.5629669427871704 0 9
19.329336166381836 11.43130874633789 7.584288120269775 0.36814868450164795 0 9
19.12369155883789 11.079237937927246 7.464278221130371 0.3740677535533905 0 9
20.491424560546875 11.627206802368164 7.957061767578125 0.4604044258594513 0 9
20.443729400634766 11.358769416809082 7.898630142211914 0.4638103246688843 0 9
20.395721435546875 11.093690872192383 7.841289043426514 0.46720224618911743 0 9
20.347381591796875 10.831893920898438 7.785012245178223 0.47057944536209106 0 9
20.84748077392578 10.859082221984863 7.938740253448486 0.9346145987510681 0 9
20.8775577545166 10.637617111206055 7.913504600524902 0.9375953078269958 0 9
20.9072265625 10.417402267456055 7.888997554779053 0.9405073523521423 0 9
20.936601638793945 10.198514938354492 7.865219593048096 0.9433507919311523 0 9
24.212793350219727 11.526659965515137 9.056753158569336 0.9260542392730713 0 9
24.232187271118164 11.27017593383789 9.025806427001953 0.9292292594909668 0 9
24.25128936767578 11.015409469604492 8.995716094970703 0.9323368072509766 0 9
24.270057678222656 10.762226104736328 8.9664888381958 0.9353765249252319 0 9
24.288496017456055 10.510526657104492 8.938084602355957 0.9383484125137329 0 9
24.306640625 10.260332107543945 8.910512924194336 0.9412521719932556 0 9
24.324472427368164 10.011601448059082 8.88375186920166 0.9440876245498657 0 9
24.342010498046875 9.7642183303833 8.857791900634766 0.946854293346405 0 9
29.698768615722656 11.60464859008789 10.768707275390625 0.48013848066329956 0 9
36.74660110473633 13.979686737060547 13.2781982421875 0.8750107884407043 0 9
36.49673843383789 13.51089859008789 13.143569946289062 0.2710033059120178 0 9
34.99982452392578 12.600722312927246 12.563237190246582 0.6885207295417786 0 9
35.36484146118164 12.37466812133789 12.653887748718262 0.44047820568084717 0 9
35.220333099365234 11.97037124633789 12.563230514526367 0.844756007194519 0 9
35.41929626464844 11.68441390991211 12.596283912658691 0.842539370059967 0 9
34.30804443359375 10.977362632751465 12.165544509887695 0.5938937067985535 0 9
35.56980514526367 11.030136108398438 12.577348709106445 0.59637451171875 0 9
35.58376693725586 10.685312271118164 12.547868728637695 0.597775936126709 0 9
35.59621047973633 10.34164047241211 12.519025802612305 0.5991530418395996 0 9
35.54534912109375 9.981796264648438 12.469111442565918 0.7079522609710693 0 9
35.616737365722656 9.657793045043945 12.463236808776855 0.6018347144126892 0 9
36.20021438598633 9.1216402053833 12.608085632324219 0.18099357187747955 0 9
7.357656002044678 7.357577800750732 3.4188735485076904 0.6094232797622681 0 9
8.668496131896973 8.514179229736328 3.992300033569336 0.6761598587036133 0 9
8.69906234741211 8.39208984375 3.971513271331787 0.6796990633010864 0 9
8.729043006896973 8.271035194396973 3.951143980026245 0.6832033395767212 0 9
8.681288719177246 8.0791597366333 3.8965511322021484 0.06624799966812134 0 9
8.3335542678833 7.617089748382568 3.7096309661865234 0.06958624720573425 0 9
8.815644264221191 7.91369104385376 3.89245867729187 0.693503737449646 0 9
8.843457221984863 7.796464443206787 3.8736817836761475 0.696865439414978 0 9
9.6630859375 8.366132736206055 4.199642658233643 0.9455116391181946 0 9
9.722304344177246 8.265878677368164 4.192951679229736 0.9470206499099731 0 9
10.442988395690918 8.7183198928833 4.469841480255127 0.7201576232910156 0 9
10.592851638793945 8.683300971984863 4.500454425811768 0.7152596116065979 0 9
10.744608879089355 8.64761734008789 4.531755447387695 0.7103188037872314 0 9
10.898261070251465 8.61122989654541 4.563774108886719 0.7053355574607849 0 9
11.05386734008789 8.574159622192383 4.596515655517578 0.7003107070922852 0 9
12.236600875854492 9.316855430603027 5.053354263305664 0.587020218372345 0 9
12.187089920043945 9.107539176940918 4.998937606811523 0.593410313129425 0 9
12.138612747192383 8.902636528015137 4.946094989776611 0.5997496843338013 0 9
12.091249465942383 8.70205020904541 4.894765377044678 0.6060390472412109 0 9
12.044901847839355 8.505663871765137 4.844902515411377 0.6122764348983765 0 9
14.161386489868164 9.810956954956055 5.660585880279541 0.25690150260925293 0 9
14.01693344116211 9.525819778442383 5.568427562713623 0.261152982711792 0 9
13.8779878616333 9.250410079956055 5.480039119720459 0.26536524295806885 0 9
13.74429702758789 8.984140396118164 5.395180702209473 0.2695391774177551 0 9
19.391639709472656 12.428730010986328 7.567883014678955 0.9750250577926636 0 9
19.524160385131836 12.26781177520752 7.576313495635986 0.973939836025238 0 9
19.11019515991211 11.76976490020752 7.37438440322876 0.5721414089202881 0 9
19.32763671875 11.665722846984863 7.417593955993652 0.3672192692756653 0 9
19.120370864868164 11.307695388793945 7.298789978027344 0.37319672107696533 0 9
18.92021369934082 10.961347579956055 7.184539794921875 0.37913140654563904 0 9
20.446680068969727 11.601816177368164 7.724334716796875 0.5462208986282349 0 9
20.792949676513672 11.552812576293945 7.8156418800354 0.45727524161338806 0 9
20.74152374267578 11.281816482543945 7.757941722869873 0.46067655086517334 0 9
20.689863204956055 11.014199256896973 7.701326847076416 0.4640629291534424 0 9
20.637929916381836 10.749921798706055 7.645776271820068 0.46743473410606384 0 9
20.930233001708984 10.664433479309082 7.718286037445068 0.9378068447113037 0 9
20.959863662719727 10.443632125854492 7.694328308105469 0.9407268762588501 0 9
20.989139556884766 10.224101066589355 7.671080112457275 0.9435782432556152 0 9
22.47818374633789 10.700859069824219 8.179852485656738 0.6308315992355347 0 9
24.29769515991211 11.300663948059082 8.80471420288086 0.9292739629745483 0 9
24.316600799560547 11.04507827758789 8.775290489196777 0.9323900938034058 0 9
24.335195541381836 10.791112899780273 8.746694564819336 0.9354381561279297 0 9
24.35349464416504 10.538652420043945 8.718917846679688 0.9384182691574097 0 9
24.371503829956055 10.287714958190918 8.691951751708984 0.9413301348686218 0 9
24.389179229736328 10.03824234008789 8.665772438049316 0.9441733360290527 0 9
30.19025230407715 12.110175132751465 10.687922477722168 0.3771052360534668 0 9
29.7178897857666 11.612109184265137 10.48336124420166 0.38446348905563354 0 9
36.52433395385742 13.895116806030273 12.839898109436035 0.2706303894519806 0 9
37.11865234375 13.741093635559082 13.004961013793945 0.8715530037879944 0 9
31.487186431884766 11.336073875427246 10.995798110961914 0.6431994438171387 0 9
35.60939407348633 12.460272789001465 12.395777702331543 0.6807613968849182 0 9
36.03501892089844 12.247245788574219 12.505180358886719 0.6748059988021851 0 9
36.00794982910156 11.878613471984863 12.45827579498291 0.8747988939285278 0 9
36.04591751098633 11.533417701721191 12.435093879699707 0.5884499549865723 0 9
36.06040954589844 11.182265281677246 12.404961585998535 0.5898787975311279 0 9
36.07341766357422 10.832343101501465 12.375484466552734 0.591283917427063 0 9
35.69023513793945 10.368964195251465 12.211605072021484 0.21778877079486847 0 9
35.74269485473633 10.037187576293945 12.198246955871582 0.7059803605079651 0 9
36.103477478027344 9.789765357971191 12.290881156921387 0.5953541398048401 0 9
36.45265579223633 9.534042358398438 12.380127906799316 0.17981983721256256 0 9
17.729570388793945 3.963027238845825 5.969164848327637 0.7790171504020691 0 6
17.73763656616211 3.797988176345825 5.960162162780762 0.8379223942756653 0 6
17.699472427368164 3.2941014766693115 5.915377140045166 0.3056970536708832 0 6
17.655996322631836 3.122324228286743 5.891240119934082 0.4142885208129883 0 6
17.609256744384766 2.9512693881988525 5.866579532623291 0.8802264332771301 0 6
17.59535026550293 2.786816358566284 5.85338020324707 0.9975607395172119 0 6
17.685800552368164 2.6386523246765137 5.875346660614014 0.5349209308624268 0 6
8.725878715515137 8.725800514221191 3.9422004222869873 0.6675451993942261 0 9
8.756855010986328 8.600956916809082 3.9211525917053223 0.6711291074752808 0 9
8.457284927368164 8.158827781677246 3.7540535926818848 0.06703516840934753 0 9
8.118359565734863 7.692421913146973 3.57283353805542 0.0704348087310791 0 9
8.846327781677246 8.232772827148438 3.860520124435425 0.6816694736480713 0 9
8.875039100646973 8.112051010131836 3.841120719909668 0.6851120591163635 0 9
8.903203010559082 7.992323875427246 3.8221144676208496 0.6885189414024353 0 9
8.930898666381836 7.87353515625 3.8034939765930176 0.6918897032737732 0 9
8.958026885986328 7.755683422088623 3.7852535247802734 0.6952242851257324 0 9
9.725683212280273 8.268750190734863 4.07810640335083 0.9492219686508179 0 9
10.518632888793945 8.781464576721191 4.377353668212891 0.7168945074081421 0 9
10.67007827758789 8.74658203125 4.40755033493042 0.7119830846786499 0 9
10.823514938354492 8.711112976074219 4.4384307861328125 0.707028865814209 0 9
10.978827476501465 8.674901962280273 4.470020771026611 0.702032208442688 0 9
12.26878833770752 9.516542434692383 4.960263252258301 0.5830084681510925 0 9
12.218379020690918 9.303008079528809 4.905923843383789 0.5894661545753479 0 9
12.169159889221191 9.094120979309082 4.853171348571777 0.5958737730979919 0 9
12.120976448059082 8.889687538146973 4.801944255828857 0.6022304892539978 0 9
12.073905944824219 8.689589500427246 4.752186298370361 0.6085362434387207 0 9
13.053359031677246 9.217792510986328 5.1049299240112305 0.8779612183570862 0 9
13.138847351074219 9.1025390625 5.1062164306640625 0.8777408003807068 0 9
13.6968355178833 9.30826187133789 5.290380954742432 0.2679710388183594 0 9
13.565996170043945 9.042421340942383 5.208288669586182 0.27219468355178833 0 9
19.2813663482666 12.603612899780273 7.358800888061523 0.9775302410125732 0 9
19.413808822631836 12.442949295043945 7.366431713104248 0.9765176177024841 0 9
19.544296264648438 12.280488014221191 7.373820781707764 0.36011648178100586 0 9
19.327655792236328 11.903730392456055 7.251491546630859 0.36619138717651367 0 9
19.118730545043945 11.539648056030273 7.133937835693359 0.3722257614135742 0 9
18.91695213317871 11.187421798706055 7.020885944366455 0.37821900844573975 0 9
20.033416748046875 11.606268882751465 7.396309852600098 0.9138432741165161 0 9
20.145586013793945 11.430975914001465 7.399534702301025 0.9134450554847717 0 9
20.75472640991211 11.531561851501465 7.584954738616943 0.5422796010971069 0 9
20.944921493530273 11.39242172241211 7.61677360534668 0.9467928409576416 0 9
20.994979858398438 11.176640510559082 7.598191738128662 0.9491082429885864 0 9
20.986757278442383 10.931620597839355 7.559390544891357 0.4608955979347229 0 9
20.93115234375 10.664901733398438 7.504589557647705 0.46426117420196533 0 9
22.78484344482422 11.352949142456055 8.132304191589355 0.07238774746656418 0 9
22.697011947631836 11.056035041809082 8.065251350402832 0.6237175464630127 0 9
22.555253982543945 10.737558364868164 7.980291366577148 0.6303575038909912 0 9
22.41615104675293 10.425585746765137 7.897662162780762 0.6369527578353882 0 9
24.381893157958984 11.074726104736328 8.554863929748535 0.932379961013794 0 9
24.40036964416504 10.819999694824219 8.5269136428833 0.9354362487792969 0 9
24.418476104736328 10.566777229309082 8.499762535095215 0.9384243488311768 0 9
24.43632698059082 10.315077781677246 8.473397254943848 0.9413440227508545 0 9
24.453866958618164 10.06484317779541 8.447815895080566 0.9441947340965271 0 9
30.494413375854492 12.232148170471191 10.49622631072998 0.37434256076812744 0 9
30.011503219604492 11.726855278015137 10.293363571166992 0.3817204236984253 0 9
31.214237213134766 11.875 10.668876647949219 0.6462507843971252 0 9
31.243574142456055 11.566171646118164 10.642992973327637 0.6478222608566284 0 9
31.27339744567871 11.25912094116211 10.618295669555664 0.6493290066719055 0 9
34.25636672973633 11.986796379089355 11.594109535217285 0.6862998604774475 0 9
34.67591857910156 11.785331726074219 11.699837684631348 0.6800981163978577 0 9
35.10310363769531 11.580117225646973 11.808414459228516 0.6738447546958923 0 9
35.53810501098633 11.37093734741211 11.919940948486328 0.6675402522087097 0 9
35.98128890991211 11.15771484375 12.034520149230957 0.6611849665641785 0 9
36.43294906616211 10.940312385559082 12.152236938476562 0.6547796130180359 0 9
35.28738021850586 10.251933097839355 11.73896312713623 0.18153995275497437 0 9
35.790916442871094 10.050722122192383 11.875994682312012 0.21831588447093964 0 9
36.60091781616211 9.92464828491211 12.114717483520508 0.5888330936431885 0 9
17.732362747192383 4.637832164764404 5.855297565460205 0.36366233229637146 0 6
38.302207946777344 9.651347160339355 12.61843204498291 0.31629228591918945 0 9
8.252187728881836 8.252089500427246 3.6224191188812256 0.06767502427101135 0 9
8.846542358398438 8.6890230178833 3.8489248752593994 0.6660525798797607 0 9
8.876757621765137 8.563515663146973 3.8284738063812256 0.6696105003356934 0 9
8.906425476074219 8.439140319824219 3.8084371089935303 0.673133134841919 0 9
8.935546875 8.31576156616211 3.7888100147247314 0.6766204237937927 0 9
8.964042663574219 8.1934175491333 3.7695791721343994 0.6800719499588013 0 9
8.992070198059082 8.072089195251465 3.750741720199585 0.6834877133369446 0 9
9.0195894241333 7.951757431030273 3.732285261154175 0.6868670582771301 0 9
9.046562194824219 7.832324028015137 3.7142093181610107 0.690210223197937 0 9
9.073046684265137 7.713886737823486 3.696502923965454 0.6935164332389832 0 9
9.788105010986328 8.171601295471191 3.9577865600585938 0.9528002738952637 0 9
10.748007774353027 8.810487747192383 4.31378173828125 0.70865797996521 0 9
10.903085708618164 8.775176048278809 4.3442301750183105 0.7036910057067871 0 9
11.060194969177246 8.739179611206055 4.375378131866455 0.6986814737319946 0 9
12.250527381896973 9.502363204956055 4.812342166900635 0.5853984355926514 0 9
12.200390815734863 9.289297103881836 4.759702205657959 0.5918722152709961 0 9
12.151406288146973 9.080878257751465 4.70859956741333 0.5982963442802429 0 9
12.103476524353027 8.876835823059082 4.658967971801758 0.6046697497367859 0 9
12.056601524353027 8.67714786529541 4.610755920410156 0.6109920740127563 0 9
13.146777153015137 9.283769607543945 4.995602607727051 0.873988687992096 0 9
13.232949256896973 9.167734146118164 4.996866703033447 0.8737674355506897 0 9
13.318866729736328 9.051405906677246 4.998434543609619 0.873492956161499 0 9
