ply
format ascii 1.0
element vertex 610
property float32 x
property float32 y
property float32 z
property float32 CosAngle
property uint32 ObjIdx
property uint32 ObjTag
end_header
19.68617057800293 14.849960327148438 3.9266207218170166 0.10044649243354797 0 9
24.0245304107666 17.95392608642578 4.7758283615112305 0.988575279712677 0 9
24.11490249633789 17.853378295898438 4.777822017669678 0.9881635904312134 0 9
19.357500076293945 14.197187423706055 3.8225862979888916 0.7781208157539368 0 9
19.4879093170166 14.158769607543945 3.8357534408569336 0.7754496932029724 0 9
19.6192569732666 14.120097160339355 3.849090099334717 0.7727624177932739 0 9
18.499530792236328 13.188573837280273 3.6177608966827393 0.7072790861129761 0 9
18.6236515045166 13.151464462280273 3.6304593086242676 0.7048048973083496 0 9
18.7486515045166 13.113984107971191 3.6433112621307373 0.7023184299468994 0 9
18.87447166442871 13.0762300491333 3.6563215255737305 0.6998196840286255 0 9
18.988359451293945 13.029433250427246 3.6670241355895996 0.8080253005027771 0 9
19.08411979675293 12.969531059265137 3.6742360591888428 0.8064393997192383 0 9
19.180156707763672 12.909394264221191 3.6815402507781982 0.8048392534255981 0 9
19.2275390625 12.81624984741211 3.6795570850372314 0.4981764256954193 0 9
19.139101028442383 12.63363265991211 3.651742696762085 0.501970648765564 0 9
19.052011489868164 12.453691482543945 3.624419689178467 0.5057546496391296 0 9
19.567909240722656 12.665956497192383 3.711719036102295 0.7982953786849976 0 9
19.569902420043945 12.54296875 3.7013723850250244 0.5037722587585449 0 9
19.73029327392578 12.52122974395752 3.7210476398468018 0.5011083483695984 0 9
19.849628448486328 12.472343444824219 3.7329635620117188 0.8552674055099487 0 9
19.938457489013672 12.40371036529541 3.739164113998413 0.8538492918014526 0 9
18.732791900634766 11.537402153015137 3.5033082962036133 0.01900847814977169 0 9
20.116933822631836 12.265664100646973 3.7518270015716553 0.8509660959243774 0 9
20.082889556884766 12.12158203125 3.7352981567382812 0.4802345931529999 0 9
20.0283203125 11.9663667678833 3.7151191234588623 0.48284250497817993 0 9
19.97425651550293 11.812714576721191 3.695218801498413 0.48544320464134216 0 9
19.920663833618164 11.660663604736328 3.6755893230438232 0.4880361258983612 0 9
19.867557525634766 11.51015567779541 3.6562185287475586 0.490621417760849 0 9
19.814882278442383 11.36122989654541 3.6371071338653564 0.49319902062416077 0 9
11.515019416809082 6.533788681030273 2.1082186698913574 0.9304590225219727 0 6
11.580097198486328 6.502167701721191 2.114769220352173 0.314706414937973 0 6
19.65966796875 10.923124313354492 3.5812885761260986 0.5008864402770996 0 9
19.608768463134766 10.779980659484863 3.5631697177886963 0.503433346748352 0 9
20.396738052368164 11.094277381896973 3.697272539138794 0.7289947867393494 0 9
20.7672061920166 11.17529296875 3.755298137664795 0.642190158367157 0 9
20.711034774780273 11.025487899780273 3.736154317855835 0.6454802751541138 0 9
20.65540885925293 10.877167701721191 3.7172787189483643 0.6487584710121155 0 9
20.600332260131836 10.730331420898438 3.698654890060425 0.6520248055458069 0 9
20.720409393310547 10.67496109008789 3.711580514907837 0.08177758753299713 0 9
21.357948303222656 10.8823823928833 3.816988706588745 0.3879460394382477 0 9
21.1851749420166 10.6748628616333 3.777510643005371 0.39200061559677124 0 9
21.015859603881836 10.471542358398438 3.738905906677246 0.39604809880256653 0 9
21.643651962280273 10.663397789001465 3.8420474529266357 0.467140257358551 0 9
21.82146453857422 10.629570007324219 3.8651070594787598 0.8988362550735474 0 9
21.536035537719727 10.371191024780273 3.806262493133545 0.3278234601020813 0 9
21.822635650634766 10.388789176940918 3.8486361503601074 0.902682363986969 0 9
21.797304153442383 10.257011413574219 3.8360109329223633 0.7366726994514465 0 9
21.75566291809082 10.118417739868164 3.8206546306610107 0.7396332025527954 0 9
21.714374542236328 9.980917930603027 3.8054988384246826 0.7425789833068848 0 9
21.673418045043945 9.844511032104492 3.790539264678955 0.745509684085846 0 9
21.63277244567871 9.709159851074219 3.775768756866455 0.7484254240989685 0 9
21.59244155883789 9.57486343383789 3.761192798614502 0.7513263821601868 0 9
21.55242156982422 9.441581726074219 3.7468013763427734 0.7542122006416321 0 9
21.5126953125 9.309335708618164 3.7325961589813232 0.7570826411247253 0 9
21.473241806030273 9.17806625366211 3.71856951713562 0.7599381804466248 0 9
21.42919921875 9.045722007751465 3.7039167881011963 0.013126544654369354 0 9
21.395292282104492 8.918476104736328 3.6910555362701416 0.7656034827232361 0 9
21.35673713684082 8.7900972366333 3.6775588989257812 0.768413245677948 0 9
21.8291015625 8.870136260986328 3.752004623413086 0.9259301424026489 0 9
21.829511642456055 8.7564058303833 3.745285749435425 0.9275916814804077 0 9
32.06480407714844 12.6953706741333 5.491517066955566 0.7359812259674072 0 9
32.526737213134766 12.709687232971191 5.560801982879639 0.924152672290802 0 9
32.16950988769531 12.403984069824219 5.490146160125732 0.08610057830810547 0 9
32.7604866027832 12.463261604309082 5.581414699554443 0.9207391738891602 0 9
32.04079818725586 12.025116920471191 5.4495530128479 0.4532909393310547 0 9
32.31834030151367 11.964081764221191 5.487569332122803 0.4501505494117737 0 9
32.599609375 11.902167320251465 5.526206970214844 0.4470033645629883 0 9
32.884803771972656 11.839277267456055 5.565484523773193 0.4438486695289612 0 9
33.14542770385742 11.765351295471191 5.600596904754639 0.5664724111557007 0 9
33.0798225402832 11.575156211853027 5.580686092376709 0.5684943199157715 0 9
33.014549255371094 11.386269569396973 5.560996055603027 0.5705071687698364 0 9
32.94962692260742 11.198652267456055 5.541534423828125 0.5725107789039612 0 9
33.07072067260742 11.074511528015137 5.553483963012695 0.5293579697608948 0 9
32.89726638793945 10.852479934692383 5.516125202178955 0.5329430103302002 0 9
32.72621154785156 10.633418083190918 5.479388236999512 0.5365167856216431 0 9
32.55739974975586 10.417264938354492 5.443239688873291 0.5400794744491577 0 9
33.85806655883789 10.66617202758789 5.652634143829346 0.9717823266983032 0 9
33.91154098510742 10.51595687866211 5.65362548828125 0.9716124534606934 0 9
33.964962005615234 10.365644454956055 5.654716491699219 0.9714242219924927 0 9
34.01837921142578 10.215272903442383 5.655922889709473 0.9712175726890564 0 9
34.07175827026367 10.06484317779541 5.657229900360107 0.9709927439689636 0 9
37.24097442626953 10.819531440734863 6.175319671630859 0.6611223220825195 0 9
39.65991973876953 11.329550743103027 6.567936897277832 0.9124436378479004 0 9
39.64396286010742 11.1328125 6.556951522827148 0.9139719009399414 0 9
40.22501754760742 11.101425170898438 6.644747257232666 0.9378885626792908 0 9
47.09734344482422 11.867558479309082 7.734035491943359 0.8874613642692566 0 9
47.88002014160156 11.836503982543945 7.853768348693848 0.7361616492271423 0 9
47.89876937866211 11.613261222839355 7.848206520080566 0.7366825938224792 0 9
47.91732406616211 11.390332221984863 7.842791557312012 0.7371912002563477 0 9
47.93566131591797 11.167616844177246 7.837515830993652 0.7376874685287476 0 9
47.95386505126953 10.94521427154541 7.832374095916748 0.7381712794303894 0 9
47.97185516357422 10.72304630279541 7.827386379241943 0.7386427521705627 0 9
47.49429702758789 10.392714500427246 7.741769790649414 0.17821712791919708 0 9
48.00732421875 10.279414176940918 7.817796230316162 0.7395482659339905 0 9
48.024784088134766 10.05794906616211 7.813207626342773 0.7399823665618896 0 9
48.04206848144531 9.836698532104492 7.808762073516846 0.7404038906097412 0 9
48.05917739868164 9.615683555603027 7.804446697235107 0.740813136100769 0 9
48.076072692871094 9.394882202148438 7.800268173217773 0.741209864616394 0 9
33.74998092651367 -1.9713671207427979 5.383387565612793 0.9092485308647156 0 6
33.748924255371094 -2.5799412727355957 5.389737606048584 0.9125503301620483 0 6
33.730506896972656 -3.035820245742798 5.392719745635986 0.9503692388534546 0 6
40.20111083984375 -7.855976581573486 6.522566795349121 0.6577997207641602 0 3
40.19392395019531 -8.042031288146973 6.527200698852539 0.6573331952095032 0 3
39.27433395385742 -8.041483879089355 6.383636474609375 0.1981898546218872 0 3
38.39699172973633 -8.041582107543945 6.24685525894165 0.20252983272075653 0 3
36.47251892089844 -7.8095703125 5.939406394958496 0.89835524559021 0 3
36.46921920776367 -7.980214595794678 5.944637298583984 0.8975647687911987 0 3
36.4658203125 -8.151132583618164 5.949984073638916 0.8967578411102295 0 3
36.46234130859375 -8.322343826293945 5.955455303192139 0.8959346413612366 0 3
36.45878982543945 -8.493847846984863 5.961038589477539 0.8950949907302856 0 3
36.45515441894531 -8.665702819824219 5.96674919128418 0.8942391872406006 0 3
36.45355224609375 -8.838319778442383 5.972918510437012 0.3843223452568054 0 3
36.467403411865234 -9.015155792236328 5.981749057769775 0.3837546408176422 0 3
36.48152160644531 -9.192578315734863 5.990772724151611 0.3831765353679657 0 3
36.49595642089844 -9.370624542236328 5.999993801116943 0.38258785009384155 0 3
36.51068115234375 -9.549277305603027 6.0093994140625 0.3819887638092041 0 3
36.52574157714844 -9.728534698486328 6.019002437591553 0.38137948513031006 0 3
36.541072845458984 -9.908475875854492 6.028792381286621 0.3807598352432251 0 3
36.55673599243164 -10.089062690734863 6.038791179656982 0.38012975454330444 0 3
36.57269287109375 -10.270312309265137 6.048980712890625 0.37948936223983765 0 3
36.58896255493164 -10.452284812927246 6.059370994567871 0.37883877754211426 0 3
36.60556411743164 -10.634941101074219 6.06995964050293 0.3781778812408447 0 3
36.62247848510742 -10.818339347839355 6.080758094787598 0.3775065243244171 0 3
36.639705657958984 -11.00244140625 6.09174919128418 0.3768251836299896 0 3
36.51181411743164 -11.142929077148438 6.078746318817139 0.288356751203537 0 3
35.93357467651367 -11.142949104309082 5.990732192993164 0.2925928831100464 0 3
35.37177658081055 -11.143027305603027 5.905354022979736 0.2968232333660126 0 3
34.825801849365234 -11.143085479736328 5.822492599487305 0.30104750394821167 0 3
34.29494094848633 -11.1431245803833 5.742048263549805 0.3052670657634735 0 3
33.77847671508789 -11.143183708190918 5.663890361785889 0.30947694182395935 0 3
33.275936126708984 -11.14322280883789 5.58795166015625 0.31368252635002136 0 3
33.12464904785156 -11.258163452148438 5.570976257324219 0.9347631335258484 0 3
33.12470626831055 -11.424257278442383 5.579546928405762 0.9333271980285645 0 3
30.023866653442383 -10.505839347839355 5.065128326416016 0.32611414790153503 0 3
29.59701156616211 -10.505800247192383 5.001027584075928 0.33029454946517944 0 3
29.180877685546875 -10.505781173706055 4.938624858856201 0.3344678580760956 0 3
28.58740234375 -10.437284469604492 4.846065998077393 0.9274472594261169 0 3
28.51482391357422 -10.55605411529541 4.841737270355225 0.3427952527999878 0 3
27.789979934692383 -10.429765701293945 4.726566791534424 0.9243713021278381 0 3
27.614843368530273 -10.505663871765137 4.704751968383789 0.351094514131546 0 3
27.2462100982666 -10.505663871765137 4.649937152862549 0.3552336096763611 0 3
26.886093139648438 -10.505643844604492 4.596471786499023 0.35936516523361206 0 3
26.534120559692383 -10.505643844604492 4.544315338134766 0.36349010467529297 0 3
26.1900577545166 -10.505605697631836 4.493416786193848 0.367607057094574 0 3
25.853572845458984 -10.505566596984863 4.443735599517822 0.3717171549797058 0 3
25.524452209472656 -10.505546569824219 4.3952250480651855 0.37581971287727356 0 3
25.192909240722656 -10.501562118530273 4.346208572387695 0.9113219380378723 0 3
25.00650405883789 -10.555839538574219 4.322178363800049 0.38400182127952576 0 3
24.384218215942383 -10.422324180603027 4.222601413726807 0.3880811929702759 0 3
24.264842987060547 -10.500350952148438 4.210100173950195 0.9061252474784851 0 3
23.98080062866211 -10.505468368530273 4.168962478637695 0.3962169587612152 0 3
23.690937042236328 -10.505449295043945 4.1267242431640625 0.4002726376056671 0 3
23.406816482543945 -10.505449295043945 4.0854105949401855 0.4043205976486206 0 3
23.12837791442871 -10.5054292678833 4.044997215270996 0.4083598852157593 0 3
22.96941375732422 -10.557831764221191 4.0254435539245605 0.8970970511436462 0 3
22.969432830810547 -10.682968139648438 4.0338053703308105 0.8952372074127197 0 3
22.969432830810547 -10.808612823486328 4.042284965515137 0.8933594822883606 0 3
22.969432830810547 -10.934804916381836 4.050878047943115 0.8914634585380554 0 3
22.969432830810547 -11.061503410339355 4.0595927238464355 0.8895498514175415 0 3
22.89954948425293 -11.154746055603027 4.056049346923828 0.8876180648803711 0 3
23.031190872192383 -11.347050666809082 4.08834171295166 0.885668158531189 0 3
23.031190872192383 -11.475781440734863 4.097446441650391 0.8837007284164429 0 3
23.031190872192383 -11.605097770690918 4.106672763824463 0.8817155957221985 0 3
23.031190872192383 -11.73501968383789 4.116020202636719 0.8797123432159424 0 3
23.03120994567871 -11.865507125854492 4.125500679016113 0.8776914477348328 0 3
23.031190872192383 -11.996621131896973 4.135104656219482 0.8756530284881592 0 3
23.03120994567871 -12.128339767456055 4.14483642578125 0.8735969662666321 0 3
23.03122901916504 -12.260683059692383 4.154697418212891 0.8715233206748962 0 3
23.03122901916504 -12.393691062927246 4.164693832397461 0.8694319725036621 0 3
22.899627685546875 -12.455683708190918 4.150959014892578 0.8673233985900879 0 3
22.969491958618164 -12.627616882324219 4.173855781555176 0.8651972413063049 0 3
22.969511032104492 -12.762187004089355 4.184224605560303 0.8630535006523132 0 3
22.969511032104492 -12.897440910339355 4.194729804992676 0.8608923554420471 0 3
22.96955108642578 -13.033378601074219 4.2053680419921875 0.8587141036987305 0 3
22.96955108642578 -13.170039176940918 4.216150760650635 0.8565180897712708 0 3
22.96955108642578 -13.30736255645752 4.227071285247803 0.8543052077293396 0 3
22.96955108642578 -13.445409774780273 4.238135814666748 0.8520750403404236 0 3
22.878183364868164 -13.530136108398438 4.232444763183594 0.8498275279998779 0 3
23.012128829956055 -13.749140739440918 4.268592834472656 0.847562849521637 0 3
23.012128829956055 -13.889667510986328 4.2801127433776855 0.8452814221382141 0 3
23.012147903442383 -14.030956268310547 4.291784763336182 0.8429827690124512 0 3
23.012128829956055 -14.173027038574219 4.30360746383667 0.840667188167572 0 3
23.012147903442383 -14.315897941589355 4.315575122833252 0.8383346199989319 0 3
22.87822151184082 -14.37539005279541 4.302506446838379 0.8359856009483337 0 3
22.969629287719727 -14.577011108398438 4.331960678100586 0.8336191177368164 0 3
22.969667434692383 -14.722050666809082 4.34438943862915 0.8312360644340515 0 3
22.969648361206055 -14.867890357971191 4.356964111328125 0.8288364410400391 0 3
22.969648361206055 -15.014609336853027 4.369704246520996 0.8264198899269104 0 3
22.96968650817871 -15.1621675491333 4.382601737976074 0.8239868879318237 0 3
22.96968650817871 -15.310625076293945 4.395675182342529 0.8215371370315552 0 3
22.899824142456055 -15.412948608398438 4.395484924316406 0.8190708756446838 0 3
23.03142547607422 -15.65218734741211 4.434206962585449 0.8165879249572754 0 3
23.031463623046875 -15.803750038146973 4.447818279266357 0.8140888214111328 0 3
23.031463623046875 -15.956269264221191 4.461602210998535 0.8115730881690979 0 3
23.031463623046875 -16.109745025634766 4.475563049316406 0.8090412020683289 0 3
22.953554153442383 -16.20911979675293 4.4745402336120605 0.5696149468421936 0 3
22.969745635986328 -16.375547409057617 4.4919514656066895 0.8039284944534302 0 3
22.969764709472656 -16.53154182434082 4.506421089172363 0.8013477325439453 0 3
22.969783782958984 -16.688554763793945 4.521071434020996 0.7987507581710815 0 3
22.969804763793945 -16.846582412719727 4.535909175872803 0.7961379289627075 0 3
22.969804763793945 -17.005643844604492 4.550929546356201 0.7935090661048889 0 3
22.873769760131836 -17.093984603881836 4.547079086303711 0.7908639907836914 0 3
22.969823837280273 -17.32697296142578 4.581570148468018 0.7882031798362732 0 3
22.96986198425293 -17.489295959472656 4.597182750701904 0.7855262160301208 0 3
22.96986198425293 -17.652694702148438 4.612995147705078 0.7828336954116821 0 3
22.96988296508789 -17.817264556884766 4.6290082931518555 0.7801253199577332 0 3
22.87386703491211 -17.907793045043945 4.625810623168945 0.7774011492729187 0 3
22.969921112060547 -18.149843215942383 4.66166877746582 0.7746613621711731 0 3
22.969921112060547 -18.317890167236328 4.678304672241211 0.7719059586524963 0 3
22.969921112060547 -18.48714828491211 4.695165634155273 0.7691351771354675 0 3
22.873905181884766 -18.579668045043945 4.692529678344727 0.7663484811782837 0 3
22.969980239868164 -18.82941436767578 4.72952127456665 0.7635469436645508 0 3
22.969980239868164 -19.002422332763672 4.747038841247559 0.7607297301292419 0 3
22.969999313354492 -19.17671775817871 4.76477575302124 0.7578971982002258 0 3
22.97001838684082 -19.35234260559082 4.782748222351074 0.7550493478775024 0 3
22.97003936767578 -19.529315948486328 4.800956726074219 0.7521859407424927 0 3
22.87400245666504 -19.625213623046875 4.799272537231445 0.7493070960044861 0 3
22.97005844116211 -19.887285232543945 4.838084697723389 0.7464132905006409 0 3
22.970096588134766 -20.068378448486328 4.857003211975098 0.7435047626495361 0 3
22.970096588134766 -20.250879287719727 4.876184940338135 0.740581214427948 0 3
16.720703125 16.72066307067871 3.3634121417999268 0.9172963500022888 0 9
16.820077896118164 16.669706344604492 3.368311882019043 0.9159610867500305 0 9
16.919706344604492 16.61865234375 3.3732974529266357 0.9146072268486023 0 9
17.01966667175293 16.567401885986328 3.3783743381500244 0.9132345914840698 0 9
17.11994171142578 16.516016006469727 3.3835256099700928 0.9118431806564331 0 9
17.22050666809082 16.46449089050293 3.388767957687378 0.9104330539703369 0 9
17.3214054107666 16.412811279296875 3.3940951824188232 0.9090041518211365 0 9
17.42265510559082 16.360918045043945 3.399507761001587 0.9075567722320557 0 9
17.52421760559082 16.30892562866211 3.405003309249878 0.906090497970581 0 9
17.62611198425293 16.256738662719727 3.410592794418335 0.9046057462692261 0 9
17.72835922241211 16.20441436767578 3.4162752628326416 0.9031021595001221 0 9
17.830957412719727 16.151933670043945 3.422043800354004 0.9015800952911377 0 9
17.722381591796875 15.909374237060547 3.3874685764312744 0.06918928027153015 0 9
18.0372257232666 16.04638671875 3.4338467121124268 0.8984805941581726 0 9
18.14091682434082 15.993358612060547 3.439887285232544 0.8969027996063232 0 9
18.244979858398438 15.940135955810547 3.4460177421569824 0.8953068256378174 0 9
18.179277420043945 15.739433288574219 3.4202334880828857 0.23569422960281372 0 9
18.45423698425293 15.833144187927246 3.4585609436035156 0.892059862613678 0 9
21.501249313354492 18.280467987060547 4.01418924331665 0.3081120550632477 0 9
21.29585838317871 17.941816329956055 3.9607722759246826 0.3122670650482178 0 9
21.095937728881836 17.61210823059082 3.908848524093628 0.3164154291152954 0 9
20.90119171142578 17.290956497192383 3.8583486080169678 0.32055649161338806 0 9
20.940702438354492 17.165897369384766 3.851379632949829 0.2434941828250885 0 9
30.665136337280273 24.908105850219727 5.619260311126709 0.9323753118515015 0 9
31.250995635986328 25.152050018310547 5.70587158203125 0.9351370930671692 0 9
23.46843719482422 18.715391159057617 4.26953649520874 0.5546069741249084 0 9
23.689043045043945 18.718046188354492 4.294347763061523 0.5514026284217834 0 9
23.912322998046875 18.720741271972656 4.319549083709717 0.5481857061386108 0 9
22.629297256469727 17.55304718017578 4.073516368865967 0.7638532519340515 0 9
21.28203010559082 16.355546951293945 3.8177402019500732 0.9204546213150024 0 9
21.39173698425293 16.2877140045166 3.8242721557617188 0.918882429599762 0 9
21.501874923706055 16.219608306884766 3.8309004306793213 0.9172914624214172 0 9
18.1197452545166 13.54117202758789 3.2174630165100098 0.7121523022651672 0 9
18.242225646972656 13.505585670471191 3.228421926498413 0.7097354531288147 0 9
18.36552619934082 13.469667434692383 3.239508867263794 0.7073057889938354 0 9
18.489648818969727 13.43349552154541 3.2507357597351074 0.704863429069519 0 9
18.455663681030273 13.282655715942383 3.2342453002929688 0.10920347273349762 0 9
18.7403507232666 13.360312461853027 3.2735958099365234 0.6999408006668091 0 9
18.86701202392578 13.323261260986328 3.285236358642578 0.697460412979126 0 9
18.99447250366211 13.285956382751465 3.2970211505889893 0.6949679255485535 0 9
19.122812271118164 13.248339653015137 3.3089492321014404 0.6924630999565125 0 9
19.2242374420166 13.191288948059082 3.3162198066711426 0.8001132011413574 0 9
19.32162094116211 13.130956649780273 3.3228206634521484 0.7985235452651978 0 9
19.28433609008789 12.9794921875 3.3063576221466064 0.4964604675769806 0 9
19.19495964050293 12.7944917678833 3.281147003173828 0.500274121761322 0 9
19.106914520263672 12.6123628616333 3.2563886642456055 0.5040779113769531 0 9
19.02017593383789 12.432909965515137 3.2320687770843506 0.5078717470169067 0 9
19.814002990722656 12.8252534866333 3.357144355773926 0.7903591394424438 0 9
19.91357421875 12.7632417678833 3.3642780780792236 0.7886831164360046 0 9
20.013534545898438 12.700976371765137 3.3715028762817383 0.7869933843612671 0 9
19.540605545043945 12.278124809265137 3.2825069427490234 0.5086824893951416 0 9
19.6998233795166 12.255253791809082 3.299989938735962 0.5059881806373596 0 9
19.860877990722656 12.232109069824219 3.317735195159912 0.5032817125320435 0 9
20.023672103881836 12.208807945251465 3.3357460498809814 0.5005640983581543 0 9
20.188339233398438 12.185273170471191 3.3540353775024414 0.49783462285995483 0 9
20.354921340942383 12.161483764648438 3.3726046085357666 0.49509376287460327 0 9
20.455097198486328 12.097089767456055 3.38016939163208 0.7140408158302307 0 9
20.424570083618164 11.955644607543945 3.366227626800537 0.47718966007232666 0 9
19.70406150817871 11.415488243103027 3.2390060424804688 0.0545462891459465 0 9
20.31072235107422 11.6455078125 3.3301033973693848 0.48236581683158875 0 9
11.514238357543945 6.533339500427246 1.8830159902572632 0.9328562021255493 0 6
11.57884693145752 6.501484394073486 1.888794183731079 0.315529465675354 0 6
20.143827438354492 11.192167282104492 3.2777371406555176 0.49007269740104675 0 9
20.089237213134766 11.044120788574219 3.2607510089874268 0.4926256835460663 0 9
20.035058975219727 10.897539138793945 3.2439894676208496 0.49517109990119934 0 9
20.922714233398438 11.258984565734863 3.3794972896575928 0.6390158534049988 0 9
20.8653507232666 11.107636451721191 3.3621432781219482 0.6423141360282898 0 9
20.808496475219727 10.957792282104492 3.3450264930725098 0.6456006765365601 0 9
20.75224494934082 10.80947208404541 3.328148365020752 0.6488748788833618 0 9
20.696483612060547 10.662636756896973 3.3115005493164062 0.6521369814872742 0 9
21.51152229309082 10.960644721984863 3.43400239944458 0.386142373085022 0 9
21.335878372192383 10.750800132751465 3.39823317527771 0.39020752906799316 0 9
21.16386604309082 10.545292854309082 3.363257646560669 0.39426448941230774 0 9
20.995311737060547 10.343964576721191 3.3290634155273438 0.3983147144317627 0 9
21.8712100982666 10.653769493103027 3.4603281021118164 0.8990422487258911 0 9
21.871679306030273 10.532812118530273 3.4528908729553223 0.9009788632392883 0 9
21.850566864013672 10.402109146118164 3.4421541690826416 0.7351566553115845 0 9
21.80855369567871 10.262304306030273 3.4282424449920654 0.7381395101547241 0 9
21.766855239868164 10.123613357543945 3.4145150184631348 0.741107165813446 0 9
21.725488662719727 9.986035346984863 3.4009616374969482 0.7440606355667114 0 9
21.684492111206055 9.849531173706055 3.387585163116455 0.7469985485076904 0 9
23.38572120666504 10.495917320251465 3.645965814590454 0.30646586418151855 0 9
25.90980339050293 11.4893159866333 4.031399250030518 0.9947462677955627 0 9
25.97298812866211 11.378144264221191 4.033247470855713 0.9942900538444519 0 9
26.03626823425293 11.266874313354492 4.035177230834961 0.9938142895698547 0 9
31.040058135986328 13.267168045043945 4.801397800445557 0.7445216774940491 0 9
31.2007999420166 13.170585632324219 4.817074298858643 0.7420989871025085 0 9
31.362655639648438 13.073378562927246 4.83295202255249 0.7396606802940369 0 9
31.070838928222656 12.788378715515137 4.779093265533447 0.06588376313447952 0 9
31.265703201293945 12.704765319824219 4.8002471923828125 0.30850064754486084 0 9
31.024686813354492 12.444921493530273 4.754621982574463 0.31146109104156494 0 9
32.512264251708984 12.872538566589355 4.973692893981934 0.9252477288246155 0 9
32.62910079956055 12.749687194824219 4.982765197753906 0.9235639572143555 0 9
32.74634552001953 12.626386642456055 4.991961479187012 0.921862006187439 0 9
32.8640022277832 12.502616882324219 5.001289367675781 0.9201416373252869 0 9
32.98208999633789 12.378397941589355 5.010756969451904 0.9184036254882812 0 9
33.10060501098633 12.253690719604492 5.02035665512085 0.9166475534439087 0 9
33.616817474365234 12.2734956741333 5.090241432189941 0.9752708673477173 0 9
33.67472457885742 12.123671531677246 5.090723514556885 0.9751784801483154 0 9
33.60757827758789 11.929374694824219 5.072423934936523 0.5189851522445679 0 9
33.42644500732422 11.69644546508789 5.03711462020874 0.5226236581802368 0 9
33.24782943725586 11.466718673706055 5.002394199371338 0.5262507200241089 0 9
33.07169723510742 11.24013614654541 4.968249320983887 0.52986741065979 0 9
32.897987365722656 11.0166597366333 4.934681415557861 0.53347247838974 0 9
33.921913146972656 11.1904878616333 5.080679893493652 0.9681745767593384 0 9
33.9758186340332 11.03945255279541 5.081287384033203 0.9680594205856323 0 9
34.02972412109375 10.888359069824219 5.081990718841553 0.9679259657859802 0 9
34.08359146118164 10.73720645904541 5.082789897918701 0.9677740931510925 0 9
34.1374397277832 10.5859956741333 5.083682537078857 0.9676037430763245 0 9
34.17705154418945 10.430371284484863 5.082553386688232 0.06654210388660431 0 9
34.24509811401367 10.283378601074219 5.08575963973999 0.9672079682350159 0 9
34.298885345458984 10.131933212280273 5.086949825286865 0.9669824838638306 0 9
39.62419891357422 11.511933326721191 5.869032859802246 0.9143743515014648 0 9
39.608280181884766 11.314824104309082 5.8590989112854 0.9159249663352966 0 9
39.59246063232422 11.11832046508789 5.849315166473389 0.9174569249153137 0 9
39.57666015625 10.922499656677246 5.839680194854736 0.9189704060554504 0 9
40.17802810668945 10.894648551940918 5.92113733291626 0.9424980878829956 0 9
40.25277328491211 10.721230506896973 5.924998760223389 0.9418833255767822 0 9
46.92451095581055 12.27294921875 6.898874282836914 0.8909095525741577 0 9
47.08572006225586 12.089609146118164 6.914535999298096 0.8888919353485107 0 9
47.20083999633789 11.8936128616333 6.923521518707275 0.9729628562927246 0 9
47.263397216796875 11.684042930603027 6.924944877624512 0.97276371717453 0 9
47.57374954223633 11.534472465515137 6.962762355804443 0.8827347159385681 0 9
47.73794937133789 11.347695350646973 6.979262351989746 0.8806475400924683 0 9
46.507225036621094 10.83486270904541 6.79216194152832 0.3236381411552429 0 9
47.047088623046875 10.738222122192383 6.863894939422607 0.32025596499443054 0 9
48.324607849121094 10.347363471984863 7.029300212860107 0.17576518654823303 0 9
47.29033279418945 9.904120445251465 6.872317790985107 0.17978012561798096 0 9
33.7282600402832 -3.03564453125 4.816657066345215 0.9528162479400635 0 6
41.08849334716797 -7.838105201721191 5.949660301208496 0.6457669138908386 0 3
41.08201217651367 -8.028124809265137 5.953877925872803 0.6453098058700562 0 3
41.07533264160156 -8.218379020690918 5.958198070526123 0.6448420882225037 0 3
39.27433395385742 -8.04150390625 5.702114105224609 0.19868691265583038 0 3
38.396934509277344 -8.0415620803833 5.579934120178223 0.20303815603256226 0 3
37.74966812133789 -8.083026885986328 5.491078853607178 0.41241222620010376 0 3
37.347381591796875 -8.17236328125 5.437849998474121 0.41606682538986206 0 3
37.045448303222656 -8.28066349029541 5.399239540100098 0.9856797456741333 0 3
37.02579879760742 -8.450957298278809 5.401845455169678 0.9633892178535461 0 3
37.02597427368164 -8.6259765625 5.407471656799316 0.9623878002166748 0 3
37.02619171142578 -8.801405906677246 5.413210391998291 0.9613670110702515 0 3
37.0263671875 -8.97720718383789 5.419073581695557 0.9603267312049866 0 3
37.026580810546875 -9.153417587280273 5.425060749053955 0.9592670202255249 0 3
37.026580810546875 -9.329940795898438 5.431146144866943 0.9597923159599304 0 3
37.02661895751953 -9.506855010986328 5.437354564666748 0.9586965441703796 0 3
37.02666091918945 -9.684199333190918 5.443688869476318 0.9575815200805664 0 3
37.02667999267578 -9.86197280883789 5.450141429901123 0.9564471244812012 0 3
37.02669906616211 -10.040156364440918 5.456722259521484 0.955293595790863 0 3
37.026737213134766 -10.218769073486328 5.463432312011719 0.9541206955909729 0 3
37.026756286621094 -10.397831916809082 5.470264911651611 0.9529286623001099 0 3
37.02677536010742 -10.577343940734863 5.477229118347168 0.9517173767089844 0 3
37.02679443359375 -10.75732421875 5.484324932098389 0.9504867792129517 0 3
37.02683639526367 -10.937792778015137 5.491544246673584 0.9492371082305908 0 3
37.026893615722656 -11.118730545043945 5.498886585235596 0.9479684829711914 0 3
36.51179504394531 -11.142929077148438 5.429765701293945 0.28908035159111023 0 3
35.933555603027344 -11.142949104309082 5.351153373718262 0.2933270335197449 0 3
35.57986068725586 -11.2085542678833 5.305927753448486 0.944047749042511 0 3
35.04665756225586 -11.213749885559082 5.233869552612305 0.30180269479751587 0 3
34.294921875 -11.143144607543945 5.12900972366333 0.3060329854488373 0 3
33.77849578857422 -11.143183708190918 5.059208393096924 0.310253381729126 0 3
33.27595520019531 -11.14322280883789 4.991391181945801 0.3144693076610565 0 3
33.1237678527832 -11.257851600646973 4.9760847091674805 0.9371331930160522 0 3
33.12380599975586 -11.423964500427246 4.983737945556641 0.9356935024261475 0 3
30.023866653442383 -10.505839347839355 4.5243754386901855 0.32693225145339966 0 3
29.597030639648438 -10.505800247192383 4.467109680175781 0.3311229944229126 0 3
29.18083953857422 -10.505781173706055 4.411365985870361 0.3353073298931122 0 3
28.586620330810547 -10.436991691589355 4.328575611114502 0.9297987818717957 0 3
28.51480484008789 -10.55605411529541 4.324828624725342 0.34365522861480713 0 3
27.78923797607422 -10.429511070251465 4.221840858459473 0.9267151355743408 0 3
27.614843368530273 -10.505682945251465 4.202469825744629 0.35197529196739197 0 3
27.24625015258789 -10.505663871765137 4.153507232666016 0.35612449049949646 0 3
26.886093139648438 -10.505643844604492 4.105747699737549 0.3602667450904846 0 3
26.534120559692383 -10.505624771118164 4.059160232543945 0.3644019365310669 0 3
26.190038681030273 -10.505605697631836 4.01369571685791 0.3685295283794403 0 3
25.853593826293945 -10.505585670471191 3.96931791305542 0.3726496696472168 0 3
25.524471282958984 -10.505566596984863 3.9259915351867676 0.37676239013671875 0 3
25.19222640991211 -10.501288414001465 3.882101058959961 0.9136331081390381 0 3
25.006542205810547 -10.555859565734863 3.8607399463653564 0.3849649131298065 0 3
24.38423728942871 -10.422343254089355 3.771880626678467 0.3890543580055237 0 3
24.264179229736328 -10.5000581741333 3.760556936264038 0.9084231853485107 0 3
23.98080062866211 -10.505468368530273 3.723881483078003 0.39721089601516724 0 3
23.69091796875 -10.505449295043945 3.6861512660980225 0.4012768864631653 0 3
23.40687370300293 -10.505449295043945 3.649250030517578 0.40533438324928284 0 3
23.12837791442871 -10.505410194396973 3.613149642944336 0.40938451886177063 0 3
22.968769073486328 -10.557538986206055 3.595576286315918 0.8993726372718811 0 3
22.968788146972656 -10.682656288146973 3.603041648864746 0.8975081443786621 0 3
22.968788146972656 -10.808300971984863 3.6106221675872803 0.8956254720687866 0 3
22.968769073486328 -10.93447208404541 3.6182985305786133 0.8937249183654785 0 3
22.968788146972656 -11.061210632324219 3.6260855197906494 0.8918062448501587 0 3
22.89890480041504 -11.154433250427246 3.622925043106079 0.8898696899414062 0 3
23.030546188354492 -11.346718788146973 3.651763439178467 0.8879149556159973 0 3
23.030527114868164 -11.475468635559082 3.659895896911621 0.8859425783157349 0 3
23.030527114868164 -11.604784965515137 3.668137311935425 0.8839523196220398 0 3
23.030546188354492 -11.734667778015137 3.6764888763427734 0.8819443583488464 0 3
23.030527114868164 -11.865156173706055 3.684948444366455 0.87991863489151 0 3
23.030546188354492 -11.996289253234863 3.6935293674468994 0.8778748512268066 0 3
23.03056526184082 -12.1279878616333 3.702223777770996 0.8758136630058289 0 3
23.03056526184082 -12.2603120803833 3.711028575897217 0.8737347722053528 0 3
23.030546188354492 -12.393320083618164 3.719956874847412 0.8716381192207336 0 3
22.898963928222656 -12.455331802368164 3.7076923847198486 0.8695240616798401 0 3
22.968828201293945 -12.627245903015137 3.728144645690918 0.8673926591873169 0 3
22.968847274780273 -12.761836051940918 3.7374050617218018 0.8652434945106506 0 3
22.968847274780273 -12.897069931030273 3.746788501739502 0.86307692527771 0 3
22.9688663482666 -13.033026695251465 3.7562942504882812 0.8608930706977844 0 3
22.968847274780273 -13.169628143310547 3.765920639038086 0.8586919903755188 0 3
22.96888542175293 -13.30697250366211 3.77567720413208 0.8564733862876892 0 3
22.96890640258789 -13.445018768310547 3.785557508468628 0.85423743724823 0 3
22.877519607543945 -13.529765129089355 3.7804696559906006 0.851984441280365 0 3
23.011444091796875 -13.748729705810547 3.8127615451812744 0.8497141599655151 0 3
23.011465072631836 -13.889238357543945 3.8230502605438232 0.8474271297454834 0 3
23.011465072631836 -14.030546188354492 3.833479166030884 0.8451226353645325 0 3
23.011465072631836 -14.172616958618164 3.8440358638763428 0.842801034450531 0 3
23.011465072631836 -14.315448760986328 3.8547322750091553 0.8404627442359924 0 3
22.8775577545166 -14.374979972839355 3.8430867195129395 0.8381073474884033 0 3
22.968944549560547 -14.57656192779541 3.8693654537200928 0.8357354998588562 0 3
22.968963623046875 -14.721601486206055 3.880459785461426 0.8333463072776794 0 3
22.968963623046875 -14.867441177368164 3.8916914463043213 0.8309406042098999 0 3
22.968984603881836 -15.01416015625 3.903074026107788 0.8285180926322937 0 3
22.968963623046875 -15.161718368530273 3.9145925045013428 0.8260790109634399 0 3
22.968984603881836 -15.310155868530273 3.9262642860412598 0.8236230611801147 0 3
22.899120330810547 -15.412460327148438 3.926123857498169 0.8211504220962524 0 3
23.03074073791504 -15.65169906616211 3.9606807231903076 0.818661630153656 0 3
23.03074073791504 -15.8032808303833 3.9728400707244873 0.8161560297012329 0 3
23.03074073791504 -15.955780982971191 3.985153913497925 0.8136342167854309 0 3
23.03076171875 -16.109237670898438 3.9976284503936768 0.8110955953598022 0 3
22.953554153442383 -16.20911979675293 3.9968349933624268 0.5710440874099731 0 3
22.96906280517578 -16.375059127807617 4.012263774871826 0.8059702515602112 0 3
22.96904182434082 -16.531034469604492 4.025184154510498 0.803382933139801 0 3
22.96908187866211 -16.688026428222656 4.038270950317383 0.8007796406745911 0 3
22.96908187866211 -16.846054077148438 4.051529884338379 0.7981601357460022 0 3
22.96908187866211 -17.005077362060547 4.06494140625 0.7955247163772583 0 3
22.873046875 -17.093475341796875 4.061478614807129 0.7928730249404907 0 3
22.969120025634766 -17.326444625854492 4.0923075675964355 0.7902054190635681 0 3
22.969120025634766 -17.48872947692871 4.106258869171143 0.78752201795578 0 3
22.969120025634766 -17.65214729309082 4.12037992477417 0.7848224639892578 0 3
22.969141006469727 -17.81669807434082 4.134681224822998 0.782107412815094 0 3
22.873125076293945 -17.90718650817871 4.131821632385254 0.7793763875961304 0 3
22.969160079956055 -18.149276733398438 4.163848876953125 0.7766296863555908 0 3
22.96919822692871 -18.317304611206055 4.178709506988525 0.7738673686981201 0 3
22.969179153442383 -18.486562728881836 4.1937575340271 0.771089494228363 0 3
22.8731632232666 -18.57906150817871 4.191414833068848 0.7682958245277405 0 3
22.96923828125 -18.828807830810547 4.2244553565979 0.7654874920845032 0 3
22.96923828125 -19.00179672241211 4.2400970458984375 0.7626632452011108 0 3
22.969257354736328 -19.17609405517578 4.255946159362793 0.7598235011100769 0 3
22.969276428222656 -19.35169792175293 4.271992206573486 0.7569684386253357 0 3
22.969276428222656 -19.52863311767578 4.2882609367370605 0.754098117351532 0 3
22.87322235107422 -19.624549865722656 4.2867431640625 0.751211941242218 0 3
22.969276428222656 -19.886600494384766 4.321413040161133 0.748310923576355 0 3
22.969316482543945 -20.06771469116211 4.338325023651123 0.7453949451446533 0 3
22.969335556030273 -20.250213623046875 4.355448246002197 0.7424641847610474 0 3
27.872011184692383 -24.79572296142578 5.306139945983887 0.6580049395561218 0 3
27.621328353881836 -24.79570198059082 5.279552936553955 0.6613181829452515 0 3
27.37320327758789 -24.795682907104492 5.253344535827637 0.6646179556846619 0 3
27.127479553222656 -24.795663833618164 5.227493762969971 0.667904794216156 0 3
26.884199142456055 -24.795663833618164 5.202002048492432 0.6711775660514832 0 3
26.643260955810547 -24.795644760131836 5.176857948303223 0.6744372844696045 0 3
26.40460968017578 -24.795623779296875 5.152061462402344 0.6776832938194275 0 3
26.16826057434082 -24.795623779296875 5.12760591506958 0.6809156537055969 0 3
25.934139251708984 -24.795623779296875 5.103484153747559 0.684134304523468 0 3
25.702186584472656 -24.79558563232422 5.079684734344482 0.6873389482498169 0 3
25.472402572631836 -24.79556655883789 5.056210517883301 0.6905298233032227 0 3
25.244726181030273 -24.79558563232422 5.033060073852539 0.6937068700790405 0 3
25.019100189208984 -24.79554557800293 5.010212421417236 0.6968697905540466 0 3
16.68050765991211 16.68048858642578 2.9561848640441895 0.9215532541275024 0 9
16.77958869934082 16.629589080810547 2.960484266281128 0.9202151298522949 0 9
16.87890625 16.57857322692871 2.964855670928955 0.9188583493232727 0 9
16.978593826293945 16.527381896972656 2.9693007469177246 0.9174824953079224 0 9
17.078554153442383 16.47607421875 2.9738240242004395 0.9160879254341125 0 9
17.178789138793945 16.42462921142578 2.9784188270568848 0.9146747589111328 0 9
17.2794132232666 16.372987747192383 2.983088731765747 0.913242518901825 0 9
17.38033103942871 16.321170806884766 2.98783540725708 0.911791980266571 0 9
17.48158073425293 16.26921844482422 2.9926583766937256 0.910322368144989 0 9
17.58314323425293 16.21712875366211 2.99756121635437 0.9088343381881714 0 9
17.685039520263672 16.16488265991211 3.002537488937378 0.9073277115821838 0 9
17.787343978881836 16.112401962280273 3.0075912475585938 0.9058021903038025 0 9
17.88996124267578 16.059823989868164 3.012726068496704 0.9042581915855408 0 9
17.992948532104492 16.00701141357422 3.0179452896118164 0.9026954770088196 0 9
18.09636688232422 15.954023361206055 3.023238182067871 0.9011144638061523 0 9
18.200077056884766 15.900858879089355 3.0286171436309814 0.89951491355896 0 9
18.30415916442871 15.847518920898438 3.034071207046509 0.897896945476532 0 9
18.408613204956055 15.794042587280273 3.0396101474761963 0.8962606191635132 0 9
21.354862213134766 18.15605354309082 3.512598991394043 0.3109138011932373 0 9
21.152812957763672 17.821327209472656 3.466175079345703 0.3150780498981476 0 9
20.956073760986328 17.495351791381836 3.421032428741455 0.3192354738712311 0 9
20.764432907104492 17.177831649780273 3.377129077911377 0.3233858346939087 0 9
30.72265625 25.1845703125 4.978297233581543 0.5774956345558167 0 9
30.946189880371094 25.13640594482422 4.99617862701416 0.5754281878471375 0 9
23.01869010925293 18.5263671875 3.702849864959717 0.5646675229072571 0 9
23.233261108398438 18.527851104736328 3.723952293395996 0.561467707157135 0 9
23.450292587280273 18.5294132232666 3.7453773021698 0.558256208896637 0 9
23.66990089416504 18.530975341796875 3.7671267986297607 0.5550325512886047 0 9
17.86197280883789 13.85513687133789 2.832857370376587 0.7142079472541809 0 9
17.98369026184082 13.82070255279541 2.8422915935516357 0.7118372321128845 0 9
18.10613250732422 13.786015510559082 2.8518385887145996 0.7094537019729614 0 9
18.229394912719727 13.751073837280273 2.861506700515747 0.7070574164390564 0 9
18.353496551513672 13.7158784866333 2.871291160583496 0.7046476602554321 0 9
18.478378295898438 13.680370330810547 2.8811960220336914 0.7022256851196289 0 9
18.604101181030273 13.644648551940918 2.8912179470062256 0.6997907161712646 0 9
18.73064422607422 13.608613014221191 2.901369333267212 0.6973428130149841 0 9
18.85808563232422 13.572265625 2.9116439819335938 0.6948825120925903 0 9
18.986385345458984 13.535683631896973 2.922041177749634 0.6924093961715698 0 9
19.11556625366211 13.498807907104492 2.932568073272705 0.6899234652519226 0 9
19.245624542236328 13.461620330810547 2.9432284832000732 0.6874253153800964 0 9
19.37664031982422 13.424120903015137 2.954016923904419 0.6849146485328674 0 9
19.433807373046875 13.335097312927246 2.953583002090454 0.490736186504364 0 9
19.341991424560547 13.144804000854492 2.930630683898926 0.4945791959762573 0 9
19.2515811920166 12.957460403442383 2.9080984592437744 0.4984116554260254 0 9
19.162616729736328 12.772968292236328 2.88596773147583 0.5022339820861816 0 9
19.074960708618164 12.591249465942383 2.864222764968872 0.5060467720031738 0 9
18.837928771972656 12.313788414001465 2.8203065395355225 0.11057984828948975 0 9
18.903554916381836 12.235957145690918 2.8218801021575928 0.5136396288871765 0 9
19.459941864013672 12.472518920898438 2.896557331085205 0.10766919702291489 0 9
19.78435516357422 12.555526733398438 2.9364211559295654 0.10620731860399246 0 9
20.11833953857422 12.6411714553833 2.97754168510437 0.10474058985710144 0 9
20.368690490722656 12.671327590942383 3.006147623062134 0.839776873588562 0 9
19.513574600219727 12.018202781677246 2.8719515800476074 0.5133796334266663 0 9
19.67167854309082 11.994159698486328 2.8872690200805664 0.5106557011604309 0 9
19.83154296875 11.969902038574219 2.9028217792510986 0.5079201459884644 0 9
19.9931640625 11.9453706741333 2.9186055660247803 0.5051730871200562 0 9
20.156660079956055 11.920605659484863 2.9346280097961426 0.5024145841598511 0 9
20.322011947631836 11.895625114440918 2.9509005546569824 0.49964433908462524 0 9
20.489238739013672 11.870370864868164 2.9674220085144043 0.49686285853385925 0 9
20.658416748046875 11.84488296508789 2.9841928482055664 0.49407029151916504 0 9
11.513261795043945 6.532793045043945 1.6588780879974365 0.9346769452095032 0 6
11.577070236206055 6.500507831573486 1.6638531684875488 0.31595176458358765 0 6
20.650096893310547 11.473417282104492 2.9603970050811768 0.4791230857372284 0 9
20.591405868530273 11.320175170898438 2.9446699619293213 0.4816819429397583 0 9
21.139041900634766 11.498026847839355 3.0155818462371826 0.6323468089103699 0 9
21.079862594604492 11.343534469604492 2.999840259552002 0.6356646418571472 0 9
21.021209716796875 11.190625190734863 2.9843246936798096 0.6389703750610352 0 9
20.96318244934082 11.039237976074219 2.969017505645752 0.6422642469406128 0 9
20.905683517456055 10.889413833618164 2.9539260864257812 0.6455457806587219 0 9
20.84876823425293 10.741073608398438 2.939042568206787 0.6488150954246521 0 9
20.792383193969727 10.59423828125 2.924363136291504 0.6520718932151794 0 9
21.48810577392578 10.827519416809082 3.0153450965881348 0.3883059024810791 0 9
21.313241958618164 10.619746208190918 2.9840919971466064 0.3923725485801697 0 9
21.14204978942871 10.416230201721191 2.9535434246063232 0.3964311182498932 0 9
20.974199295043945 10.216815948486328 2.923661708831787 0.40048280358314514 0 9
25.52017593383789 12.289804458618164 3.5496127605438232 0.9975839257240295 0 9
25.583261489868164 12.17904281616211 3.550748586654663 0.997265100479126 0 9
31.664297103881836 14.900096893310547 4.385425567626953 0.5424919724464417 0 9
31.871639251708984 14.823320388793945 4.404882431030273 0.5400956869125366 0 9
32.08074188232422 14.745800018310547 4.424590110778809 0.5376901030540466 0 9
32.291622161865234 14.667519569396973 4.444549560546875 0.5352757573127747 0 9
31.79769515991211 14.27138614654541 4.3677077293396 0.7316851019859314 0 9
30.375253677368164 13.469531059265137 4.163976669311523 0.7580524682998657 0 9
30.531307220458984 13.3750581741333 4.177088737487793 0.7556720972061157 0 9
30.68829917907715 13.28001880645752 4.1903839111328125 0.753275990486145 0 9
30.846405029296875 13.184374809265137 4.203840732574463 0.7508638501167297 0 9
31.0054874420166 13.08812427520752 4.2174763679504395 0.7484358549118042 0 9
31.16568374633789 12.9912691116333 4.231289386749268 0.7459923624992371 0 9
31.091249465942383 12.79677677154541 4.2133588790893555 0.06598707288503647 0 9
32.28285217285156 13.118104934692383 4.366808891296387 0.23865897953510284 0 9
31.76693344116211 12.742636680603027 4.289247035980225 0.24297519028186798 0 9
31.268943786621094 12.38027286529541 4.21446418762207 0.24728626012802124 0 9
33.04916000366211 12.913846969604492 4.446544170379639 0.8950062990188599 0 9
33.16013717651367 12.785956382751465 4.453706741333008 0.893566370010376 0 9
33.27150344848633 12.657655715942383 4.460982799530029 0.892108142375946 0 9
33.383201599121094 12.528944969177246 4.468379020690918 0.8906314373016357 0 9
33.49531173706055 12.399824142456055 4.475897312164307 0.8891363739967346 0 9
33.60784912109375 12.27025318145752 4.4835333824157715 0.8876227736473083 0 9
33.71859359741211 12.13949203491211 4.490988254547119 0.9601947665214539 0 9
33.81068420410156 12.001444816589355 4.496031284332275 0.9591183662414551 0 9
33.25 11.634706497192383 4.414488315582275 0.5265662670135498 0 9
35.67417907714844 12.30355453491211 4.728960037231445 0.7747228741645813 0 9
35.84978485107422 12.184335708618164 4.744946002960205 0.7721136808395386 0 9
36.026580810546875 12.064335823059082 4.761128902435303 0.7694887518882751 0 9
36.20460891723633 11.943534851074219 4.77752161026001 0.7668479084968567 0 9
36.37158203125 11.817851066589355 4.792510032653809 0.7346025109291077 0 9
36.27556610107422 11.60693359375 4.772945880889893 0.737613320350647 0 9
36.18033218383789 11.397714614868164 4.753637790679932 0.740609347820282 0 9
36.08585739135742 11.19017505645752 4.734582901000977 0.7435909509658813 0 9
35.99212646484375 10.984315872192383 4.71576452255249 0.7465574741363525 0 9
35.89912033081055 10.780019760131836 4.697190284729004 0.7495092749595642 0 9
35.80683517456055 10.577363014221191 4.678856372833252 0.7524460554122925 0 9
39.21443176269531 11.392889976501465 5.117396354675293 0.6000118851661682 0 9
39.39955139160156 11.255175590515137 5.134910583496094 0.5979655385017395 0 9
39.585819244384766 11.116464614868164 5.15263032913208 0.5959091186523438 0 9
39.77322006225586 10.976758003234863 5.170568943023682 0.5938423275947571 0 9
39.961875915527344 10.836054801940918 5.188713073730469 0.5917653441429138 0 9
46.09978485107422 12.278573989868164 5.97844934463501 0.682383120059967 0 9
46.28046798706055 12.104511260986328 5.994779109954834 0.6805242300033569 0 9
46.46205139160156 11.929471969604492 6.01130485534668 0.6786535978317261 0 9
46.983280181884766 11.838808059692383 6.071811199188232 0.6107442378997803 0 9
46.35431671142578 11.459296226501465 5.98380708694458 0.3243785500526428 0 9
46.79159927368164 11.344804763793945 6.033627986907959 0.6146087646484375 0 9
46.69644546508789 11.10009765625 6.01487398147583 0.6165251731872559 0 9
47.59507751464844 11.088300704956055 6.124159812927246 0.6293575763702393 0 9
47.39642333984375 10.817968368530273 6.092283725738525 0.6326502561569214 0 9
47.19984436035156 10.550468444824219 6.060867786407471 0.635929524898529 0 9
47.93757629394531 10.489686965942383 6.149495601654053 0.9672678112983704 0 9
