ply
format ascii 1.0
element vertex 1343
property float32 x
property float32 y
property float32 z
property float32 CosAngle
property uint32 ObjIdx
property uint32 ObjTag
end_header
1.3469 0.2948 -0.4280 0.1905 458 14
1.3463 0.2978 -0.4280 0.1905 458 14
1.3458 0.3008 -0.4280 0.1905 458 14
1.3452 0.3038 -0.4281 0.1905 458 14
1.3446 0.3069 -0.4281 0.1905 458 14
1.3440 0.3099 -0.4281 0.1904 458 14
1.3434 0.3130 -0.4281 0.1904 458 14
1.3428 0.3160 -0.4282 0.1904 458 14
1.3421 0.3190 -0.4282 0.1904 458 14
1.3415 0.3221 -0.4282 0.1904 458 14
1.3409 0.3251 -0.4283 0.1904 458 14
1.3402 0.3281 -0.4283 0.1904 458 14
1.3396 0.3312 -0.4283 0.1904 458 14
1.3388 0.3342 -0.4283 0.1904 458 14
1.3382 0.3372 -0.4283 0.1903 458 14
1.3375 0.3402 -0.4284 0.1903 458 14
1.3368 0.3432 -0.4284 0.1903 458 14
1.3361 0.3462 -0.4284 0.1903 458 14
1.3353 0.3493 -0.4284 0.1903 458 14
1.3346 0.3523 -0.4284 0.1903 458 14
1.3338 0.3553 -0.4284 0.1903 458 14
1.3330 0.3582 -0.4285 0.1903 458 14
1.3323 0.3613 -0.4285 0.1903 458 14
1.3315 0.3643 -0.4285 0.1903 458 14
1.3307 0.3672 -0.4285 0.1903 458 14
1.3299 0.3703 -0.4285 0.1903 458 14
1.3291 0.3732 -0.4285 0.1903 458 14
1.3282 0.3762 -0.4285 0.1903 458 14
1.3275 0.3792 -0.4285 0.1903 458 14
1.3266 0.3822 -0.4285 0.1903 458 14
1.3257 0.3852 -0.4285 0.1903 458 14
1.3248 0.3882 -0.4285 0.1903 458 14
1.3240 0.3911 -0.4285 0.1903 458 14
1.3231 0.3941 -0.4285 0.1903 458 14
1.3222 0.3970 -0.4285 0.1903 458 14
1.3213 0.4000 -0.4285 0.1903 458 14
1.3204 0.4030 -0.4285 0.1903 458 14
1.3194 0.4059 -0.4285 0.1903 458 14
1.3185 0.4089 -0.4285 0.1903 458 14
1.3176 0.4118 -0.4285 0.1903 458 14
1.3166 0.4148 -0.4285 0.1903 458 14
1.3156 0.4177 -0.4284 0.1903 458 14
1.3146 0.4206 -0.4284 0.1903 458 14
1.3137 0.4236 -0.4284 0.1903 458 14
1.3126 0.4265 -0.4284 0.1903 458 14
1.3116 0.4294 -0.4284 0.1903 458 14
1.3106 0.4324 -0.4284 0.1903 458 14
1.3096 0.4353 -0.4283 0.1903 458 14
1.3085 0.4382 -0.4283 0.1904 458 14
1.3075 0.4411 -0.4283 0.1904 458 14
1.3064 0.4440 -0.4283 0.1904 458 14
1.3054 0.4469 -0.4283 0.1904 458 14
1.3043 0.4498 -0.4282 0.1904 458 14
1.3032 0.4527 -0.4282 0.1904 458 14
1.3021 0.4556 -0.4282 0.1904 458 14
1.3010 0.4586 -0.4282 0.1904 458 14
1.2998 0.4614 -0.4281 0.1904 458 14
1.2987 0.4643 -0.4281 0.1905 458 14
1.2976 0.4671 -0.4281 0.1905 458 14
1.2964 0.4700 -0.4280 0.1905 458 14
1.2953 0.4729 -0.4280 0.1905 458 14
1.2941 0.4758 -0.4280 0.1905 458 14
1.2929 0.4786 -0.4279 0.1905 458 14
1.2917 0.4815 -0.4279 0.1905 458 14
1.2905 0.4843 -0.4279 0.1906 458 14
1.2893 0.4872 -0.4278 0.1909 458 14
1.2881 0.4900 -0.4278 0.1910 458 14
1.2869 0.4929 -0.4277 0.1910 458 14
1.2857 0.4957 -0.4277 0.1910 458 14
1.2844 0.4986 -0.4277 0.1910 458 14
1.2832 0.5014 -0.4276 0.1910 458 14
1.2819 0.5043 -0.4276 0.1910 458 14
1.2806 0.5070 -0.4275 0.1911 458 14
1.2794 0.5099 -0.4275 0.1911 458 14
1.2781 0.5127 -0.4274 0.1911 458 14
1.2768 0.5155 -0.4274 0.1911 458 14
1.2755 0.5183 -0.4273 0.1912 458 14
1.2741 0.5211 -0.4273 0.1912 458 14
1.2728 0.5239 -0.4272 0.1912 458 14
1.2714 0.5267 -0.4272 0.1912 458 14
1.2702 0.5294 -0.4271 0.1913 458 14
1.2688 0.5322 -0.4271 0.1913 458 14
1.2674 0.5350 -0.4270 0.1913 458 14
1.2661 0.5378 -0.4269 0.1913 458 14
1.2647 0.5405 -0.4269 0.1914 458 14
1.2633 0.5433 -0.4268 0.1914 458 14
1.2619 0.5460 -0.4268 0.1914 458 14
1.2604 0.5488 -0.4267 0.1914 458 14
1.2590 0.5515 -0.4266 0.1915 458 14
1.2576 0.5543 -0.4266 0.1915 458 14
1.2561 0.5570 -0.4265 0.1915 458 14
1.2547 0.5597 -0.4264 0.1916 458 14
1.2532 0.5625 -0.4264 0.1916 458 14
1.2518 0.5652 -0.4263 0.1916 458 14
1.2503 0.5679 -0.4262 0.1916 458 14
1.2488 0.5706 -0.4262 0.1917 458 14
1.2473 0.5733 -0.4261 0.1917 458 14
1.2458 0.5760 -0.4260 0.1917 458 14
1.2443 0.5787 -0.4259 0.1918 458 14
1.2428 0.5814 -0.4259 0.1918 458 14
1.2412 0.5841 -0.4258 0.1918 458 14
1.2397 0.5867 -0.4257 0.1919 458 14
1.2382 0.5894 -0.4256 0.1919 458 14
1.2366 0.5921 -0.4256 0.1920 458 14
1.2350 0.5947 -0.4255 0.1920 458 14
1.2334 0.5974 -0.4254 0.1920 458 14
1.2318 0.6000 -0.4253 0.1921 458 14
1.2303 0.6027 -0.4252 0.1921 458 14
1.2286 0.6053 -0.4251 0.1921 458 14
1.2270 0.6079 -0.4250 0.1922 458 14
1.2254 0.6106 -0.4250 0.1922 458 14
1.2238 0.6132 -0.4249 0.1923 458 14
1.2221 0.6158 -0.4248 0.1923 458 14
1.2205 0.6184 -0.4247 0.1923 458 14
1.2188 0.6210 -0.4246 0.1924 458 14
1.2172 0.6236 -0.4245 0.1924 458 14
1.2155 0.6262 -0.4244 0.1925 458 14
1.2138 0.6288 -0.4243 0.1925 458 14
1.2121 0.6314 -0.4242 0.1926 458 14
1.2104 0.6339 -0.4241 0.1926 458 14
1.2087 0.6365 -0.4240 0.1926 458 14
1.2070 0.6390 -0.4239 0.1927 458 14
1.2052 0.6416 -0.4238 0.1927 458 14
1.2035 0.6442 -0.4237 0.1928 458 14
1.2018 0.6467 -0.4236 0.1928 458 14
1.2000 0.6493 -0.4235 0.1929 458 14
1.1983 0.6518 -0.4234 0.1929 458 14
1.1965 0.6543 -0.4233 0.1930 458 14
1.1947 0.6568 -0.4232 0.1930 458 14
1.1929 0.6593 -0.4231 0.1931 458 14
1.1912 0.6618 -0.4230 0.1931 458 14
1.1894 0.6643 -0.4229 0.1932 458 14
1.1875 0.6668 -0.4227 0.1932 458 14
1.1857 0.6693 -0.4226 0.1933 458 14
1.1839 0.6718 -0.4225 0.1933 458 14
1.1821 0.6742 -0.4224 0.1934 458 14
1.1802 0.6767 -0.4223 0.1934 458 14
1.1784 0.6792 -0.4222 0.1935 458 14
1.1765 0.6816 -0.4220 0.1935 458 14
1.1746 0.6840 -0.4219 0.1936 458 14
1.1728 0.6865 -0.4218 0.1937 458 14
1.1709 0.6889 -0.4217 0.1937 458 14
1.1690 0.6913 -0.4216 0.1938 458 14
1.1671 0.6937 -0.4214 0.1938 458 14
1.1652 0.6962 -0.4213 0.1939 458 14
1.1633 0.6986 -0.4212 0.1939 458 14
1.1614 0.7010 -0.4211 0.1940 458 14
1.1595 0.7034 -0.4209 0.1941 458 14
1.1575 0.7058 -0.4208 0.1941 458 14
1.1556 0.7082 -0.4207 0.1942 458 14
1.1536 0.7105 -0.4205 0.1942 458 14
1.1533 0.7139 -0.4210 0.1308 458 14
1.1531 0.7174 -0.4215 0.1307 458 14
1.1529 0.7208 -0.4220 0.1305 458 14
1.1527 0.7243 -0.4226 0.1304 458 14
1.1525 0.7278 -0.4231 0.1302 458 14
1.1523 0.7312 -0.4236 0.1300 458 14
1.1520 0.7347 -0.4241 0.1299 458 14
1.1517 0.7382 -0.4246 0.1297 458 14
1.1514 0.7417 -0.4251 0.1296 458 14
1.1512 0.7451 -0.4256 0.1294 458 14
1.1509 0.7486 -0.4261 0.1293 458 14
1.1506 0.7521 -0.4266 0.1291 458 14
1.1502 0.7556 -0.4272 0.1290 458 14
1.1499 0.7590 -0.4277 0.1288 458 14
1.1495 0.7625 -0.4282 0.1287 458 14
1.1491 0.7660 -0.4287 0.1285 458 14
1.1487 0.7694 -0.4292 0.1284 458 14
1.1483 0.7729 -0.4296 0.1282 458 14
1.1479 0.7763 -0.4301 0.1281 458 14
1.1475 0.7798 -0.4306 0.1279 458 14
1.1470 0.7832 -0.4311 0.1278 458 14
1.1466 0.7867 -0.4316 0.1276 458 14
1.1461 0.7902 -0.4321 0.1275 458 14
1.1456 0.7937 -0.4326 0.1273 458 14
1.1451 0.7971 -0.4331 0.1272 458 14
1.1446 0.8006 -0.4336 0.1270 458 14
1.1441 0.8041 -0.4340 0.1269 458 14
1.1436 0.8076 -0.4346 0.1301 458 14
1.1432 0.8112 -0.4351 0.1299 458 14
1.1428 0.8148 -0.4356 0.1298 458 14
1.1424 0.8183 -0.4362 0.1296 458 14
1.1420 0.8219 -0.4367 0.1294 458 14
1.1415 0.8254 -0.4372 0.1293 458 14
1.1410 0.8290 -0.4378 0.1291 458 14
1.1406 0.8326 -0.4383 0.1290 458 14
1.1401 0.8361 -0.4388 0.1288 458 14
1.1396 0.8397 -0.4394 0.1287 458 14
1.1390 0.8432 -0.4399 0.1285 458 14
1.1385 0.8468 -0.4404 0.1284 458 14
1.1379 0.8504 -0.4409 0.1282 458 14
1.1373 0.8540 -0.4415 0.1281 458 14
1.1368 0.8575 -0.4420 0.1279 458 14
1.1362 0.8611 -0.4425 0.1278 458 14
1.1356 0.8646 -0.4430 0.1276 458 14
1.1350 0.8682 -0.4435 0.1275 458 14
1.1343 0.8717 -0.4440 0.1273 458 14
1.1336 0.8753 -0.4446 0.1272 458 14
1.1330 0.8788 -0.4451 0.1270 458 14
1.1323 0.8824 -0.4456 0.1269 458 14
1.1316 0.8859 -0.4461 0.1267 458 14
1.1309 0.8895 -0.4466 0.1266 458 14
1.1302 0.8930 -0.4471 0.1264 458 14
1.1295 0.8965 -0.4476 0.1263 458 14
1.1287 0.9001 -0.4481 0.1262 458 14
1.1279 0.9036 -0.4486 0.1260 458 14
1.1271 0.9071 -0.4491 0.1259 458 14
1.1263 0.9107 -0.4496 0.1257 458 14
1.1255 0.9142 -0.4501 0.1256 458 14
1.1247 0.9177 -0.4506 0.1255 458 14
1.1238 0.9212 -0.4510 0.1253 458 14
1.1230 0.9247 -0.4515 0.1252 458 14
1.1221 0.9283 -0.4520 0.1251 458 14
1.1212 0.9318 -0.4525 0.1249 458 14
1.1203 0.9353 -0.4530 0.1248 458 14
1.1193 0.9388 -0.4535 0.1247 458 14
1.1184 0.9423 -0.4539 0.1245 458 14
1.1175 0.9458 -0.4544 0.1244 458 14
1.1165 0.9493 -0.4549 0.1243 458 14
1.1155 0.9528 -0.4553 0.1241 458 14
1.1146 0.9562 -0.4558 0.1240 458 14
1.1135 0.9597 -0.4563 0.1239 458 14
1.1125 0.9632 -0.4567 0.1238 458 14
1.1114 0.9666 -0.4572 0.1236 458 14
1.1104 0.9701 -0.4577 0.1235 458 14
1.1093 0.9736 -0.4581 0.1234 458 14
1.1082 0.9770 -0.4586 0.1233 458 14
1.1071 0.9804 -0.4590 0.1232 458 14
1.1060 0.9839 -0.4595 0.1230 458 14
1.1048 0.9873 -0.4599 0.1229 458 14
1.1037 0.9908 -0.4604 0.1228 458 14
1.1025 0.9942 -0.4608 0.1227 458 14
1.1014 0.9976 -0.4613 0.1226 458 14
1.1002 1.0011 -0.4617 0.1224 458 14
1.0989 1.0045 -0.4621 0.1223 458 14
1.0977 1.0079 -0.4626 0.1222 458 14
1.0965 1.0113 -0.4630 0.1221 458 14
1.0952 1.0147 -0.4634 0.1220 458 14
1.0939 1.0180 -0.4638 0.1219 458 14
1.0927 1.0215 -0.4643 0.1218 458 14
1.0913 1.0249 -0.4647 0.1217 458 14
1.0900 1.0282 -0.4651 0.1215 458 14
1.0887 1.0316 -0.4655 0.1214 458 14
1.0873 1.0349 -0.4659 0.1213 458 14
1.0860 1.0383 -0.4664 0.1212 458 14
1.0846 1.0417 -0.4668 0.1211 458 14
1.0832 1.0450 -0.4672 0.1210 458 14
1.0818 1.0483 -0.4676 0.1209 458 14
1.0804 1.0516 -0.4680 0.1208 458 14
1.0789 1.0550 -0.4684 0.1207 458 14
1.0774 1.0583 -0.4688 0.1206 458 14
1.0760 1.0616 -0.4692 0.1205 458 14
1.0745 1.0649 -0.4695 0.1204 458 14
1.0730 1.0681 -0.4699 0.1203 458 14
4.0284 -4.0284 -1.8200 0.3017 0 1
4.0375 -4.0195 -1.8200 0.3017 0 1
4.0466 -4.0105 -1.8200 0.3017 0 1
4.0557 -4.0015 -1.8201 0.3017 0 1
4.0648 -3.9925 -1.8201 0.3017 0 1
4.0738 -3.9834 -1.8202 0.3017 0 1
4.0828 -3.9744 -1.8202 0.3017 0 1
4.0918 -3.9653 -1.8202 0.3016 0 1
4.1008 -3.9562 -1.8203 0.3016 0 1
4.1097 -3.9471 -1.8203 0.3016 0 1
4.1187 -3.9379 -1.8204 0.3016 0 1
4.1276 -3.9287 -1.8204 0.3016 0 1
4.1365 -3.9195 -1.8204 0.3016 0 1
4.1454 -3.9103 -1.8205 0.3016 0 1
4.1542 -3.9011 -1.8205 0.3016 0 1
4.1630 -3.8918 -1.8206 0.3016 0 1
4.1719 -3.8826 -1.8206 0.3016 0 1
4.1807 -3.8733 -1.8206 0.3016 0 1
4.1894 -3.8640 -1.8207 0.3016 0 1
4.1982 -3.8547 -1.8207 0.3016 0 1
4.2069 -3.8453 -1.8208 0.3016 0 1
4.2156 -3.8359 -1.8208 0.3016 0 1
4.2243 -3.8265 -1.8208 0.3016 0 1
4.2330 -3.8171 -1.8209 0.3015 0 1
4.2416 -3.8077 -1.8209 0.3015 0 1
4.2502 -3.7983 -1.8209 0.3015 0 1
4.2588 -3.7888 -1.8210 0.3015 0 1
4.2674 -3.7793 -1.8210 0.3015 0 1
4.2760 -3.7698 -1.8211 0.3015 0 1
4.2845 -3.7603 -1.8211 0.3015 0 1
4.2930 -3.7507 -1.8211 0.3015 0 1
4.3015 -3.7412 -1.8212 0.3015 0 1
4.3100 -3.7316 -1.8212 0.3015 0 1
4.3184 -3.7220 -1.8212 0.3015 0 1
4.3269 -3.7123 -1.8213 0.3015 0 1
4.3353 -3.7027 -1.8213 0.3015 0 1
4.3436 -3.6930 -1.8214 0.3015 0 1
4.3520 -3.6834 -1.8214 0.3015 0 1
4.3604 -3.6736 -1.8214 0.3015 0 1
4.3687 -3.6639 -1.8215 0.3014 0 1
4.3770 -3.6542 -1.8215 0.3014 0 1
4.3853 -3.6445 -1.8215 0.3014 0 1
4.3935 -3.6346 -1.8216 0.3014 0 1
4.4018 -3.6249 -1.8216 0.3014 0 1
4.4100 -3.6151 -1.8216 0.3014 0 1
4.4181 -3.6052 -1.8217 0.3014 0 1
4.4263 -3.5953 -1.8217 0.3014 0 1
4.4345 -3.5855 -1.8218 0.3014 0 1
4.4426 -3.5756 -1.8218 0.3014 0 1
4.4507 -3.5657 -1.8218 0.3014 0 1
4.4588 -3.5557 -1.8219 0.3014 0 1
4.4668 -3.5458 -1.8219 0.3014 0 1
4.4748 -3.5358 -1.8219 0.3014 0 1
4.4829 -3.5259 -1.8220 0.3014 0 1
4.4908 -3.5159 -1.8220 0.3014 0 1
4.4988 -3.5058 -1.8220 0.3013 0 1
4.5068 -3.4958 -1.8221 0.3013 0 1
4.5147 -3.4858 -1.8221 0.3013 0 1
4.5226 -3.4757 -1.8221 0.3013 0 1
4.5304 -3.4656 -1.8222 0.3013 0 1
4.5383 -3.4555 -1.8222 0.3013 0 1
4.5461 -3.4454 -1.8223 0.3013 0 1
4.5539 -3.4352 -1.8223 0.3013 0 1
4.5617 -3.4251 -1.8223 0.3013 0 1
4.5695 -3.4149 -1.8224 0.3013 0 1
4.5772 -3.4047 -1.8224 0.3013 0 1
4.5849 -3.3945 -1.8224 0.3013 0 1
4.5926 -3.3842 -1.8225 0.3013 0 1
4.6003 -3.3740 -1.8225 0.3013 0 1
4.6079 -3.3637 -1.8225 0.3013 0 1
4.6156 -3.3534 -1.8226 0.3013 0 1
4.6232 -3.3431 -1.8226 0.3013 0 1
4.6307 -3.3328 -1.8226 0.3013 0 1
4.6383 -3.3225 -1.8227 0.3012 0 1
4.6458 -3.3121 -1.8227 0.3012 0 1
4.6533 -3.3018 -1.8227 0.3012 0 1
4.6608 -3.2914 -1.8228 0.3012 0 1
4.6683 -3.2810 -1.8228 0.3012 0 1
4.6757 -3.2705 -1.8228 0.3012 0 1
4.6831 -3.2601 -1.8229 0.3012 0 1
4.6905 -3.2496 -1.8229 0.3012 0 1
4.6979 -3.2391 -1.8229 0.3012 0 1
4.7052 -3.2287 -1.8230 0.3012 0 1
4.7125 -3.2181 -1.8230 0.3012 0 1
4.7198 -3.2076 -1.8230 0.3012 0 1
4.7271 -3.1971 -1.8231 0.3012 0 1
4.7343 -3.1865 -1.8231 0.3012 0 1
4.7416 -3.1760 -1.8231 0.3012 0 1
4.7487 -3.1654 -1.8232 0.3012 0 1
4.7560 -3.1547 -1.8232 0.3012 0 1
4.7631 -3.1441 -1.8232 0.3012 0 1
4.7702 -3.1335 -1.8233 0.3011 0 1
4.7773 -3.1228 -1.8233 0.3011 0 1
4.7844 -3.1121 -1.8233 0.3011 0 1
4.7915 -3.1015 -1.8234 0.3011 0 1
4.7985 -3.0908 -1.8234 0.3011 0 1
4.8055 -3.0800 -1.8234 0.3011 0 1
4.8125 -3.0693 -1.8234 0.3011 0 1
4.8194 -3.0586 -1.8235 0.3011 0 1
4.8264 -3.0478 -1.8235 0.3011 0 1
4.8333 -3.0370 -1.8235 0.3011 0 1
4.8402 -3.0262 -1.8236 0.3011 0 1
4.8470 -3.0154 -1.8236 0.3011 0 1
4.8539 -3.0045 -1.8236 0.3011 0 1
4.8607 -2.9937 -1.8237 0.3011 0 1
4.8675 -2.9828 -1.8237 0.3011 0 1
4.8742 -2.9719 -1.8237 0.3011 0 1
4.8810 -2.9610 -1.8238 0.3011 0 1
4.8877 -2.9501 -1.8238 0.3011 0 1
4.8944 -2.9392 -1.8238 0.3011 0 1
4.9010 -2.9283 -1.8238 0.3011 0 1
4.9077 -2.9173 -1.8239 0.3010 0 1
4.9143 -2.9063 -1.8239 0.3010 0 1
4.9209 -2.8954 -1.8239 0.3010 0 1
4.9274 -2.8844 -1.8240 0.3010 0 1
4.9340 -2.8733 -1.8240 0.3010 0 1
4.9405 -2.8623 -1.8240 0.3010 0 1
4.9470 -2.8512 -1.8241 0.3010 0 1
4.9535 -2.8402 -1.8241 0.3010 0 1
4.9599 -2.8291 -1.8241 0.3010 0 1
4.9663 -2.8180 -1.8241 0.3010 0 1
4.9727 -2.8069 -1.8242 0.3010 0 1
4.9791 -2.7958 -1.8242 0.3010 0 1
4.9854 -2.7846 -1.8242 0.3010 0 1
4.9917 -2.7735 -1.8243 0.3010 0 1
4.9980 -2.7623 -1.8243 0.3010 0 1
5.0043 -2.7511 -1.8243 0.3010 0 1
5.0105 -2.7399 -1.8243 0.3010 0 1
5.0167 -2.7287 -1.8244 0.3010 0 1
5.0229 -2.7175 -1.8244 0.3010 0 1
5.0291 -2.7063 -1.8244 0.3010 0 1
5.0352 -2.6950 -1.8245 0.3010 0 1
5.0413 -2.6837 -1.8245 0.3009 0 1
5.0474 -2.6725 -1.8245 0.3009 0 1
5.0535 -2.6612 -1.8245 0.3009 0 1
5.0595 -2.6499 -1.8246 0.3009 0 1
5.0655 -2.6386 -1.8246 0.3009 0 1
5.0715 -2.6272 -1.8246 0.3009 0 1
5.0775 -2.6159 -1.8247 0.3009 0 1
5.0834 -2.6045 -1.8247 0.3009 0 1
5.0893 -2.5931 -1.8247 0.3009 0 1
5.0952 -2.5818 -1.8247 0.3009 0 1
5.1010 -2.5704 -1.8248 0.3009 0 1
5.1069 -2.5589 -1.8248 0.3009 0 1
5.1127 -2.5475 -1.8248 0.3009 0 1
5.1185 -2.5361 -1.8248 0.3009 0 1
5.1242 -2.5246 -1.8249 0.3009 0 1
5.1299 -2.5131 -1.8249 0.3009 0 1
5.1357 -2.5017 -1.8249 0.3009 0 1
5.1413 -2.4902 -1.8250 0.3009 0 1
5.1470 -2.4787 -1.8250 0.3009 0 1
5.1526 -2.4671 -1.8250 0.3009 0 1
5.1582 -2.4556 -1.8250 0.3009 0 1
5.1637 -2.4441 -1.8251 0.3009 0 1
5.1693 -2.4325 -1.8251 0.3008 0 1
5.1748 -2.4209 -1.8251 0.3008 0 1
5.1804 -2.4093 -1.8251 0.3008 0 1
5.1858 -2.3978 -1.8252 0.3008 0 1
5.1912 -2.3862 -1.8252 0.3008 0 1
5.1966 -2.3745 -1.8252 0.3008 0 1
5.2020 -2.3629 -1.8252 0.3008 0 1
5.2074 -2.3512 -1.8253 0.3008 0 1
5.2127 -2.3396 -1.8253 0.3008 0 1
5.2180 -2.3279 -1.8253 0.3008 0 1
5.2233 -2.3162 -1.8253 0.3008 0 1
5.2286 -2.3045 -1.8254 0.3008 0 1
5.2338 -2.2928 -1.8254 0.3008 0 1
5.2390 -2.2811 -1.8254 0.3008 0 1
5.2442 -2.2694 -1.8254 0.3008 0 1
5.2493 -2.2576 -1.8255 0.3008 0 1
5.2544 -2.2459 -1.8255 0.3008 0 1
5.2596 -2.2341 -1.8255 0.3008 0 1
5.2646 -2.2223 -1.8255 0.3008 0 1
5.2696 -2.2106 -1.8256 0.3008 0 1
5.2747 -2.1988 -1.8256 0.3008 0 1
5.2796 -2.1869 -1.8256 0.3008 0 1
5.2846 -2.1751 -1.8256 0.3008 0 1
5.2896 -2.1633 -1.8256 0.3008 0 1
5.2945 -2.1514 -1.8257 0.3008 0 1
5.2993 -2.1396 -1.8257 0.3007 0 1
5.3042 -2.1277 -1.8257 0.3007 0 1
5.3090 -2.1158 -1.8257 0.3007 0 1
5.3138 -2.1039 -1.8258 0.3007 0 1
5.3186 -2.0920 -1.8258 0.3007 0 1
5.3234 -2.0801 -1.8258 0.3007 0 1
5.3281 -2.0682 -1.8258 0.3007 0 1
5.3328 -2.0562 -1.8259 0.3007 0 1
5.3374 -2.0443 -1.8259 0.3007 0 1
5.3421 -2.0323 -1.8259 0.3007 0 1
5.3467 -2.0204 -1.8259 0.3007 0 1
5.3513 -2.0084 -1.8259 0.3007 0 1
5.3558 -1.9964 -1.8260 0.3007 0 1
5.3604 -1.9844 -1.8260 0.3007 0 1
5.3649 -1.9724 -1.8260 0.3007 0 1
5.3693 -1.9604 -1.8260 0.3007 0 1
5.3738 -1.9483 -1.8260 0.3007 0 1
5.3782 -1.9363 -1.8261 0.3007 0 1
5.3826 -1.9242 -1.8261 0.3007 0 1
5.3870 -1.9121 -1.8261 0.3007 0 1
5.3913 -1.9001 -1.8261 0.3007 0 1
5.3956 -1.8880 -1.8262 0.3007 0 1
5.3999 -1.8759 -1.8262 0.3007 0 1
5.4042 -1.8638 -1.8262 0.3007 0 1
5.4084 -1.8517 -1.8262 0.3007 0 1
5.4126 -1.8396 -1.8262 0.3007 0 1
5.4168 -1.8275 -1.8263 0.3007 0 1
5.4209 -1.8153 -1.8263 0.3007 0 1
5.4250 -1.8031 -1.8263 0.3006 0 1
5.4291 -1.7910 -1.8263 0.3006 0 1
5.4332 -1.7789 -1.8263 0.3006 0 1
5.4372 -1.7667 -1.8264 0.3006 0 1
5.4412 -1.7545 -1.8264 0.3006 0 1
5.4452 -1.7423 -1.8264 0.3006 0 1
5.4492 -1.7301 -1.8264 0.3006 0 1
5.4531 -1.7179 -1.8264 0.3006 0 1
5.4570 -1.7057 -1.8265 0.3006 0 1
5.4609 -1.6934 -1.8265 0.3006 0 1
5.4647 -1.6812 -1.8265 0.3006 0 1
5.4685 -1.6689 -1.8265 0.3006 0 1
5.4723 -1.6567 -1.8265 0.3006 0 1
5.4761 -1.6444 -1.8265 0.3006 0 1
5.4798 -1.6321 -1.8266 0.3006 0 1
5.4835 -1.6198 -1.8266 0.3006 0 1
5.4872 -1.6076 -1.8266 0.3006 0 1
5.4908 -1.5952 -1.8266 0.3006 0 1
5.4944 -1.5829 -1.8266 0.3006 0 1
5.4980 -1.5706 -1.8267 0.3006 0 1
5.5016 -1.5583 -1.8267 0.3006 0 1
5.5051 -1.5459 -1.8267 0.3006 0 1
5.5086 -1.5336 -1.8267 0.3006 0 1
5.5121 -1.5213 -1.8267 0.3006 0 1
5.5155 -1.5089 -1.8267 0.3006 0 1
5.5190 -1.4965 -1.8268 0.3006 0 1
1.8202 -0.4892 -0.6021 0.0140 458 14
1.7897 -0.4767 -0.5917 0.0143 458 14
1.7602 -0.4646 -0.5816 0.0145 458 14
1.7315 -0.4529 -0.5717 0.0148 458 14
1.7035 -0.4415 -0.5622 0.0150 458 14
1.4420 -0.3703 -0.4756 0.1677 458 14
1.4406 -0.3664 -0.4749 0.1680 458 14
1.4392 -0.3627 -0.4741 0.1682 458 14
1.4377 -0.3589 -0.4734 0.1685 458 14
1.4363 -0.3551 -0.4726 0.1688 458 14
1.4348 -0.3513 -0.4719 0.1690 458 14
1.4334 -0.3475 -0.4712 0.1693 458 14
1.4319 -0.3438 -0.4704 0.1696 458 14
1.4305 -0.3400 -0.4697 0.1698 458 14
1.4290 -0.3363 -0.4690 0.1701 458 14
1.4275 -0.3325 -0.4682 0.1704 458 14
1.4259 -0.3289 -0.4675 0.1706 458 14
1.4245 -0.3252 -0.4668 0.1709 458 14
1.4229 -0.3214 -0.4660 0.1712 458 14
1.4214 -0.3177 -0.4653 0.1714 458 14
1.4199 -0.3140 -0.4646 0.1717 458 14
1.4184 -0.3104 -0.4638 0.1720 458 14
1.4168 -0.3067 -0.4631 0.1722 458 14
1.4152 -0.3030 -0.4624 0.1725 458 14
1.4137 -0.2994 -0.4616 0.1728 458 14
1.4121 -0.2958 -0.4609 0.1731 458 14
1.4105 -0.2921 -0.4602 0.1733 458 14
1.4090 -0.2885 -0.4594 0.1736 458 14
1.4073 -0.2849 -0.4587 0.1739 458 14
1.4057 -0.2813 -0.4580 0.1742 458 14
1.4042 -0.2777 -0.4573 0.1744 458 14
1.4026 -0.2741 -0.4565 0.1747 458 14
1.4009 -0.2705 -0.4558 0.1750 458 14
1.3993 -0.2670 -0.4551 0.1753 458 14
1.3977 -0.2634 -0.4544 0.1756 458 14
1.3961 -0.2598 -0.4536 0.1758 458 14
1.3944 -0.2563 -0.4529 0.1761 458 14
1.3928 -0.2528 -0.4522 0.1764 458 14
1.3911 -0.2493 -0.4515 0.1767 458 14
1.3894 -0.2457 -0.4507 0.1770 458 14
1.3878 -0.2422 -0.4500 0.1772 458 14
1.3861 -0.2387 -0.4493 0.1775 458 14
1.3844 -0.2352 -0.4486 0.1778 458 14
1.3827 -0.2318 -0.4479 0.1781 458 14
1.3810 -0.2283 -0.4471 0.1784 458 14
1.3793 -0.2248 -0.4464 0.1787 458 14
1.3776 -0.2214 -0.4457 0.1790 458 14
1.3758 -0.2179 -0.4450 0.1792 458 14
1.3741 -0.2145 -0.4443 0.1795 458 14
1.3724 -0.2111 -0.4436 0.1798 458 14
1.3725 -0.2079 -0.4434 0.1998 458 14
1.3727 -0.2048 -0.4434 0.1998 458 14
1.3729 -0.2017 -0.4433 0.1998 458 14
1.3731 -0.1986 -0.4432 0.1999 458 14
1.3734 -0.1954 -0.4431 0.1999 458 14
1.3736 -0.1923 -0.4431 0.1999 458 14
1.3737 -0.1892 -0.4430 0.2000 458 14
1.3739 -0.1861 -0.4429 0.2000 458 14
1.3741 -0.1830 -0.4428 0.2000 458 14
1.3742 -0.1799 -0.4427 0.2001 458 14
1.3744 -0.1767 -0.4427 0.2001 458 14
1.3745 -0.1736 -0.4426 0.2001 458 14
1.3746 -0.1705 -0.4425 0.2002 458 14
1.3747 -0.1674 -0.4424 0.2002 458 14
1.3749 -0.1643 -0.4423 0.2003 458 14
1.3749 -0.1612 -0.4422 0.2003 458 14
1.3750 -0.1581 -0.4422 0.2003 458 14
1.3751 -0.1549 -0.4421 0.2004 458 14
1.3752 -0.1518 -0.4420 0.2004 458 14
1.3752 -0.1487 -0.4419 0.2005 458 14
1.3753 -0.1456 -0.4418 0.2005 458 14
1.3753 -0.1425 -0.4417 0.2005 458 14
1.3753 -0.1394 -0.4416 0.2006 458 14
1.3753 -0.1362 -0.4415 0.2006 458 14
1.3753 -0.1331 -0.4414 0.2007 458 14
1.3753 -0.1300 -0.4413 0.2007 458 14
1.3752 -0.1269 -0.4412 0.2008 458 14
1.3752 -0.1238 -0.4411 0.2008 458 14
1.3752 -0.1207 -0.4410 0.2009 458 14
1.3752 -0.1175 -0.4409 0.2009 458 14
1.3750 -0.1144 -0.4408 0.2010 458 14
1.3750 -0.1113 -0.4407 0.2010 458 14
1.3749 -0.1082 -0.4406 0.2011 458 14
1.3748 -0.1051 -0.4405 0.2011 458 14
1.3747 -0.1020 -0.4404 0.2012 458 14
1.3746 -0.0989 -0.4403 0.2007 458 14
1.3745 -0.0958 -0.4401 0.2008 458 14
1.3744 -0.0926 -0.4400 0.2008 458 14
1.3742 -0.0896 -0.4399 0.2009 458 14
1.3741 -0.0864 -0.4398 0.2009 458 14
1.3739 -0.0833 -0.4397 0.2010 458 14
1.3737 -0.0803 -0.4396 0.2010 458 14
1.3735 -0.0771 -0.4395 0.2011 458 14
1.3733 -0.0741 -0.4394 0.2011 458 14
1.3731 -0.0710 -0.4392 0.2012 458 14
1.3729 -0.0678 -0.4391 0.2012 458 14
1.3727 -0.0647 -0.4390 0.2013 458 14
1.3725 -0.0616 -0.4389 0.2013 458 14
1.3722 -0.0585 -0.4388 0.2014 458 14
1.3720 -0.0554 -0.4386 0.2014 458 14
1.3717 -0.0523 -0.4385 0.2015 458 14
1.3714 -0.0493 -0.4384 0.2016 458 14
1.3711 -0.0462 -0.4383 0.2016 458 14
1.3709 -0.0431 -0.4381 0.2017 458 14
1.3705 -0.0400 -0.4380 0.2017 458 14
1.3702 -0.0369 -0.4379 0.2018 458 14
1.3699 -0.0338 -0.4378 0.2018 458 14
1.3696 -0.0308 -0.4376 0.2019 458 14
1.3692 -0.0276 -0.4375 0.2020 458 14
1.3688 -0.0246 -0.4374 0.2020 458 14
1.3685 -0.0215 -0.4372 0.2021 458 14
1.3681 -0.0184 -0.4371 0.2022 458 14
1.3677 -0.0153 -0.4370 0.2022 458 14
1.3673 -0.0123 -0.4368 0.2023 458 14
1.3670 -0.0092 -0.4367 0.2023 458 14
1.3665 -0.0061 -0.4365 0.2024 458 14
1.3661 -0.0031 -0.4364 0.2025 458 14
1.3656 0.0000 -0.4363 0.2025 458 14
1.3652 0.0030 -0.4361 0.2026 458 14
1.3647 0.0061 -0.4360 0.2027 458 14
1.3643 0.0092 -0.4358 0.2027 458 14
1.3638 0.0122 -0.4357 0.2028 458 14
1.3633 0.0153 -0.4355 0.2029 458 14
1.3628 0.0183 -0.4354 0.2029 458 14
1.3623 0.0214 -0.4353 0.2030 458 14
1.3618 0.0245 -0.4351 0.2031 458 14
1.3612 0.0275 -0.4350 0.2031 458 14
1.3607 0.0305 -0.4348 0.2032 458 14
1.3602 0.0336 -0.4347 0.2033 458 14
1.3596 0.0366 -0.4345 0.2034 458 14
1.3590 0.0396 -0.4343 0.2034 458 14
1.3585 0.0427 -0.4342 0.2035 458 14
1.3579 0.0457 -0.4340 0.2036 458 14
1.3573 0.0487 -0.4339 0.2036 458 14
1.3567 0.0518 -0.4337 0.2037 458 14
1.3561 0.0548 -0.4336 0.2038 458 14
1.3555 0.0578 -0.4334 0.2039 458 14
1.3548 0.0608 -0.4332 0.2039 458 14
1.3542 0.0638 -0.4331 0.2040 458 14
1.3535 0.0669 -0.4329 0.2041 458 14
1.3529 0.0699 -0.4328 0.2042 458 14
1.3522 0.0729 -0.4326 0.2043 458 14
1.3515 0.0759 -0.4324 0.2043 458 14
1.3508 0.0789 -0.4323 0.2044 458 14
1.3501 0.0819 -0.4321 0.2045 458 14
1.3494 0.0849 -0.4319 0.2046 458 14
1.3487 0.0879 -0.4318 0.2046 458 14
1.3479 0.0908 -0.4316 0.2047 458 14
1.3472 0.0938 -0.4314 0.2048 458 14
1.3465 0.0968 -0.4313 0.2049 458 14
1.3457 0.0998 -0.4311 0.2050 458 14
1.3449 0.1028 -0.4309 0.2051 458 14
1.3442 0.1058 -0.4307 0.2051 458 14
1.3434 0.1088 -0.4306 0.2052 458 14
1.3426 0.1118 -0.4304 0.2053 458 14
1.3418 0.1147 -0.4302 0.2054 458 14
1.3410 0.1177 -0.4300 0.2055 458 14
1.3402 0.1206 -0.4299 0.2056 458 14
1.3393 0.1236 -0.4297 0.2056 458 14
1.3385 0.1265 -0.4295 0.2057 458 14
1.3377 0.1295 -0.4293 0.2058 458 14
1.3368 0.1324 -0.4291 0.2059 458 14
1.3359 0.1354 -0.4290 0.2060 458 14
1.3350 0.1383 -0.4288 0.2061 458 14
1.3341 0.1412 -0.4286 0.2062 458 14
1.3333 0.1442 -0.4284 0.2063 458 14
1.3323 0.1471 -0.4282 0.2063 458 14
1.3314 0.1500 -0.4280 0.2064 458 14
1.3305 0.1529 -0.4278 0.2065 458 14
1.3296 0.1559 -0.4276 0.2066 458 14
1.3286 0.1587 -0.4275 0.2067 458 14
1.3277 0.1617 -0.4273 0.2068 458 14
1.3268 0.1646 -0.4271 0.2069 458 14
1.3258 0.1675 -0.4269 0.2070 458 14
1.3248 0.1704 -0.4267 0.2071 458 14
1.3238 0.1733 -0.4265 0.2072 458 14
1.3228 0.1762 -0.4263 0.2073 458 14
1.3218 0.1791 -0.4261 0.2074 458 14
1.3208 0.1819 -0.4259 0.2075 458 14
1.3198 0.1848 -0.4257 0.2076 458 14
1.3188 0.1877 -0.4255 0.2076 458 14
1.3177 0.1905 -0.4253 0.2077 458 14
1.3166 0.1934 -0.4251 0.2078 458 14
1.3156 0.1963 -0.4249 0.2079 458 14
1.3145 0.1991 -0.4247 0.2080 458 14
1.3135 0.2020 -0.4245 0.2081 458 14
1.3124 0.2049 -0.4243 0.2082 458 14
1.3113 0.2077 -0.4241 0.2083 458 14
1.3102 0.2105 -0.4239 0.2084 458 14
1.3091 0.2134 -0.4237 0.2085 458 14
1.3080 0.2162 -0.4235 0.2086 458 14
1.3068 0.2190 -0.4233 0.2087 458 14
1.3057 0.2219 -0.4231 0.2088 458 14
1.3046 0.2246 -0.4229 0.2089 458 14
1.3034 0.2275 -0.4227 0.2090 458 14
1.3023 0.2303 -0.4225 0.2091 458 14
1.3011 0.2331 -0.4223 0.2093 458 14
1.2999 0.2359 -0.4221 0.2094 458 14
1.2987 0.2387 -0.4218 0.2095 458 14
1.2976 0.2415 -0.4216 0.2096 458 14
1.2964 0.2443 -0.4214 0.2097 458 14
1.2951 0.2471 -0.4212 0.2098 458 14
1.2939 0.2498 -0.4210 0.2099 458 14
1.2934 0.2528 -0.4210 0.1988 458 14
1.2930 0.2557 -0.4211 0.1988 458 14
1.2926 0.2586 -0.4211 0.1988 458 14
1.2921 0.2615 -0.4211 0.1987 458 14
1.2916 0.2645 -0.4212 0.1987 458 14
1.2912 0.2674 -0.4212 0.1987 458 14
1.2907 0.2703 -0.4213 0.1987 458 14
1.2902 0.2732 -0.4213 0.1987 458 14
1.2897 0.2762 -0.4213 0.1986 458 14
1.2892 0.2791 -0.4214 0.1986 458 14
1.2887 0.2820 -0.4214 0.1986 458 14
1.2881 0.2849 -0.4214 0.1986 458 14
1.2876 0.2878 -0.4215 0.1986 458 14
1.2870 0.2907 -0.4215 0.1986 458 14
1.2864 0.2936 -0.4215 0.1985 458 14
1.2859 0.2965 -0.4216 0.1985 458 14
1.2853 0.2994 -0.4216 0.1985 458 14
1.2847 0.3024 -0.4216 0.1985 458 14
1.2841 0.3052 -0.4217 0.1985 458 14
1.2835 0.3081 -0.4217 0.1985 458 14
1.2829 0.3111 -0.4217 0.1985 458 14
1.2823 0.3139 -0.4217 0.1985 458 14
1.2816 0.3168 -0.4217 0.1984 458 14
1.2809 0.3197 -0.4218 0.1984 458 14
1.2803 0.3226 -0.4218 0.1984 458 14
1.2796 0.3255 -0.4218 0.1984 458 14
1.2789 0.3284 -0.4218 0.1984 458 14
1.2782 0.3313 -0.4218 0.1984 458 14
1.2775 0.3341 -0.4218 0.1984 458 14
1.2768 0.3370 -0.4219 0.1984 458 14
1.2761 0.3399 -0.4219 0.1984 458 14
1.2754 0.3427 -0.4219 0.1984 458 14
1.2746 0.3456 -0.4219 0.1984 458 14
1.2739 0.3485 -0.4219 0.1984 458 14
1.2731 0.3514 -0.4219 0.1984 458 14
1.2724 0.3542 -0.4219 0.1984 458 14
1.2716 0.3571 -0.4219 0.1984 458 14
1.2708 0.3599 -0.4219 0.1984 458 14
1.2700 0.3628 -0.4219 0.1984 458 14
1.2692 0.3657 -0.4219 0.1984 458 14
1.2684 0.3685 -0.4219 0.1984 458 14
1.2675 0.3713 -0.4219 0.1984 458 14
1.2667 0.3741 -0.4219 0.1984 458 14
1.2658 0.3770 -0.4219 0.1984 458 14
1.2650 0.3799 -0.4219 0.1984 458 14
1.2641 0.3827 -0.4219 0.1984 458 14
1.2632 0.3855 -0.4219 0.1984 458 14
1.2623 0.3883 -0.4219 0.1984 458 14
1.2614 0.3912 -0.4219 0.1984 458 14
1.2605 0.3940 -0.4219 0.1984 458 14
1.2596 0.3968 -0.4219 0.1984 458 14
1.2587 0.3996 -0.4219 0.1984 458 14
1.2578 0.4024 -0.4219 0.1984 458 14
1.2568 0.4053 -0.4219 0.1984 458 14
1.2558 0.4080 -0.4218 0.1984 458 14
1.2549 0.4108 -0.4218 0.1984 458 14
1.2539 0.4137 -0.4218 0.1984 458 14
1.2529 0.4165 -0.4218 0.1984 458 14
1.2520 0.4192 -0.4218 0.1984 458 14
1.2509 0.4220 -0.4218 0.1984 458 14
1.2499 0.4248 -0.4217 0.1985 458 14
1.2489 0.4276 -0.4217 0.1985 458 14
1.2479 0.4304 -0.4217 0.1989 458 14
1.2468 0.4331 -0.4217 0.1989 458 14
1.2458 0.4359 -0.4216 0.1989 458 14
1.2447 0.4387 -0.4216 0.1989 458 14
1.2437 0.4415 -0.4216 0.1989 458 14
1.2426 0.4442 -0.4216 0.1989 458 14
1.2415 0.4470 -0.4215 0.1989 458 14
1.2404 0.4497 -0.4215 0.1989 458 14
1.2393 0.4525 -0.4215 0.1990 458 14
1.2382 0.4553 -0.4215 0.1990 458 14
1.2371 0.4580 -0.4214 0.1990 458 14
1.2360 0.4607 -0.4214 0.1990 458 14
1.2348 0.4635 -0.4214 0.1990 458 14
1.2337 0.4662 -0.4213 0.1990 458 14
1.2326 0.4689 -0.4213 0.1990 458 14
1.2314 0.4716 -0.4212 0.1991 458 14
1.2302 0.4743 -0.4212 0.1991 458 14
1.2291 0.4771 -0.4212 0.1991 458 14
1.2279 0.4798 -0.4211 0.1991 458 14
1.2267 0.4825 -0.4211 0.1991 458 14
1.2254 0.4852 -0.4210 0.1992 458 14
1.2242 0.4879 -0.4210 0.1992 458 14
1.2230 0.4906 -0.4210 0.1992 458 14
1.2218 0.4932 -0.4209 0.1992 458 14
1.2205 0.4959 -0.4209 0.1992 458 14
1.2193 0.4986 -0.4208 0.1993 458 14
1.2180 0.5013 -0.4208 0.1993 458 14
1.2167 0.5040 -0.4207 0.1993 458 14
1.2154 0.5066 -0.4207 0.1993 458 14
1.2141 0.5093 -0.4206 0.1994 458 14
1.2129 0.5120 -0.4206 0.1994 458 14
1.2115 0.5146 -0.4205 0.1994 458 14
1.2102 0.5172 -0.4204 0.1994 458 14
1.2089 0.5199 -0.4204 0.1995 458 14
1.2075 0.5225 -0.4203 0.1995 458 14
1.2062 0.5252 -0.4203 0.1995 458 14
1.2049 0.5278 -0.4202 0.1996 458 14
1.2035 0.5304 -0.4202 0.1996 458 14
1.2021 0.5330 -0.4201 0.1996 458 14
1.2007 0.5356 -0.4200 0.1996 458 14
1.1994 0.5383 -0.4200 0.1997 458 14
1.1980 0.5409 -0.4199 0.1997 458 14
1.1966 0.5435 -0.4198 0.1997 458 14
1.1951 0.5461 -0.4198 0.1998 458 14
1.1937 0.5487 -0.4197 0.1998 458 14
1.1923 0.5512 -0.4196 0.1998 458 14
1.1909 0.5539 -0.4196 0.1999 458 14
1.1894 0.5564 -0.4195 0.1999 458 14
1.1879 0.5590 -0.4194 0.1999 458 14
1.1865 0.5615 -0.4193 0.2000 458 14
1.1850 0.5641 -0.4193 0.2000 458 14
1.1835 0.5667 -0.4192 0.2000 458 14
1.1820 0.5692 -0.4191 0.2001 458 14
1.1805 0.5718 -0.4190 0.2001 458 14
1.1790 0.5743 -0.4190 0.2001 458 14
1.1775 0.5768 -0.4189 0.2002 458 14
1.1759 0.5794 -0.4188 0.2002 458 14
1.1744 0.5819 -0.4187 0.2003 458 14
1.1729 0.5844 -0.4186 0.2003 458 14
1.1714 0.5870 -0.4185 0.2003 458 14
1.1698 0.5894 -0.4185 0.2004 458 14
1.1682 0.5919 -0.4184 0.2004 458 14
1.1667 0.5944 -0.4183 0.2005 458 14
1.1651 0.5969 -0.4182 0.2005 458 14
1.1635 0.5994 -0.4181 0.2006 458 14
1.1619 0.6019 -0.4180 0.2006 458 14
1.1603 0.6044 -0.4179 0.2006 458 14
1.1587 0.6068 -0.4178 0.2007 458 14
1.1570 0.6093 -0.4177 0.2007 458 14
1.1554 0.6117 -0.4176 0.2008 458 14
1.1537 0.6142 -0.4175 0.2008 458 14
1.1521 0.6166 -0.4174 0.2009 458 14
1.1504 0.6190 -0.4174 0.2009 458 14
1.1488 0.6215 -0.4173 0.2010 458 14
1.1471 0.6239 -0.4172 0.2010 458 14
1.1454 0.6263 -0.4171 0.2011 458 14
1.1437 0.6288 -0.4170 0.2011 458 14
1.1420 0.6312 -0.4168 0.2012 458 14
1.1404 0.6336 -0.4167 0.2012 458 14
1.1386 0.6360 -0.4166 0.2013 458 14
1.1369 0.6384 -0.4165 0.2013 458 14
1.1352 0.6408 -0.4164 0.2014 458 14
1.1335 0.6432 -0.4163 0.2014 458 14
1.1317 0.6455 -0.4162 0.2015 458 14
1.1300 0.6479 -0.4161 0.2015 458 14
1.1282 0.6503 -0.4160 0.2016 458 14
1.1264 0.6526 -0.4159 0.2016 458 14
1.1247 0.6550 -0.4158 0.2017 458 14
1.1229 0.6573 -0.4157 0.2017 458 14
1.1211 0.6596 -0.4155 0.2018 458 14
1.1193 0.6620 -0.4154 0.2019 458 14
1.1175 0.6643 -0.4153 0.2019 458 14
1.1157 0.6666 -0.4152 0.2020 458 14
1.1139 0.6689 -0.4151 0.2020 458 14
1.1121 0.6712 -0.4150 0.2021 458 14
1.1102 0.6735 -0.4148 0.2021 458 14
1.1084 0.6758 -0.4147 0.2022 458 14
1.1065 0.6781 -0.4146 0.2023 458 14
1.1047 0.6804 -0.4145 0.2023 458 14
1.1029 0.6827 -0.4143 0.2024 458 14
1.1010 0.6849 -0.4142 0.2024 458 14
1.0991 0.6872 -0.4141 0.2025 458 14
1.0972 0.6894 -0.4140 0.2026 458 14
1.0954 0.6917 -0.4138 0.2026 458 14
1.0934 0.6939 -0.4137 0.2027 458 14
1.0915 0.6962 -0.4136 0.2028 458 14
1.0896 0.6984 -0.4134 0.2028 458 14
1.0877 0.7006 -0.4133 0.2029 458 14
1.0858 0.7028 -0.4132 0.2029 458 14
1.0838 0.7050 -0.4130 0.2030 458 14
1.0819 0.7072 -0.4129 0.2031 458 14
1.0800 0.7094 -0.4128 0.2031 458 14
1.0786 0.7120 -0.4129 0.1370 458 14
1.0782 0.7152 -0.4133 0.1404 458 14
1.0779 0.7185 -0.4138 0.1402 458 14
1.0776 0.7218 -0.4143 0.1401 458 14
1.0773 0.7251 -0.4148 0.1399 458 14
1.0770 0.7284 -0.4153 0.1397 458 14
1.0766 0.7317 -0.4158 0.1395 458 14
1.0763 0.7350 -0.4163 0.1394 458 14
1.0759 0.7382 -0.4168 0.1392 458 14
1.0755 0.7415 -0.4173 0.1391 458 14
1.0751 0.7448 -0.4178 0.1389 458 14
1.0747 0.7481 -0.4183 0.1387 458 14
1.0743 0.7514 -0.4188 0.1386 458 14
1.0739 0.7547 -0.4193 0.1384 458 14
1.0734 0.7580 -0.4198 0.1382 458 14
1.0730 0.7613 -0.4203 0.1381 458 14
1.0725 0.7646 -0.4208 0.1379 458 14
1.0720 0.7679 -0.4213 0.1378 458 14
1.0715 0.7712 -0.4217 0.1376 458 14
1.0710 0.7745 -0.4222 0.1374 458 14
1.0705 0.7778 -0.4227 0.1373 458 14
1.0700 0.7811 -0.4232 0.1371 458 14
1.0694 0.7843 -0.4237 0.1370 458 14
1.0689 0.7876 -0.4242 0.1368 458 14
1.0683 0.7909 -0.4246 0.1367 458 14
1.0677 0.7942 -0.4251 0.1365 458 14
1.0671 0.7975 -0.4256 0.1364 458 14
1.0665 0.8007 -0.4260 0.1362 458 14
1.0659 0.8040 -0.4265 0.1361 458 14
1.0653 0.8073 -0.4270 0.2315 458 14
1.0647 0.8107 -0.4275 0.2313 458 14
1.0642 0.8141 -0.4280 0.2310 458 14
1.0637 0.8174 -0.4285 0.2307 458 14
1.0631 0.8208 -0.4291 0.2304 458 14
1.0625 0.8242 -0.4296 0.2302 458 14
1.0619 0.8275 -0.4301 0.2299 458 14
1.0614 0.8309 -0.4306 0.2296 458 14
1.0608 0.8343 -0.4311 0.2293 458 14
1.0602 0.8377 -0.4317 0.2290 458 14
1.0596 0.8411 -0.4322 0.2288 458 14
1.0590 0.8445 -0.4327 0.2285 458 14
1.0583 0.8479 -0.4332 0.2282 458 14
1.0577 0.8513 -0.4337 0.2279 458 14
1.0571 0.8547 -0.4343 0.2277 458 14
1.0564 0.8581 -0.4348 0.2274 458 14
1.0558 0.8615 -0.4353 0.2271 458 14
1.0551 0.8649 -0.4358 0.2268 458 14
1.0545 0.8683 -0.4364 0.2266 458 14
1.0538 0.8717 -0.4369 0.2263 458 14
1.0531 0.8752 -0.4374 0.2260 458 14
1.0524 0.8786 -0.4379 0.2258 458 14
1.0517 0.8820 -0.4385 0.2255 458 14
1.0510 0.8854 -0.4390 0.2252 458 14
1.0503 0.8889 -0.4395 0.2249 458 14
1.0495 0.8923 -0.4401 0.2247 458 14
1.0488 0.8958 -0.4406 0.2244 458 14
1.0480 0.8992 -0.4411 0.2241 458 14
1.0472 0.9026 -0.4417 0.2239 458 14
1.0465 0.9060 -0.4422 0.2236 458 14
1.0457 0.9095 -0.4427 0.2233 458 14
1.0449 0.9129 -0.4433 0.2230 458 14
1.0441 0.9163 -0.4438 0.2228 458 14
1.0433 0.9198 -0.4443 0.2225 458 14
1.0425 0.9232 -0.4449 0.2222 458 14
1.0417 0.9267 -0.4454 0.2220 458 14
1.0408 0.9301 -0.4459 0.2217 458 14
1.0400 0.9336 -0.4465 0.2214 458 14
1.0392 0.9371 -0.4470 0.2212 458 14
1.0383 0.9405 -0.4475 0.2209 458 14
1.0374 0.9439 -0.4481 0.2207 458 14
1.0365 0.9474 -0.4486 0.2204 458 14
1.0357 0.9509 -0.4492 0.2201 458 14
1.0348 0.9544 -0.4497 0.2199 458 14
1.0338 0.9578 -0.4502 0.2196 458 14
1.0329 0.9613 -0.4508 0.2193 458 14
1.0320 0.9647 -0.4513 0.2191 458 14
1.0311 0.9682 -0.4518 0.2188 458 14
1.0302 0.9717 -0.4524 0.2185 458 14
1.0292 0.9752 -0.4529 0.2183 458 14
1.0282 0.9787 -0.4535 0.2180 458 14
1.0272 0.9821 -0.4540 0.2178 458 14
1.0263 0.9856 -0.4546 0.2175 458 14
1.0253 0.9891 -0.4551 0.2172 458 14
1.0243 0.9926 -0.4556 0.2170 458 14
1.0233 0.9961 -0.4562 0.2167 458 14
1.0222 0.9995 -0.4567 0.2165 458 14
1.0212 1.0030 -0.4573 0.2162 458 14
1.0202 1.0065 -0.4578 0.2160 458 14
1.0191 1.0100 -0.4584 0.2157 458 14
1.0181 1.0135 -0.4589 0.2154 458 14
3.9158 -3.9157 -1.8195 0.3095 0 1
3.9246 -3.9071 -1.8196 0.3095 0 1
3.9335 -3.8983 -1.8196 0.3095 0 1
3.9423 -3.8896 -1.8196 0.3095 0 1
3.9511 -3.8808 -1.8197 0.3095 0 1
3.9599 -3.8720 -1.8197 0.3095 0 1
3.9686 -3.8632 -1.8198 0.3095 0 1
3.9774 -3.8544 -1.8198 0.3095 0 1
3.9861 -3.8455 -1.8198 0.3095 0 1
3.9948 -3.8366 -1.8199 0.3095 0 1
4.0035 -3.8277 -1.8199 0.3095 0 1
4.0121 -3.8188 -1.8200 0.3095 0 1
4.0208 -3.8099 -1.8200 0.3095 0 1
4.0294 -3.8010 -1.8200 0.3095 0 1
4.0380 -3.7920 -1.8201 0.3095 0 1
4.0466 -3.7830 -1.8201 0.3094 0 1
4.0552 -3.7740 -1.8201 0.3094 0 1
4.0637 -3.7649 -1.8202 0.3094 0 1
4.0722 -3.7559 -1.8202 0.3094 0 1
4.0807 -3.7468 -1.8203 0.3094 0 1
4.0892 -3.7377 -1.8203 0.3094 0 1
4.0977 -3.7286 -1.8203 0.3094 0 1
4.1061 -3.7195 -1.8204 0.3094 0 1
4.1146 -3.7103 -1.8204 0.3094 0 1
4.1229 -3.7012 -1.8204 0.3094 0 1
4.1313 -3.6919 -1.8205 0.3094 0 1
4.1397 -3.6828 -1.8205 0.3094 0 1
4.1480 -3.6735 -1.8206 0.3094 0 1
4.1563 -3.6643 -1.8206 0.3094 0 1
4.1646 -3.6550 -1.8206 0.3094 0 1
4.1729 -3.6458 -1.8207 0.3094 0 1
4.1811 -3.6365 -1.8207 0.3093 0 1
4.1894 -3.6271 -1.8207 0.3093 0 1
4.1976 -3.6178 -1.8208 0.3093 0 1
4.2058 -3.6084 -1.8208 0.3093 0 1
4.2139 -3.5991 -1.8208 0.3093 0 1
4.2221 -3.5897 -1.8209 0.3093 0 1
4.2302 -3.5803 -1.8209 0.3093 0 1
4.2383 -3.5708 -1.8209 0.3093 0 1
4.2464 -3.5614 -1.8210 0.3093 0 1
4.2545 -3.5519 -1.8210 0.3093 0 1
4.2625 -3.5424 -1.8211 0.3093 0 1
4.2705 -3.5329 -1.8211 0.3093 0 1
4.2786 -3.5234 -1.8211 0.3093 0 1
4.2865 -3.5139 -1.8212 0.3093 0 1
4.2945 -3.5043 -1.8212 0.3093 0 1
4.3024 -3.4947 -1.8212 0.3093 0 1
4.3104 -3.4851 -1.8213 0.3092 0 1
4.3182 -3.4755 -1.8213 0.3092 0 1
4.3261 -3.4659 -1.8213 0.3092 0 1
4.3340 -3.4562 -1.8214 0.3092 0 1
4.3418 -3.4466 -1.8214 0.3092 0 1
4.3496 -3.4369 -1.8214 0.3092 0 1
4.3574 -3.4272 -1.8215 0.3092 0 1
4.3652 -3.4174 -1.8215 0.3092 0 1
4.3729 -3.4077 -1.8215 0.3092 0 1
4.3806 -3.3979 -1.8216 0.3092 0 1
4.3883 -3.3882 -1.8216 0.3092 0 1
4.3960 -3.3784 -1.8216 0.3092 0 1
4.4036 -3.3686 -1.8217 0.3092 0 1
4.4113 -3.3588 -1.8217 0.3092 0 1
4.4189 -3.3489 -1.8218 0.3092 0 1
4.4264 -3.3391 -1.8218 0.3092 0 1
4.4340 -3.3292 -1.8218 0.3092 0 1
4.4416 -3.3193 -1.8219 0.3091 0 1
4.4491 -3.3094 -1.8219 0.3091 0 1
4.4566 -3.2994 -1.8219 0.3091 0 1
4.4641 -3.2895 -1.8220 0.3091 0 1
4.4715 -3.2795 -1.8220 0.3091 0 1
4.4789 -3.2695 -1.8220 0.3091 0 1
4.4863 -3.2595 -1.8221 0.3091 0 1
4.4937 -3.2495 -1.8221 0.3091 0 1
4.5011 -3.2395 -1.8221 0.3091 0 1
4.5084 -3.2294 -1.8222 0.3091 0 1
4.5157 -3.2194 -1.8222 0.3091 0 1
4.5230 -3.2092 -1.8222 0.3091 0 1
4.5303 -3.1991 -1.8222 0.3091 0 1
4.5375 -3.1890 -1.8223 0.3091 0 1
4.5448 -3.1789 -1.8223 0.3091 0 1
4.5520 -3.1688 -1.8223 0.3091 0 1
4.5591 -3.1586 -1.8224 0.3091 0 1
4.5663 -3.1484 -1.8224 0.3091 0 1
4.5734 -3.1382 -1.8224 0.3090 0 1
4.5805 -3.1280 -1.8225 0.3090 0 1
4.5876 -3.1178 -1.8225 0.3090 0 1
4.5947 -3.1075 -1.8225 0.3090 0 1
4.6018 -3.0972 -1.8226 0.3090 0 1
4.6087 -3.0870 -1.8226 0.3090 0 1
4.6157 -3.0767 -1.8226 0.3090 0 1
4.6227 -3.0663 -1.8227 0.3090 0 1
4.6296 -3.0561 -1.8227 0.3090 0 1
4.6366 -3.0457 -1.8227 0.3090 0 1
4.6435 -3.0354 -1.8228 0.3090 0 1
4.6504 -3.0249 -1.8228 0.3090 0 1
4.6572 -3.0146 -1.8228 0.3090 0 1
4.6641 -3.0042 -1.8229 0.3090 0 1
4.6709 -2.9938 -1.8229 0.3090 0 1
4.6777 -2.9833 -1.8229 0.3090 0 1
4.6844 -2.9728 -1.8229 0.3090 0 1
4.6912 -2.9624 -1.8230 0.3090 0 1
4.6979 -2.9519 -1.8230 0.3090 0 1
4.7046 -2.9414 -1.8230 0.3089 0 1
4.7112 -2.9309 -1.8231 0.3089 0 1
4.7179 -2.9203 -1.8231 0.3089 0 1
4.7245 -2.9098 -1.8231 0.3089 0 1
4.7311 -2.8992 -1.8232 0.3089 0 1
4.7377 -2.8887 -1.8232 0.3089 0 1
4.7442 -2.8780 -1.8232 0.3089 0 1
4.7507 -2.8675 -1.8232 0.3089 0 1
4.7572 -2.8569 -1.8233 0.3089 0 1
4.7637 -2.8462 -1.8233 0.3089 0 1
4.7702 -2.8355 -1.8233 0.3089 0 1
4.7766 -2.8249 -1.8234 0.3089 0 1
4.7830 -2.8142 -1.8234 0.3089 0 1
4.7893 -2.8035 -1.8234 0.3089 0 1
4.7957 -2.7928 -1.8234 0.3089 0 1
4.8020 -2.7821 -1.8235 0.3089 0 1
4.8084 -2.7713 -1.8235 0.3089 0 1
4.8146 -2.7606 -1.8235 0.3089 0 1
4.8209 -2.7498 -1.8236 0.3089 0 1
4.8271 -2.7390 -1.8236 0.3089 0 1
4.8334 -2.7282 -1.8236 0.3089 0 1
4.8395 -2.7174 -1.8236 0.3088 0 1
4.8457 -2.7066 -1.8237 0.3088 0 1
4.8518 -2.6957 -1.8237 0.3088 0 1
4.8579 -2.6849 -1.8237 0.3088 0 1
4.8640 -2.6740 -1.8238 0.3088 0 1
4.8701 -2.6631 -1.8238 0.3088 0 1
4.8761 -2.6523 -1.8238 0.3088 0 1
4.8821 -2.6414 -1.8238 0.3088 0 1
4.8881 -2.6304 -1.8239 0.3088 0 1
4.8941 -2.6195 -1.8239 0.3088 0 1
4.9000 -2.6086 -1.8239 0.3088 0 1
4.9059 -2.5976 -1.8240 0.3088 0 1
4.9118 -2.5866 -1.8240 0.3088 0 1
4.9177 -2.5756 -1.8240 0.3088 0 1
4.9235 -2.5646 -1.8240 0.3088 0 1
4.9294 -2.5536 -1.8241 0.3088 0 1
4.9351 -2.5426 -1.8241 0.3088 0 1
4.9409 -2.5315 -1.8241 0.3088 0 1
4.9466 -2.5204 -1.8241 0.3088 0 1
4.9523 -2.5094 -1.8242 0.3088 0 1
4.9581 -2.4983 -1.8242 0.3088 0 1
4.9637 -2.4872 -1.8242 0.3087 0 1
4.9693 -2.4761 -1.8242 0.3087 0 1
4.9750 -2.4650 -1.8243 0.3087 0 1
4.9806 -2.4538 -1.8243 0.3087 0 1
4.9861 -2.4427 -1.8243 0.3087 0 1
4.9917 -2.4315 -1.8243 0.3087 0 1
4.9972 -2.4204 -1.8244 0.3087 0 1
5.0027 -2.4092 -1.8244 0.3087 0 1
5.0081 -2.3979 -1.8244 0.3087 0 1
5.0136 -2.3868 -1.8244 0.3087 0 1
5.0190 -2.3755 -1.8245 0.3087 0 1
5.0244 -2.3643 -1.8245 0.3087 0 1
5.0297 -2.3530 -1.8245 0.3087 0 1
5.0350 -2.3418 -1.8245 0.3087 0 1
5.0404 -2.3305 -1.8246 0.3087 0 1
5.0457 -2.3192 -1.8246 0.3087 0 1
5.0509 -2.3080 -1.8246 0.3087 0 1
5.0562 -2.2966 -1.8246 0.3087 0 1
5.0614 -2.2853 -1.8247 0.3087 0 1
5.0665 -2.2740 -1.8247 0.3087 0 1
5.0717 -2.2626 -1.8247 0.3087 0 1
5.0768 -2.2513 -1.8247 0.3087 0 1
5.0819 -2.2399 -1.8248 0.3087 0 1
5.0870 -2.2285 -1.8248 0.3087 0 1
5.0921 -2.2171 -1.8248 0.3086 0 1
5.0971 -2.2057 -1.8248 0.3086 0 1
5.1021 -2.1943 -1.8249 0.3086 0 1
5.1071 -2.1829 -1.8249 0.3086 0 1
5.1120 -2.1714 -1.8249 0.3086 0 1
5.1170 -2.1600 -1.8249 0.3086 0 1
5.1219 -2.1485 -1.8250 0.3086 0 1
5.1267 -2.1371 -1.8250 0.3086 0 1
5.1316 -2.1256 -1.8250 0.3086 0 1
5.1364 -2.1141 -1.8250 0.3086 0 1
5.1412 -2.1026 -1.8250 0.3086 0 1
5.1459 -2.0911 -1.8251 0.3086 0 1
5.1507 -2.0795 -1.8251 0.3086 0 1
5.1554 -2.0680 -1.8251 0.3086 0 1
5.1601 -2.0564 -1.8251 0.3086 0 1
5.1648 -2.0449 -1.8252 0.3086 0 1
5.1694 -2.0333 -1.8252 0.3086 0 1
5.1740 -2.0217 -1.8252 0.3086 0 1
1.4248 -0.5531 -0.5022 0.1629 458 14
1.4241 -0.5491 -0.5015 0.1632 458 14
1.4234 -0.5452 -0.5008 0.1634 458 14
1.4226 -0.5413 -0.5001 0.1636 458 14
1.4219 -0.5373 -0.4994 0.1638 458 14
1.4211 -0.5334 -0.4987 0.1641 458 14
1.4204 -0.5294 -0.4980 0.1643 458 14
1.4195 -0.5255 -0.4974 0.1645 458 14
1.4188 -0.5216 -0.4967 0.1647 458 14
1.4179 -0.5177 -0.4960 0.1650 458 14
1.4171 -0.5138 -0.4953 0.1652 458 14
1.4163 -0.5099 -0.4946 0.1654 458 14
1.4154 -0.5060 -0.4939 0.1657 458 14
1.4146 -0.5021 -0.4932 0.1659 458 14
1.4137 -0.4983 -0.4925 0.1661 458 14
1.4129 -0.4944 -0.4918 0.1664 458 14
1.4120 -0.4905 -0.4911 0.1666 458 14
1.4111 -0.4867 -0.4904 0.1668 458 14
1.4101 -0.4828 -0.4897 0.1671 458 14
1.4092 -0.4790 -0.4890 0.1673 458 14
1.4083 -0.4752 -0.4883 0.1675 458 14
1.4074 -0.4713 -0.4877 0.1678 458 14
1.4064 -0.4675 -0.4870 0.1680 458 14
1.4054 -0.4637 -0.4863 0.1683 458 14
1.4045 -0.4599 -0.4856 0.1685 458 14
1.4035 -0.4560 -0.4849 0.1687 458 14
1.4025 -0.4522 -0.4842 0.1690 458 14
1.4015 -0.4484 -0.4835 0.1692 458 14
1.4005 -0.4446 -0.4828 0.1695 458 14
1.3995 -0.4409 -0.4821 0.1697 458 14
1.3985 -0.4371 -0.4814 0.1700 458 14
1.3974 -0.4333 -0.4807 0.1702 458 14
1.3964 -0.4296 -0.4800 0.1705 458 14
1.3954 -0.4258 -0.4793 0.1707 458 14
1.3943 -0.4221 -0.4786 0.1709 458 14
1.3932 -0.4184 -0.4779 0.1712 458 14
1.3921 -0.4146 -0.4772 0.1714 458 14
1.3910 -0.4109 -0.4766 0.1717 458 14
1.3899 -0.4072 -0.4759 0.1719 458 14
1.3887 -0.4035 -0.4752 0.1722 458 14
1.3877 -0.3998 -0.4745 0.1724 458 14
1.3865 -0.3961 -0.4738 0.1727 458 14
1.3854 -0.3924 -0.4731 0.1730 458 14
1.3842 -0.3888 -0.4724 0.1732 458 14
1.3830 -0.3851 -0.4717 0.1735 458 14
1.3819 -0.3814 -0.4710 0.1737 458 14
1.3807 -0.3777 -0.4703 0.1740 458 14
1.3795 -0.3740 -0.4696 0.1742 458 14
1.3783 -0.3704 -0.4689 0.1745 458 14
1.3771 -0.3668 -0.4683 0.1747 458 14
1.3759 -0.3632 -0.4676 0.1750 458 14
1.3747 -0.3596 -0.4669 0.1753 458 14
1.3735 -0.3559 -0.4662 0.1755 458 14
1.3722 -0.3523 -0.4655 0.1758 458 14
1.3710 -0.3487 -0.4648 0.1760 458 14
1.3697 -0.3451 -0.4641 0.1763 458 14
1.3685 -0.3416 -0.4634 0.1766 458 14
1.3672 -0.3380 -0.4627 0.1768 458 14
1.3659 -0.3345 -0.4620 0.1771 458 14
1.3646 -0.3309 -0.4614 0.1773 458 14
1.3633 -0.3273 -0.4607 0.1776 458 14
1.3620 -0.3238 -0.4600 0.1779 458 14
1.3607 -0.3203 -0.4593 0.1781 458 14
1.3594 -0.3167 -0.4586 0.1784 458 14
1.3580 -0.3132 -0.4579 0.1787 458 14
1.3568 -0.3097 -0.4572 0.1789 458 14
1.3554 -0.3062 -0.4566 0.1792 458 14
1.3541 -0.3027 -0.4559 0.1795 458 14
1.3527 -0.2992 -0.4552 0.1798 458 14
1.3513 -0.2957 -0.4545 0.1800 458 14
1.3500 -0.2922 -0.4538 0.1803 458 14
1.3486 -0.2887 -0.4531 0.1806 458 14
1.3472 -0.2853 -0.4525 0.1808 458 14
1.3458 -0.2819 -0.4518 0.1811 458 14
1.3444 -0.2784 -0.4511 0.1814 458 14
1.3430 -0.2750 -0.4504 0.1817 458 14
1.3416 -0.2716 -0.4497 0.1819 458 14
1.3401 -0.2681 -0.4490 0.1822 458 14
1.3387 -0.2647 -0.4484 0.1825 458 14
1.3372 -0.2614 -0.4477 0.1828 458 14
1.3358 -0.2580 -0.4470 0.1830 458 14
1.3343 -0.2546 -0.4463 0.1833 458 14
1.3329 -0.2512 -0.4457 0.1836 458 14
1.3314 -0.2478 -0.4450 0.1839 458 14
1.3300 -0.2445 -0.4443 0.1842 458 14
1.3285 -0.2411 -0.4436 0.1844 458 14
1.3270 -0.2377 -0.4430 0.1847 458 14
1.3255 -0.2344 -0.4423 0.1850 458 14
1.3240 -0.2311 -0.4416 0.1853 458 14
1.3225 -0.2277 -0.4409 0.1856 458 14
1.3210 -0.2245 -0.4403 0.1859 458 14
1.3195 -0.2212 -0.4396 0.1861 458 14
1.3180 -0.2178 -0.4389 0.1864 458 14
1.3164 -0.2146 -0.4382 0.1867 458 14
1.3149 -0.2113 -0.4376 0.1870 458 14
1.3148 -0.2083 -0.4374 0.2077 458 14
1.3151 -0.2053 -0.4373 0.2078 458 14
1.3154 -0.2023 -0.4373 0.2078 458 14
1.3156 -0.1993 -0.4372 0.2078 458 14
1.3159 -0.1963 -0.4371 0.2079 458 14
1.3161 -0.1933 -0.4371 0.2079 458 14
1.3163 -0.1904 -0.4370 0.2079 458 14
1.3165 -0.1874 -0.4369 0.2080 458 14
1.3168 -0.1844 -0.4369 0.2080 458 14
1.3169 -0.1814 -0.4368 0.2080 458 14
1.3171 -0.1784 -0.4367 0.2081 458 14
1.3172 -0.1754 -0.4366 0.2081 458 14
1.3174 -0.1724 -0.4366 0.2081 458 14
1.3176 -0.1694 -0.4365 0.2082 458 14
1.3177 -0.1664 -0.4364 0.2082 458 14
1.3178 -0.1635 -0.4363 0.2083 458 14
1.3179 -0.1605 -0.4362 0.2083 458 14
1.3180 -0.1575 -0.4362 0.2083 458 14
1.3181 -0.1545 -0.4361 0.2084 458 14
1.3182 -0.1516 -0.4360 0.2084 458 14
1.3183 -0.1486 -0.4359 0.2085 458 14
1.3184 -0.1456 -0.4358 0.2085 458 14
1.3184 -0.1426 -0.4357 0.2085 458 14
1.3185 -0.1396 -0.4356 0.2086 458 14
1.3185 -0.1366 -0.4356 0.2086 458 14
1.3186 -0.1336 -0.4355 0.2087 458 14
1.3186 -0.1306 -0.4354 0.2087 458 14
1.3186 -0.1276 -0.4353 0.2087 458 14
1.3186 -0.1247 -0.4352 0.2088 458 14
1.3186 -0.1217 -0.4351 0.2088 458 14
1.3186 -0.1187 -0.4350 0.2089 458 14
1.3186 -0.1157 -0.4349 0.2089 458 14
1.3185 -0.1127 -0.4348 0.2090 458 14
1.3185 -0.1097 -0.4347 0.2090 458 14
1.3184 -0.1067 -0.4346 0.2091 458 14
1.3183 -0.1037 -0.4345 0.2091 458 14
1.3182 -0.1008 -0.4344 0.2092 458 14
1.3182 -0.0978 -0.4343 0.2092 458 14
1.3181 -0.0949 -0.4342 0.2093 458 14
1.3180 -0.0919 -0.4341 0.2093 458 14
1.3178 -0.0889 -0.4340 0.2094 458 14
1.3177 -0.0859 -0.4339 0.2094 458 14
1.3176 -0.0829 -0.4338 0.2095 458 14
1.3174 -0.0800 -0.4337 0.2095 458 14
1.3173 -0.0770 -0.4336 0.2096 458 14
1.3171 -0.0740 -0.4334 0.2096 458 14
1.3170 -0.0710 -0.4333 0.2097 458 14
1.3168 -0.0680 -0.4332 0.2097 458 14
1.3166 -0.0651 -0.4331 0.2098 458 14
1.3164 -0.0621 -0.4330 0.2098 458 14
1.3161 -0.0591 -0.4329 0.2099 458 14
1.3159 -0.0562 -0.4328 0.2100 458 14
1.3157 -0.0532 -0.4326 0.2100 458 14
1.3154 -0.0502 -0.4325 0.2101 458 14
1.3152 -0.0472 -0.4324 0.2101 458 14
1.3149 -0.0443 -0.4323 0.2102 458 14
1.3146 -0.0413 -0.4322 0.2103 458 14
1.3144 -0.0384 -0.4320 0.2103 458 14
1.3141 -0.0354 -0.4319 0.2104 458 14
1.3138 -0.0324 -0.4318 0.2104 458 14
1.3134 -0.0295 -0.4317 0.2105 458 14
1.3131 -0.0265 -0.4315 0.2106 458 14
1.3128 -0.0236 -0.4314 0.2106 458 14
1.3125 -0.0206 -0.4313 0.2107 458 14
1.3121 -0.0177 -0.4312 0.2107 458 14
1.3118 -0.0147 -0.4310 0.2103 458 14
1.3114 -0.0118 -0.4309 0.2103 458 14
1.3110 -0.0088 -0.4308 0.2104 458 14
1.3106 -0.0059 -0.4306 0.2105 458 14
1.3103 -0.0029 -0.4305 0.2105 458 14
1.3099 0.0000 -0.4304 0.2106 458 14
1.3095 0.0029 -0.4302 0.2107 458 14
1.3090 0.0059 -0.4301 0.2107 458 14
1.3086 0.0088 -0.4300 0.2108 458 14
1.3082 0.0118 -0.4298 0.2109 458 14
1.3077 0.0147 -0.4297 0.2109 458 14
1.3073 0.0176 -0.4296 0.2110 458 14
1.3068 0.0205 -0.4294 0.2111 458 14
1.3063 0.0235 -0.4293 0.2111 458 14
1.3058 0.0264 -0.4291 0.2112 458 14
1.3053 0.0293 -0.4290 0.2113 458 14
1.3048 0.0322 -0.4288 0.2113 458 14
1.3043 0.0352 -0.4287 0.2114 458 14
1.3038 0.0380 -0.4286 0.2115 458 14
1.3033 0.0410 -0.4284 0.2116 458 14
1.3027 0.0439 -0.4283 0.2116 458 14
1.3021 0.0468 -0.4281 0.2117 458 14
1.3016 0.0497 -0.4280 0.2118 458 14
1.3010 0.0526 -0.4278 0.2119 458 14
1.3004 0.0555 -0.4277 0.2119 458 14
1.2998 0.0584 -0.4275 0.2120 458 14
1.2993 0.0613 -0.4274 0.2121 458 14
1.2987 0.0642 -0.4272 0.2122 458 14
1.2980 0.0671 -0.4271 0.2122 458 14
1.2974 0.0699 -0.4269 0.2123 458 14
1.2968 0.0728 -0.4267 0.2124 458 14
1.2961 0.0757 -0.4266 0.2125 458 14
1.2955 0.0786 -0.4264 0.2125 458 14
1.2948 0.0815 -0.4263 0.2126 458 14
1.2941 0.0843 -0.4261 0.2127 458 14
1.2935 0.0872 -0.4260 0.2128 458 14
1.2928 0.0901 -0.4258 0.2129 458 14
1.2921 0.0929 -0.4256 0.2129 458 14
1.2914 0.0958 -0.4255 0.2130 458 14
1.2907 0.0987 -0.4253 0.2131 458 14
1.2899 0.1015 -0.4251 0.2132 458 14
1.2892 0.1044 -0.4250 0.2133 458 14
1.2885 0.1072 -0.4248 0.2134 458 14
1.2877 0.1101 -0.4246 0.2134 458 14
