ply
format ascii 1.0
element vertex 610
property float32 x
property float32 y
property float32 z
property float32 CosAngle
property uint32 ObjIdx
property uint32 ObjTag
end_header
31.94285011291504 -11.825078010559082 10.265348434448242 0.7942193150520325 0 9
31.908336639404297 -12.139042854309082 10.288864135742188 0.9274985194206238 0 9
31.712133407592773 -12.39134693145752 10.261042594909668 0.9300124049186707 0 9
31.51694107055664 -12.642304420471191 10.234197616577148 0.9324527382850647 0 9
31.322710037231445 -12.892011642456055 10.208288192749023 0.9348189830780029 0 9
39.26709747314453 -17.412500381469727 12.945563316345215 0.7623536586761475 0 9
37.22148513793945 -16.906776428222656 12.320697784423828 0.7073474526405334 0 9
37.34962463378906 -17.37105369567871 12.414223670959473 0.702018141746521 0 9
37.261531829833984 -17.738632202148438 12.43736743927002 0.735220730304718 0 9
36.9046516418457 -17.97687530517578 12.37160873413086 0.7391285300254822 0 9
36.55179977416992 -18.21269416809082 12.307631492614746 0.7429707646369934 0 9
36.20284652709961 -18.446327209472656 12.245392799377441 0.7467468976974487 0 9
35.8889045715332 -18.6939640045166 12.195470809936523 0.7754104733467102 0 9
34.613609313964844 -18.426542282104492 11.817841529846191 0.2403188943862915 0 9
35.09917449951172 -19.091327667236328 12.041638374328613 0.7853161096572876 0 9
34.20255661010742 -19.00337791442871 11.792081832885742 0.7536540031433105 0 9
34.11484146118164 -19.357460021972656 11.821273803710938 0.8381304144859314 0 9
33.950653076171875 -19.669158935546875 11.825079917907715 0.799697995185852 0 9
33.86838912963867 -20.029706954956055 11.858569145202637 0.8354941010475159 0 9
33.74492263793945 -20.367733001708984 11.87887954711914 0.8340657353401184 0 9
35.87868118286133 -22.097381591796875 12.699320793151855 0.7391677498817444 0 9
35.368736267089844 -22.223690032958984 12.588923454284668 0.9901296496391296 0 9
35.322513580322266 -22.639394760131836 12.644301414489746 0.7423844933509827 0 9
32.08979034423828 -20.976112365722656 11.55401611328125 0.8625243306159973 0 9
31.958011627197266 -21.3018741607666 11.574943542480469 0.8609644770622253 0 9
34.560508728027344 -23.487323760986328 12.593402862548828 0.7252326607704163 0 9
30.491500854492188 -21.124568939208984 11.179352760314941 0.9928743839263916 0 9
30.58839225769043 -21.600605010986328 11.285510063171387 0.4636283218860626 0 9
30.318761825561523 -21.820663452148438 11.25784683227539 0.4376752972602844 0 9
30.5003719329834 -22.36962890625 11.39937973022461 0.4322410821914673 0 9
30.687440872192383 -22.93328094482422 11.545761108398438 0.4267609715461731 0 9
30.586803436279297 -23.288827896118164 11.58608341217041 0.9488016963005066 0 9
30.29103660583496 -23.496112823486328 11.553468704223633 0.9514796733856201 0 9
29.996715545654297 -23.702089309692383 11.521896362304688 0.9540872573852539 0 9
29.703779220581055 -23.906816482543945 11.491347312927246 0.956623911857605 0 9
29.412179946899414 -24.11033058166504 11.461796760559082 0.9590899348258972 0 9
29.36104965209961 -24.51234245300293 11.527153015136719 0.5686760544776917 0 9
9.734682083129883 -8.27652359008789 3.8508594036102295 0.6293732523918152 0 3
9.562002182006836 -8.278691291809082 3.8117899894714355 0.6358234882354736 0 3
9.392763137817383 -8.280858993530273 3.7738091945648193 0.6422230005264282 0 3
9.226855278015137 -8.282988548278809 3.736872673034668 0.648570716381073 0 3
8.988788604736328 -8.21621036529541 3.670170307159424 0.6548653841018677 0 3
8.883305549621582 -8.267285346984863 3.6572530269622803 0.27736955881118774 0 3
8.7479248046875 -8.289081573486328 3.6320059299468994 0.6672970652580261 0 3
8.594164848327637 -8.291015625 3.5989179611206055 0.6734324097633362 0 3
8.44314956665039 -8.292948722839355 3.5667059421539307 0.6795138716697693 0 3
33.4478874206543 33.44783020019531 13.831501007080078 0.8653433322906494 0 9
33.799095153808594 33.197654724121094 13.852949142456055 0.8640037178993225 0 9
34.151588439941406 32.946895599365234 13.875658988952637 0.862589418888092 0 9
34.4998664855957 32.69009780883789 13.897382736206055 0.8800065517425537 0 9
34.75590133666992 32.34562301635742 13.882997512817383 0.5308800935745239 0 9
34.575706481933594 31.603534698486328 13.697148323059082 0.5380831956863403 0 9
33.665550231933594 30.22150230407715 13.228590965270996 0.13640949130058289 0 9
35.90342712402344 31.653066635131836 13.995746612548828 0.8738216757774353 0 9
33.126731872558594 25.695701599121094 12.258891105651855 0.9195093512535095 0 9
33.439964294433594 25.461172103881836 12.289729118347168 0.9172021150588989 0 9
33.75431442260742 25.225154876708984 12.321552276611328 0.9148334264755249 0 9
31.56947135925293 23.153711318969727 11.447680473327637 0.6285415887832642 0 9
32.07244873046875 23.082754135131836 11.554471969604492 0.6227325797080994 0 9
32.534332275390625 22.974706649780273 11.646102905273438 0.7924229502677917 0 9
32.238624572753906 22.33492088317871 11.468022346496582 0.2626745402812958 0 9
31.87700653076172 21.663612365722656 11.269762992858887 0.7599513530731201 0 9
31.952444076538086 21.298124313354492 11.228398323059082 0.7960269451141357 0 9
33.82461929321289 22.110116958618164 11.816076278686523 0.7810244560241699 0 9
30.34629249572754 19.44986343383789 10.539563179016113 0.13139179348945618 0 9
30.12434959411621 18.928436279296875 10.403046607971191 0.8081093430519104 0 9
29.3529109954834 18.078144073486328 10.080195426940918 0.9201520681381226 0 9
29.61931037902832 17.8775577545166 10.11616325378418 0.9168802499771118 0 9
29.88737678527832 17.675331115722656 10.153121948242188 0.9135431051254272 0 9
29.810096740722656 17.27031135559082 10.073797225952148 0.6983036398887634 0 9
30.02003288269043 17.033945083618164 10.092668533325195 0.639803409576416 0 9
30.083297729492188 16.71468734741211 10.063088417053223 0.8354097008705139 0 9
30.035905838012695 16.33722686767578 9.99777889251709 0.5901404619216919 0 9
30.480316162109375 16.226133346557617 10.096821784973145 0.5843517184257507 0 9
30.9285945892334 16.110136032104492 10.197003364562988 0.47828400135040283 0 9
31.03436851501465 15.812792778015137 10.184664726257324 0.6540904641151428 0 9
30.87351417541504 15.3833589553833 10.08615493774414 0.6604788899421692 0 9
31.350719451904297 15.271347045898438 10.196866035461426 0.21984118223190308 0 9
31.72610092163086 15.103456497192383 10.27444839477539 0.46665990352630615 0 9
31.681230545043945 14.734725952148438 10.21667194366455 0.4692990183830261 0 9
31.635454177856445 14.369452476501465 10.159905433654785 0.4719212055206299 0 9
37.55241394042969 16.652090072631836 12.011686325073242 0.5392926931381226 0 9
39.48402786254883 17.08626937866211 12.579977989196777 0.9866636395454407 0 9
32.1517333984375 13.233222007751465 10.166507720947266 0.4957045912742615 0 9
29.798725128173828 11.953085899353027 9.388175010681152 0.692475438117981 0 9
30.168691635131836 11.788261413574219 9.4710111618042 0.686418354511261 0 9
30.544918060302734 11.620370864868164 9.555994987487793 0.6803141832351685 0 9
29.952045440673828 11.088086128234863 9.339001655578613 0.29730424284935 0 9
30.90447235107422 11.126288414001465 9.604435920715332 0.28908810019493103 0 9
31.263900756835938 10.939706802368164 9.685235977172852 0.8770055174827576 0 9
31.26724624633789 10.62685489654541 9.656331062316895 0.8796303272247314 0 9
31.270652770996094 10.315878868103027 9.628397941589355 0.8821824789047241 0 9
31.27412986755371 10.006582260131836 9.601420402526855 0.8846609592437744 0 9
31.27767562866211 9.699140548706055 9.57540225982666 0.8870651125907898 0 9
30.957643508911133 9.296152114868164 9.451499938964844 0.8342103958129883 0 9
31.19846534729004 9.06396484375 9.499801635742188 0.8299691081047058 0 9
31.441774368286133 8.829452514648438 9.54936695098877 0.8256606459617615 0 9
31.646451950073242 8.581230163574219 9.587748527526855 0.8834773898124695 0 9
33.973636627197266 8.885624885559082 10.268229484558105 0.7794665694236755 0 9
33.88292694091797 8.537793159484863 10.217241287231445 0.7833566069602966 0 9
33.793296813964844 8.193281173706055 10.167627334594727 0.7871790528297424 0 9
33.70471954345703 7.852226257324219 10.119356155395508 0.7909335494041443 0 9
34.49362564086914 7.710292816162109 10.33502197265625 0.9373047947883606 0 9
38.35595703125 8.212831497192383 11.469701766967773 0.9255099892616272 0 9
38.30023956298828 7.841991901397705 11.431537628173828 0.4166729748249054 0 9
38.771942138671875 7.576699256896973 11.551562309265137 0.9519572854042053 0 9
36.816890716552734 6.852109432220459 10.950319290161133 0.9772108197212219 0 9
32.578392028808594 5.761210918426514 9.673901557922363 0.9579015374183655 0 9
29.54279136657715 4.951386451721191 8.758952140808105 0.684321939945221 0 9
29.503114700317383 4.672832012176514 8.734404563903809 0.6862455010414124 0 9
29.462831497192383 4.395722389221191 8.710442543029785 0.6881331205368042 0 9
31.61411476135254 4.426952838897705 9.334332466125488 0.6266714930534363 0 9
31.52857780456543 4.126855373382568 9.297759056091309 0.6894338130950928 0 9
31.28410530090332 3.809511661529541 9.215210914611816 0.6956098079681396 0 9
31.043630599975586 3.497792959213257 9.134757995605469 0.7017364501953125 0 9
30.807044982910156 3.1913671493530273 9.056350708007812 0.7078120112419128 0 9
31.723793029785156 2.9988086223602295 9.317554473876953 0.5505315065383911 0 9
30.010759353637695 2.5653319358825684 8.807302474975586 0.16646002233028412 0 9
31.134578704833984 2.380078077316284 9.130483627319336 0.16056817770004272 0 9
32.62843704223633 2.1999218463897705 9.562390327453613 0.8907195329666138 0 9
32.63050079345703 1.9059765338897705 9.557595252990723 0.5613921284675598 0 9
32.5502815246582 1.608242154121399 9.529486656188965 0.5630478858947754 0 9
32.44500732421875 1.3112890720367432 9.49483585357666 0.8592895865440369 0 9
32.30095291137695 1.0151171684265137 9.449633598327637 0.8634000420570374 0 9
32.15818786621094 0.7217577695846558 9.40558910369873 0.8674428462982178 0 9
32.016685485839844 0.43117186427116394 9.36269760131836 0.8714168667793274 0 9
34.44239044189453 0.15458984673023224 10.071235656738281 0.7430549263954163 0 9
34.181400299072266 -0.15345703065395355 9.994925498962402 0.7487282752990723 0 9
34.15727615356445 -0.45992186665534973 9.988677024841309 0.42610886693000793 0 9
32.83154296875 -0.7368749976158142 9.60254192352295 0.8162718415260315 0 9
32.51228713989258 -1.0217772722244263 9.511462211608887 0.9082573056221008 0 9
32.62031555175781 -1.318300724029541 9.546146392822266 0.9049574136734009 0 9
31.92413330078125 -1.5772656202316284 9.346175193786621 0.5326048135757446 0 9
32.3355712890625 -1.8887499570846558 9.471213340759277 0.5255733728408813 0 9
32.651004791259766 -2.2013866901397705 9.56900691986084 0.9115182161331177 0 9
32.59725570678711 -2.4918553829193115 9.559423446655273 0.9124319553375244 0 9
32.54370880126953 -2.781816244125366 9.550657272338867 0.9132693409919739 0 9
32.4903564453125 -3.0712499618530273 9.542703628540039 0.9140302538871765 0 9
32.43718719482422 -3.3602147102355957 9.535569190979004 0.9147148132324219 0 9
32.384193420410156 -3.6488280296325684 9.5292329788208 0.9153228998184204 0 9
31.97093391418457 -3.893242120742798 9.417529106140137 0.8037574887275696 0 9
31.969032287597656 -4.184511661529541 9.427656173706055 0.7117504477500916 0 9
32.1915283203125 -4.507890701293945 9.5048246383667 0.7059721946716309 0 9
32.41215515136719 -4.835761547088623 9.582392692565918 0.789929211139679 0 9
32.56280517578125 -5.157421588897705 9.640227317810059 0.7851900458335876 0 9
34.57057189941406 -5.793964862823486 10.249616622924805 0.8454816937446594 0 9
34.43067169189453 -6.088769435882568 10.223929405212402 0.8476056456565857 0 9
34.29166793823242 -6.382089614868164 10.199254989624023 0.8496565222740173 0 9
37.29952621459961 -7.288886547088623 11.112882614135742 0.9978847503662109 0 9
37.22029495239258 -7.620917797088623 11.10921573638916 0.998214602470398 0 9
37.140830993652344 -7.952617168426514 11.106351852416992 0.9984715580940247 0 9
35.358131408691406 -7.90343713760376 10.594050407409668 0.9343820810317993 0 9
36.98117446899414 -8.615527153015137 11.103071212768555 0.9987661838531494 0 9
32.85530471801758 -7.965878963470459 9.885408401489258 0.9603913426399231 0 9
32.80458450317383 -8.266035079956055 9.892074584960938 0.9597443342208862 0 9
32.7537841796875 -8.566640853881836 9.899542808532715 0.9590201377868652 0 9
32.70289611816406 -8.867655754089355 9.907821655273438 0.9582188725471497 0 9
32.651912689208984 -9.169257164001465 9.916913986206055 0.9573405385017395 0 9
32.60081100463867 -9.471426010131836 9.9268159866333 0.9563854336738586 0 9
32.54960632324219 -9.774179458618164 9.937541961669922 0.9553535580635071 0 9
31.732187271118164 -9.840097427368164 9.714546203613281 0.5779502987861633 0 9
30.796327590942383 -9.853730201721191 9.45473861694336 0.8330031633377075 0 9
30.533103942871094 -10.072538375854492 9.40130615234375 0.8377376198768616 0 9
31.81570053100586 -10.813241958618164 9.825716972351074 0.8070254325866699 0 9
31.906686782836914 -11.164628982543945 9.884366989135742 0.8022367358207703 0 9
31.88995933532715 -11.481035232543945 9.910712242126465 0.43548405170440674 0 9
32.090816497802734 -11.879843711853027 10.00586986541748 0.7924949526786804 0 9
31.923141479492188 -12.144628524780273 9.987174034118652 0.9293408393859863 0 9
31.726806640625 -12.397089958190918 9.960168838500977 0.9318609237670898 0 9
31.53147315979004 -12.648144721984863 9.934088706970215 0.9343071579933167 0 9
31.337114334106445 -12.897929191589355 9.908926963806152 0.9366795420646667 0 9
33.92222213745117 -14.319296836853027 10.766559600830078 0.5823537111282349 0 9
33.86687088012695 -14.65550708770752 10.790311813354492 0.5810720920562744 0 9
39.105796813964844 -17.34095573425293 12.508554458618164 0.767374575138092 0 9
37.46421432495117 -17.017030715942383 12.031845092773438 0.7044870853424072 0 9
37.595054626464844 -17.485254287719727 12.123785972595215 0.6991448998451233 0 9
37.727264404296875 -17.960390090942383 12.21792221069336 0.6937580704689026 0 9
37.84742736816406 -18.436054229736328 12.30992603302002 0.8241008520126343 0 9
36.4398078918457 -18.15689468383789 11.90462875366211 0.7470808029174805 0 9
36.066490173339844 -18.37677764892578 11.836081504821777 0.6951006054878235 0 9
34.47811508178711 -17.9591007232666 11.367260932922363 0.24300077557563782 0 9
34.98549270629883 -18.624530792236328 11.589186668395996 0.49268096685409546 0 9
35.01142120361328 -19.04359245300293 11.653937339782715 0.6667452454566956 0 9
34.56022262573242 -19.20210838317871 11.560653686523438 0.6721250414848328 0 9
34.11636734008789 -19.358320236206055 11.46984577178955 0.6774463653564453 0 9
33.889060974121094 -19.633495330810547 11.452216148376465 0.7547623515129089 0 9
33.77751159667969 -19.975996017456055 11.474655151367188 0.8397953510284424 0 9
35.989986419677734 -21.72283172607422 12.292009353637695 0.7427418231964111 0 9
35.7110481262207 -21.994159698486328 12.263671875 0.7444579005241394 0 9
35.43379592895508 -22.264511108398438 12.236600875854492 0.7461049556732178 0 9
31.551471710205078 -20.222381591796875 10.95812702178955 0.1400434821844101 0 9
32.02442169189453 -20.93341827392578 11.187199592590332 0.8664032220840454 0 9
31.892791748046875 -21.258378982543945 11.20742416381836 0.8648394346237183 0 9
30.797643661499023 -20.930078506469727 10.888158798217773 0.9915022850036621 0 9
30.59521484375 -21.196386337280273 10.88341999053955 0.991934061050415 0 9
30.39266586303711 -21.46236228942871 10.879465103149414 0.9922948479652405 0 9
30.18999481201172 -21.727949142456055 10.876288414001465 0.9925843477249146 0 9
30.20720863342285 -22.15458869934082 10.953691482543945 0.4375060796737671 0 9
30.388742446899414 -22.710039138793945 11.09299087524414 0.4320122003555298 0 9
29.087080001831055 -22.146913528442383 10.689972877502441 0.5358268618583679 0 9
30.321767807006836 -23.519960403442383 11.220881462097168 0.5681948661804199 0 9
30.011497497558594 -23.713748931884766 11.184382438659668 0.5700490474700928 0 9
29.70392417907715 -23.906932830810547 11.149279594421387 0.5718437433242798 0 9
29.398942947387695 -24.09945297241211 11.115558624267578 0.5735783576965332 0 9
9.734633445739746 -8.276464462280273 3.736194610595703 0.6309186220169067 0 3
9.561952590942383 -8.278671264648438 3.6982924938201904 0.6373847723007202 0 3
9.392728805541992 -8.280839920043945 3.661445140838623 0.6437996029853821 0 3
9.226825714111328 -8.282929420471191 3.62560772895813 0.6501627564430237 0 3
9.064135551452637 -8.28499984741211 3.59075927734375 0.6564729809761047 0 3
8.904516220092773 -8.287050247192383 3.556851625442505 0.6627310514450073 0 3
8.747900009155273 -8.289023399353027 3.523862838745117 0.66893470287323 0 3
8.594135284423828 -8.290995597839355 3.491759777069092 0.6750853657722473 0 3
8.443124771118164 -8.292929649353027 3.4605114459991455 0.6811816096305847 0 3
33.37656784057617 33.37648391723633 13.38052749633789 0.8692538738250732 0 9
33.7269172668457 33.12671661376953 13.401227951049805 0.8679110407829285 0 9
34.07853698730469 32.87644577026367 13.4231538772583 0.8664935231208801 0 9
34.43157196044922 32.625389099121094 13.44631576538086 0.865001380443573 0 9
34.78601837158203 32.37369155883789 13.470709800720215 0.8634346723556519 0 9
34.38530349731445 31.42949104309082 13.205754280090332 0.4578182101249695 0 9
32.490501403808594 29.166601181030273 12.376998901367188 0.14167962968349457 0 9
34.337093353271484 30.27212905883789 12.97640609741211 0.1351344734430313 0 9
34.32394790649414 28.136619567871094 12.581388473510742 0.49156951904296875 0 9
33.60871887207031 25.589746475219727 11.974562644958496 0.9147657752037048 0 9
33.925106048583984 25.35285186767578 12.00572681427002 0.9123914837837219 0 9
31.808717727661133 23.3292179107666 11.182199478149414 0.8019970655441284 0 9
32.12138366699219 23.118026733398438 11.218717575073242 0.7993864417076111 0 9
32.43638229370117 22.905624389648438 11.256471633911133 0.7967054843902588 0 9
32.52067184448242 22.530311584472656 11.215087890625 0.3996744751930237 0 9
33.073692321777344 22.47687530517578 11.335771560668945 0.7911321520805359 0 9
33.39617919921875 22.260467529296875 11.377350807189941 0.7882405519485474 0 9
30.809589385986328 20.13929557800293 10.434149742126465 0.8181294202804565 0 9
30.85693359375 19.777225494384766 10.389640808105469 0.8216339945793152 0 9
29.186542510986328 18.339101791381836 9.771398544311523 0.9224316477775574 0 9
29.452579498291016 18.139589309692383 9.80555534362793 0.9192182421684265 0 9
29.72024917602539 17.9384765625 9.840659141540527 0.9159386157989502 0 9
29.989593505859375 17.735820770263672 9.876730918884277 0.912593424320221 0 9
30.234481811523438 17.516210556030273 9.905207633972168 0.8247636556625366 0 9
30.087108612060547 17.072031021118164 9.806328773498535 0.9110857248306274 0 9
29.856212615966797 16.5884952545166 9.68215274810791 0.5921739339828491 0 9
30.209590911865234 16.431699752807617 9.748520851135254 0.8380199074745178 0 9
30.200782775878906 16.077342987060547 9.698720932006836 0.842323362827301 0 9
30.911500930786133 16.101268768310547 9.880144119262695 0.47968605160713196 0 9
31.162416458129883 15.878026962280273 9.914396286010742 0.6529510021209717 0 9
30.99966812133789 15.446151733398438 9.81810474395752 0.6593546867370605 0 9
31.136775970458984 15.167186737060547 9.818020820617676 0.2218775898218155 0 9
31.837919235229492 15.156679153442383 9.995800971984863 0.9918825030326843 0 9
31.935550689697266 14.852988243103027 9.9841890335083 0.7345082759857178 0 9
31.902597427368164 14.490859031677246 9.932819366455078 0.7383068799972534 0 9
31.87026023864746 14.132402420043945 9.882859230041504 0.7420392632484436 0 9
37.73100662231445 16.327655792236328 11.654337882995605 0.6780915856361389 0 9
37.848114013671875 15.976503372192383 11.645753860473633 0.6785917282104492 0 9
31.159324645996094 12.824746131896973 9.55182933807373 0.8043304085731506 0 9
30.9072322845459 12.397772789001465 9.440049171447754 0.9670028686523438 0 9
30.305179595947266 11.841620445251465 9.223337173461914 0.6849513649940491 0 9
30.684362411499023 11.673378944396973 9.306469917297363 0.6788324117660522 0 9
31.07008934020996 11.501953125 9.391766548156738 0.6726670265197754 0 9
30.920820236206055 11.132147789001465 9.316064834594727 0.28962185978889465 0 9
31.060747146606445 10.868632316589355 9.328452110290527 0.3207601308822632 0 9
31.234663009643555 10.615761756896973 9.351693153381348 0.8826412558555603 0 9
31.238162994384766 10.305155754089355 9.324675559997559 0.8851990103721619 0 9
31.241722106933594 9.996269226074219 9.298575401306152 0.887683093547821 0 9
30.715599060058594 9.524824142456055 9.116169929504395 0.8404773473739624 0 9
30.953954696655273 9.295058250427246 9.161774635314941 0.8362935185432434 0 9
31.19471549987793 9.06289005279541 9.208593368530273 0.8320417404174805 0 9
31.437984466552734 8.828378677368164 9.256640434265137 0.8277231454849243 0 9
31.633512496948242 8.577733993530273 9.291163444519043 0.8859392404556274 0 9
31.821561813354492 8.322832107543945 9.324076652526855 0.8828122019767761 0 9
32.010986328125 8.066093444824219 9.357988357543945 0.8796129822731018 0 9
32.09890365600586 7.782480239868164 9.36289119720459 0.4673933982849121 0 9
38.60073471069336 8.992851257324219 11.235407829284668 0.9181354641914368 0 9
38.558197021484375 8.61880874633789 11.20006275177002 0.9210333228111267 0 9
34.04832077026367 7.290507793426514 9.87065315246582 0.21310819685459137 0 9
38.06654357910156 7.794198989868164 11.014826774597168 0.4202274978160858 0 9
39.12563705444336 7.645741939544678 11.300966262817383 0.969642162322998 0 9
35.00017166137695 6.514003753662109 10.09207534790039 0.9018722176551819 0 9
32.58655548095703 5.762636661529541 9.380836486816406 0.9599376916885376 0 9
32.59735107421875 5.463320255279541 9.36944580078125 0.9611046314239502 0 9
29.82255744934082 4.72341775894165 8.559358596801758 0.6805087327957153 0 9
29.780946731567383 4.443202972412109 8.535627365112305 0.6824007034301758 0 9
29.738752365112305 4.164374828338623 8.51247501373291 0.6842567324638367 0 9
29.69597625732422 3.886972665786743 8.489896774291992 0.6860762238502502 0 9
29.652584075927734 3.61083984375 8.467886924743652 0.6878594756126404 0 9
29.608619689941406 3.336074113845825 8.446440696716309 0.6896061301231384 0 9
29.564064025878906 3.0625975131988525 8.425551414489746 0.6913161277770996 0 9
29.518924713134766 2.790410041809082 8.405208587646484 0.6929891109466553 0 9
31.179943084716797 2.665175676345825 8.870990753173828 0.1605987548828125 0 9
32.520816802978516 2.4859960079193115 9.245768547058105 0.5391420722007751 0 9
32.700557708740234 2.204765558242798 9.290860176086426 0.5449376702308655 0 9
32.761680603027344 1.9136523008346558 9.302973747253418 0.852250337600708 0 9
32.614681243896484 1.6114062070846558 9.256758689880371 0.8565058708190918 0 9
32.469085693359375 1.3122656345367432 9.211719512939453 0.8606936931610107 0 9
32.324798583984375 1.0158789157867432 9.167826652526855 0.8648138046264648 0 9
32.18182373046875 0.72230464220047 9.125068664550781 0.8688662052154541 0 9
32.04010009765625 0.431464821100235 9.083426475524902 0.8728498816490173 0 9
33.98681640625 0.1525000035762787 9.634546279907227 0.9621621370315552 0 9
34.30122375488281 -0.15400390326976776 9.723671913146973 0.7478866577148438 0 9
45.83917999267578 -0.6171875 12.995468139648438 0.41215240955352783 0 9
32.7198371887207 -0.7343554496765137 9.277624130249023 0.8210055828094482 0 9
32.7080078125 -1.0279101133346558 9.276516914367676 0.8211038708686829 0 9
32.64647674560547 -1.3193944692611694 9.262051582336426 0.9063818454742432 0 9
32.1160888671875 -1.5867773294448853 9.115253448486328 0.5306800007820129 0 9
32.53263473510742 -1.9002734422683716 9.237940788269043 0.5236318111419678 0 9
32.612857818603516 -2.1988279819488525 9.265954971313477 0.9147535562515259 0 9
32.559207916259766 -2.488964796066284 9.25668716430664 0.9156695008277893 0 9
32.505760192871094 -2.7785937786102295 9.248208999633789 0.9165089130401611 0 9
32.45249938964844 -3.067675828933716 9.240514755249023 0.9172717332839966 0 9
32.39942169189453 -3.3563084602355957 9.233611106872559 0.9179578423500061 0 9
32.34651565551758 -3.6445701122283936 9.22747802734375 0.9185673594474792 0 9
31.74609375 -3.865800619125366 9.065738677978516 0.7192678451538086 0 9
31.964942932128906 -4.183984279632568 9.13858699798584 0.7135335803031921 0 9
32.18738555908203 -4.507285118103027 9.21337890625 0.7077415585517883 0 9
32.39614486694336 -4.833359241485596 9.285185813903809 0.7921982407569885 0 9
32.5466194152832 -5.154863357543945 9.34119701385498 0.7874477505683899 0 9
32.69899368286133 -5.480351448059082 9.398659706115723 0.7826328873634338 0 9
32.895626068115234 -5.817304611206055 9.469810485839844 0.5946617722511292 0 9
35.144447326660156 -6.540878772735596 10.133679389953613 0.7268684506416321 0 9
34.547386169433594 -6.75109338760376 9.978606224060059 0.38286155462265015 0 9
37.81657409667969 -7.742988109588623 10.942497253417969 0.8075156211853027 0 9
36.91128921508789 -7.903476238250732 10.700639724731445 0.6162841320037842 0 9
37.165504455566406 -8.307479858398438 10.795527458190918 0.9982178807258606 0 9
37.08530807495117 -8.63980484008789 10.794328689575195 0.9983290433883667 0 9
32.85847473144531 -7.966620922088623 9.584457397460938 0.9625813364982605 0 9
32.80775833129883 -8.266836166381836 9.590924263000488 0.9619327187538147 0 9
32.756954193115234 -8.567480087280273 9.598166465759277 0.9612067937850952 0 9
32.70606231689453 -8.868515014648438 9.606191635131836 0.9604035019874573 0 9
29.736305236816406 -8.350526809692383 8.755599975585938 0.729650616645813 0 9
29.617244720458984 -8.60464859008789 8.742934226989746 0.7307077646255493 0 9
29.497764587402344 -8.85781192779541 8.73078441619873 0.731724739074707 0 9
30.44000816345215 -9.439433097839355 9.03439998626709 0.07399068772792816 0 9
30.87472915649414 -9.878828048706055 9.189347267150879 0.8328630328178406 0 9
30.610389709472656 -10.098027229309082 9.137287139892578 0.8376086354255676 0 9
30.348834991455078 -10.314687728881836 9.086480140686035 0.8422920107841492 0 9
32.05266189575195 -11.215761184692383 9.626359939575195 0.8004814982414246 0 9
29.39031982421875 -10.581191062927246 8.854958534240723 0.030388399958610535 0 9
30.911380767822266 -11.443242073059082 9.34381103515625 0.05459082871675491 0 9
31.649049758911133 -12.040410041809082 9.59906005859375 0.6039659380912781 0 9
31.741413116455078 -12.402812004089355 9.66045093536377 0.9336461424827576 0 9
31.54595947265625 -12.65396499633789 9.635149002075195 0.936098039150238 0 9
31.351476669311523 -12.903827667236328 9.61073112487793 0.9384759068489075 0 9
39.29559326171875 -16.587596893310547 12.091127395629883 0.7013499140739441 0 9
37.86612319946289 -16.386152267456055 11.696076393127441 0.6446002125740051 0 9
38.06204605102539 -16.878124237060547 11.802909851074219 0.6063235402107239 0 9
37.70893859863281 -17.128183364868164 11.740617752075195 0.7015786170959473 0 9
37.842529296875 -17.60025405883789 11.830917358398438 0.696223795413971 0 9
37.85980224609375 -18.02339744567871 11.886420249938965 0.8293672204017639 0 9
37.72712707519531 -18.377460479736328 11.89608097076416 0.8286939859390259 0 9
36.69355773925781 -18.283281326293945 11.62145709991455 0.7690753936767578 0 9
36.2857666015625 -18.488475799560547 11.54439640045166 0.7742089629173279 0 9
35.84410858154297 -18.670644760131836 11.456740379333496 0.6590730547904968 0 9
34.81351089477539 -18.532928466796875 11.180058479309082 0.4962913990020752 0 9
34.92240524291992 -18.995136260986328 11.269323348999023 0.6700333952903748 0 9
35.40694808959961 -19.672557830810547 11.48221206665039 0.4832321107387543 0 9
35.71660232543945 -20.26626968383789 11.641152381896973 0.47663426399230957 0 9
36.03544998168945 -20.8770694732666 11.805685997009277 0.4699917435646057 0 9
35.975868225097656 -21.276092529296875 11.848246574401855 0.5381231904029846 0 9
35.82303237915039 -21.621992111206055 11.86135482788086 0.7479775547981262 0 9
35.54574966430664 -21.892362594604492 11.834135055541992 0.7496976852416992 0 9
32.22172164916992 -20.24626922607422 10.787546157836914 0.8731342554092407 0 9
32.090816497802734 -20.56804656982422 10.805094718933105 0.8717159628868103 0 9
31.959638595581055 -20.89107322692871 10.82363224029541 0.8702231049537659 0 9
31.828168869018555 -21.215272903442383 10.84316349029541 0.8686556816101074 0 9
30.902284622192383 -21.00113296508789 10.591527938842773 0.9904937744140625 0 9
30.69911766052246 -21.26835823059082 10.586898803710938 0.9909265041351318 0 9
30.49586296081543 -21.535234451293945 10.583036422729492 0.9912880659103394 0 9
30.29246711730957 -21.80171775817871 10.579938888549805 0.9915783405303955 0 9
30.0302677154541 -22.024824142456055 10.556984901428223 0.5627126693725586 0 9
29.662128448486328 -22.167011260986328 10.49709415435791 0.5302665829658508 0 9
29.071447372436523 -22.135000228881836 10.357954025268555 0.5373893976211548 0 9
30.33497428894043 -23.530176162719727 10.882953643798828 0.45440545678138733 0 9
30.058088302612305 -23.75062370300293 10.859670639038086 0.6217148303985596 0 9
29.43833351135254 -23.693143844604492 10.712160110473633 0.5783742070198059 0 9
29.136859893798828 -23.88460922241211 10.680046081542969 0.5801134705543518 0 9
9.734609603881836 -8.276445388793945 3.6220905780792236 0.6324204206466675 0 3
9.561918258666992 -8.27865219116211 3.5853428840637207 0.6389022469520569 0 3
9.392695426940918 -8.280780792236328 3.54961895942688 0.6453323364257812 0 3
9.226801872253418 -8.282910346984863 3.5148768424987793 0.6517103910446167 0 3
9.064101219177246 -8.284979820251465 3.4810917377471924 0.6580359935760498 0 3
8.904497146606445 -8.286992073059082 3.448223829269409 0.6643086075782776 0 3
8.747870445251465 -8.289003372192383 3.4162402153015137 0.670527458190918 0 3
8.594091415405273 -8.290956497192383 3.385115623474121 0.6766927242279053 0 3
8.443095207214355 -8.292851448059082 3.354823112487793 0.6828030943870544 0 3
33.655364990234375 33.056541442871094 12.953532218933105 0.8717594742774963 0 9
34.006134033203125 32.80657958984375 12.974677085876465 0.8703386783599854 0 9
34.358272552490234 32.55595779418945 12.997011184692383 0.8688431978225708 0 9
34.711849212646484 32.30462646484375 13.020544052124023 0.8672727942466736 0 9
34.873497009277344 31.875722885131836 12.973329544067383 0.535988450050354 0 9
34.12495422363281 30.6339054107666 12.592060089111328 0.47684991359710693 0 9
33.130393981933594 29.20829963684082 12.12783145904541 0.14037971198558807 0 9
34.06473159790039 29.492929458618164 12.37246322631836 0.4853135943412781 0 9
33.413658142089844 28.408475875854492 12.042887687683105 0.8341231942176819 0 9
34.00992202758789 28.393436431884766 12.165433883666992 0.4935724139213562 0 9
33.75070571899414 26.179706573486328 11.728764533996582 0.8344500660896301 0 9
33.77840805053711 25.71890640258789 11.657692909240723 0.9122670888900757 0 9
34.09684371948242 25.48113250732422 11.688183784484863 0.9098871350288391 0 9
34.37364196777344 25.210330963134766 11.705029487609863 0.7627582550048828 0 9
32.025733947753906 23.04916000366211 10.834623336791992 0.8036205768585205 0 9
32.339473724365234 22.837167739868164 10.870973587036133 0.8009334206581116 0 9
32.65560531616211 22.62384796142578 10.90854263305664 0.7981752157211304 0 9
32.97419738769531 22.409236907958984 10.947328567504883 0.7953473925590515 0 9
30.708797454833984 20.469179153442383 10.133810997009277 0.8178449273109436 0 9
30.75657081604004 20.10464859008789 10.089621543884277 0.8214272260665894 0 9
29.019479751586914 18.599531173706055 9.464618682861328 0.9245970249176025 0 9
29.28516960144043 18.401073455810547 9.49701976776123 0.9214425683021545 0 9
29.552459716796875 18.20113182067871 9.5303373336792 0.9182217717170715 0 9
29.82139015197754 17.999549865722656 9.564573287963867 0.9149348139762878 0 9
30.092037200927734 17.79638671875 9.599754333496094 0.9115816354751587 0 9
30.364442825317383 17.591581344604492 9.635897636413574 0.9081627130508423 0 9
29.675039291381836 16.838144302368164 9.368776321411133 0.594159722328186 0 9
30.116262435913086 16.732969284057617 9.460274696350098 0.5884127616882324 0 9
30.34426498413086 16.5049991607666 9.48498249053955 0.8362223505973816 0 9
30.334728240966797 16.14861297607422 9.436304092407227 0.8405355215072632 0 9
30.89452362060547 16.09242057800293 9.565119743347168 0.4810551702976227 0 9
31.45560646057129 16.027381896972656 9.693906784057617 0.9929879903793335 0 9
31.596811294555664 15.7437105178833 9.693483352661133 0.9930314421653748 0 9
30.926753997802734 15.064863204956055 9.446044921875 0.2238989770412445 0 9
31.859615325927734 15.166972160339355 9.689001083374023 0.7348445057868958 0 9
31.82672691345215 14.802382469177246 9.638203620910645 0.7387173175811768 0 9
31.794456481933594 14.441659927368164 9.588788986206055 0.7425245046615601 0 9
31.762765884399414 14.084784507751465 9.540716171264648 0.7462657690048218 0 9
36.55028533935547 15.816718101501465 10.935681343078613 0.745417594909668 0 9
31.01535415649414 13.092265129089355 9.244129180908203 0.8069007992744446 0 9
31.056570053100586 12.78246021270752 9.221839904785156 0.8088506460189819 0 9
31.097850799560547 12.474296569824219 9.20047664642334 0.8107285499572754 0 9
30.442279815673828 11.89517593383789 8.974576950073242 0.6834369897842407 0 9
30.824405670166016 11.726679801940918 9.055830955505371 0.6773048639297485 0 9
31.191890716552734 11.54703140258789 9.132975578308105 0.8774595856666565 0 9
30.937084197998047 11.138046264648438 9.028727531433105 0.29013630747795105 0 9
31.13962173461914 10.896230697631836 9.058929443359375 0.3206847012042999 0 9
31.202308654785156 10.604745864868164 9.04910945892334 0.8855918049812317 0 9
31.20589256286621 10.294511795043945 9.022994041442871 0.8881554007530212 0 9
31.209537506103516 9.985957145690918 8.99776554107666 0.890645444393158 0 9
30.71196937561035 9.523730278015137 8.829312324523926 0.8425127863883972 0 9
30.950273513793945 9.293925285339355 8.873480796813965 0.8383191823959351 0 9
31.190990447998047 9.061816215515137 8.918814659118652 0.8340579867362976 0 9
31.434085845947266 8.827245712280273 8.965302467346191 0.8914029598236084 0 9
31.620651245117188 8.574237823486328 8.996209144592285 0.8883410692214966 0 9
31.808570861816406 8.319453239440918 9.028057098388672 0.8852066993713379 0 9
31.99788475036621 8.062773704528809 9.060882568359375 0.8820001482963562 0 9
32.18863296508789 7.804238319396973 9.094695091247559 0.8787213563919067 0 9
38.76223373413086 9.030448913574219 10.92867660522461 0.9164162874221802 0 9
38.71900939941406 8.654726028442383 10.894147872924805 0.9193207025527954 0 9
38.152191162109375 8.169179916381836 10.713605880737305 0.7914016246795654 0 9
37.08270263671875 7.592695236206055 10.393728256225586 0.9043813347816467 0 9
37.30282211303711 7.289570331573486 10.43666934967041 0.9006604552268982 0 9
34.986385345458984 6.511405944824219 9.771814346313477 0.9043058156967163 0 9
29.437240600585938 5.205702781677246 8.208537101745605 0.9796329736709595 0 9
32.60548400878906 5.464687347412109 9.07795238494873 0.9630781412124634 0 9
30.147462844848633 4.774941444396973 8.38132381439209 0.674725353717804 0 9
23.141098022460938 3.4525389671325684 6.4246063232421875 0.3180273771286011 0 6
23.07041358947754 3.2305662631988525 6.3966827392578125 0.9548707008361816 0 6
30.016830444335938 3.928964853286743 8.31257152557373 0.6803060173988342 0 9
29.319293975830078 3.570253849029541 8.11020565032959 0.11999206990003586 0 9
29.92689323425293 3.3719921112060547 8.269567489624023 0.6838437914848328 0 9
29.881053924560547 3.0954296588897705 8.248894691467285 0.6855577826499939 0 9
29.83466148376465 2.820253849029541 8.228763580322266 0.6872346997261047 0 9
29.78768539428711 2.5462303161621094 8.209179878234863 0.6888746619224548 0 9
29.740158081054688 2.273496150970459 8.190123558044434 0.6904771327972412 0 9
29.692054748535156 2.0018749237060547 8.171599388122559 0.6920428276062012 0 9
32.78612518310547 1.915078043937683 9.018026351928711 0.8535763621330261 0 9
32.63890075683594 1.6126562356948853 8.97319221496582 0.857841432094574 0 9
32.49306869506836 1.3132421970367432 8.9295015335083 0.8620392680168152 0 9
32.348567962646484 1.0166015625 8.88692569732666 0.8661690354347229 0 9
33.96372604370117 0.7622656226158142 9.328390121459961 0.9648005962371826 0 9
33.97562789916992 0.45751953125 9.330158233642578 0.9646180272102356 0 9
33.9875373840332 0.15251952409744263 9.332673072814941 0.9643579721450806 0 9
35.63859939575195 -0.15992186963558197 9.786040306091309 0.7145448923110962 0 9
46.0760498046875 -0.6203905940055847 12.653068542480469 0.9940419793128967 0 9
45.74799728393555 -1.0267772674560547 12.565016746520996 0.41385841369628906 0 9
34.37516403198242 -1.080234408378601 9.443683624267578 0.8988655209541321 0 9
31.89840316772461 -1.2891210317611694 8.766081809997559 0.5357483625411987 0 9
32.309486389160156 -1.5963671207427979 8.8826322555542 0.5287183523178101 0 9
32.56394958496094 -1.9020702838897705 8.956923484802246 0.8256370425224304 0 9
32.3858528137207 -2.1835741996765137 8.912964820861816 0.35731732845306396 0 9
32.52143859863281 -2.486035108566284 8.956063270568848 0.9188447594642639 0 9
32.28556823730469 -2.759765625 8.89756965637207 0.5074365735054016 0 9
32.414913177490234 -3.064140558242798 8.940442085266113 0.9204506874084473 0 9
32.36191940307617 -3.352421760559082 8.933757781982422 0.9211385250091553 0 9
31.796630859375 -3.582597494125366 8.786232948303223 0.8128055334091187 0 9
31.74208641052246 -3.8653318881988525 8.780394554138184 0.7210155725479126 0 9
31.960872650146484 -4.183417797088623 8.85094928741455 0.7152684330940247 0 9
32.18324661254883 -4.506718635559082 8.923369407653809 0.7094628810882568 0 9
32.3802375793457 -4.831015586853027 8.989653587341309 0.7944130301475525 0 9
32.530548095703125 -5.152304649353027 9.043859481811523 0.78965163230896 0 9
32.6827392578125 -5.477656364440918 9.099470138549805 0.7848255038261414 0 9
32.73225402832031 -5.788398265838623 9.12735366821289 0.5872721672058105 0 9
38.43946838378906 -7.154140472412109 10.736276626586914 0.5446935892105103 0 9
35.303016662597656 -6.898749828338623 9.877161026000977 0.7240294814109802 0 9
37.90150833129883 -7.760409832000732 10.623231887817383 0.8075618147850037 0 9
36.64417266845703 -7.846288681030273 10.290141105651855 0.6222063899040222 0 9
38.24532699584961 -8.548789024353027 10.760883331298828 0.7972316741943359 0 9
38.58707809448242 -8.989628791809082 10.879303932189941 0.5497734546661377 0 9
32.86163330078125 -7.96740198135376 9.284857749938965 0.9647058844566345 0 9
32.81090545654297 -8.2676362991333 9.291112899780273 0.9640557169914246 0 9
32.760101318359375 -8.568320274353027 9.29813289642334 0.9633280634880066 0 9
32.70920944213867 -8.869355201721191 9.305908203125 0.9625229835510254 0 9
30.034025192260742 -8.434121131896973 8.565999984741211 0.7240818738937378 0 9
29.913331985473633 -8.690664291381836 8.553483963012695 0.7251415252685547 0 9
29.792240142822266 -8.946171760559082 8.541481018066406 0.7261608839035034 0 9
29.67074966430664 -9.200859069824219 8.529979705810547 0.7271395921707153 0 9
29.548845291137695 -9.454628944396973 8.518990516662598 0.7280779480934143 0 9
29.426517486572266 -9.70751953125 8.508495330810547 0.7289754152297974 0 9
29.303741455078125 -9.959491729736328 8.49850845336914 0.7298325300216675 0 9
30.24722671508789 -10.583984375 8.799333572387695 0.029689639806747437 0 9
32.29359817504883 -11.626444816589355 9.424628257751465 0.7938060164451599 0 9
32.150184631347656 -11.901835441589355 9.41357135772705 0.9302298426628113 0 9
31.952558517456055 -12.1558198928833 9.387274742126465 0.9328358173370361 0 9
31.75596809387207 -12.408475875854492 9.36186408996582 0.9353677034378052 0 9
31.560386657714844 -12.659785270690918 9.337329864501953 0.937825620174408 0 9
31.36577033996582 -12.9097261428833 9.313661575317383 0.9402087330818176 0 9
33.29472732543945 -14.054471969604492 9.923500061035156 0.8553955554962158 0 9
37.90998840332031 -16.40511703491211 11.34249496459961 0.645337700843811 0 9
38.15104293823242 -16.917558670043945 11.45959186553955 0.6387434601783752 0 9
38.47827911376953 -17.47767448425293 11.604540824890137 0.9622002840042114 0 9
37.87294006347656 -17.61441421508789 11.46920108795166 0.8345066905021667 0 9
37.74048614501953 -17.966699600219727 11.477470397949219 0.8339055776596069 0 9
37.60812759399414 -18.31947135925293 11.486760139465332 0.8332309126853943 0 9
36.69068145751953 -18.2818546295166 11.256210327148438 0.7709075808525085 0 9
36.22298812866211 -18.456523895263672 11.163105010986328 0.6567113399505615 0 9
35.75213623046875 -18.62271499633789 11.06906509399414 0.6622905731201172 0 9
37.07914733886719 -19.73908233642578 11.534316062927246 0.829795777797699 0 9
34.932861328125 -19.00080108642578 10.919272422790527 0.4933466911315918 0 9
35.22991943359375 -19.574256896972656 11.066606521606445 0.4867789149284363 0 9
35.53555679321289 -20.16357421875 11.219016075134277 0.4801661968231201 0 9
36.21477127075195 -20.980897903442383 11.492450714111328 0.749505877494812 0 9
35.81012725830078 -21.17802619934082 11.423901557922363 0.541858971118927 0 9
35.65837478637695 -21.522674560546875 11.436662673950195 0.7531620860099792 0 9
32.28767395019531 -19.885683059692383 10.412409782409668 0.8782481551170349 0 9
32.157188415527344 -20.2056827545166 10.428400993347168 0.8769017457962036 0 9
32.02643585205078 -20.526737213134766 10.445331573486328 0.8754803538322449 0 9
31.89542007446289 -20.849102020263672 10.463212966918945 0.8739840388298035 0 9
31.210975646972656 -20.80386734008789 10.299530982971191 0.9889125227928162 0 9
31.00714683532715 -21.07244110107422 10.29427433013916 0.9894177317619324 0 9
30.803258895874023 -21.340545654296875 10.28976058959961 0.9898514151573181 0 9
29.855724334716797 -21.08318328857422 10.036048889160156 0.574683666229248 0 9
30.02345085144043 -21.608144760131836 10.157217025756836 0.5678278803825378 0 9
30.19088363647461 -22.142597198486328 10.280695915222168 0.9907242655754089 0 9
29.64601707458496 -22.154979705810547 10.16246223449707 0.5317765474319458 0 9
29.055912017822266 -22.123144149780273 10.027844429016113 0.5389154553413391 0 9
29.576900482177734 -22.94220733642578 10.278310775756836 0.9909541010856628 0 9
29.49614143371582 -23.306562423706055 10.322531700134277 0.16580310463905334 0 9
29.91551971435547 -24.077226638793945 10.544513702392578 0.9566431045532227 0 9
29.621295928955078 -24.281757354736328 10.5172119140625 0.9591264724731445 0 9
29.57952880859375 -24.694765090942383 10.58065128326416 0.619527280330658 0 9
9.734560012817383 -8.2764253616333 3.508513927459717 0.6338799595832825 0 3
9.561884880065918 -8.278632164001465 3.4729206562042236 0.6403764486312866 0 3
9.392656326293945 -8.28076171875 3.438314437866211 0.6468214988708496 0 3
9.226752281188965 -8.282890319824219 3.4046645164489746 0.6532145142555237 0 3
9.064057350158691 -8.284960746765137 3.371936321258545 0.659554660320282 0 3
8.90445327758789 -8.286972045898438 3.340099334716797 0.6658415198326111 0 3
8.74782657623291 -8.28896427154541 3.3091213703155518 0.672074556350708 0 3
8.594067573547363 -8.290937423706055 3.2789723873138428 0.6782538294792175 0 3
8.443066596984863 -8.292831420898438 3.2496278285980225 0.6843786239624023 0 3
33.62896728515625 33.03056716918945 12.52632999420166 0.8934410214424133 0 9
31.76064109802246 30.64029312133789 11.727484703063965 0.6102288365364075 0 9
32.20389938354492 30.514549255371094 11.789543151855469 0.607016921043396 0 9
32.65248107910156 30.388065338134766 11.853425025939941 0.6037455797195435 0 9
33.10655975341797 30.260683059692383 11.91918659210205 0.6004147529602051 0 9
33.31502914428711 29.906835556030273 11.897104263305664 0.8189607262611389 0 9
33.38296890258789 29.43099594116211 11.826550483703613 0.8238464593887329 0 9
33.44986343383789 28.960487365722656 11.757673263549805 0.8286721706390381 0 9
17.50606918334961 14.883710861206055 6.106201648712158 0.5932730436325073 0 6
33.5457649230957 26.50634765625 11.361481666564941 0.9281072616577148 0 9
19.21476936340332 14.904433250427246 6.462214946746826 0.47777339816093445 0 6
34.23838424682617 26.06913948059082 11.435705184936523 0.9220836162567139 0 9
34.20948791503906 25.565351486206055 11.348947525024414 0.7630400061607361 0 9
34.27070617675781 25.1348819732666 11.293957710266113 0.7667555809020996 0 9
33.412330627441406 24.04716682434082 10.939506530761719 0.2519876956939697 0 9
32.243595123291016 22.76937484741211 10.489508628845215 0.8051068782806396 0 9
32.55842971801758 22.556522369384766 10.525641441345215 0.8023428916931152 0 9
32.875732421875 22.342304229736328 10.562963485717773 0.7995085120201111 0 9
29.726852416992188 19.81462860107422 9.493694305419922 0.2904035151004791 0 9
30.703975677490234 20.070253372192383 9.74782657623291 0.824669599533081 0 9
30.08207893371582 19.280546188354492 9.495064735412598 0.621042013168335 0 9
29.384008407592773 18.46322250366211 9.222044944763184 0.9203909635543823 0 9
29.652565002441406 18.262773513793945 9.254499435424805 0.9171627759933472 0 9
29.922767639160156 18.060741424560547 9.287861824035645 0.9138685464859009 0 9
30.19471549987793 17.85706901550293 9.322142601013184 0.9105077981948853 0 9
29.492435455322266 17.086328506469727 9.057608604431152 0.596095621585846 0 9
29.932050704956055 16.983983993530273 9.14543628692627 0.590371310710907 0 9
30.379676818847656 16.87935447692871 9.235540390014648 0.5846115946769714 0 9
30.47953987121582 16.578495025634766 9.220279693603516 0.8343677520751953 0 9
30.469257354736328 16.220273971557617 9.17275333404541 0.8386905789375305 0 9
30.877647399902344 16.08365249633789 9.251870155334473 0.482391357421875 0 9
30.548908233642578 15.5654296875 9.11113166809082 0.4898426830768585 0 9
31.4168701171875 15.654081344604492 9.327719688415527 0.6951078176498413 0 9
31.06766128540039 15.133515357971191 9.18333625793457 0.17386510968208313 0 9
31.751346588134766 15.115448951721191 9.344948768615723 0.7389944195747375 0 9
31.71913719177246 14.752382278442383 9.296117782592773 0.7428762316703796 0 9
31.687522888183594 14.3931245803833 9.24862003326416 0.7466915249824524 0 9
33.25116729736328 14.744804382324219 9.66597843170166 0.4539248049259186 0 9
36.90507888793945 15.970175743103027 10.68605899810791 0.7398978471755981 0 9
37.04017639160156 15.635448455810547 10.68410587310791 0.740032970905304 0 9
37.174346923828125 15.300487518310547 10.68276596069336 0.740125834941864 0 9
36.41700744628906 14.607871055603027 10.42702865600586 0.23042914271354675 0 9
30.579967498779297 11.948984146118164 8.724691390991211 0.6818772554397583 0 9
30.96510887145996 11.780214309692383 8.804049491882324 0.6757305264472961 0 9
31.120853424072266 11.520761489868164 8.818572044372559 0.820410966873169 0 9
31.162506103515625 11.219218254089355 8.801487922668457 0.8220035433769226 0 9
31.16653823852539 10.905644416809082 8.774625778198242 0.8858387470245361 0 9
31.1701602935791 10.593847274780273 8.748518943786621 0.8884821534156799 0 9
31.173831939697266 10.283905982971191 8.723289489746094 0.8910514712333679 0 9
30.472463607788086 9.750117301940918 8.502190589904785 0.8486256003379822 0 9
30.70836067199707 9.522597312927246 8.543822288513184 0.8444910645484924 0 9
30.946603775024414 9.292831420898438 8.58654499053955 0.840288519859314 0 9
31.18728256225586 9.060722351074219 8.630413055419922 0.8360174298286438 0 9
31.42140007019043 8.823749542236328 8.672932624816895 0.8937514424324036 0 9
31.60787582397461 8.570761680603027 8.702818870544434 0.890682578086853 0 9
31.795671463012695 8.31607437133789 8.733620643615723 0.8875410556793213 0 9
31.984848022460938 8.059492111206055 8.765361785888672 0.8843271732330322 0 9
38.537384033203125 9.343496322631836 10.537660598754883 0.7896499633789062 0 9
