ply
format ascii 1.0
element vertex 1345
property float32 x
property float32 y
property float32 z
property float32 CosAngle
property uint32 ObjIdx
property uint32 ObjTag
end_header
0.9800 -0.1485 -0.4094 0.3887 458 14
0.9799 -0.1462 -0.4092 0.3889 458 14
0.9798 -0.1439 -0.4090 0.3891 458 14
0.9797 -0.1417 -0.4088 0.3892 458 14
0.9796 -0.1394 -0.4087 0.3894 458 14
0.9795 -0.1372 -0.4085 0.3896 458 14
0.9794 -0.1349 -0.4083 0.3897 458 14
0.9793 -0.1327 -0.4081 0.3899 458 14
0.9792 -0.1304 -0.4080 0.3901 458 14
0.9790 -0.1281 -0.4078 0.3902 458 14
0.9789 -0.1259 -0.4076 0.3904 458 14
0.9787 -0.1236 -0.4074 0.3906 458 14
0.9786 -0.1214 -0.4073 0.3907 458 14
0.9785 -0.1191 -0.4071 0.3909 458 14
0.9783 -0.1169 -0.4069 0.3911 458 14
0.9781 -0.1146 -0.4067 0.3912 458 14
0.9780 -0.1124 -0.4066 0.3914 458 14
0.9778 -0.1102 -0.4064 0.3916 458 14
0.9776 -0.1079 -0.4062 0.3917 458 14
0.9775 -0.1057 -0.4061 0.3919 458 14
0.9773 -0.1035 -0.4059 0.3921 458 14
0.9771 -0.1012 -0.4057 0.3922 458 14
0.9769 -0.0990 -0.4055 0.3924 458 14
0.9767 -0.0967 -0.4054 0.3926 458 14
0.9765 -0.0945 -0.4052 0.3927 458 14
0.9763 -0.0923 -0.4050 0.3929 458 14
0.9761 -0.0900 -0.4048 0.3931 458 14
0.9759 -0.0878 -0.4047 0.3932 458 14
0.9757 -0.0856 -0.4045 0.3934 458 14
0.9754 -0.0834 -0.4043 0.3936 458 14
0.9752 -0.0812 -0.4042 0.3937 458 14
0.9750 -0.0789 -0.4040 0.3939 458 14
0.9747 -0.0767 -0.4038 0.3941 458 14
0.9745 -0.0745 -0.4037 0.3942 458 14
0.9743 -0.0723 -0.4035 0.3944 458 14
0.9740 -0.0701 -0.4033 0.3946 458 14
0.9738 -0.0678 -0.4031 0.3947 458 14
0.9735 -0.0656 -0.4030 0.3949 458 14
0.9732 -0.0634 -0.4028 0.3951 458 14
0.9730 -0.0612 -0.4026 0.3952 458 14
0.9727 -0.0590 -0.4025 0.3954 458 14
0.9724 -0.0568 -0.4023 0.3956 458 14
0.9721 -0.0546 -0.4021 0.3957 458 14
0.9718 -0.0524 -0.4020 0.3959 458 14
0.9716 -0.0502 -0.4018 0.3961 458 14
0.9713 -0.0480 -0.4016 0.3962 458 14
0.9710 -0.0458 -0.4015 0.3964 458 14
0.9707 -0.0436 -0.4013 0.3966 458 14
0.9704 -0.0414 -0.4011 0.3967 458 14
0.9700 -0.0392 -0.4010 0.3969 458 14
0.9697 -0.0370 -0.4008 0.3971 458 14
0.9694 -0.0348 -0.4006 0.3972 458 14
0.9691 -0.0326 -0.4005 0.3974 458 14
0.9688 -0.0304 -0.4003 0.3975 458 14
0.9684 -0.0282 -0.4001 0.3977 458 14
0.9681 -0.0261 -0.4000 0.3979 458 14
0.9677 -0.0239 -0.3998 0.3980 458 14
0.9674 -0.0217 -0.3996 0.3982 458 14
0.9670 -0.0195 -0.3995 0.3984 458 14
0.9667 -0.0173 -0.3993 0.3985 458 14
0.9663 -0.0152 -0.3991 0.3987 458 14
0.9659 -0.0130 -0.3990 0.3989 458 14
0.9656 -0.0108 -0.3988 0.3990 458 14
0.9652 -0.0087 -0.3987 0.3992 458 14
0.9648 -0.0065 -0.3985 0.3993 458 14
0.9644 -0.0043 -0.3983 0.3995 458 14
0.9641 -0.0021 -0.3982 0.3997 458 14
0.9637 0.0000 -0.3980 0.3998 458 14
0.9633 0.0022 -0.3978 0.4000 458 14
0.9629 0.0043 -0.3977 0.4002 458 14
0.9625 0.0065 -0.3975 0.4003 458 14
0.9621 0.0087 -0.3974 0.4005 458 14
0.9617 0.0108 -0.3972 0.4007 458 14
0.9612 0.0129 -0.3970 0.4008 458 14
0.9608 0.0151 -0.3969 0.4010 458 14
0.9604 0.0172 -0.3967 0.4011 458 14
0.9600 0.0194 -0.3966 0.4013 458 14
0.9595 0.0215 -0.3964 0.4015 458 14
0.9591 0.0237 -0.3962 0.4016 458 14
0.9586 0.0258 -0.3961 0.4018 458 14
0.9582 0.0280 -0.3959 0.4020 458 14
0.9578 0.0301 -0.3958 0.4021 458 14
0.9573 0.0322 -0.3956 0.4023 458 14
0.9568 0.0344 -0.3954 0.4024 458 14
0.9564 0.0365 -0.3953 0.4026 458 14
0.9559 0.0386 -0.3951 0.4028 458 14
0.9554 0.0408 -0.3950 0.4029 458 14
0.9550 0.0429 -0.3948 0.4031 458 14
0.9545 0.0450 -0.3946 0.4032 458 14
0.9540 0.0471 -0.3945 0.4034 458 14
0.9535 0.0493 -0.3943 0.4036 458 14
0.9530 0.0514 -0.3942 0.4037 458 14
0.9525 0.0535 -0.3940 0.4039 458 14
0.9520 0.0556 -0.3939 0.4040 458 14
0.9515 0.0577 -0.3937 0.4042 458 14
0.9510 0.0598 -0.3935 0.4044 458 14
0.9505 0.0620 -0.3934 0.4045 458 14
0.9500 0.0641 -0.3932 0.4047 458 14
0.9495 0.0662 -0.3931 0.4048 458 14
0.9489 0.0683 -0.3929 0.4050 458 14
0.9484 0.0704 -0.3928 0.4052 458 14
0.9479 0.0725 -0.3926 0.4053 458 14
0.9473 0.0746 -0.3925 0.4055 458 14
0.9468 0.0767 -0.3923 0.4056 458 14
0.9462 0.0787 -0.3922 0.4058 458 14
0.9457 0.0808 -0.3920 0.4060 458 14
0.9451 0.0829 -0.3918 0.4061 458 14
0.9446 0.0850 -0.3917 0.4063 458 14
0.9440 0.0871 -0.3915 0.4064 458 14
0.9435 0.0892 -0.3914 0.4066 458 14
0.9429 0.0913 -0.3912 0.4068 458 14
0.9423 0.0933 -0.3911 0.4069 458 14
0.9417 0.0954 -0.3909 0.4071 458 14
0.9412 0.0975 -0.3908 0.4072 458 14
0.9405 0.0996 -0.3906 0.4074 458 14
0.9400 0.1017 -0.3905 0.4075 458 14
0.9394 0.1037 -0.3903 0.4077 458 14
0.9388 0.1058 -0.3902 0.4079 458 14
0.9382 0.1079 -0.3900 0.4080 458 14
0.9376 0.1099 -0.3899 0.4082 458 14
0.9370 0.1120 -0.3897 0.4083 458 14
0.9363 0.1140 -0.3896 0.4085 458 14
0.9357 0.1161 -0.3894 0.4086 458 14
0.9351 0.1181 -0.3893 0.4088 458 14
0.9345 0.1202 -0.3891 0.4090 458 14
0.9339 0.1222 -0.3890 0.4091 458 14
0.9332 0.1243 -0.3888 0.4093 458 14
0.9326 0.1263 -0.3887 0.4094 458 14
0.9319 0.1284 -0.3885 0.4096 458 14
0.9313 0.1304 -0.3884 0.2978 458 14
0.9308 0.1325 -0.3883 0.2979 458 14
0.9302 0.1345 -0.3882 0.2980 458 14
0.9296 0.1366 -0.3881 0.2981 458 14
0.9290 0.1386 -0.3879 0.2982 458 14
0.9284 0.1407 -0.3878 0.2983 458 14
0.9278 0.1427 -0.3877 0.2984 458 14
0.9272 0.1447 -0.3876 0.2985 458 14
0.9266 0.1468 -0.3875 0.2986 458 14
0.9260 0.1488 -0.3873 0.2987 458 14
0.9253 0.1508 -0.3872 0.2987 458 14
0.9247 0.1529 -0.3871 0.2988 458 14
0.9241 0.1549 -0.3870 0.2989 458 14
0.9234 0.1569 -0.3869 0.2990 458 14
0.9228 0.1589 -0.3867 0.2991 458 14
0.9221 0.1610 -0.3866 0.2992 458 14
0.9215 0.1630 -0.3865 0.2993 458 14
0.9208 0.1650 -0.3864 0.2994 458 14
0.9201 0.1670 -0.3862 0.2995 458 14
0.9195 0.1690 -0.3861 0.2996 458 14
0.9188 0.1710 -0.3860 0.2997 458 14
0.9181 0.1730 -0.3859 0.2998 458 14
0.9174 0.1750 -0.3857 0.2999 458 14
0.9167 0.1770 -0.3856 0.3000 458 14
0.9160 0.1790 -0.3855 0.3001 458 14
0.9153 0.1810 -0.3854 0.3002 458 14
0.9146 0.1830 -0.3852 0.3003 458 14
0.9139 0.1850 -0.3851 0.3004 458 14
0.9132 0.1870 -0.3850 0.3005 458 14
0.9124 0.1890 -0.3848 0.3006 458 14
0.9117 0.1910 -0.3847 0.3007 458 14
0.9110 0.1929 -0.3846 0.3008 458 14
0.9102 0.1949 -0.3845 0.3009 458 14
0.9095 0.1969 -0.3843 0.3010 458 14
0.9087 0.1989 -0.3842 0.3011 458 14
0.9080 0.2008 -0.3841 0.3012 458 14
0.9072 0.2028 -0.3839 0.3013 458 14
0.9064 0.2047 -0.3838 0.3014 458 14
0.9057 0.2067 -0.3837 0.3015 458 14
0.9049 0.2087 -0.3835 0.3016 458 14
0.9041 0.2106 -0.3834 0.3017 458 14
0.9033 0.2126 -0.3833 0.3018 458 14
0.9025 0.2146 -0.3831 0.3019 458 14
0.9017 0.2165 -0.3830 0.3020 458 14
0.9009 0.2184 -0.3829 0.3021 458 14
0.9001 0.2204 -0.3827 0.3023 458 14
0.8993 0.2223 -0.3826 0.3024 458 14
0.8985 0.2243 -0.3825 0.3025 458 14
0.8976 0.2262 -0.3823 0.3026 458 14
0.8968 0.2281 -0.3822 0.3027 458 14
0.8960 0.2301 -0.3820 0.3028 458 14
0.8951 0.2320 -0.3819 0.3029 458 14
0.8943 0.2339 -0.3818 0.3030 458 14
0.8934 0.2358 -0.3816 0.3031 458 14
0.8926 0.2378 -0.3815 0.3032 458 14
0.8917 0.2397 -0.3814 0.3033 458 14
0.8908 0.2416 -0.3812 0.3035 458 14
0.8900 0.2435 -0.3811 0.3036 458 14
0.8891 0.2454 -0.3809 0.3037 458 14
0.8882 0.2473 -0.3808 0.3038 458 14
0.8873 0.2492 -0.3807 0.3039 458 14
0.8866 0.2512 -0.3806 0.2888 458 14
0.8861 0.2531 -0.3806 0.2888 458 14
0.8855 0.2551 -0.3806 0.2888 458 14
0.8850 0.2571 -0.3806 0.2888 458 14
0.8845 0.2591 -0.3807 0.3786 458 14
0.8843 0.2612 -0.3808 0.3784 458 14
0.8841 0.2633 -0.3810 0.3783 458 14
0.8839 0.2654 -0.3812 0.3781 458 14
0.8837 0.2675 -0.3813 0.3779 458 14
0.8835 0.2696 -0.3815 0.3778 458 14
0.8833 0.2717 -0.3817 0.3776 458 14
0.8831 0.2738 -0.3818 0.3774 458 14
0.8828 0.2759 -0.3820 0.3773 458 14
0.8826 0.2780 -0.3822 0.3771 458 14
0.8824 0.2802 -0.3824 0.3769 458 14
0.8821 0.2823 -0.3825 0.3768 458 14
0.8819 0.2844 -0.3827 0.3766 458 14
0.8817 0.2865 -0.3829 0.3764 458 14
0.8814 0.2886 -0.3830 0.3763 458 14
0.8812 0.2907 -0.3832 0.3761 458 14
0.8809 0.2928 -0.3834 0.3759 458 14
0.8806 0.2949 -0.3836 0.3757 458 14
0.8804 0.2970 -0.3837 0.3756 458 14
0.8801 0.2991 -0.3839 0.3754 458 14
0.8798 0.3012 -0.3841 0.3752 458 14
0.8795 0.3033 -0.3842 0.3751 458 14
0.8792 0.3054 -0.3844 0.3749 458 14
0.8789 0.3076 -0.3846 0.3747 458 14
0.8786 0.3097 -0.3848 0.3746 458 14
0.8783 0.3118 -0.3849 0.3744 458 14
0.8780 0.3139 -0.3851 0.3742 458 14
0.8777 0.3160 -0.3853 0.3741 458 14
0.8774 0.3181 -0.3855 0.3739 458 14
0.8771 0.3202 -0.3856 0.3737 458 14
0.8767 0.3223 -0.3858 0.3736 458 14
0.8764 0.3245 -0.3860 0.3734 458 14
0.8761 0.3266 -0.3862 0.3732 458 14
0.8757 0.3287 -0.3863 0.3731 458 14
0.8754 0.3308 -0.3865 0.3729 458 14
0.8750 0.3329 -0.3867 0.3727 458 14
0.8747 0.3350 -0.3869 0.3726 458 14
0.8743 0.3371 -0.3870 0.3724 458 14
0.8740 0.3393 -0.3872 0.3722 458 14
0.8736 0.3414 -0.3874 0.3720 458 14
0.8732 0.3435 -0.3875 0.3719 458 14
0.8728 0.3456 -0.3877 0.3717 458 14
0.8725 0.3477 -0.3879 0.3715 458 14
0.8721 0.3498 -0.3881 0.3714 458 14
0.8717 0.3519 -0.3882 0.3712 458 14
0.8713 0.3540 -0.3884 0.3710 458 14
0.8709 0.3562 -0.3886 0.3709 458 14
0.8705 0.3583 -0.3888 0.3707 458 14
0.8701 0.3604 -0.3890 0.3705 458 14
0.8696 0.3625 -0.3891 0.3704 458 14
0.8692 0.3646 -0.3893 0.3702 458 14
0.8688 0.3668 -0.3895 0.3700 458 14
0.8684 0.3689 -0.3897 0.3699 458 14
0.8679 0.3710 -0.3898 0.3697 458 14
0.8675 0.3731 -0.3900 0.3695 458 14
0.8670 0.3752 -0.3902 0.3694 458 14
0.8666 0.3773 -0.3904 0.3692 458 14
0.8661 0.3794 -0.3905 0.3690 458 14
0.8657 0.3815 -0.3907 0.3689 458 14
0.8652 0.3837 -0.3909 0.3687 458 14
0.8647 0.3858 -0.3911 0.3685 458 14
0.8643 0.3879 -0.3912 0.3684 458 14
0.8638 0.3900 -0.3914 0.3682 458 14
0.8633 0.3921 -0.3916 0.3680 458 14
0.8628 0.3943 -0.3918 0.3679 458 14
0.8623 0.3964 -0.3920 0.3677 458 14
0.8618 0.3985 -0.3921 0.3675 458 14
0.8613 0.4006 -0.3923 0.3674 458 14
0.8608 0.4027 -0.3925 0.3672 458 14
0.8603 0.4048 -0.3927 0.3670 458 14
0.8597 0.4069 -0.3928 0.3669 458 14
0.8592 0.4090 -0.3930 0.3667 458 14
0.8587 0.4112 -0.3932 0.3665 458 14
0.8581 0.4133 -0.3934 0.3664 458 14
0.8576 0.4154 -0.3936 0.3662 458 14
0.8571 0.4175 -0.3937 0.3660 458 14
0.8565 0.4196 -0.3939 0.3659 458 14
0.8559 0.4217 -0.3941 0.3657 458 14
0.8554 0.4238 -0.3943 0.3655 458 14
0.8548 0.4259 -0.3944 0.3654 458 14
0.8542 0.4280 -0.3946 0.3652 458 14
0.8537 0.4302 -0.3948 0.3650 458 14
0.8531 0.4323 -0.3950 0.3649 458 14
0.8525 0.4344 -0.3952 0.3647 458 14
0.8519 0.4365 -0.3953 0.3646 458 14
0.8513 0.4386 -0.3955 0.3644 458 14
0.8507 0.4407 -0.3957 0.3642 458 14
0.8501 0.4428 -0.3959 0.3641 458 14
0.8495 0.4449 -0.3961 0.3639 458 14
0.8489 0.4470 -0.3962 0.3637 458 14
0.8483 0.4491 -0.3964 0.3636 458 14
0.8476 0.4512 -0.3966 0.3634 458 14
0.8470 0.4533 -0.3968 0.3632 458 14
0.8464 0.4555 -0.3970 0.3631 458 14
0.8457 0.4576 -0.3971 0.3629 458 14
0.8451 0.4597 -0.3973 0.3627 458 14
0.8444 0.4618 -0.3975 0.3626 458 14
0.8438 0.4639 -0.3977 0.3624 458 14
0.8431 0.4660 -0.3979 0.3622 458 14
0.8424 0.4681 -0.3980 0.3621 458 14
0.8418 0.4702 -0.3982 0.3619 458 14
0.8411 0.4723 -0.3984 0.3618 458 14
0.8404 0.4744 -0.3986 0.3616 458 14
0.8397 0.4765 -0.3988 0.3614 458 14
0.8390 0.4786 -0.3989 0.3613 458 14
0.8383 0.4807 -0.3991 0.3611 458 14
0.8376 0.4828 -0.3993 0.3609 458 14
0.8369 0.4849 -0.3995 0.3608 458 14
0.8362 0.4870 -0.3997 0.3606 458 14
0.8355 0.4891 -0.3998 0.3605 458 14
0.8348 0.4912 -0.4000 0.3603 458 14
0.8340 0.4933 -0.4002 0.3601 458 14
0.8333 0.4954 -0.4004 0.3600 458 14
0.8326 0.4975 -0.4006 0.3598 458 14
0.8318 0.4996 -0.4007 0.3596 458 14
0.8311 0.5016 -0.4009 0.3595 458 14
0.8303 0.5037 -0.4011 0.3593 458 14
0.8296 0.5058 -0.4013 0.3592 458 14
0.8288 0.5079 -0.4015 0.3590 458 14
0.8280 0.5100 -0.4016 0.3588 458 14
0.8273 0.5121 -0.4018 0.3587 458 14
0.8265 0.5142 -0.4020 0.3585 458 14
0.8257 0.5163 -0.4022 0.3583 458 14
0.8249 0.5183 -0.4024 0.3582 458 14
0.8241 0.5204 -0.4025 0.3580 458 14
0.8233 0.5225 -0.4027 0.3579 458 14
0.8225 0.5246 -0.4029 0.3577 458 14
0.8217 0.5267 -0.4031 0.3575 458 14
0.8209 0.5288 -0.4033 0.3574 458 14
0.8201 0.5308 -0.4035 0.3572 458 14
0.8192 0.5329 -0.4036 0.3571 458 14
0.8184 0.5350 -0.4038 0.3569 458 14
0.8176 0.5371 -0.4040 0.3567 458 14
0.8167 0.5391 -0.4042 0.3566 458 14
0.8159 0.5412 -0.4044 0.3564 458 14
0.8150 0.5433 -0.4045 0.3563 458 14
0.8142 0.5454 -0.4047 0.3561 458 14
0.8133 0.5474 -0.4049 0.3559 458 14
0.8125 0.5495 -0.4051 0.3558 458 14
0.8116 0.5516 -0.4053 0.3556 458 14
0.8107 0.5537 -0.4055 0.3555 458 14
0.8098 0.5557 -0.4056 0.3553 458 14
0.8089 0.5578 -0.4058 0.3551 458 14
0.8080 0.5598 -0.4060 0.3550 458 14
0.8071 0.5619 -0.4062 0.3548 458 14
0.8062 0.5639 -0.4064 0.3547 458 14
0.8053 0.5660 -0.4065 0.3545 458 14
0.8044 0.5681 -0.4067 0.3543 458 14
0.8035 0.5701 -0.4069 0.3542 458 14
3.3479 2.3867 -1.6981 0.3823 0 2
3.3425 2.3942 -1.6981 0.3823 0 2
3.3371 2.4017 -1.6981 0.3823 0 2
3.3317 2.4092 -1.6981 0.3823 0 2
3.3263 2.4167 -1.6981 0.3823 0 2
3.3209 2.4241 -1.6981 0.3823 0 2
3.3155 2.4316 -1.6981 0.3823 0 2
3.3100 2.4390 -1.6981 0.3823 0 2
3.3045 2.4465 -1.6981 0.3823 0 2
3.2991 2.4539 -1.6981 0.3823 0 2
3.2935 2.4613 -1.6981 0.3823 0 2
3.2880 2.4687 -1.6981 0.3823 0 2
3.3083 2.4955 -1.7115 0.6382 0 2
3.2944 2.4967 -1.7072 0.6398 0 2
3.2806 2.4979 -1.7030 0.6414 0 2
3.2669 2.4990 -1.6988 0.6430 0 2
3.2602 2.5054 -1.6982 0.3823 0 2
3.2545 2.5128 -1.6982 0.3823 0 2
3.2489 2.5201 -1.6982 0.3823 0 2
3.2432 2.5273 -1.6982 0.3823 0 2
3.2376 2.5346 -1.6982 0.3823 0 2
3.2319 2.5419 -1.6982 0.3823 0 2
3.2262 2.5491 -1.6982 0.3823 0 2
3.2204 2.5564 -1.6982 0.3823 0 2
3.2147 2.5636 -1.6982 0.3823 0 2
3.2090 2.5708 -1.6982 0.3823 0 2
3.2032 2.5780 -1.6982 0.3823 0 2
3.1974 2.5852 -1.6982 0.3823 0 2
3.1916 2.5924 -1.6982 0.3823 0 2
3.1858 2.5996 -1.6982 0.3823 0 2
3.1799 2.6067 -1.6982 0.3823 0 2
3.1741 2.6138 -1.6982 0.3823 0 2
3.1682 2.6210 -1.6982 0.3823 0 2
3.1624 2.6281 -1.6982 0.3823 0 2
3.1565 2.6352 -1.6982 0.3823 0 2
3.1505 2.6422 -1.6982 0.3823 0 2
3.1446 2.6493 -1.6982 0.3823 0 2
3.1387 2.6564 -1.6983 0.3823 0 2
3.1327 2.6634 -1.6983 0.3823 0 2
3.1267 2.6704 -1.6983 0.3823 0 2
3.1207 2.6775 -1.6983 0.3823 0 2
3.1147 2.6845 -1.6983 0.3823 0 2
3.1087 2.6915 -1.6983 0.3823 0 2
3.1027 2.6984 -1.6983 0.3823 0 2
3.0966 2.7054 -1.6983 0.3823 0 2
3.0905 2.7123 -1.6983 0.3823 0 2
3.0844 2.7193 -1.6983 0.3823 0 2
3.0783 2.7262 -1.6983 0.3823 0 2
3.0722 2.7331 -1.6983 0.3823 0 2
3.0661 2.7400 -1.6983 0.3823 0 2
3.0599 2.7469 -1.6983 0.3823 0 2
3.0538 2.7537 -1.6983 0.3823 0 2
3.0476 2.7606 -1.6983 0.3823 0 2
3.0414 2.7674 -1.6983 0.3823 0 2
3.0352 2.7743 -1.6983 0.3823 0 2
3.0290 2.7811 -1.6983 0.3823 0 2
3.0227 2.7879 -1.6983 0.3823 0 2
3.0165 2.7946 -1.6983 0.3823 0 2
3.0102 2.8014 -1.6983 0.3823 0 2
3.0039 2.8082 -1.6983 0.3823 0 2
2.9976 2.8149 -1.6984 0.3823 0 2
2.9913 2.8216 -1.6984 0.3823 0 2
2.9850 2.8284 -1.6984 0.3823 0 2
2.9786 2.8350 -1.6984 0.3823 0 2
2.9723 2.8418 -1.6984 0.3823 0 2
2.9659 2.8484 -1.6984 0.3823 0 2
2.9595 2.8551 -1.6984 0.3823 0 2
2.9531 2.8617 -1.6984 0.3823 0 2
2.9467 2.8683 -1.6984 0.3823 0 2
2.9403 2.8749 -1.6984 0.3823 0 2
2.9338 2.8815 -1.6984 0.3823 0 2
2.9274 2.8881 -1.6984 0.3822 0 2
2.9209 2.8947 -1.6984 0.3822 0 2
2.9144 2.9012 -1.6984 0.3822 0 2
3.0135 -3.0136 -1.8014 0.3898 0 1
3.0203 -3.0068 -1.8014 0.3898 0 1
3.0270 -3.0000 -1.8014 0.3898 0 1
3.0337 -2.9932 -1.8014 0.3898 0 1
3.0404 -2.9864 -1.8014 0.3898 0 1
3.0471 -2.9795 -1.8014 0.3898 0 1
3.0538 -2.9727 -1.8014 0.3898 0 1
3.0604 -2.9658 -1.8014 0.3898 0 1
3.0671 -2.9589 -1.8014 0.3898 0 1
3.0737 -2.9520 -1.8014 0.3898 0 1
3.0803 -2.9451 -1.8014 0.3898 0 1
3.0869 -2.9382 -1.8014 0.3898 0 1
3.0935 -2.9312 -1.8014 0.3898 0 1
3.1000 -2.9243 -1.8014 0.3898 0 1
3.1066 -2.9173 -1.8014 0.3898 0 1
3.1131 -2.9103 -1.8014 0.3898 0 1
3.1196 -2.9033 -1.8014 0.3898 0 1
3.1261 -2.8963 -1.8014 0.3898 0 1
3.1326 -2.8893 -1.8013 0.3898 0 1
3.1391 -2.8822 -1.8013 0.3898 0 1
3.1455 -2.8752 -1.8013 0.3898 0 1
3.1520 -2.8681 -1.8013 0.3898 0 1
3.1584 -2.8610 -1.8013 0.3899 0 1
3.1648 -2.8539 -1.8013 0.3899 0 1
3.1712 -2.8468 -1.8013 0.3899 0 1
3.1775 -2.8397 -1.8013 0.3899 0 1
3.1839 -2.8325 -1.8013 0.3899 0 1
3.1902 -2.8254 -1.8013 0.3899 0 1
3.1966 -2.8182 -1.8013 0.3899 0 1
3.2029 -2.8110 -1.8013 0.3899 0 1
3.2092 -2.8038 -1.8013 0.3899 0 1
3.2154 -2.7966 -1.8013 0.3899 0 1
3.2217 -2.7894 -1.8013 0.3899 0 1
3.2279 -2.7821 -1.8013 0.3899 0 1
3.2342 -2.7748 -1.8013 0.3899 0 1
3.2404 -2.7676 -1.8013 0.3899 0 1
3.2466 -2.7603 -1.8013 0.3899 0 1
3.2528 -2.7530 -1.8013 0.3899 0 1
3.2589 -2.7457 -1.8013 0.3899 0 1
3.2651 -2.7383 -1.8012 0.3899 0 1
3.2712 -2.7310 -1.8012 0.3899 0 1
3.2773 -2.7237 -1.8012 0.3899 0 1
3.2834 -2.7163 -1.8012 0.3899 0 1
3.2895 -2.7089 -1.8012 0.3899 0 1
3.2955 -2.7015 -1.8012 0.3899 0 1
3.3016 -2.6941 -1.8012 0.3899 0 1
3.3076 -2.6867 -1.8012 0.3899 0 1
3.3136 -2.6792 -1.8012 0.3899 0 1
3.3196 -2.6718 -1.8012 0.3899 0 1
3.3256 -2.6643 -1.8012 0.3899 0 1
3.3316 -2.6569 -1.8012 0.3899 0 1
3.3375 -2.6494 -1.8012 0.3899 0 1
3.3434 -2.6419 -1.8012 0.3899 0 1
3.3494 -2.6343 -1.8012 0.3899 0 1
3.3552 -2.6268 -1.8012 0.3899 0 1
3.3611 -2.6193 -1.8012 0.3899 0 1
3.3670 -2.6117 -1.8012 0.3899 0 1
3.3728 -2.6041 -1.8012 0.3899 0 1
3.3787 -2.5966 -1.8012 0.3899 0 1
0.8859 -0.6777 -0.4715 0.2752 458 14
0.8872 -0.6755 -0.4714 0.2752 458 14
0.8886 -0.6734 -0.4713 0.2753 458 14
0.8900 -0.6713 -0.4712 0.2753 458 14
0.8913 -0.6692 -0.4711 0.2754 458 14
0.8926 -0.6671 -0.4710 0.2754 458 14
0.8940 -0.6650 -0.4709 0.2755 458 14
0.8953 -0.6628 -0.4709 0.2755 458 14
0.8966 -0.6607 -0.4708 0.2756 458 14
0.8979 -0.6586 -0.4707 0.2756 458 14
0.8992 -0.6564 -0.4706 0.2757 458 14
0.9005 -0.6543 -0.4705 0.2757 458 14
0.9018 -0.6521 -0.4704 0.2758 458 14
0.9031 -0.6499 -0.4703 0.2758 458 14
0.9044 -0.6478 -0.4702 0.2759 458 14
0.9056 -0.6456 -0.4701 0.2760 458 14
0.9069 -0.6435 -0.4700 0.2760 458 14
0.9082 -0.6413 -0.4699 0.2761 458 14
0.9094 -0.6391 -0.4698 0.2761 458 14
0.9106 -0.6370 -0.4697 0.2762 458 14
0.9119 -0.6348 -0.4696 0.2762 458 14
0.9131 -0.6326 -0.4695 0.2763 458 14
0.9143 -0.6304 -0.4694 0.2764 458 14
0.9155 -0.6282 -0.4693 0.2764 458 14
0.9168 -0.6260 -0.4692 0.2765 458 14
0.9180 -0.6238 -0.4691 0.2765 458 14
0.9191 -0.6216 -0.4690 0.2766 458 14
0.9203 -0.6194 -0.4689 0.2767 458 14
0.9215 -0.6172 -0.4688 0.2767 458 14
0.9227 -0.6150 -0.4687 0.2768 458 14
0.9238 -0.6128 -0.4686 0.2768 458 14
0.9250 -0.6106 -0.4685 0.2769 458 14
0.9261 -0.6084 -0.4684 0.2770 458 14
0.9273 -0.6061 -0.4683 0.2770 458 14
0.9284 -0.6039 -0.4682 0.2771 458 14
0.9296 -0.6017 -0.4680 0.2772 458 14
0.9307 -0.5995 -0.4679 0.2772 458 14
0.9318 -0.5972 -0.4678 0.2773 458 14
0.9329 -0.5950 -0.4677 0.2774 458 14
0.9340 -0.5928 -0.4676 0.2774 458 14
0.9351 -0.5905 -0.4675 0.2775 458 14
0.9362 -0.5882 -0.4674 0.2776 458 14
0.9373 -0.5860 -0.4672 0.2777 458 14
0.9383 -0.5837 -0.4671 0.2777 458 14
0.9394 -0.5815 -0.4670 0.2778 458 14
0.9405 -0.5792 -0.4669 0.2779 458 14
0.9415 -0.5770 -0.4668 0.2779 458 14
0.9425 -0.5747 -0.4666 0.2780 458 14
0.9436 -0.5724 -0.4665 0.2781 458 14
0.9446 -0.5702 -0.4664 0.2782 458 14
0.9456 -0.5679 -0.4663 0.2782 458 14
0.9467 -0.5656 -0.4661 0.2783 458 14
0.9477 -0.5633 -0.4660 0.2784 458 14
0.9487 -0.5610 -0.4659 0.2785 458 14
0.9497 -0.5587 -0.4657 0.2785 458 14
0.9506 -0.5565 -0.4656 0.2786 458 14
0.9516 -0.5542 -0.4655 0.2787 458 14
0.9526 -0.5519 -0.4654 0.2788 458 14
0.9536 -0.5496 -0.4652 0.2789 458 14
0.9545 -0.5473 -0.4651 0.2789 458 14
0.9555 -0.5450 -0.4650 0.2790 458 14
0.9559 -0.5424 -0.4646 0.3344 458 14
0.9563 -0.5398 -0.4642 0.3347 458 14
0.9567 -0.5372 -0.4638 0.3350 458 14
0.9571 -0.5346 -0.4634 0.3353 458 14
0.9574 -0.5320 -0.4630 0.3356 458 14
0.9578 -0.5294 -0.4626 0.3359 458 14
0.9582 -0.5268 -0.4622 0.3361 458 14
0.9585 -0.5242 -0.4618 0.3364 458 14
0.9589 -0.5215 -0.4614 0.3367 458 14
0.9592 -0.5189 -0.4610 0.3370 458 14
0.9595 -0.5163 -0.4606 0.3373 458 14
0.9599 -0.5138 -0.4602 0.3376 458 14
0.9602 -0.5112 -0.4598 0.3379 458 14
0.9605 -0.5086 -0.4594 0.3382 458 14
0.9608 -0.5060 -0.4590 0.3385 458 14
0.9611 -0.5034 -0.4586 0.3388 458 14
0.9614 -0.5008 -0.4582 0.3391 458 14
0.9617 -0.4982 -0.4578 0.3393 458 14
0.9620 -0.4956 -0.4574 0.3396 458 14
0.9623 -0.4930 -0.4570 0.3399 458 14
0.9626 -0.4904 -0.4566 0.3402 458 14
0.9628 -0.4879 -0.4562 0.3405 458 14
0.9631 -0.4853 -0.4559 0.3408 458 14
0.9633 -0.4827 -0.4555 0.3411 458 14
0.9636 -0.4801 -0.4551 0.3414 458 14
0.9638 -0.4776 -0.4547 0.3417 458 14
0.9641 -0.4750 -0.4543 0.3420 458 14
0.9643 -0.4724 -0.4539 0.3423 458 14
0.9646 -0.4698 -0.4535 0.3426 458 14
0.9648 -0.4673 -0.4531 0.3429 458 14
0.9650 -0.4647 -0.4527 0.3432 458 14
0.9652 -0.4621 -0.4523 0.3435 458 14
0.9654 -0.4596 -0.4520 0.3438 458 14
0.9656 -0.4570 -0.4516 0.3440 458 14
0.9658 -0.4545 -0.4512 0.3443 458 14
0.9660 -0.4519 -0.4508 0.3446 458 14
0.9662 -0.4494 -0.4504 0.3449 458 14
0.9663 -0.4468 -0.4500 0.3452 458 14
0.9665 -0.4443 -0.4496 0.3455 458 14
0.9667 -0.4417 -0.4492 0.3458 458 14
0.9668 -0.4392 -0.4489 0.3461 458 14
0.9670 -0.4366 -0.4485 0.3464 458 14
0.9671 -0.4341 -0.4481 0.3467 458 14
0.9673 -0.4315 -0.4477 0.3470 458 14
0.9674 -0.4290 -0.4473 0.3473 458 14
0.9675 -0.4264 -0.4469 0.3476 458 14
0.9677 -0.4239 -0.4466 0.3479 458 14
0.9678 -0.4214 -0.4462 0.3482 458 14
0.9679 -0.4188 -0.4458 0.3485 458 14
0.9680 -0.4163 -0.4454 0.3488 458 14
0.9681 -0.4138 -0.4450 0.3491 458 14
0.9682 -0.4112 -0.4446 0.3494 458 14
0.9683 -0.4087 -0.4443 0.3497 458 14
0.9684 -0.4062 -0.4439 0.3500 458 14
0.9685 -0.4037 -0.4435 0.3503 458 14
0.9685 -0.4012 -0.4431 0.3506 458 14
0.9686 -0.3987 -0.4427 0.3509 458 14
0.9687 -0.3961 -0.4424 0.3512 458 14
0.9687 -0.3936 -0.4420 0.3515 458 14
0.9688 -0.3911 -0.4416 0.3518 458 14
0.9688 -0.3886 -0.4412 0.3521 458 14
0.9689 -0.3861 -0.4409 0.3524 458 14
0.9689 -0.3836 -0.4405 0.3527 458 14
0.9689 -0.3811 -0.4401 0.3530 458 14
0.9690 -0.3786 -0.4397 0.3533 458 14
0.9690 -0.3761 -0.4394 0.3536 458 14
0.9690 -0.3736 -0.4390 0.3539 458 14
0.9690 -0.3711 -0.4386 0.3542 458 14
0.9690 -0.3686 -0.4382 0.3545 458 14
0.9690 -0.3662 -0.4379 0.3548 458 14
0.9690 -0.3637 -0.4375 0.3551 458 14
0.9690 -0.3612 -0.4371 0.3554 458 14
0.9690 -0.3587 -0.4367 0.3557 458 14
0.9690 -0.3562 -0.4364 0.3560 458 14
0.9689 -0.3537 -0.4360 0.3563 458 14
0.9689 -0.3513 -0.4356 0.3566 458 14
0.9689 -0.3488 -0.4353 0.3569 458 14
0.9688 -0.3463 -0.4349 0.3572 458 14
0.9688 -0.3439 -0.4345 0.3575 458 14
0.9687 -0.3414 -0.4342 0.3578 458 14
0.9687 -0.3389 -0.4338 0.3581 458 14
0.9686 -0.3365 -0.4334 0.3584 458 14
0.9685 -0.3340 -0.4331 0.3588 458 14
0.9684 -0.3316 -0.4327 0.3591 458 14
0.9684 -0.3291 -0.4323 0.3594 458 14
0.9683 -0.3267 -0.4320 0.3597 458 14
0.9682 -0.3242 -0.4316 0.3600 458 14
0.9681 -0.3218 -0.4312 0.3603 458 14
0.9680 -0.3193 -0.4309 0.3606 458 14
0.9679 -0.3169 -0.4305 0.3609 458 14
0.9678 -0.3145 -0.4301 0.3612 458 14
0.9677 -0.3120 -0.4298 0.3615 458 14
0.9676 -0.3096 -0.4294 0.3618 458 14
0.9674 -0.3071 -0.4290 0.3621 458 14
0.9673 -0.3047 -0.4287 0.3624 458 14
0.9672 -0.3023 -0.4283 0.3627 458 14
0.9670 -0.2999 -0.4280 0.3630 458 14
0.9669 -0.2975 -0.4276 0.3633 458 14
0.9667 -0.2950 -0.4272 0.3636 458 14
0.9666 -0.2926 -0.4269 0.3639 458 14
0.9664 -0.2902 -0.4265 0.3642 458 14
0.9663 -0.2878 -0.4262 0.3645 458 14
0.9661 -0.2854 -0.4258 0.3649 458 14
0.9659 -0.2830 -0.4255 0.3652 458 14
0.9658 -0.2806 -0.4251 0.3655 458 14
0.9656 -0.2782 -0.4247 0.3658 458 14
0.9654 -0.2758 -0.4244 0.3661 458 14
0.9652 -0.2734 -0.4240 0.3664 458 14
0.9650 -0.2710 -0.4237 0.3667 458 14
0.9648 -0.2686 -0.4233 0.3670 458 14
0.9646 -0.2662 -0.4230 0.3673 458 14
0.9644 -0.2638 -0.4226 0.3676 458 14
0.9642 -0.2614 -0.4223 0.3679 458 14
0.9639 -0.2590 -0.4219 0.3682 458 14
0.9637 -0.2567 -0.4216 0.3685 458 14
0.9635 -0.2543 -0.4212 0.3688 458 14
0.9633 -0.2519 -0.4209 0.3692 458 14
0.9630 -0.2496 -0.4205 0.3695 458 14
0.9628 -0.2472 -0.4202 0.3698 458 14
0.9625 -0.2448 -0.4198 0.3701 458 14
0.9623 -0.2425 -0.4195 0.3704 458 14
0.9620 -0.2401 -0.4191 0.3707 458 14
0.9618 -0.2378 -0.4188 0.3710 458 14
0.9615 -0.2354 -0.4184 0.3713 458 14
0.9612 -0.2330 -0.4181 0.3716 458 14
0.9609 -0.2307 -0.4177 0.3719 458 14
0.9607 -0.2284 -0.4174 0.3722 458 14
0.9604 -0.2260 -0.4170 0.3725 458 14
0.9601 -0.2237 -0.4167 0.3728 458 14
0.9598 -0.2213 -0.4163 0.3732 458 14
0.9595 -0.2190 -0.4160 0.3735 458 14
0.9592 -0.2167 -0.4157 0.3738 458 14
0.9589 -0.2143 -0.4153 0.3741 458 14
0.9585 -0.2120 -0.4150 0.3744 458 14
0.9583 -0.2097 -0.4147 0.3914 458 14
0.9584 -0.2074 -0.4145 0.3916 458 14
0.9584 -0.2052 -0.4143 0.3918 458 14
0.9585 -0.2030 -0.4141 0.3919 458 14
0.9585 -0.2007 -0.4140 0.3921 458 14
0.9586 -0.1985 -0.4138 0.3923 458 14
0.9586 -0.1963 -0.4136 0.3924 458 14
0.9586 -0.1940 -0.4134 0.3926 458 14
0.9586 -0.1918 -0.4132 0.3928 458 14
0.9587 -0.1896 -0.4131 0.3929 458 14
0.9587 -0.1873 -0.4129 0.3931 458 14
0.9587 -0.1851 -0.4127 0.3933 458 14
0.9587 -0.1829 -0.4125 0.3934 458 14
0.9587 -0.1806 -0.4124 0.3936 458 14
0.9587 -0.1784 -0.4122 0.3938 458 14
0.9587 -0.1762 -0.4120 0.3939 458 14
0.9587 -0.1740 -0.4118 0.3941 458 14
0.9586 -0.1717 -0.4117 0.3943 458 14
0.9586 -0.1695 -0.4115 0.3944 458 14
0.9586 -0.1673 -0.4113 0.3946 458 14
0.9586 -0.1651 -0.4111 0.3948 458 14
0.9585 -0.1629 -0.4110 0.3949 458 14
0.9585 -0.1606 -0.4108 0.3951 458 14
0.9584 -0.1584 -0.4106 0.3953 458 14
0.9584 -0.1562 -0.4104 0.3954 458 14
0.9583 -0.1540 -0.4103 0.3956 458 14
0.9582 -0.1518 -0.4101 0.3958 458 14
0.9582 -0.1496 -0.4099 0.3959 458 14
0.9581 -0.1473 -0.4097 0.3961 458 14
0.9580 -0.1451 -0.4096 0.3963 458 14
0.9579 -0.1429 -0.4094 0.3965 458 14
0.9579 -0.1407 -0.4092 0.3966 458 14
0.9578 -0.1385 -0.4091 0.3968 458 14
0.9577 -0.1363 -0.4089 0.3970 458 14
0.9576 -0.1341 -0.4087 0.3971 458 14
0.9575 -0.1319 -0.4085 0.3973 458 14
0.9574 -0.1297 -0.4084 0.3975 458 14
0.9573 -0.1275 -0.4082 0.3976 458 14
0.9571 -0.1253 -0.4080 0.3978 458 14
0.9570 -0.1231 -0.4079 0.3980 458 14
0.9569 -0.1209 -0.4077 0.3981 458 14
0.9568 -0.1187 -0.4075 0.3983 458 14
0.9566 -0.1165 -0.4073 0.3985 458 14
0.9565 -0.1143 -0.4072 0.3986 458 14
0.9563 -0.1121 -0.4070 0.3988 458 14
0.9562 -0.1099 -0.4068 0.3990 458 14
0.9560 -0.1077 -0.4067 0.3991 458 14
0.9559 -0.1055 -0.4065 0.3993 458 14
0.9557 -0.1033 -0.4063 0.3995 458 14
0.9555 -0.1012 -0.4062 0.3996 458 14
0.9554 -0.0990 -0.4060 0.3998 458 14
0.9552 -0.0968 -0.4058 0.4000 458 14
0.9550 -0.0946 -0.4057 0.4001 458 14
0.9548 -0.0924 -0.4055 0.4003 458 14
0.9546 -0.0902 -0.4053 0.4005 458 14
0.9544 -0.0881 -0.4051 0.4006 458 14
0.9542 -0.0859 -0.4050 0.4008 458 14
0.9540 -0.0837 -0.4048 0.4009 458 14
0.9538 -0.0815 -0.4046 0.4011 458 14
0.9536 -0.0794 -0.4045 0.4013 458 14
0.9534 -0.0772 -0.4043 0.4014 458 14
0.9532 -0.0750 -0.4041 0.4016 458 14
0.9529 -0.0728 -0.4040 0.4018 458 14
0.9527 -0.0707 -0.4038 0.4019 458 14
0.9525 -0.0685 -0.4036 0.4021 458 14
0.9522 -0.0663 -0.4035 0.4023 458 14
0.9520 -0.0642 -0.4033 0.4024 458 14
0.9517 -0.0620 -0.4031 0.4026 458 14
0.9515 -0.0598 -0.4030 0.4028 458 14
0.9512 -0.0577 -0.4028 0.4029 458 14
0.9510 -0.0555 -0.4027 0.4031 458 14
0.9507 -0.0534 -0.4025 0.4033 458 14
0.9504 -0.0512 -0.4023 0.4034 458 14
0.9502 -0.0491 -0.4022 0.4036 458 14
0.9499 -0.0469 -0.4020 0.4038 458 14
0.9496 -0.0448 -0.4018 0.4039 458 14
0.9493 -0.0426 -0.4017 0.4041 458 14
0.9490 -0.0405 -0.4015 0.4042 458 14
0.9487 -0.0383 -0.4013 0.4044 458 14
0.9484 -0.0362 -0.4012 0.4046 458 14
0.9481 -0.0341 -0.4010 0.4047 458 14
0.9478 -0.0319 -0.4009 0.4049 458 14
0.9475 -0.0298 -0.4007 0.4051 458 14
0.9472 -0.0276 -0.4005 0.4052 458 14
0.9468 -0.0255 -0.4004 0.4054 458 14
0.9465 -0.0234 -0.4002 0.4056 458 14
0.9462 -0.0212 -0.4000 0.4057 458 14
0.9458 -0.0191 -0.3999 0.4059 458 14
0.9455 -0.0170 -0.3997 0.4061 458 14
0.9452 -0.0148 -0.3996 0.4062 458 14
0.9448 -0.0127 -0.3994 0.4064 458 14
0.9445 -0.0106 -0.3992 0.4065 458 14
0.9441 -0.0085 -0.3991 0.4067 458 14
0.9437 -0.0063 -0.3989 0.4069 458 14
0.9434 -0.0042 -0.3988 0.4070 458 14
0.9430 -0.0021 -0.3986 0.4072 458 14
0.9426 0.0000 -0.3984 0.4074 458 14
0.9423 0.0021 -0.3983 0.4075 458 14
0.9419 0.0042 -0.3981 0.4077 458 14
0.9415 0.0063 -0.3980 0.4078 458 14
0.9411 0.0085 -0.3978 0.4080 458 14
0.9407 0.0106 -0.3977 0.4082 458 14
0.9403 0.0127 -0.3975 0.4083 458 14
0.9399 0.0148 -0.3973 0.4085 458 14
0.9395 0.0169 -0.3972 0.4087 458 14
0.9391 0.0190 -0.3970 0.4088 458 14
0.9387 0.0211 -0.3969 0.4090 458 14
0.9383 0.0232 -0.3967 0.4091 458 14
0.9378 0.0253 -0.3966 0.4093 458 14
0.9374 0.0274 -0.3964 0.4095 458 14
0.9370 0.0295 -0.3962 0.4096 458 14
0.9365 0.0315 -0.3961 0.4098 458 14
0.9361 0.0336 -0.3959 0.4099 458 14
0.9356 0.0357 -0.3958 0.4101 458 14
0.9352 0.0378 -0.3956 0.4103 458 14
0.9347 0.0399 -0.3955 0.4104 458 14
0.9343 0.0420 -0.3953 0.4106 458 14
0.9338 0.0440 -0.3952 0.4107 458 14
0.9333 0.0461 -0.3950 0.4109 458 14
0.9329 0.0482 -0.3948 0.4111 458 14
0.9324 0.0503 -0.3947 0.4112 458 14
0.9319 0.0523 -0.3945 0.4114 458 14
0.9314 0.0544 -0.3944 0.4115 458 14
0.9310 0.0565 -0.3942 0.4117 458 14
0.9305 0.0585 -0.3941 0.4119 458 14
0.9300 0.0606 -0.3939 0.4120 458 14
0.9295 0.0627 -0.3938 0.4122 458 14
0.9290 0.0647 -0.3936 0.4123 458 14
0.9285 0.0668 -0.3935 0.4125 458 14
0.9280 0.0688 -0.3933 0.4127 458 14
0.9274 0.0709 -0.3932 0.4128 458 14
0.9269 0.0730 -0.3930 0.4130 458 14
0.9264 0.0750 -0.3929 0.4131 458 14
0.9259 0.0771 -0.3927 0.4133 458 14
0.9254 0.0791 -0.3926 0.4135 458 14
0.9248 0.0812 -0.3924 0.4136 458 14
0.9243 0.0832 -0.3923 0.4138 458 14
0.9237 0.0852 -0.3921 0.4139 458 14
0.9232 0.0873 -0.3920 0.4141 458 14
0.9226 0.0893 -0.3918 0.4142 458 14
0.9221 0.0913 -0.3917 0.4144 458 14
0.9215 0.0934 -0.3915 0.4146 458 14
0.9210 0.0954 -0.3914 0.4147 458 14
0.9204 0.0974 -0.3912 0.4149 458 14
0.9198 0.0995 -0.3911 0.4150 458 14
0.9193 0.1015 -0.3909 0.4152 458 14
0.9187 0.1035 -0.3908 0.4153 458 14
0.9181 0.1055 -0.3906 0.4155 458 14
0.9175 0.1076 -0.3905 0.4157 458 14
0.9169 0.1096 -0.3903 0.4158 458 14
0.9163 0.1116 -0.3902 0.4160 458 14
0.9157 0.1136 -0.3900 0.4161 458 14
0.9151 0.1156 -0.3899 0.4163 458 14
0.9145 0.1176 -0.3898 0.4164 458 14
0.9139 0.1196 -0.3896 0.4166 458 14
0.9133 0.1216 -0.3895 0.4168 458 14
0.9127 0.1236 -0.3893 0.4169 458 14
0.9121 0.1256 -0.3892 0.4171 458 14
0.9114 0.1277 -0.3890 0.4172 458 14
0.9108 0.1296 -0.3889 0.4174 458 14
0.9102 0.1316 -0.3887 0.4175 458 14
0.9096 0.1336 -0.3886 0.4177 458 14
0.9089 0.1356 -0.3884 0.4178 458 14
0.9083 0.1376 -0.3883 0.4180 458 14
0.9076 0.1396 -0.3882 0.4181 458 14
0.9070 0.1416 -0.3880 0.4183 458 14
0.9063 0.1436 -0.3879 0.4185 458 14
0.9057 0.1455 -0.3877 0.4186 458 14
0.9050 0.1475 -0.3876 0.4188 458 14
0.9043 0.1495 -0.3875 0.4189 458 14
0.9037 0.1515 -0.3873 0.4191 458 14
0.9030 0.1534 -0.3872 0.4192 458 14
0.9023 0.1554 -0.3870 0.4194 458 14
0.9017 0.1574 -0.3869 0.4195 458 14
0.9010 0.1593 -0.3867 0.4197 458 14
0.9003 0.1613 -0.3866 0.4198 458 14
0.8996 0.1633 -0.3865 0.4200 458 14
0.8989 0.1652 -0.3863 0.4201 458 14
0.8982 0.1672 -0.3862 0.4203 458 14
0.8975 0.1691 -0.3860 0.4204 458 14
0.8968 0.1711 -0.3859 0.4206 458 14
0.8961 0.1730 -0.3858 0.4207 458 14
0.8954 0.1750 -0.3856 0.4209 458 14
0.8946 0.1769 -0.3855 0.4210 458 14
0.8939 0.1789 -0.3854 0.4212 458 14
0.8932 0.1808 -0.3852 0.4213 458 14
0.8925 0.1828 -0.3851 0.4215 458 14
0.8917 0.1847 -0.3849 0.4216 458 14
0.8910 0.1866 -0.3848 0.4218 458 14
0.8903 0.1886 -0.3847 0.4219 458 14
0.8895 0.1905 -0.3845 0.4221 458 14
0.8888 0.1924 -0.3844 0.4223 458 14
0.8880 0.1943 -0.3843 0.4224 458 14
0.8873 0.1963 -0.3841 0.4225 458 14
0.8865 0.1982 -0.3840 0.4227 458 14
0.8858 0.2001 -0.3838 0.4228 458 14
0.8850 0.2020 -0.3837 0.4230 458 14
0.8842 0.2039 -0.3836 0.4231 458 14
0.8835 0.2058 -0.3834 0.4233 458 14
0.8827 0.2077 -0.3833 0.4234 458 14
0.8819 0.2097 -0.3832 0.4236 458 14
0.8811 0.2116 -0.3830 0.4237 458 14
0.8804 0.2135 -0.3829 0.4239 458 14
0.8796 0.2154 -0.3828 0.4240 458 14
0.8788 0.2172 -0.3826 0.4242 458 14
0.8780 0.2191 -0.3825 0.4243 458 14
0.8772 0.2210 -0.3824 0.4245 458 14
0.8764 0.2229 -0.3822 0.4246 458 14
0.8756 0.2248 -0.3821 0.4248 458 14
4.1236 1.0687 -1.8006 0.3900 0 1
4.1212 1.0779 -1.8006 0.3900 0 1
4.1188 1.0871 -1.8006 0.3900 0 1
4.1164 1.0964 -1.8006 0.3900 0 1
4.1139 1.1056 -1.8006 0.3900 0 1
4.1114 1.1149 -1.8006 0.3900 0 1
4.1089 1.1241 -1.8006 0.3900 0 1
4.1064 1.1333 -1.8006 0.3900 0 1
4.1038 1.1425 -1.8006 0.3900 0 1
4.1012 1.1517 -1.8006 0.3900 0 1
4.0987 1.1609 -1.8006 0.3900 0 1
4.0960 1.1701 -1.8006 0.3900 0 1
4.0934 1.1793 -1.8006 0.3900 0 1
4.0908 1.1885 -1.8006 0.3900 0 1
4.0881 1.1977 -1.8006 0.3900 0 1
4.0854 1.2069 -1.8006 0.3900 0 1
4.0827 1.2160 -1.8006 0.3900 0 1
4.0800 1.2252 -1.8006 0.3900 0 1
4.0772 1.2343 -1.8006 0.3900 0 1
4.0744 1.2435 -1.8006 0.3900 0 1
4.0716 1.2526 -1.8007 0.3900 0 1
4.0688 1.2618 -1.8007 0.3900 0 1
4.0660 1.2709 -1.8007 0.3900 0 1
4.0631 1.2800 -1.8007 0.3900 0 1
4.0602 1.2891 -1.8007 0.3900 0 1
4.0573 1.2982 -1.8007 0.3900 0 1
4.0544 1.3073 -1.8007 0.3900 0 1
4.0515 1.3164 -1.8007 0.3900 0 1
4.0485 1.3255 -1.8007 0.3900 0 1
4.0455 1.3346 -1.8007 0.3900 0 1
4.0425 1.3437 -1.8007 0.3900 0 1
4.0395 1.3528 -1.8007 0.3900 0 1
4.0365 1.3618 -1.8007 0.3900 0 1
4.0334 1.3709 -1.8007 0.3900 0 1
4.0303 1.3799 -1.8007 0.3900 0 1
4.0272 1.3890 -1.8007 0.3900 0 1
4.0241 1.3980 -1.8007 0.3900 0 1
4.0210 1.4070 -1.8007 0.3900 0 1
4.0178 1.4160 -1.8007 0.3900 0 1
4.0146 1.4251 -1.8007 0.3900 0 1
4.0114 1.4341 -1.8007 0.3900 0 1
4.0082 1.4431 -1.8007 0.3900 0 1
4.0050 1.4521 -1.8007 0.3900 0 1
4.0017 1.4610 -1.8007 0.3900 0 1
3.9984 1.4700 -1.8007 0.3900 0 1
3.9951 1.4790 -1.8007 0.3900 0 1
3.9918 1.4880 -1.8007 0.3900 0 1
3.9884 1.4969 -1.8007 0.3900 0 1
3.9851 1.5059 -1.8007 0.3900 0 1
3.9817 1.5148 -1.8007 0.3900 0 1
3.9783 1.5237 -1.8007 0.3900 0 1
3.9749 1.5327 -1.8007 0.3900 0 1
3.9714 1.5416 -1.8007 0.3900 0 1
3.9680 1.5505 -1.8007 0.3900 0 1
3.9645 1.5594 -1.8007 0.3900 0 1
3.9610 1.5683 -1.8007 0.3900 0 1
3.9575 1.5772 -1.8007 0.3900 0 1
3.9539 1.5861 -1.8007 0.3900 0 1
3.9503 1.5949 -1.8007 0.3900 0 1
3.9468 1.6038 -1.8007 0.3900 0 1
3.9432 1.6126 -1.8007 0.3900 0 1
3.9395 1.6215 -1.8007 0.3900 0 1
3.9359 1.6303 -1.8008 0.3900 0 1
3.9322 1.6392 -1.8008 0.3900 0 1
3.9286 1.6480 -1.8008 0.3900 0 1
3.9249 1.6568 -1.8008 0.3900 0 1
3.9211 1.6656 -1.8008 0.3900 0 1
3.9174 1.6744 -1.8008 0.3900 0 1
3.9136 1.6832 -1.8008 0.3900 0 1
3.9098 1.6920 -1.8008 0.3900 0 1
3.9060 1.7007 -1.8008 0.3900 0 1
3.9022 1.7095 -1.8008 0.3900 0 1
3.8984 1.7182 -1.8008 0.3900 0 1
3.8945 1.7270 -1.8008 0.3900 0 1
3.8906 1.7357 -1.8008 0.3900 0 1
3.8867 1.7445 -1.8008 0.3900 0 1
3.8828 1.7532 -1.8008 0.3900 0 1
3.8789 1.7619 -1.8008 0.3900 0 1
3.8749 1.7706 -1.8008 0.3900 0 1
3.8710 1.7793 -1.8008 0.3900 0 1
3.8670 1.7880 -1.8008 0.3900 0 1
3.8629 1.7967 -1.8008 0.3900 0 1
3.8589 1.8053 -1.8008 0.3900 0 1
3.8549 1.8140 -1.8008 0.3900 0 1
3.8508 1.8226 -1.8008 0.3900 0 1
3.8467 1.8313 -1.8008 0.3900 0 1
3.8426 1.8399 -1.8008 0.3900 0 1
3.8384 1.8485 -1.8008 0.3900 0 1
3.8343 1.8571 -1.8008 0.3900 0 1
3.8301 1.8657 -1.8008 0.3900 0 1
3.8259 1.8743 -1.8008 0.3900 0 1
3.8217 1.8829 -1.8008 0.3900 0 1
3.8175 1.8915 -1.8008 0.3900 0 1
3.8132 1.9001 -1.8008 0.3900 0 1
3.8090 1.9086 -1.8008 0.3900 0 1
3.8047 1.9171 -1.8009 0.3900 0 1
3.8004 1.9257 -1.8009 0.3900 0 1
3.7961 1.9342 -1.8009 0.3900 0 1
3.7917 1.9427 -1.8009 0.3900 0 1
3.7874 1.9512 -1.8009 0.3900 0 1
3.7830 1.9597 -1.8009 0.3900 0 1
3.7786 1.9682 -1.8009 0.3899 0 1
3.7742 1.9767 -1.8009 0.3899 0 1
3.7697 1.9852 -1.8009 0.3899 0 1
3.7653 1.9936 -1.8009 0.3899 0 1
3.7608 2.0021 -1.8009 0.3899 0 1
3.7563 2.0105 -1.8009 0.3899 0 1
3.7518 2.0189 -1.8009 0.3899 0 1
3.7472 2.0274 -1.8009 0.3899 0 1
3.7427 2.0358 -1.8009 0.3899 0 1
3.7381 2.0442 -1.8009 0.3899 0 1
3.7335 2.0526 -1.8009 0.3899 0 1
3.7289 2.0609 -1.8009 0.3899 0 1
3.7243 2.0693 -1.8009 0.3899 0 1
3.7197 2.0777 -1.8009 0.3899 0 1
3.7150 2.0860 -1.8009 0.3899 0 1
3.7103 2.0943 -1.8009 0.3899 0 1
3.7056 2.1027 -1.8009 0.3899 0 1
3.7009 2.1109 -1.8009 0.3899 0 1
3.6961 2.1192 -1.8009 0.3899 0 1
3.6914 2.1275 -1.8009 0.3899 0 1
3.6866 2.1358 -1.8009 0.3899 0 1
3.6818 2.1441 -1.8009 0.3899 0 1
3.6770 2.1523 -1.8009 0.3899 0 1
3.6722 2.1605 -1.8010 0.3899 0 1
3.6673 2.1688 -1.8010 0.3899 0 1
3.6625 2.1770 -1.8010 0.3899 0 1
3.6576 2.1853 -1.8010 0.3899 0 1
3.6527 2.1935 -1.8010 0.3899 0 1
3.6477 2.2017 -1.8010 0.3899 0 1
3.6428 2.2098 -1.8010 0.3899 0 1
3.6378 2.2180 -1.8010 0.3899 0 1
3.6329 2.2262 -1.8010 0.3899 0 1
3.6279 2.2343 -1.8010 0.3899 0 1
3.6228 2.2425 -1.8010 0.3899 0 1
3.6178 2.2506 -1.8010 0.3899 0 1
3.6128 2.2587 -1.8010 0.3899 0 1
3.6077 2.2668 -1.8010 0.3899 0 1
3.6026 2.2749 -1.8010 0.3899 0 1
3.5975 2.2830 -1.8010 0.3899 0 1
3.5821 2.2846 -1.7959 0.4978 0 2
3.5646 2.2846 -1.7896 0.4995 0 2
3.5471 2.2847 -1.7834 0.5013 0 2
3.5298 2.2847 -1.7773 0.5030 0 2
3.5125 2.2848 -1.7712 0.5047 0 2
3.4954 2.2848 -1.7652 0.5065 0 2
3.4785 2.2849 -1.7592 0.5082 0 2
3.4616 2.2850 -1.7532 0.5099 0 2
3.4451 2.2851 -1.7475 0.5924 0 2
3.4303 2.2864 -1.7426 0.5940 0 2
3.4156 2.2877 -1.7377 0.5957 0 2
3.4010 2.2890 -1.7329 0.5973 0 2
3.3865 2.2903 -1.7281 0.5990 0 2
3.3720 2.2916 -1.7233 0.6007 0 2
3.3576 2.2928 -1.7186 0.6023 0 2
3.3433 2.2941 -1.7139 0.6040 0 2
3.3291 2.2953 -1.7093 0.6056 0 2
3.3149 2.2966 -1.7046 0.6072 0 2
3.3009 2.2978 -1.7000 0.6089 0 2
3.2920 2.3026 -1.6981 0.3899 0 2
3.2869 2.3100 -1.6981 0.3899 0 2
3.2817 2.3174 -1.6982 0.3899 0 2
3.2765 2.3247 -1.6982 0.3899 0 2
3.2713 2.3321 -1.6982 0.3899 0 2
3.2660 2.3394 -1.6982 0.3899 0 2
3.2608 2.3468 -1.6982 0.3899 0 2
3.2555 2.3541 -1.6982 0.3899 0 2
3.2502 2.3614 -1.6982 0.3899 0 2
3.2449 2.3687 -1.6982 0.3899 0 2
3.2396 2.3760 -1.6982 0.3899 0 2
3.2343 2.3832 -1.6982 0.3899 0 2
3.2289 2.3905 -1.6982 0.3899 0 2
3.2236 2.3977 -1.6982 0.3899 0 2
3.2182 2.4050 -1.6982 0.3899 0 2
3.2128 2.4122 -1.6982 0.3899 0 2
3.2074 2.4194 -1.6982 0.3899 0 2
3.2019 2.4266 -1.6982 0.3899 0 2
3.1965 2.4338 -1.6982 0.3899 0 2
3.1910 2.4410 -1.6982 0.3899 0 2
3.1856 2.4481 -1.6982 0.3899 0 2
3.1801 2.4553 -1.6982 0.3899 0 2
3.1745 2.4624 -1.6982 0.3899 0 2
3.1690 2.4695 -1.6982 0.3899 0 2
3.1881 2.4959 -1.7115 0.6510 0 2
3.1749 2.4971 -1.7074 0.6525 0 2
3.1617 2.4982 -1.7033 0.6541 0 2
3.1485 2.4993 -1.6992 0.6557 0 2
3.1412 2.5049 -1.6983 0.3899 0 2
3.1355 2.5120 -1.6983 0.3899 0 2
3.1299 2.5190 -1.6983 0.3899 0 2
3.1242 2.5261 -1.6983 0.3899 0 2
3.1186 2.5331 -1.6983 0.3899 0 2
3.1129 2.5401 -1.6983 0.3899 0 2
3.1072 2.5471 -1.6983 0.3899 0 2
3.1015 2.5540 -1.6983 0.3899 0 2
3.0957 2.5610 -1.6983 0.3899 0 2
3.0900 2.5679 -1.6983 0.3899 0 2
3.0842 2.5749 -1.6983 0.3899 0 2
3.0784 2.5818 -1.6983 0.3899 0 2
3.0726 2.5887 -1.6983 0.3899 0 2
3.0668 2.5956 -1.6983 0.3899 0 2
3.0610 2.6025 -1.6983 0.3899 0 2
3.0552 2.6094 -1.6983 0.3899 0 2
3.0493 2.6162 -1.6983 0.3899 0 2
3.0435 2.6230 -1.6983 0.3899 0 2
3.0376 2.6299 -1.6983 0.3899 0 2
3.0317 2.6367 -1.6983 0.3899 0 2
3.0258 2.6435 -1.6983 0.3899 0 2
3.0198 2.6503 -1.6983 0.3899 0 2
3.0139 2.6570 -1.6983 0.3899 0 2
3.0079 2.6638 -1.6984 0.3899 0 2
3.0019 2.6705 -1.6984 0.3899 0 2
2.9959 2.6773 -1.6984 0.3899 0 2
2.9899 2.6840 -1.6984 0.3899 0 2
2.9839 2.6907 -1.6984 0.3899 0 2
2.9779 2.6974 -1.6984 0.3899 0 2
2.9719 2.7041 -1.6984 0.3899 0 2
2.9658 2.7108 -1.6984 0.3899 0 2
2.9597 2.7174 -1.6984 0.3899 0 2
2.9536 2.7241 -1.6984 0.3899 0 2
2.9475 2.7307 -1.6984 0.3899 0 2
2.9414 2.7373 -1.6984 0.3899 0 2
2.9352 2.7439 -1.6984 0.3899 0 2
2.9291 2.7505 -1.6984 0.3899 0 2
2.9229 2.7571 -1.6984 0.3899 0 2
2.9167 2.7636 -1.6984 0.3899 0 2
2.9105 2.7702 -1.6984 0.3899 0 2
2.9043 2.7767 -1.6984 0.3899 0 2
2.8980 2.7832 -1.6984 0.3899 0 2
2.8918 2.7897 -1.6984 0.3899 0 2
2.8855 2.7962 -1.6984 0.3899 0 2
2.8793 2.8027 -1.6984 0.3899 0 2
2.8730 2.8092 -1.6984 0.3899 0 2
2.8667 2.8156 -1.6984 0.3899 0 2
2.8604 2.8220 -1.6985 0.3899 0 2
2.8540 2.8285 -1.6985 0.3899 0 2
2.8477 2.8349 -1.6985 0.3899 0 2
2.9457 -2.9457 -1.8015 0.3974 0 1
2.9523 -2.9391 -1.8015 0.3974 0 1
2.9588 -2.9324 -1.8015 0.3974 0 1
2.9654 -2.9258 -1.8015 0.3974 0 1
2.9719 -2.9191 -1.8015 0.3974 0 1
2.9785 -2.9124 -1.8015 0.3974 0 1
2.9850 -2.9057 -1.8015 0.3974 0 1
2.9915 -2.8990 -1.8015 0.3974 0 1
2.9980 -2.8923 -1.8014 0.3974 0 1
3.0045 -2.8855 -1.8014 0.3974 0 1
3.0109 -2.8788 -1.8014 0.3974 0 1
3.0174 -2.8720 -1.8014 0.3974 0 1
3.0238 -2.8652 -1.8014 0.3974 0 1
3.0302 -2.8584 -1.8014 0.3974 0 1
3.0366 -2.8516 -1.8014 0.3974 0 1
3.0430 -2.8448 -1.8014 0.3974 0 1
3.0494 -2.8379 -1.8014 0.3974 0 1
3.0557 -2.8311 -1.8014 0.3974 0 1
3.0621 -2.8242 -1.8014 0.3974 0 1
3.0684 -2.8173 -1.8014 0.3974 0 1
3.0747 -2.8104 -1.8014 0.3974 0 1
3.0810 -2.8035 -1.8014 0.3974 0 1
3.0872 -2.7966 -1.8014 0.3974 0 1
3.0935 -2.7896 -1.8014 0.3974 0 1
3.0997 -2.7827 -1.8014 0.3974 0 1
3.1060 -2.7757 -1.8014 0.3974 0 1
3.1122 -2.7687 -1.8014 0.3974 0 1
3.1184 -2.7617 -1.8014 0.3974 0 1
3.1246 -2.7547 -1.8014 0.3974 0 1
3.1307 -2.7477 -1.8013 0.3974 0 1
3.1369 -2.7406 -1.8013 0.3974 0 1
3.1430 -2.7336 -1.8013 0.3974 0 1
3.1491 -2.7265 -1.8013 0.3974 0 1
3.1552 -2.7194 -1.8013 0.3974 0 1
3.1613 -2.7123 -1.8013 0.3974 0 1
3.1674 -2.7052 -1.8013 0.3974 0 1
3.1735 -2.6981 -1.8013 0.3974 0 1
3.1795 -2.6910 -1.8013 0.3974 0 1
3.1855 -2.6838 -1.8013 0.3974 0 1
3.1915 -2.6767 -1.8013 0.3974 0 1
3.1975 -2.6695 -1.8013 0.3974 0 1
3.2035 -2.6623 -1.8013 0.3974 0 1
3.2094 -2.6551 -1.8013 0.3975 0 1
3.2154 -2.6479 -1.8013 0.3975 0 1
3.2213 -2.6407 -1.8013 0.3975 0 1
3.2272 -2.6334 -1.8013 0.3975 0 1
3.2331 -2.6262 -1.8013 0.3975 0 1
0.8417 -0.6805 -0.4681 0.2826 458 14
0.8430 -0.6785 -0.4680 0.2826 458 14
0.8444 -0.6765 -0.4679 0.2826 458 14
0.8458 -0.6746 -0.4679 0.2827 458 14
0.8472 -0.6725 -0.4678 0.2827 458 14
0.8486 -0.6705 -0.4677 0.2828 458 14
0.8500 -0.6685 -0.4676 0.2828 458 14
0.8513 -0.6665 -0.4676 0.2829 458 14
0.8527 -0.6645 -0.4675 0.2829 458 14
0.8541 -0.6625 -0.4674 0.2830 458 14
0.8554 -0.6605 -0.4673 0.2830 458 14
0.8567 -0.6584 -0.4673 0.2830 458 14
0.8581 -0.6564 -0.4672 0.2831 458 14
0.8594 -0.6544 -0.4671 0.2831 458 14
0.8607 -0.6523 -0.4670 0.2832 458 14
0.8620 -0.6503 -0.4670 0.2832 458 14
0.8633 -0.6482 -0.4669 0.2833 458 14
0.8646 -0.6462 -0.4668 0.2833 458 14
0.8659 -0.6441 -0.4667 0.2834 458 14
0.8672 -0.6420 -0.4666 0.2834 458 14
0.8685 -0.6400 -0.4665 0.2835 458 14
0.8698 -0.6379 -0.4665 0.2835 458 14
0.8710 -0.6358 -0.4664 0.2836 458 14
0.8723 -0.6338 -0.4663 0.2836 458 14
0.8736 -0.6317 -0.4662 0.2837 458 14
0.8748 -0.6296 -0.4661 0.2838 458 14
0.8760 -0.6275 -0.4660 0.2838 458 14
0.8773 -0.6254 -0.4659 0.2839 458 14
0.8785 -0.6233 -0.4658 0.2839 458 14
0.8797 -0.6212 -0.4657 0.2840 458 14
0.8809 -0.6191 -0.4656 0.2840 458 14
0.8822 -0.6171 -0.4656 0.2841 458 14
0.8834 -0.6149 -0.4655 0.2841 458 14
0.8846 -0.6128 -0.4654 0.2842 458 14
0.8857 -0.6107 -0.4653 0.2843 458 14
0.8869 -0.6086 -0.4652 0.2843 458 14
0.8881 -0.6065 -0.4651 0.2844 458 14
0.8893 -0.6044 -0.4650 0.2844 458 14
0.8904 -0.6022 -0.4649 0.2845 458 14
0.8916 -0.6001 -0.4648 0.2846 458 14
0.8927 -0.5980 -0.4647 0.2846 458 14
0.8939 -0.5958 -0.4646 0.2847 458 14
0.8950 -0.5937 -0.4645 0.2848 458 14
0.8961 -0.5915 -0.4644 0.2848 458 14
0.8973 -0.5894 -0.4642 0.2849 458 14
0.8984 -0.5872 -0.4641 0.2850 458 14
0.8995 -0.5851 -0.4640 0.2850 458 14
0.9006 -0.5829 -0.4639 0.2851 458 14
0.9017 -0.5808 -0.4638 0.2852 458 14
0.9028 -0.5786 -0.4637 0.2852 458 14
0.9038 -0.5765 -0.4636 0.2853 458 14
0.9049 -0.5743 -0.4635 0.2854 458 14
0.9060 -0.5721 -0.4634 0.2854 458 14
0.9071 -0.5699 -0.4633 0.2855 458 14
0.9081 -0.5678 -0.4631 0.2856 458 14
0.9092 -0.5656 -0.4630 0.2856 458 14
0.9102 -0.5634 -0.4629 0.2857 458 14
0.9112 -0.5612 -0.4628 0.2858 458 14
0.9122 -0.5590 -0.4627 0.2859 458 14
0.9133 -0.5568 -0.4626 0.2859 458 14
0.9143 -0.5546 -0.4624 0.2860 458 14
0.9153 -0.5524 -0.4623 0.2861 458 14
0.9163 -0.5503 -0.4622 0.2861 458 14
0.9173 -0.5480 -0.4621 0.2862 458 14
0.9183 -0.5458 -0.4620 0.2863 458 14
0.9192 -0.5436 -0.4618 0.2864 458 14
0.9202 -0.5414 -0.4617 0.2865 458 14
0.9212 -0.5392 -0.4616 0.2865 458 14
0.9221 -0.5370 -0.4615 0.2866 458 14
0.9231 -0.5348 -0.4613 0.2867 458 14
0.9240 -0.5326 -0.4612 0.2868 458 14
0.9250 -0.5304 -0.4611 0.2868 458 14
0.9259 -0.5281 -0.4610 0.2869 458 14
0.9268 -0.5259 -0.4608 0.2870 458 14
0.9277 -0.5237 -0.4607 0.2871 458 14
0.9286 -0.5214 -0.4606 0.2872 458 14
0.9296 -0.5192 -0.4604 0.2872 458 14
0.9304 -0.5170 -0.4603 0.2873 458 14
0.9313 -0.5147 -0.4602 0.2874 458 14
0.9322 -0.5125 -0.4600 0.2875 458 14
0.9331 -0.5102 -0.4599 0.2876 458 14
0.9339 -0.5080 -0.4598 0.2877 458 14
0.9346 -0.5056 -0.4595 0.3447 458 14
0.9349 -0.5031 -0.4591 0.3450 458 14
0.9353 -0.5006 -0.4587 0.3453 458 14
0.9356 -0.4981 -0.4584 0.3455 458 14
0.9359 -0.4955 -0.4580 0.3458 458 14
0.9362 -0.4930 -0.4576 0.3461 458 14
0.9366 -0.4905 -0.4572 0.3464 458 14
0.9369 -0.4880 -0.4568 0.3467 458 14
0.9372 -0.4855 -0.4564 0.3470 458 14
0.9375 -0.4830 -0.4561 0.3473 458 14
0.9378 -0.4805 -0.4557 0.3476 458 14
0.9381 -0.4780 -0.4553 0.3479 458 14
0.9383 -0.4754 -0.4549 0.3482 458 14
0.9386 -0.4729 -0.4545 0.3485 458 14
0.9389 -0.4704 -0.4541 0.3488 458 14
0.9392 -0.4679 -0.4538 0.3490 458 14
0.9394 -0.4654 -0.4534 0.3493 458 14
0.9397 -0.4629 -0.4530 0.3496 458 14
0.9399 -0.4605 -0.4526 0.3499 458 14
0.9402 -0.4580 -0.4522 0.3502 458 14
0.9404 -0.4555 -0.4519 0.3505 458 14
0.9406 -0.4530 -0.4515 0.3508 458 14
0.9409 -0.4505 -0.4511 0.3511 458 14
0.9411 -0.4480 -0.4507 0.3514 458 14
0.9413 -0.4455 -0.4504 0.3517 458 14
0.9415 -0.4430 -0.4500 0.3520 458 14
0.9417 -0.4406 -0.4496 0.3523 458 14
0.9419 -0.4381 -0.4492 0.3526 458 14
0.9421 -0.4356 -0.4488 0.3529 458 14
0.9423 -0.4331 -0.4485 0.3532 458 14
0.9425 -0.4306 -0.4481 0.3535 458 14
0.9426 -0.4282 -0.4477 0.3538 458 14
0.9428 -0.4257 -0.4473 0.3541 458 14
0.9430 -0.4232 -0.4470 0.3543 458 14
0.9431 -0.4207 -0.4466 0.3546 458 14
0.9433 -0.4183 -0.4462 0.3549 458 14
0.9434 -0.4158 -0.4459 0.3552 458 14
0.9436 -0.4134 -0.4455 0.3555 458 14
0.9437 -0.4109 -0.4451 0.3558 458 14
0.9438 -0.4084 -0.4447 0.3561 458 14
0.9440 -0.4060 -0.4444 0.3564 458 14
0.9441 -0.4035 -0.4440 0.3567 458 14
0.9442 -0.4011 -0.4436 0.3570 458 14
0.9443 -0.3986 -0.4433 0.3573 458 14
0.9444 -0.3962 -0.4429 0.3576 458 14
0.9445 -0.3937 -0.4425 0.3579 458 14
0.9446 -0.3912 -0.4421 0.3582 458 14
0.9447 -0.3888 -0.4418 0.3585 458 14
0.9448 -0.3864 -0.4414 0.3588 458 14
0.9448 -0.3839 -0.4410 0.3591 458 14
0.9449 -0.3815 -0.4407 0.3594 458 14
0.9450 -0.3790 -0.4403 0.3597 458 14
0.9450 -0.3766 -0.4399 0.3600 458 14
0.9451 -0.3742 -0.4396 0.3603 458 14
0.9451 -0.3718 -0.4392 0.3606 458 14
0.9452 -0.3693 -0.4388 0.3609 458 14
0.9452 -0.3669 -0.4385 0.3612 458 14
0.9453 -0.3645 -0.4381 0.3615 458 14
0.9453 -0.3621 -0.4378 0.3618 458 14
0.9453 -0.3596 -0.4374 0.3621 458 14
0.9453 -0.3572 -0.4370 0.3624 458 14
0.9454 -0.3548 -0.4367 0.3627 458 14
0.9454 -0.3524 -0.4363 0.3630 458 14
0.9454 -0.3500 -0.4359 0.3633 458 14
0.9454 -0.3476 -0.4356 0.3636 458 14
0.9454 -0.3451 -0.4352 0.3639 458 14
0.9454 -0.3427 -0.4349 0.3642 458 14
0.9453 -0.3403 -0.4345 0.3645 458 14
0.9453 -0.3379 -0.4341 0.3648 458 14
0.9453 -0.3355 -0.4338 0.3651 458 14
0.9453 -0.3331 -0.4334 0.3654 458 14
0.9452 -0.3307 -0.4331 0.3657 458 14
0.9452 -0.3283 -0.4327 0.3660 458 14
0.9451 -0.3260 -0.4323 0.3663 458 14
0.9451 -0.3236 -0.4320 0.3666 458 14
0.9450 -0.3212 -0.4316 0.3669 458 14
0.9450 -0.3188 -0.4313 0.3672 458 14
0.9449 -0.3164 -0.4309 0.3676 458 14
0.9448 -0.3140 -0.4306 0.3679 458 14
0.9447 -0.3116 -0.4302 0.3682 458 14
0.9447 -0.3093 -0.4299 0.3685 458 14
0.9446 -0.3069 -0.4295 0.3688 458 14
0.9445 -0.3045 -0.4291 0.3691 458 14
0.9444 -0.3022 -0.4288 0.3694 458 14
0.9443 -0.2998 -0.4284 0.3697 458 14
0.9442 -0.2974 -0.4281 0.3700 458 14
0.9441 -0.2951 -0.4277 0.3703 458 14
0.9439 -0.2927 -0.4274 0.3706 458 14
0.9438 -0.2904 -0.4270 0.3709 458 14
0.9437 -0.2880 -0.4267 0.3712 458 14
0.9436 -0.2856 -0.4263 0.3715 458 14
0.9434 -0.2833 -0.4260 0.3718 458 14
0.9433 -0.2809 -0.4256 0.3721 458 14
0.9431 -0.2786 -0.4253 0.3724 458 14
0.9430 -0.2763 -0.4249 0.3727 458 14
0.9428 -0.2739 -0.4246 0.3730 458 14
0.9427 -0.2716 -0.4242 0.3733 458 14
0.9425 -0.2692 -0.4239 0.3736 458 14
0.9424 -0.2669 -0.4235 0.3739 458 14
