ply
format ascii 1.0
element vertex 609
property float32 x
property float32 y
property float32 z
property float32 CosAngle
property uint32 ObjIdx
property uint32 ObjTag
end_header
33.00107192993164 11.216093063354492 4.4791483879089355 0.4712279438972473 0 9
19.053260803222656 6.285449028015137 2.578291177749634 0.9814620614051819 0 6
33.28103256225586 10.648730278015137 4.490472793579102 0.716877818107605 0 9
32.88357162475586 10.197089195251465 4.424306869506836 0.8776781558990479 0 9
32.066951751708984 9.629218101501465 4.302645683288574 0.7324358224868774 0 9
32.20550537109375 9.356542587280273 4.309788227081299 0.7312220931053162 0 9
31.57206916809082 8.865976333618164 4.21420431137085 0.1869552731513977 0 9
31.505859375 8.543046951293945 4.194958686828613 0.4101674556732178 0 9
31.743183135986328 8.302265167236328 4.216468811035156 0.48411837220191956 0 9
31.497499465942383 7.93664026260376 4.174208164215088 0.1254591941833496 0 9
32.616580963134766 7.90798807144165 4.312926769256592 0.797404408454895 0 9
32.77812576293945 7.636289119720459 4.325048446655273 0.8978214263916016 0 9
32.765682220458984 7.323984146118164 4.314558506011963 0.9000044465065002 0 9
32.75333786010742 7.013144493103027 4.304478168487549 0.9021123647689819 0 9
40.48109436035156 -2.364492177963257 5.211012840270996 0.9584382176399231 0 6
40.48423767089844 -2.7295117378234863 5.214362621307373 0.8441869020462036 0 6
44.38494110107422 -6.21533203125 5.759483337402344 0.9435358643531799 0 3
43.26955032348633 -6.455644607543945 5.622034549713135 0.3141968846321106 0 3
42.04654312133789 -6.659492015838623 5.4706711769104 0.3226282596588135 0 3
40.926307678222656 -6.859199047088623 5.332722187042236 0.9349613785743713 0 3
39.724647521972656 -7.024921894073486 5.184149265289307 0.9319528937339783 0 3
32.6525764465332 -6.077050685882568 4.268172264099121 0.347764253616333 0 3
32.10605239868164 -6.274023532867432 4.203930854797363 0.3254580795764923 0 3
31.286483764648438 -6.405956745147705 4.1039838790893555 0.3726862967014313 0 3
30.55191421508789 -6.541816234588623 4.015166759490967 0.38093018531799316 0 3
29.848417282104492 -6.671914100646973 3.9304182529449463 0.38914358615875244 0 3
28.907011032104492 -6.734453201293945 3.8142640590667725 0.39061516523361206 0 3
28.254257202148438 -6.850312232971191 3.736095905303955 0.3987879753112793 0 3
27.667558670043945 -6.971621036529541 3.6666438579559326 0.9051994681358337 0 3
27.1924991607666 -7.112070083618164 3.6120004653930664 0.41604459285736084 0 3
26.61113166809082 -7.215859413146973 3.5432424545288086 0.4241182804107666 0 3
25.95685577392578 -7.28917932510376 3.4647042751312256 0.8939558267593384 0 3
25.586288452148438 -7.433535099029541 3.424004077911377 0.43763500452041626 0 3
20.36882781982422 -6.116503715515137 2.7330241203308105 0.44562575221061707 0 3
20.1656436920166 -6.253359317779541 2.7131967544555664 0.453542023897171 0 3
19.559551239013672 -6.258378982543945 2.6390883922576904 0.47005388140678406 0 3
19.352752685546875 -6.384257793426514 2.6188039779663086 0.8737794756889343 0 3
19.023944854736328 -6.465703010559082 2.58207631111145 0.47712695598602295 0 3
18.44646453857422 -6.454687118530273 2.5114548206329346 0.48495885729789734 0 3
18.2637882232666 -6.575370788574219 2.4945220947265625 0.8608294129371643 0 3
17.94695281982422 -6.643886566162109 2.459291696548462 0.5003660321235657 0 3
17.61669921875 -6.701992034912109 2.422180414199829 0.5080323815345764 0 3
17.29619026184082 -6.758398056030273 2.3863625526428223 0.5156581997871399 0 3
16.819355010986328 -6.746737957000732 2.328839063644409 0.8425866961479187 0 3
16.359745025634766 -6.733437538146973 2.2734713554382324 0.5307804346084595 0 3
16.071561813354492 -6.7841796875 2.2417986392974854 0.5382795333862305 0 3
15.808124542236328 -6.840781211853027 2.2135250568389893 0.6739593148231506 0 3
15.589510917663574 -6.912968635559082 2.191516399383545 0.5536839365959167 0 3
15.3774995803833 -6.984765529632568 2.170435667037964 0.12751971185207367 0 3
15.234824180603027 -7.085624694824219 2.1591908931732178 0.5678400993347168 0 3
14.978671073913574 -7.130683422088623 2.131868839263916 0.5751169919967651 0 3
14.72890567779541 -7.174648284912109 2.1054036617279053 0.5823472142219543 0 3
14.48525333404541 -7.217519283294678 2.0797488689422607 0.589529812335968 0 3
14.247382164001465 -7.259413719177246 2.0548763275146484 0.5966662168502808 0 3
14.015175819396973 -7.30029296875 2.030754327774048 0.6037534475326538 0 3
13.788339614868164 -7.340234279632568 2.0073530673980713 0.6107919216156006 0 3
13.56663990020752 -7.379257678985596 1.9846398830413818 0.6177822947502136 0 3
13.349902153015137 -7.417382717132568 1.962593674659729 0.6247221231460571 0 3
13.137870788574219 -7.45470666885376 1.941184639930725 0.6316119432449341 0 3
12.930448532104492 -7.4912109375 1.9203921556472778 0.6384502649307251 0 3
12.727401733398438 -7.526952743530273 1.9001919031143188 0.6452373266220093 0 3
12.528534889221191 -7.561953067779541 1.8805605173110962 0.6519728899002075 0 3
12.333749771118164 -7.596250057220459 1.861480951309204 0.6586554646492004 0 3
12.142831802368164 -7.629843711853027 1.8429309129714966 0.6652854084968567 0 3
11.955663681030273 -7.662792682647705 1.824892282485962 0.6718616485595703 0 3
11.77212905883789 -7.69509744644165 1.807347059249878 0.6783834099769592 0 3
11.592050552368164 -7.726796627044678 1.7902770042419434 0.6848511099815369 0 3
11.415390014648438 -7.757890224456787 1.773673415184021 0.6912628412246704 0 3
11.241894721984863 -7.788437366485596 1.7575139999389648 0.6976191997528076 0 3
11.071561813354492 -7.818418025970459 1.7417815923690796 0.7039192914962769 0 3
10.904237747192383 -7.847870826721191 1.7264717817306519 0.7101625204086304 0 3
10.739785194396973 -7.876816272735596 1.7115615606307983 0.7163491249084473 0 3
10.5781831741333 -7.905253887176514 1.6970418691635132 0.7224775552749634 0 3
10.419238090515137 -7.93322229385376 1.6829016208648682 0.7285481691360474 0 3
10.262929916381836 -7.960761547088623 1.6691278219223022 0.7345594167709351 0 3
10.109121322631836 -7.987832069396973 1.6557122468948364 0.7405122518539429 0 3
9.957812309265137 -8.014433860778809 1.642641305923462 0.7464048266410828 0 3
9.808828353881836 -8.040663719177246 1.6299035549163818 0.7522376775741577 0 3
9.662089347839355 -8.066503524780273 1.6174917221069336 0.7580097913742065 0 3
9.517597198486328 -8.091933250427246 1.6053967475891113 0.7637208700180054 0 3
9.380859375 -8.121874809265137 1.594567894935608 0.79547119140625 0 3
9.246171951293945 -8.151581764221191 1.5840435028076172 0.8007568717002869 0 3
9.113203048706055 -8.180917739868164 1.5737825632095337 0.8059779405593872 0 3
9.087480545043945 -8.306366920471191 1.582155704498291 0.6050053834915161 0 3
9.11929702758789 -8.4868745803833 1.6008877754211426 0.5979264974594116 0 3
9.151816368103027 -8.671737670898438 1.620197057723999 0.5908001065254211 0 3
9.185155868530273 -8.861132621765137 1.6401174068450928 0.5836254954338074 0 3
9.219316482543945 -9.055312156677246 1.660663366317749 0.5764034986495972 0 3
12.956737518310547 12.956718444824219 2.2013027667999268 0.8596471548080444 0 9
13.133983612060547 12.900273323059082 2.211656332015991 0.8556228876113892 0 9
13.312870979309082 12.843241691589355 2.222278356552124 0.8515334725379944 0 9
13.623241424560547 12.908613204956055 2.254650831222534 0.8107662796974182 0 9
13.79623031616211 12.839491844177246 2.2641208171844482 0.8073761463165283 0 9
13.970781326293945 12.76986312866211 2.2738571166992188 0.8039177060127258 0 9
14.14687442779541 12.699628829956055 2.2838783264160156 0.8003907203674316 0 9
14.324628829956055 12.628867149353027 2.2941842079162598 0.7967960834503174 0 9
14.504081726074219 12.557499885559082 2.304774045944214 0.7931341528892517 0 9
14.675859451293945 12.477499961853027 2.314176321029663 0.8556265830993652 0 9
14.836386680603027 12.386308670043945 2.321869373321533 0.852791965007782 0 9
14.998125076293945 12.294550895690918 2.329810380935669 0.8498851656913757 0 9
15.16097640991211 12.202167510986328 2.3380038738250732 0.8469070792198181 0 9
19.191112518310547 15.163984298706055 2.938387155532837 0.9660218358039856 0 9
19.373416900634766 15.027538299560547 2.945528268814087 0.9636801481246948 0 9
19.735858917236328 15.026894569396973 2.9800055027008057 0.9412221312522888 0 9
20.395370483398438 15.241816520690918 3.058807611465454 0.7303341627120972 0 9
14.88705062866211 10.918476104736328 2.217902421951294 0.634569525718689 0 9
15.084081649780273 10.856132507324219 2.232654094696045 0.7061755061149597 0 9
15.31576156616211 10.815526962280273 2.2524831295013428 0.6999577879905701 0 9
15.551620483398438 10.774198532104492 2.272857904434204 0.6936833262443542 0 9
15.79183578491211 10.732129096984863 2.293793201446533 0.6873523592948914 0 9
16.036542892456055 10.689257621765137 2.3153064250946045 0.6809653043746948 0 9
16.285879135131836 10.645586013793945 2.337419033050537 0.6745232343673706 0 9
16.540117263793945 10.601113319396973 2.360154867172241 0.6680262684822083 0 9
16.799335479736328 10.5557222366333 2.38352632522583 0.6614748239517212 0 9
16.809589385986328 10.352890014648438 2.371701240539551 0.7453022599220276 0 9
16.76900291442871 10.121386528015137 2.353060007095337 0.7512063384056091 0 9
16.72900390625 9.893495559692383 2.334892511367798 0.7570504546165466 0 9
16.68962860107422 9.669081687927246 2.3171896934509277 0.7628338932991028 0 9
16.650819778442383 9.447988510131836 2.2999377250671387 0.7685568332672119 0 9
16.61259651184082 9.230175971984863 2.2831175327301025 0.7742186188697815 0 9
16.57488250732422 9.01546859741211 2.266721248626709 0.779818058013916 0 9
25.076873779296875 13.349609375 3.4128968715667725 0.6056228876113892 0 9
25.488964080810547 13.27675724029541 3.452624797821045 0.5986539721488953 0 9
26.751522064208984 13.630546569824219 3.6069204807281494 0.905256986618042 0 9
26.8546085357666 13.380820274353027 3.604477882385254 0.9058694243431091 0 9
27.41455078125 13.35400390625 3.6633968353271484 0.7362461686134338 0 9
27.395448684692383 13.041757583618164 3.645056962966919 0.7399505972862244 0 9
26.7012882232666 12.418554306030273 3.5377273559570312 0.25600045919418335 0 9
27.16179656982422 12.337421417236328 3.5839145183563232 0.9410356879234314 0 9
27.278182983398438 12.096132278442383 3.584805488586426 0.9408028721809387 0 9
27.39468765258789 11.854706764221191 3.585986614227295 0.9404923319816589 0 9
27.5113468170166 11.61312484741211 3.587465524673462 0.9401039481163025 0 9
27.628202438354492 11.371347427368164 3.589252471923828 0.9396374821662903 0 9
27.56804656982422 11.058280944824219 3.568387746810913 0.2351422905921936 0 9
27.8624210357666 10.887089729309082 3.5937068462371826 0.9384714961051941 0 9
29.01873016357422 11.03970718383789 3.729921579360962 0.1964055299758911 0 9
29.520448684692383 10.928261756896973 3.7816379070281982 0.6777020692825317 0 9
29.439393997192383 10.59878921508789 3.758916139602661 0.7520787715911865 0 9
29.314218521118164 10.257460594177246 3.7310292720794678 0.7577003836631775 0 9
29.19091796875 9.921133041381836 3.703857660293579 0.7632599472999573 0 9
19.05289077758789 6.285331726074219 2.410252571105957 0.9824880957603455 0 6
33.44318389892578 10.700624465942383 4.218344211578369 0.7141335606575012 0 9
32.17181396484375 9.976386070251465 4.046518325805664 0.22798028588294983 0 9
32.34404373168945 9.712421417236328 4.057058811187744 0.7269060015678406 0 9
31.44544792175293 9.135703086853027 3.933896064758301 0.1874193400144577 0 9
31.66712760925293 8.892675399780273 3.9514808654785156 0.8144693970680237 0 9
31.52618980407715 8.548574447631836 3.924161672592163 0.4103236496448517 0 9
31.72771453857422 8.298222541809082 3.9398231506347656 0.12438956648111343 0 9
32.285858154296875 8.1353120803833 3.9999001026153564 0.8046118021011353 0 9
32.49578094482422 7.87869119644165 4.016984462738037 0.8011890053749084 0 9
32.7038459777832 7.618984222412109 4.034083366394043 0.9007832407951355 0 9
32.69160079956055 7.30740213394165 4.024319171905518 0.9029685854911804 0 9
32.67953109741211 6.997323989868164 4.014941692352295 0.9050787687301636 0 9
44.38492202758789 -6.215312480926514 5.384201526641846 0.9445042014122009 0 3
43.26953125 -6.455625057220459 5.255721092224121 0.3145192265510559 0 3
42.04654312133789 -6.659492015838623 5.114223957061768 0.3229592740535736 0 3
40.444297790527344 -6.77843713760376 4.926547527313232 0.3329963982105255 0 3
39.83790969848633 -7.045000076293945 4.860185623168945 0.3304571807384491 0 3
32.652557373046875 -6.077070236206055 3.9900729656219482 0.34812092781066895 0 3
32.10744094848633 -6.274296760559082 3.930187702178955 0.35645294189453125 0 3
31.049530029296875 -6.357421875 3.807522773742676 0.36618566513061523 0 3
30.30140495300293 -6.488144397735596 3.7227723598480225 0.3648708760738373 0 3
29.848398208618164 -6.671914100646973 3.6743268966674805 0.38127419352531433 0 3
28.910037994384766 -6.735175609588623 3.56610369682312 0.3983553647994995 0 3
28.525625228881836 -6.916152000427246 3.5262179374694824 0.39767104387283325 0 3
27.667558670043945 -6.971621036529541 3.42773699760437 0.9061286449432373 0 3
27.203651428222656 -7.114999771118164 3.378046989440918 0.4163004457950592 0 3
26.621854782104492 -7.218769550323486 3.313706874847412 0.424382746219635 0 3
25.95685577392578 -7.289159774780273 3.2389559745788574 0.8948730826377869 0 3
25.586288452148438 -7.433495998382568 3.200904130935669 0.43808382749557495 0 3
20.368906021118164 -6.11648416519165 2.5549609661102295 0.4460814297199249 0 3
20.16568374633789 -6.253320217132568 2.53640079498291 0.4540070593357086 0 3
19.560272216796875 -6.258593559265137 2.4672231674194336 0.47051897644996643 0 3
19.352733612060547 -6.384257793426514 2.4481658935546875 0.8746761679649353 0 3
19.023944854736328 -6.465703010559082 2.4138383865356445 0.47761648893356323 0 3
18.446542739868164 -6.454726219177246 2.3478317260742188 0.4854534864425659 0 3
18.015506744384766 -6.48595666885376 2.3002851009368896 0.49327296018600464 0 3
17.680038452148438 -6.54503870010376 2.264864444732666 0.5009872913360596 0 3
17.35478401184082 -6.602343559265137 2.230693817138672 0.5086609125137329 0 3
17.031484603881836 -6.654980182647705 2.196732521057129 0.3629760444164276 0 3
16.76704978942871 -6.725741863250732 2.170325517654419 0.11904074251651764 0 3
16.622089385986328 -6.84142541885376 2.1594228744506836 0.5313286781311035 0 3
16.329355239868164 -6.892949104309082 2.1293387413024902 0.5388352870941162 0 3
16.04456901550293 -6.943085670471191 2.1002495288848877 0.546299159526825 0 3
15.76742172241211 -6.991894245147705 2.0721068382263184 0.5537182092666626 0 3
15.4976167678833 -7.039374828338623 2.044869899749756 0.5610934495925903 0 3
15.234804153442383 -7.085624694824219 2.0185046195983887 0.568422794342041 0 3
14.978652000427246 -7.130722522735596 1.9929653406143188 0.575706958770752 0 3
14.72890567779541 -7.174648284912109 1.9682238101959229 0.5829440355300903 0 3
14.485234260559082 -7.21755838394165 1.944240927696228 0.5901346802711487 0 3
14.247382164001465 -7.259433269500732 1.9209905862808228 0.5972779989242554 0 3
14.015175819396973 -7.30029296875 1.8984386920928955 0.6043723821640015 0 3
13.788339614868164 -7.340234279632568 1.8765593767166138 0.6114187240600586 0 3
13.56663990020752 -7.379238128662109 1.855326771736145 0.6184155941009521 0 3
13.349902153015137 -7.417402267456055 1.834716796875 0.625362753868103 0 3
13.137909889221191 -7.45470666885376 1.8147051334381104 0.6322594285011292 0 3
12.930448532104492 -7.4912109375 1.7952654361724854 0.6391053199768066 0 3
12.727401733398438 -7.526952743530273 1.7763820886611938 0.6458994150161743 0 3
12.528534889221191 -7.561953067779541 1.7580304145812988 0.652641773223877 0 3
12.333749771118164 -7.596230506896973 1.7401937246322632 0.6593312621116638 0 3
12.142831802368164 -7.629863262176514 1.722851276397705 0.6659673452377319 0 3
11.955663681030273 -7.662792682647705 1.7059872150421143 0.6725510954856873 0 3
11.77212905883789 -7.69509744644165 1.6895864009857178 0.6790794134140015 0 3
11.592069625854492 -7.726777076721191 1.6736315488815308 0.6855531334877014 0 3
11.415390014648438 -7.757890224456787 1.6581075191497803 0.6919720768928528 0 3
11.241894721984863 -7.788437366485596 1.6430004835128784 0.6983350515365601 0 3
11.071561813354492 -7.818398475646973 1.6282943487167358 0.704641580581665 0 3
10.904237747192383 -7.847870826721191 1.6139791011810303 0.7108913064002991 0 3
10.739785194396973 -7.876796722412109 1.6000423431396484 0.7170841693878174 0 3
10.578164100646973 -7.905253887176514 1.58646821975708 0.7232182621955872 0 3
10.419238090515137 -7.93322229385376 1.5732522010803223 0.7292957901954651 0 3
10.262909889221191 -7.960741996765137 1.5603759288787842 0.7353130578994751 0 3
10.109140396118164 -7.987812519073486 1.54783296585083 0.7412713766098022 0 3
9.957812309265137 -8.014433860778809 1.5356109142303467 0.7471705675125122 0 3
9.808828353881836 -8.040663719177246 1.5237032175064087 0.7530094981193542 0 3
9.662070274353027 -8.066503524780273 1.5121002197265625 0.7587875127792358 0 3
9.517597198486328 -8.091933250427246 1.5007930994033813 0.7645044922828674 0 3
9.380898475646973 -8.121855735778809 1.49067223072052 0.7962867617607117 0 3
9.246171951293945 -8.151581764221191 1.480832815170288 0.8015778064727783 0 3
9.113203048706055 -8.180917739868164 1.4712399244308472 0.8068048357963562 0 3
9.087480545043945 -8.306347846984863 1.4790679216384888 0.6056264042854309 0 3
9.119277000427246 -8.486855506896973 1.4965779781341553 0.5985404253005981 0 3
9.151835441589355 -8.671737670898438 1.5146312713623047 0.591406524181366 0 3
9.185175895690918 -8.861132621765137 1.5332510471343994 0.5842244625091553 0 3
9.219316482543945 -9.055293083190918 1.5524612665176392 0.5769954323768616 0 3
13.000194549560547 13.000175476074219 2.0550549030303955 0.85759037733078 0 9
13.178261756896973 12.943788528442383 2.064753770828247 0.8535623550415039 0 9
13.40414047241211 12.931327819824219 2.08186936378479 0.8177588582038879 0 9
13.574843406677246 12.862753868103027 2.09036922454834 0.8144344091415405 0 9
13.747031211853027 12.793710708618164 2.099114418029785 0.8110407590866089 0 9
13.92074203491211 12.72412109375 2.108112335205078 0.8075789213180542 0 9
14.095995903015137 12.65396499633789 2.117367744445801 0.8040485978126526 0 9
14.272871017456055 12.583222389221191 2.126887083053589 0.8004508018493652 0 9
14.451444625854492 12.511933326721191 2.136671304702759 0.7967850565910339 0 9
14.63173770904541 12.439980506896973 2.146728754043579 0.793052077293396 0 9
14.792304039001465 12.349472045898438 2.1539385318756104 0.8561522364616394 0 9
14.953397750854492 12.257890701293945 2.161285400390625 0.8532428741455078 0 9
15.115605354309082 12.165644645690918 2.1688592433929443 0.8502619862556458 0 9
19.21029281616211 15.179140090942383 2.736729621887207 0.9659789800643921 0 9
19.392831802368164 15.042597770690918 2.7433886528015137 0.9636350274085999 0 9
20.065507888793945 15.2778902053833 2.819030284881592 0.7380358576774597 0 9
20.275625228881836 15.152323722839355 2.8293232917785645 0.735351026058197 0 9
20.487382888793945 15.02587890625 2.839935541152954 0.7326022982597351 0 9
20.70085906982422 14.898573875427246 2.8508846759796143 0.7297898530960083 0 9
15.409433364868164 10.881659507751465 2.108619451522827 0.6216234564781189 0 9
15.54183578491211 10.767401695251465 2.11342716217041 0.6947845816612244 0 9
15.781777381896973 10.725293159484863 2.1328792572021484 0.6884478330612183 0 9
16.026248931884766 10.682421684265137 2.152872323989868 0.6820547580718994 0 9
16.27535057067871 10.638710975646973 2.1734187602996826 0.675606369972229 0 9
16.529315948486328 10.594179153442383 2.194547414779663 0.6691029667854309 0 9
16.78826141357422 10.548768997192383 2.2162649631500244 0.6625455617904663 0 9
16.819883346557617 10.359237670898438 2.2080774307250977 0.7455580234527588 0 9
16.779199600219727 10.127558708190918 2.1907100677490234 0.7514679431915283 0 9
16.73910140991211 9.8994722366333 2.173790216445923 0.7573180198669434 0 9
16.699609756469727 9.674882888793945 2.1572957038879395 0.7631068825721741 0 9
16.660741806030273 9.453632354736328 2.1412246227264404 0.7688353061676025 0 9
27.82210922241211 15.458280563354492 3.557694911956787 0.8566504716873169 0 9
27.86785125732422 15.157968521118164 3.546004295349121 0.8594744205474854 0 9
27.913183212280273 14.859492301940918 3.534660816192627 0.8622335195541382 0 9
26.776718139648438 13.94749927520752 3.374752998352051 0.9010932445526123 0 9
26.88050651550293 13.696269035339355 3.372209072113037 0.9017744660377502 0 9
28.47003936767578 14.18570327758789 3.555497169494629 0.8876171112060547 0 9
28.49247932434082 13.87906265258789 3.542599678039551 0.8908485770225525 0 9
29.2803897857666 13.939101219177246 3.62485933303833 0.8564315438270569 0 9
26.746150970458984 12.439414024353027 3.2971718311309814 0.255815327167511 0 9
27.108476638793945 12.313202857971191 3.328073263168335 0.9437873363494873 0 9
27.224628448486328 12.072343826293945 3.32889986038208 0.9435544610023499 0 9
27.340898513793945 11.831405639648438 3.329993486404419 0.9432436227798462 0 9
27.457284927368164 11.590292930603027 3.331366777420044 0.9428547620773315 0 9
27.57390594482422 11.349003791809082 3.333019733428955 0.9423880577087402 0 9
27.690643310546875 11.107460975646973 3.334947109222412 0.9418432712554932 0 9
27.8076171875 10.865644454956055 3.3371498584747314 0.9412207007408142 0 9
29.45033073425293 11.203886032104492 3.522082805633545 0.19371238350868225 0 9
29.537519454956055 10.9345703125 3.5206308364868164 0.7478421330451965 0 9
29.4107608795166 10.588476181030273 3.4940524101257324 0.7535303235054016 0 9
29.285917282104492 10.247538566589355 3.468153953552246 0.7591572999954224 0 9
29.16292953491211 9.911601066589355 3.4429171085357666 0.7647222876548767 0 9
19.052518844604492 6.285234451293945 2.2425498962402344 0.9834475517272949 0 6
32.74503707885742 10.477226257324219 3.842977523803711 0.8806453347206116 0 9
32.73162078857422 10.149980545043945 3.830551862716675 0.8835008144378662 0 9
31.3160343170166 9.403749465942383 3.6548714637756348 0.1878751516342163 0 9
32.46902084350586 9.433085441589355 3.7794008255004883 0.18168477714061737 0 9
32.10593795776367 9.015917778015137 3.7275631427764893 0.4023021459579468 0 9
31.546483993530273 8.554081916809082 3.6535470485687256 0.4104517996311188 0 9
31.715702056884766 8.29507827758789 3.664372205734253 0.48549920320510864 0 9
32.16748046875 8.105487823486328 3.7080178260803223 0.8083450794219971 0 9
32.37615203857422 7.849668025970459 3.723798990249634 0.8049189448356628 0 9
32.58675765991211 7.591738224029541 3.7400381565093994 0.8014248609542847 0 9
32.61802673339844 7.290976524353027 3.735959053039551 0.9058714509010315 0 9
44.02701187133789 -6.165214538574219 4.9692840576171875 0.30634647607803345 0 3
43.23007583618164 -6.449785232543945 4.885677814483643 0.3061588406562805 0 3
42.014060974121094 -6.654375076293945 4.754802227020264 0.31458577513694763 0 3
40.860076904296875 -6.848085880279541 4.630977153778076 0.32325857877731323 0 3
39.76724624633789 -7.032480239868164 4.514087200164795 0.33136120438575745 0 3
32.65263748168945 -6.077070236206055 3.7125344276428223 0.3484707474708557 0 3
32.10744094848633 -6.274277210235596 3.6568093299865723 0.3567938506603241 0 3
31.350194931030273 -6.418964862823486 3.5769741535186768 0.36510545015335083 0 3
30.302772521972656 -6.488476276397705 3.4639766216278076 0.36520296335220337 0 3
29.848398208618164 -6.671933650970459 3.4187405109405518 0.38163885474205017 0 3
28.91097640991211 -6.735429763793945 3.3181569576263428 0.38934603333473206 0 3
28.525625228881836 -6.916152000427246 3.2809317111968994 0.39805173873901367 0 3
27.667537689208984 -6.971621036529541 3.1892988681793213 0.9069958329200745 0 3
27.214784622192383 -7.117929458618164 3.144357442855835 0.4165281355381012 0 3
26.632577896118164 -7.221640586853027 3.0844545364379883 0.42461761832237244 0 3
25.95685577392578 -7.289140224456787 3.013652801513672 0.8957298994064331 0 3
25.586307525634766 -7.433495998382568 2.978252410888672 0.43850281834602356 0 3
20.36894416809082 -6.116523265838623 2.3772430419921875 0.4465070962905884 0 3
20.16566276550293 -6.253320217132568 2.3599753379821777 0.4544415771961212 0 3
19.413846969604492 -6.211718559265137 2.278428792953491 0.30509260296821594 0 3
19.001659393310547 -6.268417835235596 2.2365617752075195 0.47023048996925354 0 3
18.6661319732666 -6.344062328338623 2.203683376312256 0.4421567916870117 0 3
18.35609245300293 -6.423066139221191 2.173802375793457 0.44823479652404785 0 3
18.221094131469727 -6.559980392456055 2.1647000312805176 0.49363622069358826 0 3
17.881757736206055 -6.619707107543945 2.1313583850860596 0.5013585090637207 0 3
17.552637100219727 -6.677617073059082 2.0991930961608887 0.5090404152870178 0 3
17.23335838317871 -6.733847618103027 2.0681521892547607 0.5166805982589722 0 3
16.923280715942383 -6.788437366485596 2.038173198699951 0.5242801904678345 0 3
16.6220703125 -6.841444969177246 2.0092129707336426 0.5318372249603271 0 3
16.329296112060547 -6.892988204956055 1.981222152709961 0.5393509864807129 0 3
16.0445499420166 -6.943085670471191 1.9541563987731934 0.5468214750289917 0 3
15.76742172241211 -6.991894245147705 1.9279695749282837 0.5542481541633606 0 3
15.497655868530273 -7.03933572769165 1.9026296138763428 0.5616299510002136 0 3
15.234804153442383 -7.085624694824219 1.878098964691162 0.5689667463302612 0 3
14.978671073913574 -7.130683422088623 1.854335904121399 0.5762573480606079 0 3
14.728886604309082 -7.174667835235596 1.8313121795654297 0.5835015773773193 0 3
14.485234260559082 -7.21755838394165 1.8089981079101562 0.5906994938850403 0 3
14.24740219116211 -7.259413719177246 1.7873623371124268 0.5978489518165588 0 3
14.015155792236328 -7.30029296875 1.7663824558258057 0.6049507856369019 0 3
13.78831958770752 -7.340234279632568 1.7460262775421143 0.6120038032531738 0 3
13.56663990020752 -7.379238128662109 1.7262719869613647 0.619007408618927 0 3
13.349882125854492 -7.417402267456055 1.707094669342041 0.6259612441062927 0 3
13.137909889221191 -7.45470666885376 1.6884725093841553 0.6328644156455994 0 3
12.930468559265137 -7.4912109375 1.6703872680664062 0.6397165060043335 0 3
12.72738265991211 -7.526952743530273 1.6528152227401733 0.6465176343917847 0 3
12.528534889221191 -7.561972618103027 1.6357412338256836 0.6532658934593201 0 3
12.333749771118164 -7.596230506896973 1.6191445589065552 0.6599622964859009 0 3
12.142831802368164 -7.629843711853027 1.6030105352401733 0.6666046380996704 0 3
11.955702781677246 -7.662773132324219 1.5873186588287354 0.673194169998169 0 3
11.77212905883789 -7.69509744644165 1.572060227394104 0.6797292232513428 0 3
11.592069625854492 -7.726777076721191 1.5572149753570557 0.6862092018127441 0 3
11.415390014648438 -7.757871150970459 1.5427688360214233 0.6926343441009521 0 3
11.24193286895752 -7.788398265838623 1.5287127494812012 0.6990026831626892 0 3
11.071542739868164 -7.818398475646973 1.5150295495986938 0.705315887928009 0 3
10.904218673706055 -7.847870826721191 1.5017107725143433 0.7115715742111206 0 3
10.7398042678833 -7.876796722412109 1.4887429475784302 0.7177697420120239 0 3
10.578164100646973 -7.905253887176514 1.4761147499084473 0.723910391330719 0 3
10.419238090515137 -7.933241844177246 1.4638153314590454 0.7299929857254028 0 3
10.262909889221191 -7.960741996765137 1.4518356323242188 0.7360167503356934 0 3
10.109140396118164 -7.98779296875 1.4401644468307495 0.741980791091919 0 3
9.957812309265137 -8.014433860778809 1.4287933111190796 0.7478856444358826 0 3
9.808808326721191 -8.040663719177246 1.4177156686782837 0.753730058670044 0 3
9.662089347839355 -8.066484451293945 1.4069207906723022 0.7595130801200867 0 3
9.517578125 -8.091914176940918 1.3963991403579712 0.7652360200881958 0 3
9.380878448486328 -8.121855735778809 1.386981725692749 0.7970487475395203 0 3
9.2461519241333 -8.151581764221191 1.377826452255249 0.8023449182510376 0 3
9.113203048706055 -8.180917739868164 1.3689000606536865 0.8075762987136841 0 3
9.087480545043945 -8.306347846984863 1.3761827945709229 0.6062062978744507 0 3
9.119277000427246 -8.486835479736328 1.3924742937088013 0.5991137623786926 0 3
9.151816368103027 -8.67171859741211 1.4092718362808228 0.5919728875160217 0 3
9.185155868530273 -8.861113548278809 1.426595687866211 0.5847840905189514 0 3
9.2192964553833 -9.055273056030273 1.4444680213928223 0.577548086643219 0 3
17.854257583618164 17.854257583618164 2.6117653846740723 0.9937694668769836 0 9
18.026914596557617 17.706151962280273 2.6136674880981445 0.9930469393730164 0 9
13.3569917678833 12.8858003616333 1.91973876953125 0.8213740587234497 0 9
13.526894569396973 12.817304611206055 1.9275493621826172 0.818046510219574 0 9
13.698261260986328 12.748300552368164 1.9355822801589966 0.814650297164917 0 9
13.871112823486328 12.6787691116333 1.9438494443893433 0.811185359954834 0 9
14.04556655883789 12.608652114868164 1.952358365058899 0.8076518774032593 0 9
14.221601486206055 12.538007736206055 1.9610989093780518 0.8040509223937988 0 9
14.399237632751465 12.466737747192383 1.9700918197631836 0.8003818988800049 0 9
14.578652381896973 12.394843101501465 1.9793282747268677 0.7966456413269043 0 9
14.74853515625 12.312949180603027 1.9873135089874268 0.8594545125961304 0 9
14.908964157104492 12.221464157104492 1.9940706491470337 0.8565423488616943 0 9
15.070566177368164 12.129374504089355 2.0010387897491455 0.8535588979721069 0 9
19.2294921875 15.1943359375 2.5350418090820312 0.9658703804016113 0 9
19.41226577758789 15.057695388793945 2.5412135124206543 0.9635244607925415 0 9
19.949003219604492 15.189179420471191 2.593522548675537 0.7430049777030945 0 9
20.157421112060547 15.063983917236328 2.602938175201416 0.7403178215026855 0 9
20.36751937866211 14.937968254089355 2.6126482486724854 0.7375665307044983 0 9
26.059432983398438 18.75519561767578 3.3210487365722656 0.96983802318573 0 9
33.64433670043945 23.758554458618164 4.26031494140625 0.5339236259460449 0 9
30.53413963317871 21.154062271118164 3.842283010482788 0.8951614499092102 0 9
30.60706901550293 20.800527572631836 3.827812671661377 0.89854496717453 0 9
16.240604400634766 10.825292587280273 2.0188710689544678 0.6013422012329102 0 9
16.26480484008789 10.631796836853027 2.009934425354004 0.6766434907913208 0 9
16.518495559692383 10.587225914001465 2.0294575691223145 0.6701343059539795 0 9
16.77718734741211 10.541776657104492 2.0495312213897705 0.6635705828666687 0 9
17.041074752807617 10.49544906616211 2.070176839828491 0.6569532752037048 0 9
16.78935432434082 10.133671760559082 2.02846360206604 0.7516787648200989 0 9
16.74919891357422 9.905448913574219 2.0127837657928467 0.7575337886810303 0 9
16.7095890045166 9.680624961853027 1.9975075721740723 0.7633282542228699 0 9
27.345136642456055 15.516152381896973 3.2521235942840576 0.3557627201080322 0 9
27.956600189208984 15.533026695251465 3.3081283569335938 0.8532858490943909 0 9
28.002166748046875 15.2310152053833 3.2972066402435303 0.8561123609542847 0 9
28.047264099121094 14.930878639221191 3.286604166030884 0.8588739633560181 0 9
28.3770694732666 14.78109359741211 3.309569835662842 0.8832002878189087 0 9
28.39988136291504 14.470429420471191 3.2969448566436768 0.8865808248519897 0 9
28.422597885131836 14.162070274353027 3.284695625305176 0.8898884057998657 0 9
28.445175170898438 13.856035232543945 3.2727999687194824 0.8931228518486023 0 9
30.97087860107422 14.743846893310547 3.5480329990386963 0.628134548664093 0 9
27.142831802368164 12.62392520904541 3.096376657485962 0.9214590191841125 0 9
27.05550765991211 12.2891206741333 3.0737085342407227 0.9464749693870544 0 9
27.17138671875 12.048749923706055 3.0744640827178955 0.9462420344352722 0 9
27.558300018310547 11.925468444824219 3.1060073375701904 0.9186025857925415 0 9
29.653242111206055 12.51724624633789 3.3293216228485107 0.6640046834945679 0 9
29.426855087280273 12.11166000366211 3.291565179824829 0.1810360550880432 0 9
28.036678314208984 11.246269226074219 3.1246511936187744 0.231638103723526 0 9
28.55728530883789 11.15859317779541 3.171375274658203 0.19925656914710999 0 9
29.637069702148438 11.274941444396973 3.279919147491455 0.7434828281402588 0 9
29.508651733398438 10.923906326293945 3.254732847213745 0.7492372989654541 0 9
29.382265090942383 10.578203201293945 3.23018217086792 0.7549309730529785 0 9
29.257753372192383 10.237675666809082 3.2062649726867676 0.7605629563331604 0 9
29.135116577148438 9.902167320251465 3.182957410812378 0.7661328315734863 0 9
19.052127838134766 6.285097599029541 2.0751631259918213 0.9843400120735168 0 6
32.677791595458984 10.45572280883789 3.5489046573638916 0.22422939538955688 0 9
33.60810470581055 10.421796798706055 3.6396334171295166 0.7139566540718079 0 9
32.331912994384766 9.708788871765137 3.4918477535247803 0.18213343620300293 0 9
32.63056564331055 9.480019569396973 3.514775037765503 0.8918172121047974 0 9
32.12693405151367 9.02181625366211 3.45166277885437 0.4023955166339874 0 9
31.566757202148438 8.5595703125 3.3830881118774414 0.41055214405059814 0 9
31.70199203491211 8.291464805603027 3.389465570449829 0.48614025115966797 0 9
32.050174713134766 8.075898170471191 3.4188027381896973 0.812023401260376 0 9
32.25757598876953 7.820937156677246 3.433304786682129 0.8085942268371582 0 9
32.466915130615234 7.563788890838623 3.44822096824646 0.8050970435142517 0 9
32.544921875 7.274628639221191 3.4494240283966064 0.90871262550354 0 9
44.38488006591797 -6.215312480926514 4.6358442306518555 0.9462478756904602 0 3
43.147361755371094 -6.437421798706055 4.51244592666626 0.3070181906223297 0 3
41.94400405883789 -6.643261432647705 4.392652988433838 0.3301817774772644 0 3
40.842674255371094 -6.84521484375 4.2835822105407715 0.3385891020298004 0 3
39.794647216796875 -7.037343502044678 4.180118083953857 0.3469696044921875 0 3
32.65275192260742 -6.077109336853027 3.4355103969573975 0.3487788438796997 0 3
32.107421875 -6.274296760559082 3.383916139602661 0.3571107089519501 0 3
31.350194931030273 -6.418984413146973 3.3100521564483643 0.3654292821884155 0 3
30.30419921875 -6.48876953125 3.205634355545044 0.3655101954936981 0 3
29.848379135131836 -6.671914100646973 3.1636288166046143 0.3819778263568878 0 3
28.911190032958984 -6.735448837280273 3.0705745220184326 0.3896889388561249 0 3
28.525644302368164 -6.91613245010376 3.036090612411499 0.3984026610851288 0 3
27.667537689208984 -6.971601486206055 2.951310634613037 0.9078013896942139 0 3
27.225936889648438 -7.120820045471191 2.910905599594116 0.4167274236679077 0 3
26.64324188232422 -7.224531173706055 2.855426073074341 0.42482438683509827 0 3
25.95683479309082 -7.289159774780273 2.7887661457061768 0.896525502204895 0 3
20.699296951293945 -6.013691425323486 2.2296111583709717 0.4388922452926636 0 3
20.27519416809082 -6.088339805603027 2.1897213459014893 0.4466974437236786 0 3
20.092382431030273 -6.230605125427246 2.1759328842163086 0.4548450708389282 0 3
19.692655563354492 -6.300956726074219 2.138685941696167 0.4627668559551239 0 3
19.306386947631836 -6.368945121765137 2.102856159210205 0.47065141797065735 0 3
18.93279266357422 -6.434726238250732 2.068373918533325 0.47849786281585693 0 3
18.571210861206055 -6.498378753662109 2.0351638793945312 0.4863058924674988 0 3
18.221054077148438 -6.559999942779541 2.0031652450561523 0.4940747022628784 0 3
17.881717681884766 -6.619707107543945 1.9723116159439087 0.5018037557601929 0 3
17.552616119384766 -6.677656173706055 1.9425463676452637 0.5094925165176392 0 3
17.233320236206055 -6.733867168426514 1.913820743560791 0.5171399116516113 0 3
16.923320770263672 -6.788398265838623 1.8860796689987183 0.5247454643249512 0 3
16.622089385986328 -6.84142541885376 1.8592840433120728 0.5323091745376587 0 3
16.329296112060547 -6.892988204956055 1.8333789110183716 0.5398300290107727 0 3
16.0445499420166 -6.943085670471191 1.8083330392837524 0.5473072528839111 0 3
15.76742172241211 -6.991894245147705 1.7841006517410278 0.554740309715271 0 3
15.497655868530273 -7.03933572769165 1.7606524229049683 0.5621287822723389 0 3
15.234804153442383 -7.085624694824219 1.737947940826416 0.5694720149040222 0 3
14.978671073913574 -7.130683422088623 1.7159603834152222 0.5767691135406494 0 3
14.431093215942383 -7.029628753662109 1.6603912115097046 0.584018886089325 0 3
14.1923828125 -7.071620941162109 1.6401631832122803 0.5912227630615234 0 3
13.95937442779541 -7.112636566162109 1.6205471754074097 0.5983787178993225 0 3
13.867890357971191 -7.223554611206055 1.617391586303711 0.6518710255622864 0 3
13.788339614868164 -7.340214729309082 1.6157336235046387 0.6125468015670776 0 3
13.56663990020752 -7.379238128662109 1.5974518060684204 0.6195571422576904 0 3
13.349882125854492 -7.417402267456055 1.579705834388733 0.6265170574188232 0 3
13.137889862060547 -7.454687118530273 1.5624743700027466 0.6334265470504761 0 3
12.930448532104492 -7.4912109375 1.545739769935608 0.640284538269043 0 3
12.72738265991211 -7.526952743530273 1.5294784307479858 0.6470912098884583 0 3
12.528534889221191 -7.561953067779541 1.5136789083480835 0.6538460850715637 0 3
12.333749771118164 -7.596230506896973 1.4983205795288086 0.6605484485626221 0 3
12.14281177520752 -7.629843711853027 1.4833904504776 0.6671967506408691 0 3
11.955683708190918 -7.662773132324219 1.468869924545288 0.6737919449806213 0 3
11.772168159484863 -7.69509744644165 1.454748511314392 0.6803324222564697 0 3
11.592069625854492 -7.726777076721191 1.4410103559494019 0.6868185997009277 0 3
11.41537094116211 -7.757890224456787 1.4276446104049683 0.6932488679885864 0 3
11.24193286895752 -7.788398265838623 1.4146353006362915 0.6996234655380249 0 3
11.071581840515137 -7.818398475646973 1.4019747972488403 0.7059416174888611 0 3
10.904218673706055 -7.847870826721191 1.3896496295928955 0.7122033834457397 0 3
10.739824295043945 -7.876796722412109 1.3776479959487915 0.718407154083252 0 3
10.578164100646973 -7.905253887176514 1.3659640550613403 0.7245531678199768 0 3
10.419238090515137 -7.933241844177246 1.3545821905136108 0.73064124584198 0 3
10.262948989868164 -7.960741996765137 1.343496322631836 0.7366697192192078 0 3
10.109140396118164 -7.98779296875 1.3326961994171143 0.7426397204399109 0 3
9.957773208618164 -8.014452934265137 1.3221737146377563 0.7485498189926147 0 3
9.808769226074219 -8.04068374633789 1.3119219541549683 0.7543988227844238 0 3
9.662089347839355 -8.066523551940918 1.3019338846206665 0.7601875066757202 0 3
9.517578125 -8.091933250427246 1.2921960353851318 0.7659149169921875 0 3
9.380859375 -8.121893882751465 1.2834811210632324 0.797756552696228 0 3
9.246112823486328 -8.151620864868164 1.2750099897384644 0.8030573725700378 0 3
9.11318302154541 -8.180917739868164 1.2667500972747803 0.8082934617996216 0 3
9.0874605178833 -8.306347846984863 1.2734875679016113 0.6067452430725098 0 3
9.119237899780273 -8.4868745803833 1.2885628938674927 0.599646270275116 0 3
9.151777267456055 -8.671737670898438 1.3041064739227295 0.5924986600875854 0 3
9.1851167678833 -8.861151695251465 1.3201385736465454 0.5853031277656555 0 3
9.2192964553833 -9.055273056030273 1.3366775512695312 0.5780613422393799 0 3
18.637792587280273 18.637773513793945 2.50689959526062 0.5164619088172913 0 9
19.087305068969727 18.747655868530273 2.5446245670318604 0.5088055729866028 0 9
13.310234069824219 12.840703010559082 1.7590163946151733 0.8249337673187256 0 9
13.479374885559082 12.772284507751465 1.7661473751068115 0.8216032981872559 0 9
13.6499605178833 12.703339576721191 1.773486852645874 0.8182041645050049 0 9
13.821991920471191 12.6338472366333 1.7810330390930176 0.8147366046905518 0 9
13.995585441589355 12.56380844116211 1.788796305656433 0.8112002611160278 0 9
14.170722007751465 12.493183135986328 1.7967787981033325 0.8075962662696838 0 9
14.34755802154541 12.421953201293945 1.8049874305725098 0.8039241433143616 0 9
14.526015281677246 12.350116729736328 1.8134218454360962 0.8001850247383118 0 9
14.705117225646973 12.27669906616211 1.8219454288482666 0.862698495388031 0 9
14.864940643310547 12.185370445251465 1.8281246423721313 0.8597838282585144 0 9
15.025897979736328 12.093457221984863 1.8344930410385132 0.8567981123924255 0 9
15.1880464553833 12.000937461853027 1.841064691543579 0.8537407517433167 0 9
19.4317569732666 15.072793006896973 2.3389832973480225 0.9633481502532959 0 9
19.834041595458984 15.101679801940918 2.3709936141967773 0.7479237914085388 0 9
20.04085922241211 14.97689437866211 2.3795487880706787 0.7452342510223389 0 9
25.836132049560547 18.948787689208984 3.047327756881714 0.9726575613021851 0 9
26.054609298706055 18.751718521118164 3.053126573562622 0.9708120822906494 0 9
34.17595672607422 24.133983612060547 3.979248285293579 0.4366998076438904 0 9
34.29435348510742 23.759140014648438 3.9680447578430176 0.7825382947921753 0 9
33.78677749633789 22.961444854736328 3.885312795639038 0.33365553617477417 0 9
30.87349510192871 20.57892608642578 3.5289175510406494 0.7751544117927551 0 9
30.837108612060547 20.157245635986328 3.5039334297180176 0.7806811332702637 0 9
30.80122947692871 19.741483688354492 3.479583978652954 0.7861449122428894 0 9
30.394237518310547 19.09796905517578 3.4141042232513428 0.6271845102310181 0 9
17.029766082763672 10.488476753234863 1.9022573232650757 0.6579281091690063 0 9
16.799530029296875 10.139843940734863 1.866298794746399 0.7518382668495178 0 9
16.759258270263672 9.911367416381836 1.8518673181533813 0.7576979398727417 0 9
26.68115234375 15.457597732543945 2.93276309967041 0.36304187774658203 0 9
27.44398307800293 15.572226524353027 3.0011239051818848 0.3547719120979309 0 9
28.092185974121094 15.608339309692383 3.0565645694732666 0.8498633503913879 0 9
28.13751983642578 15.304628372192383 3.046421766281128 0.8526920080184937 0 9
28.30648422241211 15.068866729736328 3.049952983856201 0.8819498419761658 0 9
28.329530715942383 14.756366729736328 3.0380446910858154 0.8854057788848877 0 9
28.35251808166504 14.446269035339355 3.0264830589294434 0.8887889981269836 0 9
28.375389099121094 14.138554573059082 3.015249490737915 0.8920993804931641 0 9
28.39810562133789 13.833105087280273 3.0043482780456543 0.895336389541626 0 9
30.95716667175293 14.737343788146973 3.260955333709717 0.6289277076721191 0 9
30.953144073486328 14.3960542678833 3.2467873096466064 0.16205592453479767 0 9
38.7800178527832 17.614648818969727 4.051033973693848 0.316320538520813 0 9
35.566287994384766 15.390878677368164 3.685857057571411 0.6861586570739746 0 9
35.370643615722656 14.9307222366333 3.6515462398529053 0.6926053762435913 0 9
29.55437469482422 12.164159774780273 3.0397017002105713 0.31120967864990234 0 9
29.87027359008789 11.981796264648438 3.061004877090454 0.7331222295761108 0 9
28.97509765625 11.321855545043945 2.9587337970733643 0.19654439389705658 0 9
29.608007431030273 11.263886451721191 3.012921094894409 0.7448224425315857 0 9
29.47995948791504 10.913281440734863 2.98980450630188 0.7505818605422974 0 9
29.353866577148438 10.568007469177246 2.9672720432281494 0.7562798857688904 0 9
29.229705810546875 10.22787094116211 2.9453258514404297 0.7619167566299438 0 9
29.107362747192383 9.89273452758789 2.923931837081909 0.7674911022186279 0 9
19.05171775817871 6.284960746765137 1.9080703258514404 0.9851654767990112 0 6
33.48267364501953 10.713261604309082 3.3435823917388916 0.2190186083316803 0 9
33.08041000366211 10.258163452148438 3.2940890789031982 0.07473225146532059 0 9
32.83904266357422 9.861074447631836 3.2611074447631836 0.719809889793396 0 9
32.47193145751953 9.43392562866211 3.2161097526550293 0.12096042931079865 0 9
32.14802551269531 9.027714729309082 3.1758761405944824 0.40246090292930603 0 9
31.5269718170166 8.548789024353027 3.1068179607391357 0.8223046064376831 0 9
31.68832015991211 8.28792953491211 3.1152615547180176 0.48674800992012024 0 9
31.93392562866211 8.046621322631836 3.132178544998169 0.8156466484069824 0 9
32.140098571777344 7.792441368103027 3.1454172134399414 0.8122145533561707 0 9
32.34816360473633 7.536113262176514 3.1590304374694824 0.8087145090103149 0 9
32.558143615722656 7.277597427368164 3.1730306148529053 0.8051464557647705 0 9
32.77011489868164 7.01671838760376 3.18742036819458 0.8015110492706299 0 9
44.384822845458984 -6.215312480926514 4.262648582458496 0.9470236301422119 0 3
43.183631896972656 -6.442831993103027 4.152667045593262 0.3214094936847687 0 3
42.02060317993164 -6.655409812927246 4.046409606933594 0.3298496603965759 0 3
40.61503982543945 -6.807050704956055 3.9167866706848145 0.3333883583545685 0 3
39.724571228027344 -7.024921894073486 3.8368356227874756 0.9353976249694824 0 3
32.652870178222656 -6.077109336853027 3.1589510440826416 0.3490631878376007 0 3
32.10744094848633 -6.274277210235596 3.111506700515747 0.3574032187461853 0 3
31.350175857543945 -6.418964862823486 3.043586015701294 0.3657286763191223 0 3
30.30562400817871 -6.48904275894165 2.9477102756500244 0.365792453289032 0 3
29.848417282104492 -6.671875 2.9089455604553223 0.3822903335094452 0 3
28.911405563354492 -6.735487937927246 2.8234243392944336 0.3900052607059479 0 3
28.525604248046875 -6.916152000427246 2.7916886806488037 0.39872899651527405 0 3
27.66748046875 -6.971601486206055 2.7137181758880615 0.9085454344749451 0 3
27.237030029296875 -7.123749732971191 2.6776671409606934 0.41689836978912354 0 3
26.653905868530273 -7.227460861206055 2.6266109943389893 0.42500191926956177 0 3
25.956796646118164 -7.289159774780273 2.564239978790283 0.8972594738006592 0 3
25.58626937866211 -7.433515548706055 2.5341475009918213 0.4392516314983368 0 3
20.52603530883789 -6.163710594177246 2.0383615493774414 0.40849095582962036 0 3
20.092363357543945 -6.230624675750732 2.000762701034546 0.45521771907806396 0 3
19.692636489868164 -6.300976276397705 1.9665145874023438 0.4631459712982178 0 3
19.306365966796875 -6.368964672088623 1.9335687160491943 0.47103673219680786 0 3
18.93279266357422 -6.434726238250732 1.901863932609558 0.47888994216918945 0 3
18.571229934692383 -6.498378753662109 1.871328353881836 0.4867039918899536 0 3
18.221094131469727 -6.559999942779541 1.841904878616333 0.49447911977767944 0 3
17.881717681884766 -6.619726181030273 1.8135348558425903 0.5022145509719849 0 3
17.552637100219727 -6.677636623382568 1.7861672639846802 0.5099095702171326 0 3
17.233339309692383 -6.733828067779541 1.7597525119781494 0.5175632238388062 0 3
16.92329978942871 -6.788398265838623 1.7342449426651 0.5251753926277161 0 3
16.622108459472656 -6.84142541885376 1.7096056938171387 0.5327449440956116 0 3
16.329336166381836 -6.892949104309082 1.6857857704162598 0.5402718782424927 0 3
15.720155715942383 -6.802734375 1.629140019416809 0.5477544069290161 0 3
15.448652267456055 -6.850507736206055 1.607308268547058 0.5551935434341431 0 3
15.184335708618164 -6.897011756896973 1.5861834287643433 0.562588095664978 0 3
14.926776885986328 -6.942363262176514 1.565728783607483 0.5699372887611389 0 3
14.675820350646973 -6.986523151397705 1.545920968055725 0.577240526676178 0 3
14.431113243103027 -7.029589653015137 1.5267263650894165 0.5844969153404236 0 3
14.192362785339355 -7.071620941162109 1.5081233978271484 0.5917066931724548 0 3
13.95937442779541 -7.112636566162109 1.4900866746902466 0.5988689064979553 0 3
13.786796569824219 -7.181288719177246 1.4784884452819824 0.6562430262565613 0 3
13.788339614868164 -7.340195178985596 1.4856622219085693 0.6130486726760864 0 3
13.566679000854492 -7.379218578338623 1.4688540697097778 0.6200641989707947 0 3
13.349902153015137 -7.417382717132568 1.4525362253189087 0.6270298957824707 0 3
13.137889862060547 -7.45470666885376 1.4366918802261353 0.6339449882507324 0 3
12.930448532104492 -7.4912109375 1.421303391456604 0.6408091187477112 0 3
12.72738265991211 -7.526952743530273 1.4063513278961182 0.6476212739944458 0 3
12.528534889221191 -7.561953067779541 1.391823410987854 0.6543812155723572 0 3
12.33372974395752 -7.596250057220459 1.377699613571167 0.6610891222953796 0 3
12.14281177520752 -7.629843711853027 1.363972783088684 0.667743444442749 0 3
