ply
format ascii 1.0
element vertex 1400
property float32 x
property float32 y
property float32 z
property float32 CosAngle
property uint32 ObjIdx
property uint32 ObjTag
end_header
3.3450 0.7084 -1.8265 0.4655 0 1
3.3434 0.7158 -1.8265 0.4655 0 1
3.3418 0.7234 -1.8265 0.4655 0 1
3.3402 0.7309 -1.8265 0.4655 0 1
3.3385 0.7384 -1.8265 0.4655 0 1
3.3369 0.7458 -1.8265 0.4655 0 1
3.3352 0.7533 -1.8265 0.4655 0 1
3.3335 0.7608 -1.8265 0.4655 0 1
3.3318 0.7683 -1.8265 0.4655 0 1
3.3301 0.7758 -1.8265 0.4655 0 1
3.3283 0.7832 -1.8265 0.4655 0 1
3.3266 0.7907 -1.8265 0.4655 0 1
3.3248 0.7982 -1.8265 0.4655 0 1
3.3230 0.8056 -1.8265 0.4655 0 1
3.3212 0.8131 -1.8265 0.4655 0 1
3.3194 0.8206 -1.8265 0.4655 0 1
3.3175 0.8280 -1.8265 0.4655 0 1
3.3157 0.8354 -1.8265 0.4655 0 1
3.3138 0.8429 -1.8265 0.4655 0 1
3.3119 0.8503 -1.8265 0.4655 0 1
3.3100 0.8578 -1.8265 0.4655 0 1
3.3080 0.8652 -1.8265 0.4655 0 1
3.3061 0.8726 -1.8265 0.4655 0 1
3.3041 0.8800 -1.8266 0.4655 0 1
3.3021 0.8874 -1.8266 0.4655 0 1
3.3002 0.8948 -1.8266 0.4655 0 1
3.2981 0.9022 -1.8266 0.4655 0 1
3.2961 0.9096 -1.8266 0.4655 0 1
3.2941 0.9171 -1.8266 0.4655 0 1
3.2920 0.9244 -1.8266 0.4655 0 1
3.2899 0.9318 -1.8266 0.4655 0 1
3.2878 0.9392 -1.8266 0.4655 0 1
3.2857 0.9466 -1.8266 0.4655 0 1
3.2836 0.9539 -1.8266 0.4655 0 1
3.2814 0.9613 -1.8266 0.4655 0 1
3.2793 0.9687 -1.8266 0.4655 0 1
3.2771 0.9761 -1.8266 0.4655 0 1
3.2749 0.9834 -1.8266 0.4655 0 1
3.2727 0.9907 -1.8266 0.4655 0 1
3.2704 0.9981 -1.8266 0.4655 0 1
3.2682 1.0054 -1.8266 0.4655 0 1
3.2659 1.0128 -1.8266 0.4655 0 1
3.2637 1.0201 -1.8266 0.4655 0 1
3.2614 1.0274 -1.8266 0.4655 0 1
3.2591 1.0347 -1.8266 0.4655 0 1
3.2567 1.0420 -1.8266 0.4655 0 1
3.2544 1.0493 -1.8266 0.4655 0 1
3.2520 1.0566 -1.8266 0.4655 0 1
3.2496 1.0639 -1.8266 0.4655 0 1
3.2472 1.0712 -1.8266 0.4655 0 1
3.2448 1.0785 -1.8266 0.4655 0 1
3.2424 1.0858 -1.8266 0.4655 0 1
3.2400 1.0930 -1.8266 0.4655 0 1
3.2375 1.1003 -1.8266 0.4655 0 1
3.2350 1.1075 -1.8266 0.4655 0 1
3.2325 1.1148 -1.8266 0.4655 0 1
3.2300 1.1221 -1.8266 0.4655 0 1
3.2275 1.1293 -1.8266 0.4655 0 1
3.2249 1.1366 -1.8266 0.4655 0 1
3.2224 1.1438 -1.8266 0.4655 0 1
3.2198 1.1510 -1.8266 0.4655 0 1
3.2172 1.1582 -1.8266 0.4655 0 1
3.2146 1.1655 -1.8266 0.4655 0 1
3.2120 1.1727 -1.8266 0.4655 0 1
3.2093 1.1798 -1.8266 0.4655 0 1
3.2067 1.1871 -1.8265 0.4655 0 1
3.2040 1.1942 -1.8265 0.4655 0 1
3.2013 1.2014 -1.8265 0.4655 0 1
3.1986 1.2086 -1.8265 0.4655 0 1
3.1958 1.2158 -1.8265 0.4655 0 1
3.1931 1.2229 -1.8265 0.4655 0 1
3.1904 1.2301 -1.8265 0.4655 0 1
3.1876 1.2373 -1.8265 0.4655 0 1
3.1848 1.2444 -1.8265 0.4655 0 1
3.1820 1.2516 -1.8265 0.4655 0 1
3.1792 1.2587 -1.8265 0.4655 0 1
3.1763 1.2658 -1.8265 0.4655 0 1
3.1735 1.2729 -1.8265 0.4655 0 1
3.1706 1.2800 -1.8265 0.4655 0 1
3.1677 1.2871 -1.8265 0.4655 0 1
3.1648 1.2942 -1.8265 0.4655 0 1
3.1619 1.3013 -1.8265 0.4655 0 1
3.1589 1.3085 -1.8265 0.4655 0 1
3.1560 1.3155 -1.8265 0.4655 0 1
3.1530 1.3226 -1.8265 0.4655 0 1
3.1500 1.3297 -1.8265 0.4655 0 1
3.1470 1.3367 -1.8265 0.4655 0 1
3.1440 1.3438 -1.8265 0.4655 0 1
3.1410 1.3508 -1.8265 0.4655 0 1
3.1379 1.3579 -1.8265 0.4655 0 1
3.1349 1.3649 -1.8265 0.4655 0 1
3.1318 1.3720 -1.8264 0.4655 0 1
3.1287 1.3789 -1.8264 0.4655 0 1
3.1256 1.3860 -1.8264 0.4655 0 1
3.1225 1.3930 -1.8264 0.4655 0 1
3.1193 1.4000 -1.8264 0.4655 0 1
3.1162 1.4070 -1.8264 0.4655 0 1
3.1130 1.4140 -1.8264 0.4655 0 1
3.1098 1.4209 -1.8264 0.4655 0 1
3.1066 1.4279 -1.8264 0.4655 0 1
3.1034 1.4348 -1.8264 0.4655 0 1
3.1002 1.4418 -1.8264 0.4655 0 1
3.0969 1.4488 -1.8264 0.4655 0 1
3.0936 1.4557 -1.8264 0.4655 0 1
3.0903 1.4626 -1.8264 0.4655 0 1
3.0870 1.4696 -1.8264 0.4655 0 1
3.0837 1.4765 -1.8264 0.4655 0 1
3.0804 1.4834 -1.8263 0.4655 0 1
3.0770 1.4903 -1.8263 0.4655 0 1
3.0737 1.4972 -1.8263 0.4655 0 1
3.0703 1.5041 -1.8263 0.4655 0 1
3.0669 1.5110 -1.8263 0.4655 0 1
3.0635 1.5178 -1.8263 0.4655 0 1
3.0601 1.5247 -1.8263 0.4655 0 1
3.0566 1.5315 -1.8263 0.4655 0 1
3.0531 1.5384 -1.8263 0.4655 0 1
3.0497 1.5452 -1.8263 0.4655 0 1
3.0462 1.5521 -1.8263 0.4655 0 1
3.0427 1.5589 -1.8263 0.4655 0 1
3.0392 1.5657 -1.8263 0.4655 0 1
3.0356 1.5725 -1.8262 0.4655 0 1
3.0321 1.5793 -1.8262 0.4655 0 1
3.0285 1.5861 -1.8262 0.4655 0 1
1.5865 0.8354 -0.9578 0.4428 458 14
1.5874 0.8405 -0.9595 0.4420 458 14
1.5885 0.8456 -0.9613 0.4412 458 14
1.5895 0.8507 -0.9630 0.4404 458 14
1.5905 0.8558 -0.9648 0.4396 458 14
1.5915 0.8610 -0.9666 0.4387 458 14
1.5926 0.8662 -0.9684 0.4379 458 14
1.5936 0.8714 -0.9702 0.4371 458 14
1.5947 0.8767 -0.9721 0.4363 458 14
1.5957 0.8819 -0.9739 0.4354 458 14
1.5968 0.8871 -0.9758 0.4346 458 14
1.5979 0.8925 -0.9777 0.4338 458 14
1.5989 0.8978 -0.9796 0.4329 458 14
1.6001 0.9031 -0.9815 0.4321 458 14
1.6011 0.9085 -0.9834 0.4312 458 14
1.6023 0.9139 -0.9853 0.4304 458 14
1.6034 0.9193 -0.9873 0.4295 458 14
1.6045 0.9248 -0.9893 0.4287 458 14
1.6057 0.9302 -0.9913 0.4278 458 14
1.6068 0.9357 -0.9933 0.4270 458 14
1.6080 0.9412 -0.9953 0.4261 458 14
1.6091 0.9468 -0.9973 0.4252 458 14
1.6103 0.9523 -0.9994 0.4244 458 14
1.6115 0.9579 -1.0014 0.4235 458 14
1.6127 0.9635 -1.0035 0.4226 458 14
1.6139 0.9692 -1.0056 0.4217 458 14
1.6151 0.9748 -1.0077 0.4208 458 14
1.6164 0.9805 -1.0099 0.4199 458 14
1.6176 0.9862 -1.0120 0.4191 458 14
1.6188 0.9920 -1.0142 0.4182 458 14
1.6200 0.9977 -1.0164 0.4173 458 14
1.6213 1.0036 -1.0186 0.4164 458 14
1.6226 1.0094 -1.0208 0.4155 458 14
1.6239 1.0153 -1.0230 0.4145 458 14
1.6252 1.0211 -1.0253 0.4136 458 14
1.6265 1.0271 -1.0276 0.4127 458 14
1.6278 1.0329 -1.0299 0.4118 458 14
1.6291 1.0390 -1.0322 0.4109 458 14
1.6305 1.0450 -1.0345 0.4099 458 14
1.6318 1.0510 -1.0368 0.4090 458 14
1.6331 1.0571 -1.0392 0.4081 458 14
1.6345 1.0632 -1.0416 0.4072 458 14
1.6359 1.0693 -1.0440 0.4062 458 14
1.6373 1.0755 -1.0464 0.4053 458 14
1.6387 1.0816 -1.0489 0.4043 458 14
1.6401 1.0879 -1.0513 0.4034 458 14
1.6415 1.0941 -1.0538 0.4024 458 14
1.6429 1.1004 -1.0563 0.4015 458 14
1.6444 1.1067 -1.0588 0.4005 458 14
1.6459 1.1131 -1.0614 0.3996 458 14
1.6473 1.1195 -1.0640 0.3986 458 14
1.6488 1.1259 -1.0665 0.3976 458 14
1.6503 1.1324 -1.0691 0.3967 458 14
1.6518 1.1388 -1.0718 0.3957 458 14
1.6533 1.1454 -1.0744 0.3947 458 14
1.6549 1.1520 -1.0771 0.3937 458 14
1.6564 1.1586 -1.0798 0.3928 458 14
1.6580 1.1652 -1.0825 0.3918 458 14
1.6595 1.1719 -1.0852 0.3908 458 14
1.6611 1.1786 -1.0880 0.3898 458 14
1.6627 1.1853 -1.0908 0.3888 458 14
1.6643 1.1921 -1.0936 0.3878 458 14
1.6659 1.1990 -1.0964 0.3868 458 14
1.6676 1.2058 -1.0993 0.3858 458 14
1.6692 1.2127 -1.1022 0.3848 458 14
1.6709 1.2197 -1.1051 0.3838 458 14
1.6726 1.2267 -1.1080 0.3828 458 14
1.6743 1.2337 -1.1110 0.3817 458 14
1.6760 1.2407 -1.1139 0.3807 458 14
1.6777 1.2479 -1.1169 0.3797 458 14
1.6795 1.2550 -1.1200 0.3787 458 14
1.6812 1.2622 -1.1230 0.3776 458 14
1.6829 1.2695 -1.1261 0.3766 458 14
1.6847 1.2768 -1.1292 0.3756 458 14
1.6865 1.2841 -1.1323 0.3745 458 14
1.6868 1.2903 -1.1345 0.6482 458 14
1.6870 1.2965 -1.1366 0.6470 458 14
1.6872 1.3027 -1.1387 0.6458 458 14
2.6998 2.0942 -1.8252 0.4658 0 1
2.6951 2.1002 -1.8252 0.4658 0 1
2.6903 2.1062 -1.8252 0.4658 0 1
2.6855 2.1122 -1.8251 0.4658 0 1
2.6808 2.1182 -1.8251 0.4658 0 1
2.6760 2.1242 -1.8251 0.4658 0 1
2.6712 2.1302 -1.8251 0.4658 0 1
2.6664 2.1362 -1.8251 0.4658 0 1
2.6615 2.1421 -1.8251 0.4658 0 1
2.6567 2.1481 -1.8250 0.4658 0 1
2.6518 2.1540 -1.8250 0.4659 0 1
2.6470 2.1599 -1.8250 0.4659 0 1
2.6421 2.1659 -1.8250 0.4659 0 1
2.6372 2.1718 -1.8250 0.4659 0 1
2.6323 2.1776 -1.8249 0.4659 0 1
2.6274 2.1835 -1.8249 0.4659 0 1
2.6225 2.1894 -1.8249 0.4659 0 1
2.6175 2.1952 -1.8249 0.4659 0 1
2.6125 2.2011 -1.8249 0.4659 0 1
1.4772 1.2502 -1.0338 0.0177 458 14
1.4175 1.2051 -0.9939 0.0184 458 14
1.3620 1.1633 -0.9568 0.0191 458 14
1.3448 1.1537 -0.9465 0.3315 458 14
1.3412 1.1559 -0.9458 0.3318 458 14
1.3375 1.1580 -0.9451 0.3320 458 14
1.3339 1.1601 -0.9443 0.3323 458 14
1.3303 1.1622 -0.9436 0.3325 458 14
1.3266 1.1643 -0.9429 0.3328 458 14
1.3230 1.1664 -0.9422 0.3330 458 14
1.3194 1.1685 -0.9415 0.3333 458 14
1.3158 1.1705 -0.9407 0.3336 458 14
1.3121 1.1726 -0.9400 0.3338 458 14
1.3085 1.1746 -0.9393 0.3341 458 14
1.3048 1.1766 -0.9386 0.3343 458 14
1.3012 1.1786 -0.9378 0.3346 458 14
1.2975 1.1806 -0.9371 0.3348 458 14
1.2939 1.1826 -0.9364 0.3351 458 14
1.2902 1.1846 -0.9357 0.3354 458 14
1.2865 1.1865 -0.9349 0.3356 458 14
1.2829 1.1885 -0.9342 0.3359 458 14
1.2792 1.1905 -0.9335 0.3361 458 14
1.2755 1.1924 -0.9327 0.3364 458 14
1.2719 1.1943 -0.9320 0.3367 458 14
1.2682 1.1962 -0.9313 0.3369 458 14
1.2645 1.1981 -0.9305 0.3372 458 14
1.2608 1.2000 -0.9298 0.3375 458 14
1.2571 1.2019 -0.9291 0.3377 458 14
1.2534 1.2037 -0.9283 0.3380 458 14
1.2497 1.2056 -0.9276 0.3383 458 14
1.2461 1.2075 -0.9269 0.3385 458 14
1.2423 1.2093 -0.9261 0.3388 458 14
1.2386 1.2111 -0.9254 0.3391 458 14
1.2349 1.2129 -0.9247 0.3394 458 14
1.2312 1.2147 -0.9239 0.3396 458 14
1.2275 1.2165 -0.9232 0.3399 458 14
1.2238 1.2183 -0.9224 0.3402 458 14
2.3548 -2.3549 -1.8144 0.4758 0 1
2.3601 -2.3496 -1.8144 0.4758 0 1
2.3654 -2.3444 -1.8145 0.4758 0 1
2.3707 -2.3391 -1.8145 0.4758 0 1
2.3761 -2.3339 -1.8146 0.4758 0 1
2.3813 -2.3286 -1.8146 0.4757 0 1
2.3866 -2.3233 -1.8146 0.4757 0 1
2.3919 -2.3179 -1.8147 0.4757 0 1
2.3971 -2.3127 -1.8147 0.4757 0 1
2.4024 -2.3073 -1.8148 0.4757 0 1
2.4076 -2.3020 -1.8148 0.4757 0 1
2.4128 -2.2966 -1.8149 0.4757 0 1
2.4180 -2.2912 -1.8149 0.4757 0 1
2.4232 -2.2859 -1.8149 0.4757 0 1
2.4284 -2.2805 -1.8150 0.4756 0 1
2.4336 -2.2751 -1.8150 0.4756 0 1
2.4388 -2.2697 -1.8151 0.4756 0 1
2.4439 -2.2642 -1.8151 0.4756 0 1
2.4490 -2.2588 -1.8152 0.4756 0 1
2.4541 -2.2534 -1.8152 0.4756 0 1
2.4592 -2.2479 -1.8152 0.4756 0 1
2.4643 -2.2424 -1.8153 0.4756 0 1
2.4694 -2.2370 -1.8153 0.4756 0 1
2.4745 -2.2315 -1.8154 0.4755 0 1
2.4795 -2.2260 -1.8154 0.4755 0 1
2.4846 -2.2204 -1.8154 0.4755 0 1
2.4896 -2.2149 -1.8155 0.4755 0 1
2.4946 -2.2094 -1.8155 0.4755 0 1
2.4996 -2.2038 -1.8156 0.4755 0 1
2.5046 -2.1982 -1.8156 0.4755 0 1
2.5096 -2.1927 -1.8157 0.4755 0 1
2.5146 -2.1871 -1.8157 0.4755 0 1
2.5196 -2.1814 -1.8157 0.4754 0 1
2.5245 -2.1759 -1.8158 0.4754 0 1
2.5294 -2.1702 -1.8158 0.4754 0 1
2.5344 -2.1646 -1.8159 0.4754 0 1
2.5393 -2.1589 -1.8159 0.4754 0 1
2.5442 -2.1533 -1.8159 0.4754 0 1
2.5490 -2.1476 -1.8160 0.4754 0 1
2.5539 -2.1420 -1.8160 0.4754 0 1
2.5587 -2.1363 -1.8161 0.4754 0 1
2.5636 -2.1305 -1.8161 0.4753 0 1
2.5684 -2.1249 -1.8162 0.4753 0 1
2.5733 -2.1191 -1.8162 0.4753 0 1
2.5781 -2.1134 -1.8162 0.4753 0 1
2.5829 -2.1077 -1.8163 0.4753 0 1
2.5877 -2.1019 -1.8163 0.4753 0 1
2.5924 -2.0962 -1.8164 0.4753 0 1
2.5972 -2.0904 -1.8164 0.4753 0 1
2.6019 -2.0846 -1.8164 0.4753 0 1
2.6066 -2.0788 -1.8165 0.4753 0 1
2.6114 -2.0730 -1.8165 0.4752 0 1
2.6161 -2.0672 -1.8166 0.4752 0 1
2.6207 -2.0613 -1.8166 0.4752 0 1
2.6254 -2.0555 -1.8166 0.4752 0 1
2.6301 -2.0496 -1.8167 0.4752 0 1
2.6347 -2.0438 -1.8167 0.4752 0 1
2.6394 -2.0379 -1.8168 0.4752 0 1
2.6440 -2.0320 -1.8168 0.4752 0 1
2.6486 -2.0261 -1.8168 0.4752 0 1
2.6532 -2.0202 -1.8169 0.4751 0 1
2.6578 -2.0143 -1.8169 0.4751 0 1
2.6624 -2.0084 -1.8170 0.4751 0 1
2.6670 -2.0024 -1.8170 0.4751 0 1
2.6714 -1.9965 -1.8170 0.4751 0 1
2.6760 -1.9905 -1.8171 0.4751 0 1
2.6805 -1.9846 -1.8171 0.4751 0 1
2.6850 -1.9786 -1.8172 0.4751 0 1
2.6895 -1.9726 -1.8172 0.4751 0 1
2.6940 -1.9666 -1.8172 0.4751 0 1
2.6985 -1.9606 -1.8173 0.4750 0 1
2.7029 -1.9546 -1.8173 0.4750 0 1
2.7074 -1.9485 -1.8174 0.4750 0 1
2.7118 -1.9425 -1.8174 0.4750 0 1
2.7162 -1.9365 -1.8174 0.4750 0 1
2.7206 -1.9304 -1.8175 0.4750 0 1
2.7250 -1.9243 -1.8175 0.4750 0 1
2.7293 -1.9183 -1.8175 0.4750 0 1
2.7337 -1.9121 -1.8176 0.4750 0 1
2.7380 -1.9061 -1.8176 0.4750 0 1
2.7423 -1.9000 -1.8177 0.4749 0 1
2.7467 -1.8938 -1.8177 0.4749 0 1
2.7510 -1.8877 -1.8177 0.4749 0 1
2.7553 -1.8816 -1.8178 0.4749 0 1
2.7595 -1.8754 -1.8178 0.4749 0 1
2.7638 -1.8693 -1.8179 0.4749 0 1
2.7680 -1.8631 -1.8179 0.4749 0 1
2.7723 -1.8569 -1.8179 0.4749 0 1
2.7765 -1.8508 -1.8180 0.4749 0 1
2.7807 -1.8445 -1.8180 0.4749 0 1
2.7849 -1.8383 -1.8180 0.4748 0 1
2.7891 -1.8321 -1.8181 0.4748 0 1
2.7932 -1.8259 -1.8181 0.4748 0 1
2.7974 -1.8196 -1.8182 0.4748 0 1
2.8015 -1.8134 -1.8182 0.4748 0 1
2.8056 -1.8071 -1.8182 0.4748 0 1
2.8098 -1.8009 -1.8183 0.4748 0 1
2.8138 -1.7946 -1.8183 0.4748 0 1
2.8179 -1.7883 -1.8183 0.4748 0 1
2.8220 -1.7821 -1.8184 0.4748 0 1
2.8260 -1.7758 -1.8184 0.4747 0 1
2.8300 -1.7695 -1.8185 0.4747 0 1
2.8341 -1.7631 -1.8185 0.4747 0 1
2.8381 -1.7568 -1.8185 0.4747 0 1
2.8421 -1.7504 -1.8186 0.4747 0 1
2.8461 -1.7441 -1.8186 0.4747 0 1
2.8500 -1.7378 -1.8186 0.4747 0 1
2.8539 -1.7314 -1.8187 0.4747 0 1
2.8579 -1.7250 -1.8187 0.4747 0 1
2.8618 -1.7186 -1.8188 0.4747 0 1
2.8657 -1.7122 -1.8188 0.4746 0 1
2.8696 -1.7058 -1.8188 0.4746 0 1
2.8735 -1.6994 -1.8189 0.4746 0 1
2.8773 -1.6930 -1.8189 0.4746 0 1
2.8812 -1.6866 -1.8189 0.4746 0 1
2.8850 -1.6802 -1.8190 0.4746 0 1
2.8889 -1.6737 -1.8190 0.4746 0 1
2.8927 -1.6672 -1.8190 0.4746 0 1
2.8964 -1.6608 -1.8191 0.4746 0 1
2.9002 -1.6543 -1.8191 0.4746 0 1
2.9040 -1.6478 -1.8192 0.4746 0 1
2.9078 -1.6413 -1.8192 0.4745 0 1
2.9115 -1.6348 -1.8192 0.4745 0 1
2.9152 -1.6284 -1.8193 0.4745 0 1
2.9189 -1.6218 -1.8193 0.4745 0 1
2.9226 -1.6153 -1.8193 0.4745 0 1
2.9263 -1.6088 -1.8194 0.4745 0 1
2.9299 -1.6022 -1.8194 0.4745 0 1
2.9336 -1.5957 -1.8194 0.4745 0 1
2.9372 -1.5892 -1.8195 0.4745 0 1
2.9408 -1.5826 -1.8195 0.4745 0 1
2.9445 -1.5760 -1.8195 0.4745 0 1
2.9480 -1.5694 -1.8196 0.4744 0 1
2.9516 -1.5628 -1.8196 0.4744 0 1
2.9552 -1.5562 -1.8196 0.4744 0 1
2.9587 -1.5496 -1.8197 0.4744 0 1
2.9622 -1.5430 -1.8197 0.4744 0 1
2.9657 -1.5364 -1.8197 0.4744 0 1
2.9692 -1.5298 -1.8198 0.4744 0 1
2.9727 -1.5231 -1.8198 0.4744 0 1
1.5973 -0.8139 -0.9767 0.4409 458 14
1.5963 -0.8089 -0.9750 0.4417 458 14
1.5954 -0.8039 -0.9733 0.4424 458 14
1.5944 -0.7989 -0.9716 0.4432 458 14
1.5934 -0.7940 -0.9700 0.4440 458 14
1.5925 -0.7891 -0.9683 0.4447 458 14
1.5916 -0.7842 -0.9667 0.4455 458 14
1.5906 -0.7793 -0.9650 0.4462 458 14
1.5897 -0.7744 -0.9634 0.4470 458 14
1.5888 -0.7696 -0.9618 0.4477 458 14
1.5879 -0.7647 -0.9602 0.4485 458 14
1.5869 -0.7599 -0.9586 0.4492 458 14
1.5861 -0.7551 -0.9570 0.4499 458 14
1.5852 -0.7503 -0.9555 0.4507 458 14
1.5843 -0.7455 -0.9539 0.4514 458 14
1.5834 -0.7408 -0.9524 0.4521 458 14
1.5825 -0.7361 -0.9509 0.4529 458 14
1.5817 -0.7313 -0.9494 0.4536 458 14
1.5808 -0.7266 -0.9479 0.4543 458 14
1.5800 -0.7220 -0.9464 0.4550 458 14
3.0423 -1.3820 -1.8205 0.4742 0 1
3.0455 -1.3751 -1.8206 0.4742 0 1
3.0486 -1.3683 -1.8206 0.4742 0 1
3.0517 -1.3615 -1.8206 0.4742 0 1
3.0548 -1.3547 -1.8207 0.4742 0 1
3.0579 -1.3479 -1.8207 0.4742 0 1
3.0610 -1.3410 -1.8207 0.4741 0 1
3.0640 -1.3341 -1.8208 0.4741 0 1
3.0671 -1.3273 -1.8208 0.4741 0 1
3.0701 -1.3204 -1.8208 0.4741 0 1
3.0731 -1.3136 -1.8208 0.4741 0 1
3.0761 -1.3067 -1.8209 0.4741 0 1
3.0791 -1.2998 -1.8209 0.4741 0 1
3.0820 -1.2929 -1.8209 0.4741 0 1
3.0850 -1.2860 -1.8210 0.4741 0 1
3.0879 -1.2791 -1.8210 0.4741 0 1
3.0908 -1.2722 -1.8210 0.4741 0 1
3.0938 -1.2653 -1.8211 0.4741 0 1
3.0966 -1.2584 -1.8211 0.4740 0 1
3.0995 -1.2514 -1.8211 0.4740 0 1
3.1023 -1.2445 -1.8212 0.4740 0 1
3.1052 -1.2376 -1.8212 0.4740 0 1
3.1080 -1.2306 -1.8212 0.4740 0 1
3.1108 -1.2237 -1.8213 0.4740 0 1
3.1136 -1.2167 -1.8213 0.4740 0 1
3.1163 -1.2097 -1.8213 0.4740 0 1
3.1191 -1.2027 -1.8213 0.4740 0 1
3.1219 -1.1957 -1.8214 0.4740 0 1
3.1246 -1.1888 -1.8214 0.4740 0 1
3.1273 -1.1818 -1.8214 0.4740 0 1
3.1300 -1.1747 -1.8215 0.4739 0 1
3.1327 -1.1678 -1.8215 0.4739 0 1
3.1354 -1.1607 -1.8215 0.4739 0 1
3.1380 -1.1537 -1.8216 0.4739 0 1
3.1406 -1.1467 -1.8216 0.4739 0 1
3.1432 -1.1397 -1.8216 0.4739 0 1
3.1458 -1.1326 -1.8216 0.4739 0 1
3.1484 -1.1256 -1.8217 0.4739 0 1
3.1510 -1.1186 -1.8217 0.4739 0 1
3.1536 -1.1115 -1.8217 0.4739 0 1
3.1561 -1.1044 -1.8218 0.4739 0 1
3.1586 -1.0973 -1.8218 0.4739 0 1
3.1611 -1.0902 -1.8218 0.4739 0 1
3.1636 -1.0832 -1.8219 0.4738 0 1
3.1661 -1.0761 -1.8219 0.4738 0 1
3.1686 -1.0690 -1.8219 0.4738 0 1
3.1710 -1.0619 -1.8219 0.4738 0 1
3.1734 -1.0548 -1.8220 0.4738 0 1
3.1758 -1.0477 -1.8220 0.4738 0 1
3.1782 -1.0406 -1.8220 0.4738 0 1
3.1806 -1.0335 -1.8221 0.4738 0 1
3.1829 -1.0263 -1.8221 0.4738 0 1
3.1853 -1.0192 -1.8221 0.4738 0 1
3.1876 -1.0121 -1.8221 0.4738 0 1
3.1899 -1.0050 -1.8222 0.4738 0 1
3.1922 -0.9978 -1.8222 0.4738 0 1
3.1945 -0.9907 -1.8222 0.4738 0 1
3.1968 -0.9835 -1.8223 0.4737 0 1
3.1990 -0.9763 -1.8223 0.4737 0 1
3.2012 -0.9692 -1.8223 0.4737 0 1
3.2035 -0.9620 -1.8223 0.4737 0 1
3.2057 -0.9548 -1.8224 0.4737 0 1
3.2079 -0.9476 -1.8224 0.4737 0 1
3.2100 -0.9404 -1.8224 0.4737 0 1
3.2121 -0.9333 -1.8224 0.4737 0 1
3.2143 -0.9261 -1.8225 0.4737 0 1
3.2164 -0.9189 -1.8225 0.4737 0 1
3.2185 -0.9117 -1.8225 0.4737 0 1
3.2206 -0.9045 -1.8226 0.4737 0 1
3.2227 -0.8973 -1.8226 0.4737 0 1
3.2247 -0.8900 -1.8226 0.4737 0 1
3.2268 -0.8828 -1.8226 0.4736 0 1
3.2288 -0.8755 -1.8227 0.4736 0 1
3.2308 -0.8683 -1.8227 0.4736 0 1
3.2328 -0.8611 -1.8227 0.4736 0 1
3.2347 -0.8538 -1.8227 0.4736 0 1
3.2367 -0.8466 -1.8228 0.4736 0 1
3.2387 -0.8394 -1.8228 0.4736 0 1
3.2406 -0.8321 -1.8228 0.4736 0 1
3.2425 -0.8248 -1.8228 0.4736 0 1
3.2444 -0.8176 -1.8229 0.4736 0 1
3.2462 -0.8103 -1.8229 0.4736 0 1
3.2481 -0.8030 -1.8229 0.4736 0 1
3.2499 -0.7957 -1.8229 0.4736 0 1
3.2517 -0.7884 -1.8230 0.4736 0 1
3.2535 -0.7812 -1.8230 0.4736 0 1
3.2554 -0.7739 -1.8230 0.4735 0 1
3.2571 -0.7666 -1.8230 0.4735 0 1
3.2588 -0.7593 -1.8231 0.4735 0 1
3.2606 -0.7520 -1.8231 0.4735 0 1
3.2623 -0.7446 -1.8231 0.4735 0 1
3.2641 -0.7373 -1.8231 0.4735 0 1
3.2657 -0.7300 -1.8232 0.4735 0 1
3.2674 -0.7227 -1.8232 0.4735 0 1
3.2691 -0.7154 -1.8232 0.4735 0 1
3.2707 -0.7081 -1.8232 0.4735 0 1
3.2723 -0.7007 -1.8233 0.4735 0 1
3.2739 -0.6934 -1.8233 0.4735 0 1
3.2755 -0.6861 -1.8233 0.4735 0 1
3.2771 -0.6787 -1.8233 0.4735 0 1
3.2787 -0.6714 -1.8234 0.4735 0 1
3.2802 -0.6640 -1.8234 0.4734 0 1
3.2817 -0.6567 -1.8234 0.4734 0 1
3.2832 -0.6493 -1.8234 0.4734 0 1
3.2847 -0.6420 -1.8235 0.4734 0 1
3.2862 -0.6346 -1.8235 0.4734 0 1
3.2877 -0.6272 -1.8235 0.4734 0 1
3.2891 -0.6198 -1.8235 0.4734 0 1
3.2905 -0.6125 -1.8236 0.4734 0 1
3.2919 -0.6051 -1.8236 0.4734 0 1
3.2933 -0.5977 -1.8236 0.4734 0 1
3.2947 -0.5903 -1.8236 0.4734 0 1
3.2960 -0.5829 -1.8236 0.4734 0 1
3.2974 -0.5755 -1.8237 0.4734 0 1
3.2987 -0.5681 -1.8237 0.4734 0 1
3.3000 -0.5608 -1.8237 0.4734 0 1
3.3013 -0.5534 -1.8237 0.4734 0 1
3.3026 -0.5459 -1.8238 0.4734 0 1
3.3038 -0.5385 -1.8238 0.4733 0 1
3.3051 -0.5312 -1.8238 0.4733 0 1
3.3063 -0.5237 -1.8238 0.4733 0 1
3.3075 -0.5163 -1.8238 0.4733 0 1
3.3087 -0.5089 -1.8239 0.4733 0 1
3.3099 -0.5014 -1.8239 0.4733 0 1
3.3110 -0.4940 -1.8239 0.4733 0 1
3.3122 -0.4866 -1.8239 0.4733 0 1
3.3133 -0.4792 -1.8240 0.4733 0 1
3.3144 -0.4717 -1.8240 0.4733 0 1
3.3155 -0.4643 -1.8240 0.4733 0 1
3.3166 -0.4569 -1.8240 0.4733 0 1
3.3176 -0.4494 -1.8240 0.4733 0 1
3.3187 -0.4420 -1.8241 0.4733 0 1
3.3197 -0.4346 -1.8241 0.4733 0 1
3.3207 -0.4271 -1.8241 0.4733 0 1
3.3217 -0.4196 -1.8241 0.4733 0 1
3.3226 -0.4122 -1.8241 0.4733 0 1
3.3236 -0.4048 -1.8242 0.4732 0 1
3.3245 -0.3973 -1.8242 0.4732 0 1
3.3254 -0.3898 -1.8242 0.4732 0 1
3.3263 -0.3824 -1.8242 0.4732 0 1
3.3272 -0.3749 -1.8242 0.4732 0 1
3.3281 -0.3675 -1.8243 0.4732 0 1
3.3290 -0.3600 -1.8243 0.4732 0 1
3.3298 -0.3525 -1.8243 0.4732 0 1
3.3306 -0.3450 -1.8243 0.4732 0 1
3.3314 -0.3376 -1.8243 0.4732 0 1
3.3322 -0.3301 -1.8244 0.4732 0 1
3.3330 -0.3227 -1.8244 0.4732 0 1
3.3337 -0.3151 -1.8244 0.4732 0 1
3.3344 -0.3077 -1.8244 0.4732 0 1
3.3352 -0.3002 -1.8244 0.4732 0 1
3.3359 -0.2928 -1.8245 0.4732 0 1
3.3365 -0.2853 -1.8245 0.4732 0 1
3.3372 -0.2777 -1.8245 0.4732 0 1
3.3379 -0.2703 -1.8245 0.4732 0 1
3.3385 -0.2628 -1.8245 0.4732 0 1
3.3391 -0.2553 -1.8246 0.4731 0 1
3.3397 -0.2478 -1.8246 0.4731 0 1
3.3403 -0.2403 -1.8246 0.4731 0 1
3.3409 -0.2328 -1.8246 0.4731 0 1
3.3414 -0.2253 -1.8246 0.4731 0 1
3.3419 -0.2178 -1.8246 0.4731 0 1
3.3424 -0.2103 -1.8247 0.4731 0 1
3.3429 -0.2028 -1.8247 0.4731 0 1
3.3434 -0.1953 -1.8247 0.4731 0 1
3.3439 -0.1878 -1.8247 0.4731 0 1
3.3443 -0.1803 -1.8247 0.4731 0 1
3.3448 -0.1728 -1.8247 0.4731 0 1
3.3452 -0.1653 -1.8248 0.4731 0 1
3.3455 -0.1578 -1.8248 0.4731 0 1
3.3459 -0.1503 -1.8248 0.4731 0 1
3.3463 -0.1428 -1.8248 0.4731 0 1
3.3466 -0.1353 -1.8248 0.4731 0 1
3.3470 -0.1278 -1.8248 0.4731 0 1
3.3473 -0.1203 -1.8249 0.4731 0 1
3.3475 -0.1128 -1.8249 0.4731 0 1
3.3479 -0.1052 -1.8249 0.4731 0 1
3.3481 -0.0977 -1.8249 0.4731 0 1
3.3483 -0.0902 -1.8249 0.4730 0 1
3.3486 -0.0827 -1.8249 0.4730 0 1
3.3487 -0.0752 -1.8250 0.4730 0 1
3.3489 -0.0677 -1.8250 0.4730 0 1
3.3491 -0.0602 -1.8250 0.4730 0 1
3.3493 -0.0527 -1.8250 0.4730 0 1
3.3494 -0.0451 -1.8250 0.4730 0 1
3.3495 -0.0376 -1.8250 0.4730 0 1
3.3496 -0.0301 -1.8251 0.4730 0 1
3.3497 -0.0226 -1.8251 0.4730 0 1
3.3498 -0.0151 -1.8251 0.4730 0 1
3.3498 -0.0076 -1.8251 0.4730 0 1
3.3499 -0.0000 -1.8251 0.4730 0 1
3.3499 0.0075 -1.8251 0.4730 0 1
3.3499 0.0150 -1.8251 0.4730 0 1
3.3499 0.0225 -1.8252 0.4730 0 1
3.3499 0.0300 -1.8252 0.4730 0 1
3.3498 0.0376 -1.8252 0.4730 0 1
3.3497 0.0451 -1.8252 0.4730 0 1
3.3496 0.0526 -1.8252 0.4730 0 1
3.3496 0.0601 -1.8252 0.4730 0 1
3.3495 0.0676 -1.8252 0.4730 0 1
3.3493 0.0751 -1.8253 0.4730 0 1
3.3492 0.0826 -1.8253 0.4730 0 1
3.3490 0.0902 -1.8253 0.4730 0 1
3.3488 0.0977 -1.8253 0.4730 0 1
3.3486 0.1052 -1.8253 0.4730 0 1
3.3484 0.1127 -1.8253 0.4729 0 1
3.3482 0.1202 -1.8253 0.4729 0 1
3.3479 0.1277 -1.8254 0.4729 0 1
3.3476 0.1352 -1.8254 0.4729 0 1
3.3473 0.1428 -1.8254 0.4729 0 1
3.3470 0.1503 -1.8254 0.4729 0 1
3.3467 0.1578 -1.8254 0.4729 0 1
3.3463 0.1653 -1.8254 0.4729 0 1
3.3460 0.1728 -1.8254 0.4729 0 1
3.3457 0.1803 -1.8254 0.4729 0 1
3.3452 0.1878 -1.8255 0.4729 0 1
3.3448 0.1953 -1.8255 0.4729 0 1
3.3444 0.2029 -1.8255 0.4729 0 1
3.3440 0.2103 -1.8255 0.4729 0 1
3.3435 0.2178 -1.8255 0.4729 0 1
3.3430 0.2254 -1.8255 0.4729 0 1
3.3425 0.2329 -1.8255 0.4729 0 1
3.3420 0.2404 -1.8255 0.4729 0 1
3.3415 0.2479 -1.8255 0.4729 0 1
3.3410 0.2554 -1.8256 0.4729 0 1
3.3404 0.2629 -1.8256 0.4729 0 1
3.3398 0.2704 -1.8256 0.4729 0 1
3.3392 0.2779 -1.8256 0.4729 0 1
3.3386 0.2854 -1.8256 0.4729 0 1
3.3380 0.2929 -1.8256 0.4729 0 1
3.3373 0.3003 -1.8256 0.4729 0 1
3.3367 0.3078 -1.8256 0.4729 0 1
3.3360 0.3153 -1.8256 0.4729 0 1
3.3353 0.3228 -1.8257 0.4729 0 1
3.3346 0.3303 -1.8257 0.4729 0 1
3.3339 0.3378 -1.8257 0.4729 0 1
3.3331 0.3453 -1.8257 0.4729 0 1
3.3323 0.3528 -1.8257 0.4729 0 1
3.3315 0.3602 -1.8257 0.4728 0 1
3.3307 0.3677 -1.8257 0.4728 0 1
3.3299 0.3752 -1.8257 0.4728 0 1
3.3291 0.3827 -1.8257 0.4728 0 1
3.3283 0.3901 -1.8257 0.4728 0 1
3.3274 0.3976 -1.8258 0.4728 0 1
3.3265 0.4051 -1.8258 0.4728 0 1
3.3256 0.4125 -1.8258 0.4728 0 1
3.3247 0.4200 -1.8258 0.4728 0 1
3.3237 0.4274 -1.8258 0.4728 0 1
3.3228 0.4349 -1.8258 0.4728 0 1
3.3218 0.4423 -1.8258 0.4728 0 1
3.3208 0.4498 -1.8258 0.4728 0 1
3.3198 0.4572 -1.8258 0.4728 0 1
3.3188 0.4647 -1.8258 0.4728 0 1
3.3178 0.4721 -1.8258 0.4728 0 1
3.3168 0.4796 -1.8258 0.4728 0 1
3.3156 0.4870 -1.8259 0.4728 0 1
3.3146 0.4945 -1.8259 0.4728 0 1
3.3135 0.5019 -1.8259 0.4728 0 1
3.3123 0.5094 -1.8259 0.4728 0 1
3.3112 0.5168 -1.8259 0.4728 0 1
3.3100 0.5242 -1.8259 0.4728 0 1
3.3089 0.5316 -1.8259 0.4728 0 1
3.3077 0.5391 -1.8259 0.4728 0 1
3.3065 0.5465 -1.8259 0.4728 0 1
3.3053 0.5539 -1.8259 0.4728 0 1
3.3040 0.5614 -1.8259 0.4728 0 1
3.3028 0.5687 -1.8259 0.4728 0 1
3.3015 0.5762 -1.8259 0.4728 0 1
3.3002 0.5836 -1.8259 0.4728 0 1
3.2989 0.5910 -1.8260 0.4728 0 1
3.2976 0.5984 -1.8260 0.4728 0 1
3.2962 0.6058 -1.8260 0.4728 0 1
3.2949 0.6132 -1.8260 0.4728 0 1
3.2935 0.6206 -1.8260 0.4728 0 1
3.2921 0.6280 -1.8260 0.4728 0 1
3.2907 0.6354 -1.8260 0.4728 0 1
3.2893 0.6427 -1.8260 0.4728 0 1
3.2879 0.6501 -1.8260 0.4728 0 1
3.2864 0.6575 -1.8260 0.4728 0 1
3.2849 0.6649 -1.8260 0.4728 0 1
3.2834 0.6723 -1.8260 0.4728 0 1
3.2819 0.6796 -1.8260 0.4728 0 1
3.2804 0.6870 -1.8260 0.4728 0 1
3.2788 0.6943 -1.8260 0.4728 0 1
3.2773 0.7017 -1.8260 0.4728 0 1
3.2757 0.7090 -1.8260 0.4728 0 1
3.2741 0.7164 -1.8260 0.4728 0 1
3.2725 0.7237 -1.8261 0.4728 0 1
3.2709 0.7311 -1.8261 0.4728 0 1
3.2693 0.7384 -1.8261 0.4728 0 1
3.2676 0.7457 -1.8261 0.4728 0 1
3.2659 0.7531 -1.8261 0.4728 0 1
3.2642 0.7604 -1.8261 0.4728 0 1
3.2625 0.7678 -1.8261 0.4728 0 1
3.2608 0.7751 -1.8261 0.4728 0 1
3.2591 0.7824 -1.8261 0.4728 0 1
3.2573 0.7897 -1.8261 0.4728 0 1
3.2555 0.7970 -1.8261 0.4727 0 1
3.2537 0.8043 -1.8261 0.4727 0 1
3.2520 0.8116 -1.8261 0.4727 0 1
3.2501 0.8189 -1.8261 0.4727 0 1
3.2483 0.8262 -1.8261 0.4727 0 1
3.2464 0.8335 -1.8261 0.4727 0 1
3.2445 0.8408 -1.8261 0.4727 0 1
3.2427 0.8480 -1.8261 0.4727 0 1
3.2407 0.8553 -1.8261 0.4727 0 1
3.2388 0.8626 -1.8261 0.4727 0 1
3.2369 0.8699 -1.8261 0.4727 0 1
3.2349 0.8771 -1.8261 0.4727 0 1
3.2329 0.8844 -1.8261 0.4727 0 1
3.2310 0.8917 -1.8261 0.4727 0 1
3.2289 0.8989 -1.8261 0.4727 0 1
3.2269 0.9061 -1.8261 0.4727 0 1
3.2249 0.9134 -1.8261 0.4727 0 1
3.2228 0.9206 -1.8261 0.4727 0 1
3.2207 0.9278 -1.8261 0.4727 0 1
3.2187 0.9351 -1.8261 0.4727 0 1
3.2166 0.9423 -1.8261 0.4727 0 1
3.2144 0.9495 -1.8261 0.4727 0 1
3.2123 0.9567 -1.8261 0.4727 0 1
3.2102 0.9639 -1.8261 0.4727 0 1
3.2080 0.9712 -1.8261 0.4727 0 1
3.2058 0.9783 -1.8261 0.4727 0 1
3.2036 0.9855 -1.8261 0.4727 0 1
3.2014 0.9927 -1.8261 0.4727 0 1
3.1991 0.9999 -1.8261 0.4727 0 1
3.1969 1.0071 -1.8261 0.4727 0 1
3.1946 1.0142 -1.8261 0.4727 0 1
3.1923 1.0214 -1.8261 0.4727 0 1
3.1900 1.0286 -1.8261 0.4727 0 1
3.1877 1.0357 -1.8261 0.4727 0 1
3.1854 1.0429 -1.8261 0.4727 0 1
3.1830 1.0500 -1.8261 0.4727 0 1
3.1807 1.0571 -1.8261 0.4727 0 1
3.1783 1.0643 -1.8261 0.4727 0 1
3.1759 1.0714 -1.8261 0.4727 0 1
3.1734 1.0785 -1.8261 0.4727 0 1
3.1710 1.0857 -1.8261 0.4727 0 1
3.1686 1.0928 -1.8261 0.4727 0 1
3.1661 1.0999 -1.8261 0.4727 0 1
3.1636 1.1070 -1.8261 0.4727 0 1
3.1611 1.1141 -1.8261 0.4727 0 1
3.1586 1.1212 -1.8261 0.4727 0 1
3.1561 1.1283 -1.8261 0.4727 0 1
3.1536 1.1354 -1.8261 0.4727 0 1
3.1510 1.1424 -1.8261 0.4727 0 1
3.1484 1.1495 -1.8261 0.4727 0 1
3.1458 1.1565 -1.8261 0.4727 0 1
3.1432 1.1636 -1.8261 0.4727 0 1
3.1406 1.1706 -1.8261 0.4727 0 1
3.1380 1.1777 -1.8261 0.4727 0 1
3.1353 1.1847 -1.8261 0.4727 0 1
3.1327 1.1917 -1.8261 0.4727 0 1
3.1300 1.1988 -1.8261 0.4727 0 1
3.1273 1.2058 -1.8261 0.4727 0 1
3.1246 1.2128 -1.8261 0.4727 0 1
3.1218 1.2198 -1.8261 0.4727 0 1
3.1191 1.2268 -1.8261 0.4728 0 1
3.1163 1.2338 -1.8261 0.4728 0 1
3.1135 1.2408 -1.8261 0.4728 0 1
3.1107 1.2478 -1.8261 0.4728 0 1
3.1079 1.2547 -1.8261 0.4728 0 1
3.1051 1.2617 -1.8261 0.4728 0 1
3.1022 1.2687 -1.8261 0.4728 0 1
3.0994 1.2756 -1.8261 0.4728 0 1
3.0965 1.2826 -1.8261 0.4728 0 1
3.0936 1.2895 -1.8261 0.4728 0 1
3.0907 1.2964 -1.8260 0.4728 0 1
3.0878 1.3034 -1.8260 0.4728 0 1
3.0848 1.3103 -1.8260 0.4728 0 1
3.0819 1.3172 -1.8260 0.4728 0 1
3.0789 1.3241 -1.8260 0.4728 0 1
3.0759 1.3311 -1.8260 0.4728 0 1
3.0729 1.3379 -1.8260 0.4728 0 1
3.0699 1.3448 -1.8260 0.4728 0 1
3.0668 1.3517 -1.8260 0.4728 0 1
3.0638 1.3586 -1.8260 0.4728 0 1
3.0607 1.3654 -1.8260 0.4728 0 1
3.0577 1.3723 -1.8260 0.4728 0 1
3.0545 1.3791 -1.8260 0.4728 0 1
3.0514 1.3860 -1.8260 0.4728 0 1
3.0483 1.3928 -1.8260 0.4728 0 1
3.0452 1.3996 -1.8260 0.4728 0 1
3.0420 1.4065 -1.8260 0.4728 0 1
3.0388 1.4133 -1.8260 0.4728 0 1
3.0357 1.4201 -1.8259 0.4728 0 1
3.0324 1.4269 -1.8259 0.4728 0 1
3.0292 1.4337 -1.8259 0.4728 0 1
3.0260 1.4405 -1.8259 0.4728 0 1
3.0227 1.4473 -1.8259 0.4728 0 1
3.0195 1.4540 -1.8259 0.4728 0 1
3.0162 1.4608 -1.8259 0.4728 0 1
3.0129 1.4676 -1.8259 0.4728 0 1
3.0096 1.4743 -1.8259 0.4728 0 1
3.0062 1.4811 -1.8259 0.4728 0 1
3.0029 1.4878 -1.8259 0.4728 0 1
2.9995 1.4946 -1.8259 0.4728 0 1
2.9962 1.5013 -1.8259 0.4728 0 1
2.9928 1.5080 -1.8259 0.4728 0 1
2.9894 1.5147 -1.8258 0.4728 0 1
2.9859 1.5214 -1.8258 0.4728 0 1
2.9825 1.5281 -1.8258 0.4728 0 1
2.9791 1.5348 -1.8258 0.4728 0 1
2.9756 1.5414 -1.8258 0.4728 0 1
2.9721 1.5481 -1.8258 0.4728 0 1
1.6023 0.8392 -0.9855 0.4370 458 14
1.6034 0.8443 -0.9873 0.4362 458 14
1.6044 0.8495 -0.9891 0.4354 458 14
1.6055 0.8547 -0.9909 0.4346 458 14
1.6065 0.8598 -0.9928 0.4338 458 14
1.6076 0.8650 -0.9946 0.4330 458 14
1.6087 0.8703 -0.9965 0.4321 458 14
1.6098 0.8755 -0.9984 0.4313 458 14
1.6108 0.8808 -1.0003 0.4305 458 14
1.6119 0.8862 -1.0022 0.4297 458 14
1.6130 0.8915 -1.0041 0.4289 458 14
1.6141 0.8968 -1.0061 0.4280 458 14
1.6152 0.9022 -1.0080 0.4272 458 14
1.6164 0.9076 -1.0100 0.4264 458 14
1.6176 0.9130 -1.0120 0.4255 458 14
1.6187 0.9184 -1.0140 0.4247 458 14
1.6198 0.9239 -1.0160 0.4238 458 14
1.6211 0.9294 -1.0180 0.4230 458 14
1.6222 0.9349 -1.0201 0.4221 458 14
1.6234 0.9404 -1.0222 0.4213 458 14
1.6246 0.9460 -1.0243 0.4204 458 14
1.6258 0.9517 -1.0264 0.4196 458 14
1.6270 0.9572 -1.0285 0.4187 458 14
1.6282 0.9629 -1.0306 0.4178 458 14
1.6295 0.9686 -1.0328 0.4170 458 14
1.6307 0.9743 -1.0350 0.4161 458 14
1.6319 0.9800 -1.0371 0.4152 458 14
1.6332 0.9857 -1.0393 0.4143 458 14
1.6345 0.9916 -1.0416 0.4134 458 14
1.6358 0.9973 -1.0438 0.4125 458 14
1.6371 1.0032 -1.0461 0.4117 458 14
1.6384 1.0091 -1.0484 0.4108 458 14
1.6397 1.0149 -1.0507 0.4099 458 14
1.6411 1.0209 -1.0530 0.4090 458 14
1.6424 1.0268 -1.0553 0.4081 458 14
1.6437 1.0328 -1.0577 0.4071 458 14
1.6451 1.0388 -1.0600 0.4062 458 14
1.6465 1.0449 -1.0624 0.4053 458 14
1.6478 1.0509 -1.0648 0.4044 458 14
1.6492 1.0570 -1.0673 0.4035 458 14
1.6506 1.0632 -1.0697 0.4026 458 14
1.6520 1.0693 -1.0722 0.4016 458 14
1.6535 1.0755 -1.0747 0.4007 458 14
1.6549 1.0817 -1.0772 0.3998 458 14
1.6564 1.0880 -1.0797 0.3988 458 14
1.6578 1.0943 -1.0823 0.3979 458 14
1.6593 1.1006 -1.0848 0.3969 458 14
1.6608 1.1070 -1.0874 0.3960 458 14
1.6623 1.1134 -1.0900 0.3950 458 14
1.6638 1.1198 -1.0927 0.3941 458 14
1.6653 1.1263 -1.0953 0.3931 458 14
1.6669 1.1328 -1.0980 0.3922 458 14
1.6684 1.1393 -1.1007 0.3912 458 14
1.6700 1.1459 -1.1034 0.3903 458 14
1.6715 1.1525 -1.1062 0.3893 458 14
1.6731 1.1592 -1.1090 0.3883 458 14
1.6748 1.1658 -1.1118 0.3873 458 14
1.6763 1.1725 -1.1146 0.3864 458 14
1.6780 1.1793 -1.1174 0.3854 458 14
1.6796 1.1861 -1.1203 0.3844 458 14
1.6812 1.1929 -1.1232 0.3834 458 14
1.6829 1.1998 -1.1261 0.3824 458 14
1.6846 1.2067 -1.1290 0.3814 458 14
1.6863 1.2136 -1.1320 0.3804 458 14
1.6868 1.2197 -1.1341 0.6584 458 14
1.6870 1.2256 -1.1361 0.6572 458 14
1.6872 1.2316 -1.1381 0.6560 458 14
1.6874 1.2376 -1.1401 0.6549 458 14
1.6876 1.2435 -1.1421 0.6537 458 14
1.6878 1.2496 -1.1442 0.6526 458 14
1.6880 1.2556 -1.1462 0.6514 458 14
1.6882 1.2616 -1.1483 0.6502 458 14
1.6885 1.2677 -1.1504 0.6491 458 14
1.6887 1.2738 -1.1525 0.6479 458 14
1.6889 1.2799 -1.1546 0.6467 458 14
1.6891 1.2861 -1.1567 0.6455 458 14
1.6894 1.2923 -1.1588 0.6443 458 14
1.6896 1.2984 -1.1610 0.6431 458 14
2.6511 2.0469 -1.8248 0.4731 0 1
2.6464 2.0528 -1.8248 0.4731 0 1
2.6418 2.0587 -1.8248 0.4731 0 1
2.6371 2.0646 -1.8247 0.4731 0 1
2.6325 2.0705 -1.8247 0.4731 0 1
2.6278 2.0764 -1.8247 0.4731 0 1
2.6231 2.0823 -1.8247 0.4731 0 1
2.6184 2.0881 -1.8247 0.4731 0 1
2.6137 2.0940 -1.8247 0.4731 0 1
2.6089 2.0998 -1.8246 0.4731 0 1
1.4400 1.1643 -1.0089 0.0184 458 14
1.3855 1.1254 -0.9725 0.0191 458 14
1.3465 1.0987 -0.9469 0.3365 458 14
1.3430 1.1009 -0.9462 0.3367 458 14
1.3396 1.1031 -0.9455 0.3370 458 14
1.3361 1.1053 -0.9448 0.3372 458 14
1.3327 1.1075 -0.9441 0.3375 458 14
1.3292 1.1097 -0.9434 0.3377 458 14
1.3258 1.1119 -0.9427 0.3380 458 14
1.3223 1.1140 -0.9420 0.3382 458 14
1.3189 1.1162 -0.9414 0.3385 458 14
1.3154 1.1183 -0.9407 0.3387 458 14
1.3119 1.1204 -0.9400 0.3390 458 14
1.3084 1.1225 -0.9393 0.3392 458 14
1.3050 1.1247 -0.9386 0.3395 458 14
1.3014 1.1268 -0.9379 0.3397 458 14
1.2979 1.1288 -0.9372 0.3400 458 14
1.2944 1.1309 -0.9365 0.3402 458 14
1.2909 1.1329 -0.9358 0.3405 458 14
1.2874 1.1350 -0.9351 0.3407 458 14
1.2839 1.1370 -0.9344 0.3410 458 14
1.2804 1.1391 -0.9337 0.3412 458 14
1.2769 1.1411 -0.9330 0.3415 458 14
1.2734 1.1431 -0.9323 0.3418 458 14
1.2698 1.1451 -0.9316 0.3420 458 14
1.2663 1.1471 -0.9309 0.3423 458 14
1.2628 1.1490 -0.9302 0.3425 458 14
1.2593 1.1510 -0.9295 0.3428 458 14
1.2557 1.1529 -0.9288 0.3430 458 14
1.2522 1.1549 -0.9281 0.3433 458 14
1.2487 1.1568 -0.9274 0.3436 458 14
1.2451 1.1587 -0.9267 0.3438 458 14
1.2416 1.1607 -0.9260 0.3441 458 14
1.2380 1.1625 -0.9253 0.3444 458 14
1.2344 1.1644 -0.9246 0.3446 458 14
1.2309 1.1663 -0.9239 0.3449 458 14
1.2273 1.1681 -0.9231 0.3451 458 14
1.2237 1.1700 -0.9224 0.3454 458 14
1.2202 1.1718 -0.9217 0.3457 458 14
1.2166 1.1737 -0.9210 0.3459 458 14
1.2130 1.1754 -0.9203 0.3462 458 14
1.2095 1.1773 -0.9196 0.3465 458 14
1.2059 1.1791 -0.9189 0.3467 458 14
1.2023 1.1809 -0.9182 0.3470 458 14
1.1987 1.1827 -0.9175 0.3473 458 14
1.1951 1.1844 -0.9167 0.3476 458 14
1.1915 1.1862 -0.9160 0.3478 458 14
2.3090 -2.3091 -1.8142 0.4830 0 1
2.3143 -2.3039 -1.8142 0.4830 0 1
2.3195 -2.2988 -1.8143 0.4830 0 1
2.3247 -2.2937 -1.8143 0.4830 0 1
2.3299 -2.2885 -1.8144 0.4830 0 1
2.3350 -2.2833 -1.8144 0.4830 0 1
2.3402 -2.2781 -1.8144 0.4830 0 1
2.3454 -2.2729 -1.8145 0.4830 0 1
2.3505 -2.2677 -1.8145 0.4829 0 1
2.3557 -2.2624 -1.8146 0.4829 0 1
2.3608 -2.2572 -1.8146 0.4829 0 1
2.3659 -2.2520 -1.8147 0.4829 0 1
2.3710 -2.2467 -1.8147 0.4829 0 1
2.3761 -2.2414 -1.8147 0.4829 0 1
2.3812 -2.2361 -1.8148 0.4829 0 1
2.3862 -2.2308 -1.8148 0.4829 0 1
2.3913 -2.2255 -1.8149 0.4829 0 1
2.3963 -2.2202 -1.8149 0.4828 0 1
2.4014 -2.2149 -1.8149 0.4828 0 1
2.4064 -2.2096 -1.8150 0.4828 0 1
2.4114 -2.2042 -1.8150 0.4828 0 1
2.4164 -2.1988 -1.8151 0.4828 0 1
2.4214 -2.1935 -1.8151 0.4828 0 1
2.4264 -2.1881 -1.8152 0.4828 0 1
2.4313 -2.1827 -1.8152 0.4828 0 1
2.4363 -2.1772 -1.8152 0.4828 0 1
2.4412 -2.1718 -1.8153 0.4827 0 1
2.4461 -2.1664 -1.8153 0.4827 0 1
2.4510 -2.1609 -1.8154 0.4827 0 1
2.4559 -2.1555 -1.8154 0.4827 0 1
2.4608 -2.1500 -1.8154 0.4827 0 1
2.4657 -2.1445 -1.8155 0.4827 0 1
2.4705 -2.1390 -1.8155 0.4827 0 1
2.4754 -2.1335 -1.8156 0.4827 0 1
2.4802 -2.1280 -1.8156 0.4827 0 1
2.4850 -2.1225 -1.8156 0.4826 0 1
2.4899 -2.1170 -1.8157 0.4826 0 1
2.4947 -2.1114 -1.8157 0.4826 0 1
2.4995 -2.1058 -1.8158 0.4826 0 1
2.5042 -2.1003 -1.8158 0.4826 0 1
2.5090 -2.0947 -1.8158 0.4826 0 1
2.5137 -2.0891 -1.8159 0.4826 0 1
2.5185 -2.0835 -1.8159 0.4826 0 1
2.5232 -2.0779 -1.8160 0.4826 0 1
2.5279 -2.0723 -1.8160 0.4826 0 1
2.5326 -2.0667 -1.8160 0.4825 0 1
2.5373 -2.0610 -1.8161 0.4825 0 1
2.5420 -2.0554 -1.8161 0.4825 0 1
2.5466 -2.0497 -1.8162 0.4825 0 1
2.5513 -2.0440 -1.8162 0.4825 0 1
2.5559 -2.0383 -1.8162 0.4825 0 1
2.5605 -2.0326 -1.8163 0.4825 0 1
2.5652 -2.0269 -1.8163 0.4825 0 1
2.5697 -2.0212 -1.8164 0.4825 0 1
2.5743 -2.0155 -1.8164 0.4824 0 1
2.5789 -2.0097 -1.8164 0.4824 0 1
2.5835 -2.0040 -1.8165 0.4824 0 1
2.5880 -1.9982 -1.8165 0.4824 0 1
2.5926 -1.9925 -1.8166 0.4824 0 1
2.5971 -1.9867 -1.8166 0.4824 0 1
2.6016 -1.9809 -1.8166 0.4824 0 1
2.6061 -1.9751 -1.8167 0.4824 0 1
2.6105 -1.9693 -1.8167 0.4824 0 1
2.6150 -1.9634 -1.8168 0.4824 0 1
2.6195 -1.9576 -1.8168 0.4823 0 1
2.6239 -1.9518 -1.8168 0.4823 0 1
2.6284 -1.9459 -1.8169 0.4823 0 1
2.6328 -1.9401 -1.8169 0.4823 0 1
2.6371 -1.9342 -1.8169 0.4823 0 1
2.6416 -1.9283 -1.8170 0.4823 0 1
2.6459 -1.9224 -1.8170 0.4823 0 1
2.6503 -1.9165 -1.8171 0.4823 0 1
2.6546 -1.9106 -1.8171 0.4823 0 1
2.6590 -1.9047 -1.8171 0.4823 0 1
2.6633 -1.8987 -1.8172 0.4822 0 1
2.6676 -1.8928 -1.8172 0.4822 0 1
2.6719 -1.8869 -1.8173 0.4822 0 1
2.6762 -1.8809 -1.8173 0.4822 0 1
2.6805 -1.8750 -1.8173 0.4822 0 1
2.6847 -1.8690 -1.8174 0.4822 0 1
2.6890 -1.8630 -1.8174 0.4822 0 1
2.6932 -1.8570 -1.8174 0.4822 0 1
2.6974 -1.8510 -1.8175 0.4822 0 1
2.7016 -1.8449 -1.8175 0.4822 0 1
2.7058 -1.8389 -1.8176 0.4821 0 1
2.7100 -1.8329 -1.8176 0.4821 0 1
2.7141 -1.8268 -1.8176 0.4821 0 1
2.7183 -1.8208 -1.8177 0.4821 0 1
2.7224 -1.8147 -1.8177 0.4821 0 1
2.7266 -1.8086 -1.8177 0.4821 0 1
2.7307 -1.8025 -1.8178 0.4821 0 1
2.7347 -1.7964 -1.8178 0.4821 0 1
2.7388 -1.7904 -1.8179 0.4821 0 1
2.7429 -1.7842 -1.8179 0.4821 0 1
2.7470 -1.7781 -1.8179 0.4820 0 1
2.7510 -1.7720 -1.8180 0.4820 0 1
2.7550 -1.7658 -1.8180 0.4820 0 1
2.7590 -1.7597 -1.8180 0.4820 0 1
2.7630 -1.7535 -1.8181 0.4820 0 1
2.7670 -1.7473 -1.8181 0.4820 0 1
2.7710 -1.7411 -1.8181 0.4820 0 1
2.7749 -1.7350 -1.8182 0.4820 0 1
2.7789 -1.7288 -1.8182 0.4820 0 1
2.7828 -1.7226 -1.8183 0.4820 0 1
2.7867 -1.7163 -1.8183 0.4819 0 1
2.7906 -1.7101 -1.8183 0.4819 0 1
2.7945 -1.7039 -1.8184 0.4819 0 1
2.7984 -1.6977 -1.8184 0.4819 0 1
2.8022 -1.6914 -1.8184 0.4819 0 1
2.8061 -1.6851 -1.8185 0.4819 0 1
2.8099 -1.6789 -1.8185 0.4819 0 1
2.8137 -1.6726 -1.8185 0.4819 0 1
2.8175 -1.6663 -1.8186 0.4819 0 1
2.8213 -1.6600 -1.8186 0.4819 0 1
2.8251 -1.6537 -1.8187 0.4818 0 1
2.8288 -1.6474 -1.8187 0.4818 0 1
2.8326 -1.6411 -1.8187 0.4818 0 1
2.8363 -1.6347 -1.8188 0.4818 0 1
2.8400 -1.6284 -1.8188 0.4818 0 1
2.8437 -1.6221 -1.8188 0.4818 0 1
2.8474 -1.6157 -1.8189 0.4818 0 1
2.8511 -1.6094 -1.8189 0.4818 0 1
2.8547 -1.6030 -1.8189 0.4818 0 1
2.8584 -1.5966 -1.8190 0.4818 0 1
2.8620 -1.5902 -1.8190 0.4818 0 1
2.8656 -1.5838 -1.8190 0.4817 0 1
2.8692 -1.5774 -1.8191 0.4817 0 1
2.8729 -1.5710 -1.8191 0.4817 0 1
2.8764 -1.5646 -1.8191 0.4817 0 1
2.8800 -1.5581 -1.8192 0.4817 0 1
2.8835 -1.5517 -1.8192 0.4817 0 1
2.8870 -1.5453 -1.8192 0.4817 0 1
2.8905 -1.5388 -1.8193 0.4817 0 1
2.8941 -1.5324 -1.8193 0.4817 0 1
2.8975 -1.5259 -1.8193 0.4817 0 1
2.9010 -1.5194 -1.8194 0.4817 0 1
2.9045 -1.5129 -1.8194 0.4816 0 1
2.9079 -1.5064 -1.8195 0.4816 0 1
2.9113 -1.4999 -1.8195 0.4816 0 1
2.9147 -1.4934 -1.8195 0.4816 0 1
2.9181 -1.4869 -1.8196 0.4816 0 1
2.9215 -1.4804 -1.8196 0.4816 0 1
1.6125 -0.8126 -1.0031 0.4358 458 14
1.6115 -0.8075 -1.0014 0.4365 458 14
1.6105 -0.8025 -0.9996 0.4373 458 14
1.6095 -0.7975 -0.9979 0.4380 458 14
1.6085 -0.7925 -0.9962 0.4388 458 14
1.6075 -0.7875 -0.9945 0.4395 458 14
1.6066 -0.7826 -0.9928 0.4403 458 14
1.6056 -0.7777 -0.9911 0.4410 458 14
1.6046 -0.7728 -0.9895 0.4418 458 14
1.6037 -0.7679 -0.9878 0.4425 458 14
1.6028 -0.7630 -0.9862 0.4432 458 14
1.6018 -0.7582 -0.9846 0.4440 458 14
1.6009 -0.7534 -0.9830 0.4447 458 14
1.6000 -0.7486 -0.9814 0.4454 458 14
1.5991 -0.7437 -0.9798 0.4461 458 14
1.5982 -0.7390 -0.9782 0.4469 458 14
1.5973 -0.7342 -0.9767 0.4476 458 14
1.5964 -0.7295 -0.9751 0.4483 458 14
1.5955 -0.7247 -0.9736 0.4490 458 14
1.5947 -0.7201 -0.9721 0.4497 458 14
1.5938 -0.7154 -0.9706 0.4504 458 14
1.5929 -0.7107 -0.9691 0.4511 458 14
1.5921 -0.7060 -0.9676 0.4518 458 14
1.5912 -0.7014 -0.9661 0.4525 458 14
1.5904 -0.6968 -0.9646 0.4531 458 14
1.5896 -0.6921 -0.9632 0.4538 458 14
1.5888 -0.6876 -0.9618 0.4545 458 14
1.5879 -0.6830 -0.9603 0.4552 458 14
1.5871 -0.6784 -0.9589 0.4558 458 14
1.5863 -0.6738 -0.9575 0.4565 458 14
1.5855 -0.6693 -0.9561 0.4572 458 14
1.5847 -0.6648 -0.9548 0.4578 458 14
1.5840 -0.6603 -0.9534 0.4585 458 14
1.5832 -0.6558 -0.9520 0.4591 458 14
1.5824 -0.6513 -0.9507 0.4598 458 14
1.5816 -0.6469 -0.9494 0.4604 458 14
1.5809 -0.6424 -0.9480 0.4611 458 14
1.5801 -0.6380 -0.9467 0.4617 458 14
3.0418 -1.2202 -1.8208 0.4813 0 1
3.0446 -1.2134 -1.8209 0.4813 0 1
3.0474 -1.2066 -1.8209 0.4813 0 1
3.0501 -1.1998 -1.8209 0.4812 0 1
3.0529 -1.1929 -1.8210 0.4812 0 1
3.0555 -1.1861 -1.8210 0.4812 0 1
3.0583 -1.1793 -1.8210 0.4812 0 1
3.0609 -1.1724 -1.8210 0.4812 0 1
3.0637 -1.1656 -1.8211 0.4812 0 1
3.0663 -1.1587 -1.8211 0.4812 0 1
3.0689 -1.1518 -1.8211 0.4812 0 1
3.0716 -1.1450 -1.8212 0.4812 0 1
3.0742 -1.1381 -1.8212 0.4812 0 1
3.0768 -1.1312 -1.8212 0.4812 0 1
3.0794 -1.1243 -1.8213 0.4812 0 1
3.0819 -1.1174 -1.8213 0.4812 0 1
3.0845 -1.1105 -1.8213 0.4811 0 1
3.0870 -1.1036 -1.8213 0.4811 0 1
3.0895 -1.0967 -1.8214 0.4811 0 1
3.0920 -1.0898 -1.8214 0.4811 0 1
3.0945 -1.0829 -1.8214 0.4811 0 1
3.0970 -1.0759 -1.8215 0.4811 0 1
3.0994 -1.0690 -1.8215 0.4811 0 1
3.1019 -1.0621 -1.8215 0.4811 0 1
3.1043 -1.0551 -1.8215 0.4811 0 1
3.1067 -1.0482 -1.8216 0.4811 0 1
3.1091 -1.0412 -1.8216 0.4811 0 1
3.1115 -1.0342 -1.8216 0.4811 0 1
3.1139 -1.0273 -1.8217 0.4811 0 1
3.1162 -1.0203 -1.8217 0.4810 0 1
3.1185 -1.0133 -1.8217 0.4810 0 1
3.1208 -1.0063 -1.8217 0.4810 0 1
3.1231 -0.9994 -1.8218 0.4810 0 1
3.1254 -0.9923 -1.8218 0.4810 0 1
3.1277 -0.9854 -1.8218 0.4810 0 1
3.1299 -0.9783 -1.8219 0.4810 0 1
3.1322 -0.9713 -1.8219 0.4810 0 1
3.1344 -0.9643 -1.8219 0.4810 0 1
3.1366 -0.9573 -1.8219 0.4810 0 1
3.1388 -0.9502 -1.8220 0.4810 0 1
3.1409 -0.9432 -1.8220 0.4810 0 1
3.1431 -0.9362 -1.8220 0.4810 0 1
3.1452 -0.9291 -1.8220 0.4810 0 1
3.1473 -0.9221 -1.8221 0.4809 0 1
3.1495 -0.9151 -1.8221 0.4809 0 1
3.1516 -0.9080 -1.8221 0.4809 0 1
3.1536 -0.9010 -1.8221 0.4809 0 1
3.1557 -0.8939 -1.8222 0.4809 0 1
3.1577 -0.8868 -1.8222 0.4809 0 1
3.1598 -0.8797 -1.8222 0.4809 0 1
3.1618 -0.8726 -1.8223 0.4809 0 1
3.1638 -0.8655 -1.8223 0.4809 0 1
3.1657 -0.8585 -1.8223 0.4809 0 1
3.1677 -0.8514 -1.8223 0.4809 0 1
3.1697 -0.8443 -1.8224 0.4809 0 1
3.1716 -0.8372 -1.8224 0.4809 0 1
3.1735 -0.8301 -1.8224 0.4809 0 1
3.1754 -0.8229 -1.8224 0.4808 0 1
3.1773 -0.8158 -1.8225 0.4808 0 1
3.1791 -0.8087 -1.8225 0.4808 0 1
3.1810 -0.8016 -1.8225 0.4808 0 1
3.1829 -0.7945 -1.8225 0.4808 0 1
3.1847 -0.7873 -1.8226 0.4808 0 1
3.1864 -0.7802 -1.8226 0.4808 0 1
3.1882 -0.7730 -1.8226 0.4808 0 1
3.1900 -0.7659 -1.8226 0.4808 0 1
3.1917 -0.7587 -1.8227 0.4808 0 1
3.1935 -0.7516 -1.8227 0.4808 0 1
3.1952 -0.7444 -1.8227 0.4808 0 1
3.1969 -0.7373 -1.8227 0.4808 0 1
3.1986 -0.7301 -1.8228 0.4808 0 1
3.2003 -0.7229 -1.8228 0.4808 0 1
3.2020 -0.7158 -1.8228 0.4808 0 1
3.2036 -0.7086 -1.8228 0.4807 0 1
3.2052 -0.7014 -1.8229 0.4807 0 1
3.2068 -0.6942 -1.8229 0.4807 0 1
3.2084 -0.6870 -1.8229 0.4807 0 1
3.2100 -0.6798 -1.8229 0.4807 0 1
3.2115 -0.6727 -1.8230 0.4807 0 1
3.2131 -0.6655 -1.8230 0.4807 0 1
3.2146 -0.6582 -1.8230 0.4807 0 1
3.2161 -0.6510 -1.8230 0.4807 0 1
3.2176 -0.6438 -1.8230 0.4807 0 1
3.2191 -0.6366 -1.8231 0.4807 0 1
3.2206 -0.6294 -1.8231 0.4807 0 1
3.2220 -0.6222 -1.8231 0.4807 0 1
3.2234 -0.6150 -1.8231 0.4807 0 1
3.2248 -0.6077 -1.8232 0.4807 0 1
3.2262 -0.6005 -1.8232 0.4807 0 1
3.2276 -0.5933 -1.8232 0.4806 0 1
3.2290 -0.5860 -1.8232 0.4806 0 1
3.2303 -0.5788 -1.8232 0.4806 0 1
3.2317 -0.5715 -1.8233 0.4806 0 1
3.2330 -0.5643 -1.8233 0.4806 0 1
3.2343 -0.5570 -1.8233 0.4806 0 1
3.2355 -0.5498 -1.8233 0.4806 0 1
3.2368 -0.5425 -1.8234 0.4806 0 1
3.2380 -0.5353 -1.8234 0.4806 0 1
3.2393 -0.5280 -1.8234 0.4806 0 1
3.2405 -0.5207 -1.8234 0.4806 0 1
3.2417 -0.5135 -1.8234 0.4806 0 1
3.2429 -0.5062 -1.8235 0.4806 0 1
3.2441 -0.4989 -1.8235 0.4806 0 1
3.2452 -0.4917 -1.8235 0.4806 0 1
3.2464 -0.4844 -1.8235 0.4806 0 1
3.2475 -0.4771 -1.8236 0.4806 0 1
3.2485 -0.4698 -1.8236 0.4806 0 1
3.2496 -0.4625 -1.8236 0.4805 0 1
3.2507 -0.4552 -1.8236 0.4805 0 1
3.2518 -0.4479 -1.8236 0.4805 0 1
3.2528 -0.4406 -1.8237 0.4805 0 1
3.2538 -0.4333 -1.8237 0.4805 0 1
3.2548 -0.4260 -1.8237 0.4805 0 1
3.2558 -0.4187 -1.8237 0.4805 0 1
3.2568 -0.4114 -1.8237 0.4805 0 1
3.2577 -0.4042 -1.8238 0.4805 0 1
3.2586 -0.3969 -1.8238 0.4805 0 1
3.2596 -0.3896 -1.8238 0.4805 0 1
3.2605 -0.3822 -1.8238 0.4805 0 1
3.2614 -0.3749 -1.8238 0.4805 0 1
3.2622 -0.3676 -1.8239 0.4805 0 1
3.2631 -0.3603 -1.8239 0.4805 0 1
3.2639 -0.3529 -1.8239 0.4805 0 1
3.2647 -0.3456 -1.8239 0.4805 0 1
3.2655 -0.3383 -1.8239 0.4805 0 1
3.2663 -0.3310 -1.8240 0.4804 0 1
3.2671 -0.3237 -1.8240 0.4804 0 1
3.2679 -0.3163 -1.8240 0.4804 0 1
3.2686 -0.3090 -1.8240 0.4804 0 1
3.2693 -0.3017 -1.8240 0.4804 0 1
3.2700 -0.2943 -1.8240 0.4804 0 1
3.2707 -0.2870 -1.8241 0.4804 0 1
3.2713 -0.2796 -1.8241 0.4804 0 1
3.2720 -0.2723 -1.8241 0.4804 0 1
3.2726 -0.2650 -1.8241 0.4804 0 1
3.2732 -0.2576 -1.8241 0.4804 0 1
3.2738 -0.2503 -1.8242 0.4804 0 1
3.2745 -0.2430 -1.8242 0.4804 0 1
3.2750 -0.2356 -1.8242 0.4804 0 1
3.2755 -0.2283 -1.8242 0.4804 0 1
3.2761 -0.2209 -1.8242 0.4804 0 1
3.2766 -0.2135 -1.8242 0.4804 0 1
3.2771 -0.2062 -1.8243 0.4804 0 1
3.2776 -0.1988 -1.8243 0.4804 0 1
3.2781 -0.1915 -1.8243 0.4804 0 1
3.2785 -0.1841 -1.8243 0.4804 0 1
3.2789 -0.1768 -1.8243 0.4803 0 1
3.2794 -0.1694 -1.8244 0.4803 0 1
3.2798 -0.1621 -1.8244 0.4803 0 1
3.2801 -0.1547 -1.8244 0.4803 0 1
3.2805 -0.1473 -1.8244 0.4803 0 1
3.2809 -0.1400 -1.8244 0.4803 0 1
3.2812 -0.1327 -1.8244 0.4803 0 1
3.2815 -0.1253 -1.8245 0.4803 0 1
3.2818 -0.1179 -1.8245 0.4803 0 1
3.2821 -0.1106 -1.8245 0.4803 0 1
3.2824 -0.1032 -1.8245 0.4803 0 1
3.2826 -0.0958 -1.8245 0.4803 0 1
3.2829 -0.0885 -1.8245 0.4803 0 1
3.2831 -0.0811 -1.8245 0.4803 0 1
3.2833 -0.0737 -1.8246 0.4803 0 1
3.2835 -0.0664 -1.8246 0.4803 0 1
3.2837 -0.0590 -1.8246 0.4803 0 1
3.2838 -0.0516 -1.8246 0.4803 0 1
3.2839 -0.0442 -1.8246 0.4803 0 1
3.2840 -0.0369 -1.8246 0.4803 0 1
3.2841 -0.0295 -1.8247 0.4803 0 1
3.2842 -0.0221 -1.8247 0.4803 0 1
3.2843 -0.0147 -1.8247 0.4803 0 1
3.2843 -0.0074 -1.8247 0.4803 0 1
3.2844 -0.0000 -1.8247 0.4802 0 1
3.2844 0.0074 -1.8247 0.4802 0 1
3.2844 0.0147 -1.8247 0.4802 0 1
3.2844 0.0221 -1.8248 0.4802 0 1
3.2843 0.0294 -1.8248 0.4802 0 1
3.2843 0.0368 -1.8248 0.4802 0 1
3.2843 0.0442 -1.8248 0.4802 0 1
3.2841 0.0515 -1.8248 0.4802 0 1
3.2841 0.0590 -1.8248 0.4802 0 1
3.2839 0.0663 -1.8248 0.4802 0 1
3.2838 0.0737 -1.8249 0.4802 0 1
3.2837 0.0810 -1.8249 0.4802 0 1
3.2835 0.0884 -1.8249 0.4802 0 1
3.2833 0.0958 -1.8249 0.4802 0 1
3.2831 0.1032 -1.8249 0.4802 0 1
3.2829 0.1105 -1.8249 0.4802 0 1
3.2827 0.1179 -1.8249 0.4802 0 1
3.2824 0.1252 -1.8249 0.4802 0 1
3.2821 0.1326 -1.8250 0.4802 0 1
3.2819 0.1400 -1.8250 0.4802 0 1
3.2816 0.1473 -1.8250 0.4802 0 1
3.2812 0.1547 -1.8250 0.4802 0 1
3.2809 0.1621 -1.8250 0.4802 0 1
3.2806 0.1694 -1.8250 0.4802 0 1
3.2802 0.1768 -1.8250 0.4802 0 1
3.2798 0.1841 -1.8250 0.4802 0 1
3.2794 0.1915 -1.8251 0.4802 0 1
3.2790 0.1989 -1.8251 0.4802 0 1
3.2786 0.2062 -1.8251 0.4802 0 1
3.2781 0.2136 -1.8251 0.4802 0 1
3.2777 0.2210 -1.8251 0.4801 0 1
3.2772 0.2283 -1.8251 0.4801 0 1
3.2767 0.2356 -1.8251 0.4801 0 1
3.2761 0.2430 -1.8251 0.4801 0 1
3.2756 0.2504 -1.8251 0.4801 0 1
3.2751 0.2577 -1.8252 0.4801 0 1
3.2745 0.2651 -1.8252 0.4801 0 1
3.2739 0.2724 -1.8252 0.4801 0 1
3.2733 0.2798 -1.8252 0.4801 0 1
3.2727 0.2871 -1.8252 0.4801 0 1
3.2721 0.2945 -1.8252 0.4801 0 1
3.2714 0.3018 -1.8252 0.4801 0 1
3.2707 0.3091 -1.8252 0.4801 0 1
3.2701 0.3165 -1.8252 0.4801 0 1
3.2694 0.3238 -1.8253 0.4801 0 1
3.2687 0.3312 -1.8253 0.4801 0 1
3.2679 0.3385 -1.8253 0.4801 0 1
3.2672 0.3458 -1.8253 0.4801 0 1
3.2664 0.3532 -1.8253 0.4801 0 1
3.2656 0.3605 -1.8253 0.4801 0 1
3.2648 0.3678 -1.8253 0.4801 0 1
3.2640 0.3751 -1.8253 0.4801 0 1
3.2632 0.3825 -1.8253 0.4801 0 1
3.2623 0.3898 -1.8253 0.4801 0 1
3.2614 0.3971 -1.8253 0.4801 0 1
3.2605 0.4044 -1.8254 0.4801 0 1
3.2597 0.4118 -1.8254 0.4801 0 1
3.2587 0.4190 -1.8254 0.4801 0 1
3.2578 0.4264 -1.8254 0.4801 0 1
3.2568 0.4337 -1.8254 0.4801 0 1
3.2559 0.4410 -1.8254 0.4801 0 1
3.2549 0.4483 -1.8254 0.4801 0 1
3.2539 0.4556 -1.8254 0.4801 0 1
3.2529 0.4629 -1.8254 0.4801 0 1
3.2518 0.4702 -1.8254 0.4801 0 1
3.2508 0.4775 -1.8254 0.4801 0 1
3.2497 0.4848 -1.8254 0.4801 0 1
3.2487 0.4921 -1.8255 0.4801 0 1
3.2476 0.4994 -1.8255 0.4801 0 1
3.2464 0.5067 -1.8255 0.4801 0 1
3.2453 0.5140 -1.8255 0.4800 0 1
3.2442 0.5213 -1.8255 0.4800 0 1
3.2430 0.5286 -1.8255 0.4800 0 1
3.2418 0.5358 -1.8255 0.4800 0 1
3.2406 0.5431 -1.8255 0.4800 0 1
3.2394 0.5504 -1.8255 0.4800 0 1
3.2382 0.5577 -1.8255 0.4800 0 1
3.2369 0.5649 -1.8255 0.4800 0 1
3.2356 0.5722 -1.8255 0.4800 0 1
3.2344 0.5794 -1.8255 0.4800 0 1
3.2330 0.5867 -1.8255 0.4800 0 1
3.2318 0.5939 -1.8255 0.4800 0 1
3.2304 0.6012 -1.8256 0.4800 0 1
3.2291 0.6085 -1.8256 0.4800 0 1
3.2277 0.6157 -1.8256 0.4800 0 1
3.2263 0.6229 -1.8256 0.4800 0 1
3.2250 0.6302 -1.8256 0.4800 0 1
3.2236 0.6374 -1.8256 0.4800 0 1
3.2221 0.6446 -1.8256 0.4800 0 1
3.2207 0.6519 -1.8256 0.4800 0 1
3.2192 0.6591 -1.8256 0.4800 0 1
3.2177 0.6663 -1.8256 0.4800 0 1
3.2162 0.6736 -1.8256 0.4800 0 1
