ply
format ascii 1.0
element vertex 601
property float32 x
property float32 y
property float32 z
property float32 CosAngle
property uint32 ObjIdx
property uint32 ObjTag
end_header
38.04550552368164 -1.7086035013198853 0.9497541785240173 0.4331379234790802 0 9
37.84529113769531 -1.8698241710662842 0.9449549913406372 0.29487237334251404 0 9
37.64144515991211 -2.0291600227355957 0.9400812983512878 0.29640042781829834 0 9
37.43974685668945 -2.186845541000366 0.9352809190750122 0.2979222536087036 0 9
37.24012756347656 -2.342949151992798 0.9305442571640015 0.29943764209747314 0 9
37.0425910949707 -2.4974608421325684 0.92587810754776 0.3009463846683502 0 9
36.84708023071289 -2.650458812713623 0.9212827682495117 0.3024486303329468 0 9
36.65354537963867 -2.801953077316284 0.9167509078979492 0.3039443790912628 0 9
36.46194839477539 -2.951953172683716 0.9122776389122009 0.30543363094329834 0 9
36.2637825012207 -3.099794864654541 0.9076585173606873 0.30059540271759033 0 9
36.0224494934082 -3.2420506477355957 0.9019712805747986 0.30249008536338806 0 9
35.78419876098633 -3.382568359375 0.8963838219642639 0.304377943277359 0 9
35.54890060424805 -3.521376848220825 0.8908735513687134 0.3062596917152405 0 9
35.03387451171875 -3.62920880317688 0.878364086151123 0.15283091366291046 0 9
36.00208282470703 -3.8929295539855957 0.903069257736206 0.8561159372329712 0 9
35.19979476928711 -3.966074228286743 0.8833808898925781 0.8403622508049011 0 9
33.006229400634766 -3.868974447250366 0.8287602066993713 0.31055229902267456 0 9
32.73602294921875 -3.986328125 0.8224128484725952 0.3129478693008423 0 9
32.469947814941406 -4.101904392242432 0.816185712814331 0.31533658504486084 0 9
32.14609146118164 -4.207656383514404 0.8085123896598816 0.22621425986289978 0 9
34.51054763793945 -4.674765586853027 0.8684995770454407 0.6436253786087036 0 9
34.643070220947266 -4.851142406463623 0.8723710179328918 0.5514874458312988 0 9
34.471763610839844 -4.985009670257568 0.8686115741729736 0.3003089129924774 0 9
34.187618255615234 -5.100654125213623 0.8620185852050781 0.3026053309440613 0 9
33.785484313964844 -5.195781230926514 0.8524647355079651 0.7277147173881531 0 9
33.60283279418945 -5.322177410125732 0.8484473824501038 0.48894110321998596 0 9
33.720699310302734 -5.49609375 0.852037787437439 0.4868808388710022 0 9
34.01945495605469 -5.701669692993164 0.8602238297462463 0.25903525948524475 0 9
33.7304573059082 -5.808974266052246 0.8535645604133606 0.974067747592926 0 9
33.68669509887695 -5.957206726074219 0.8531266450881958 0.9745693802833557 0 9
29.42314910888672 -5.339511394500732 0.7457505464553833 0.8560192584991455 0 9
29.331960678100586 -5.459062576293945 0.7440522313117981 0.8444812893867493 0 9
28.42097282409668 -5.421591758728027 0.7215555906295776 0.7966194748878479 0 9
28.312992095947266 -5.532822132110596 0.7194386124610901 0.6425709128379822 0 9
28.287343978881836 -5.659726619720459 0.7194221615791321 0.875496506690979 0 9
28.31376838684082 -5.797294616699219 0.7207484245300293 0.8738852739334106 0 9
28.340288162231445 -5.935341835021973 0.7220963835716248 0.8722564578056335 0 9
27.689952850341797 -5.92898416519165 0.7061982750892639 0.5926627516746521 0 9
27.713125228881836 -6.064150333404541 0.7074732780456543 0.49147701263427734 0 9
27.891109466552734 -6.23440408706665 0.7127235531806946 0.48785606026649475 0 9
28.050312042236328 -6.402294635772705 0.7175211906433105 0.5833094120025635 0 9
27.94224739074707 -6.509716510772705 0.7154951095581055 0.19453880190849304 0 9
27.014659881591797 -6.421572208404541 0.6924747824668884 0.3449515700340271 0 9
27.851764678955078 -6.752753734588623 0.714730978012085 0.6734596490859985 0 9
28.13612937927246 -6.955556392669678 0.7227934002876282 0.5921227335929871 0 9
28.086246490478516 -7.077138423919678 0.7223206758499146 0.548017144203186 0 9
27.024593353271484 -6.93874979019165 0.695811927318573 0.5938024520874023 0 9
26.96949577331543 -7.053779125213623 0.6952006220817566 0.3187762498855591 0 9
11.911924362182617 -3.1726951599121094 0.30742064118385315 0.9913572669029236 0 6
11.890905380249023 -3.2243261337280273 0.30724912881851196 0.9919123649597168 0 6
11.90242862701416 -3.2848730087280273 0.30791762471199036 0.7843967080116272 0 6
26.71813201904297 -7.502949237823486 0.6920793056488037 0.9052079916000366 0 9
26.633956909179688 -7.608437538146973 0.6907792687416077 0.9069153070449829 0 9
26.550094604492188 -7.713525295257568 0.68949294090271 0.9086044430732727 0 9
26.71204948425293 -7.890751838684082 0.6946150064468384 0.5704721212387085 0 9
26.732418060302734 -8.027392387390137 0.6960709691047668 0.5692760944366455 0 9
26.23540496826172 -8.00667953491211 0.6840611100196838 0.07626114785671234 0 9
26.693605422973633 -8.277655601501465 0.6969703435897827 0.8315420746803284 0 9
26.638084411621094 -8.391669273376465 0.6964939832687378 0.8321071863174438 0 9
26.582651138305664 -8.505537033081055 0.6960389614105225 0.832655131816864 0 9
26.527286529541016 -8.61922836303711 0.6955906748771667 0.8331862092018127 0 9
27.57261085510254 -9.095888137817383 0.7240684628486633 0.9310134053230286 0 9
27.165252685546875 -9.096884727478027 0.7144328355789185 0.7445213198661804 0 9
27.061527252197266 -9.19742202758789 0.7127857804298401 0.7462443113327026 0 9
26.958280563354492 -9.297529220581055 0.7111570835113525 0.7479522228240967 0 9
26.855506896972656 -9.397168159484863 0.7095484733581543 0.7496448159217834 0 9
26.753211975097656 -9.496356964111328 0.7079685926437378 0.7513217926025391 0 9
26.830129623413086 -9.659452438354492 0.7111430168151855 0.8386863470077515 0 9
16.520671844482422 -6.031679630279541 0.4386005997657776 0.7411928772926331 0 9
16.432296752929688 -6.083134651184082 0.43697309494018555 0.7439502477645874 0 9
16.34457778930664 -6.134218692779541 0.4353675842285156 0.7466928958892822 0 9
16.25750732421875 -6.184921741485596 0.433787077665329 0.7494197487831116 0 9
16.171064376831055 -6.235253810882568 0.43222030997276306 0.7521317601203918 0 9
16.084436416625977 -6.284912109375 0.4306516945362091 0.7401817440986633 0 9
16.02413558959961 -6.344394207000732 0.42980024218559265 0.9208214282989502 0 9
15.969286918640137 -6.405742168426514 0.42909500002861023 0.8998168706893921 0 9
15.932390213012695 -6.474091529846191 0.42888104915618896 0.9002678394317627 0 9
15.89553451538086 -6.542392253875732 0.4286753833293915 0.9007006287574768 0 9
8.934416770935059 -3.724257707595825 0.24139206111431122 0.47145843505859375 0 9
8.993012428283691 -3.796142578125 0.24343444406986237 0.4675053358078003 0 9
9.02484130859375 -3.8573925495147705 0.24476149678230286 0.6154484152793884 0 9
9.045172691345215 -3.914189338684082 0.245788112282753 0.6128804683685303 0 9
9.065677642822266 -3.9714648723602295 0.24682585895061493 0.6103004217147827 0 9
9.086348533630371 -4.029228210449219 0.2478778064250946 0.6077088117599487 0 9
9.107196807861328 -4.087480545043945 0.24894455075263977 0.6051050424575806 0 9
9.128217697143555 -4.146230220794678 0.25002622604370117 0.6024895906448364 0 9
9.149415969848633 -4.205497741699219 0.25112059712409973 0.5998620390892029 0 9
9.170793533325195 -4.265283107757568 0.25223174691200256 0.5972231030464172 0 9
9.192364692687988 -4.325595378875732 0.25335586071014404 0.5945719480514526 0 9
9.214123725891113 -4.386455059051514 0.254495233297348 0.5919092297554016 0 9
9.236072540283203 -4.447861194610596 0.2556515336036682 0.5892351865768433 0 9
9.258223533630371 -4.509833812713623 0.2568211257457733 0.5865486860275269 0 9
9.280570983886719 -4.572363376617432 0.2580071985721588 0.5838513970375061 0 9
9.244725227355957 -4.606386661529541 0.25758224725723267 0.20926424860954285 0 9
9.32587718963623 -4.699140548706055 0.26042938232421875 0.5784221291542053 0 9
5.267493724822998 -2.683896541595459 0.14743269979953766 0.6160956621170044 0 6
5.238748550415039 -2.6989355087280273 0.14697708189487457 0.8865681290626526 0 6
5.224510192871094 -2.7213377952575684 0.14690734446048737 0.9507375359535217 0 6
5.222686767578125 -2.7502636909484863 0.1472015380859375 0.7807076573371887 0 6
8.125153541564941 -4.325429439544678 0.22955124080181122 0.5819296836853027 0 9
8.156879425048828 -4.389404296875 0.23100173473358154 0.5782760381698608 0 9
8.189008712768555 -4.454208850860596 0.2324763387441635 0.5746099352836609 0 9
8.221550941467285 -4.519843578338623 0.23397323489189148 0.5709326267242432 0 9
8.208480834960938 -4.560751914978027 0.2341819703578949 0.7254442572593689 0 9
8.218737602233887 -4.614853382110596 0.2350628674030304 0.7227248549461365 0 9
8.229068756103516 -4.669316291809082 0.23595458269119263 0.7199912667274475 0 9
8.239477157592773 -4.724228382110596 0.23685897886753082 0.7172438502311707 0 9
8.249960899353027 -4.779560565948486 0.2377743422985077 0.7144815921783447 0 9
8.260527610778809 -4.835331916809082 0.23870284855365753 0.7117053866386414 0 9
8.271174430847168 -4.891532897949219 0.23964141309261322 0.7089147567749023 0 9
8.281903266906738 -4.948193073272705 0.24059447646141052 0.7061097025871277 0 9
8.292713165283203 -5.005282878875732 0.24155913293361664 0.7032914161682129 0 9
7.926758766174316 -4.833076000213623 0.23152755200862885 0.2307955026626587 0 9
7.915078163146973 -4.874814510345459 0.2318234145641327 0.3280482292175293 0 9
7.98559045791626 -4.967812538146973 0.2345387190580368 0.32424965500831604 0 9
7.899051189422607 -4.963290691375732 0.23265044391155243 0.18998956680297852 0 9
8.052093505859375 -5.109999656677246 0.23782896995544434 0.1858508139848709 0 9
8.169960975646973 -5.236386775970459 0.24200332164764404 0.1534714251756668 0 9
7.765630722045898 -5.026542663574219 0.2306930422782898 0.49703335762023926 0 9
7.718523979187012 -5.045351505279541 0.22996382415294647 0.49860879778862 0 9
7.671728134155273 -5.064043045043945 0.2292434573173523 0.5001739263534546 0 9
7.62522554397583 -5.082626819610596 0.22853469848632812 0.5017284750938416 0 9
7.579003810882568 -5.101093769073486 0.22783233225345612 0.5032725930213928 0 9
7.533085823059082 -5.119462966918945 0.2271406501531601 0.5048060417175293 0 9
7.487446308135986 -5.137714862823486 0.22645659744739532 0.5063289403915405 0 9
7.44207763671875 -5.155869007110596 0.22578276693820953 0.5078416466712952 0 9
7.396989345550537 -5.173925876617432 0.22511626780033112 0.5093435645103455 0 9
7.352169036865234 -5.191864967346191 0.2244604378938675 0.5108343362808228 0 9
7.307619571685791 -5.209716796875 0.22381149232387543 0.5123149156570435 0 9
7.263327598571777 -5.227460861206055 0.2231713831424713 0.5137845277786255 0 9
7.538402080535889 -5.476982116699219 0.23237593472003937 0.6848888397216797 0 9
7.481934547424316 -5.487421989440918 0.2313912957906723 0.6878008246421814 0 9
7.406980037689209 -5.483749866485596 0.22983291745185852 0.3974577486515045 0 9
7.318521499633789 -5.46926736831665 0.2278471291065216 0.40092095732688904 0 9
7.231573104858398 -5.455039024353027 0.22590041160583496 0.4043763279914856 0 9
7.146108150482178 -5.441064357757568 0.22399047017097473 0.4078231453895569 0 9
7.062071323394775 -5.427324295043945 0.22211821377277374 0.4112621247768402 0 9
6.881890773773193 -5.338144302368164 0.2172018438577652 0.5629670023918152 0 9
6.900140285491943 -5.402080059051514 0.21853987872600555 0.5595176815986633 0 9
6.918620586395264 -5.466796875 0.21990005671977997 0.5560572147369385 0 9
6.73644495010376 -5.372138500213623 0.214874267578125 0.34438812732696533 0 9
6.787388801574707 -5.462773323059082 0.21728026866912842 0.34057673811912537 0 9
6.839493274688721 -5.555478572845459 0.21974365413188934 0.3367578387260437 0 9
6.839203834533691 -5.606386661529541 0.22054122388362885 0.7216416597366333 0 9
6.788330078125 -5.615800857543945 0.2197108417749405 0.7243673801422119 0 9
6.737836837768555 -5.625165939331055 0.21889159083366394 0.727078914642334 0 9
6.687722206115723 -5.634443283081055 0.2180827260017395 0.7297749519348145 0 9
7.075315952301025 -6.015468597412109 0.23160049319267273 0.5279686450958252 0 9
7.09609842300415 -6.088222503662109 0.23317275941371918 0.5244084596633911 0 9
7.117167949676514 -6.161962985992432 0.23477034270763397 0.5208379626274109 0 9
7.138532638549805 -6.236738204956055 0.23639678955078125 0.5172560214996338 0 9
7.167361736297607 -6.318867206573486 0.2382890284061432 0.8795167803764343 0 9
6.718800067901611 -5.977245807647705 0.2242649793624878 0.9817912578582764 0 9
6.693514347076416 -6.008739948272705 0.22431853413581848 0.981555700302124 0 9
6.668217658996582 -6.040292739868164 0.22437743842601776 0.9813002943992615 0 9
6.642903804779053 -6.071865081787109 0.22444045543670654 0.981025218963623 0 9
6.617573261260986 -6.103446960449219 0.22450760006904602 0.9807304739952087 0 9
6.538271427154541 -6.084843635559082 0.2227420061826706 0.17694523930549622 0 9
6.389797210693359 -6.000390529632568 0.21859878301620483 0.1802988499403 0 9
6.541482925415039 -6.198329925537109 0.22473753988742828 0.9797284603118896 0 9
6.474343299865723 -6.190087795257568 0.22338195145130157 0.46472886204719543 0 9
6.392035007476807 -6.166543006896973 0.22149658203125 0.4686884880065918 0 9
6.31109094619751 -6.143369197845459 0.21964354813098907 0.4726392924785614 0 9
6.231489181518555 -6.120595455169678 0.21782667934894562 0.4765808582305908 0 9
6.153192043304443 -6.098193168640137 0.2160446047782898 0.48051291704177856 0 9
16.271818161010742 16.27181625366211 0.19125640392303467 0.32196012139320374 0 9
16.27057456970215 16.12517547607422 0.19038939476013184 0.3234264850616455 0 9
16.26934814453125 15.979863166809082 0.18953262269496918 0.3248863220214844 0 9
16.25804328918457 15.826034545898438 0.1885717660188675 0.2731056213378906 0 9
16.206377029418945 15.634687423706055 0.18715988099575043 0.2751706838607788 0 9
15.444003105163574 13.493026733398438 0.17044921219348907 0.9256541728973389 0 9
15.476216316223145 13.399179458618164 0.1701371669769287 0.9273402094841003 0 9
15.508317947387695 13.305634498596191 0.1698348969221115 0.9290072917938232 0 9
15.540300369262695 13.212450981140137 0.16953307390213013 0.9306559562683105 0 9
15.60455322265625 13.146864891052246 0.1695886254310608 0.778796911239624 0 9
15.720355987548828 13.124247550964355 0.17020736634731293 0.7759751081466675 0 9
15.837007522583008 13.10147476196289 0.17082762718200684 0.773137629032135 0 9
39.14531707763672 30.930986404418945 0.41465529799461365 0.7883203029632568 0 3
39.14704513549805 30.647968292236328 0.4132121205329895 0.7910731434822083 0 3
39.14875411987305 30.366912841796875 0.4117835760116577 0.7938098311424255 0 3
39.15045166015625 30.087772369384766 0.41038405895233154 0.7965308427810669 0 3
39.15213394165039 29.810537338256836 0.40899306535720825 0.7992357611656189 0 3
39.153812408447266 29.535175323486328 0.40762436389923096 0.8019242882728577 0 3
39.155479431152344 29.26163101196289 0.40626996755599976 0.8045969009399414 0 3
39.15713119506836 28.989891052246094 0.4049282670021057 0.8072532415390015 0 3
39.158775329589844 28.719911575317383 0.4036138951778412 0.8098935484886169 0 3
39.160404205322266 28.45174789428711 0.40230605006217957 0.8125172257423401 0 3
39.162025451660156 28.185253143310547 0.40101301670074463 0.8151232600212097 0 3
39.163639068603516 27.920429229736328 0.39975234866142273 0.8177158832550049 0 3
39.16524124145508 27.65729522705078 0.39849546551704407 0.8202918767929077 0 3
39.16579818725586 27.39510726928711 0.39725080132484436 0.8228513598442078 0 3
39.16738510131836 27.135282516479492 0.3960210978984833 0.8253927826881409 0 3
39.16896057128906 26.87702178955078 0.3948165774345398 0.8279203176498413 0 3
39.17052459716797 26.62032127380371 0.3936242461204529 0.8304283022880554 0 3
39.172080993652344 26.365156173706055 0.3924446105957031 0.8329182863235474 0 3
39.173622131347656 26.11148452758789 0.3912855386734009 0.8353928923606873 0 3
39.1751594543457 25.85935401916504 0.3901321291923523 0.8378507494926453 0 3
39.17668914794922 25.608671188354492 0.38900434970855713 0.8402916193008423 0 3
39.17820739746094 25.359432220458984 0.38788527250289917 0.8427155613899231 0 3
39.17972183227539 25.111610412597656 0.38677582144737244 0.8451226949691772 0 3
39.18122100830078 24.86519432067871 0.38568204641342163 0.8475126624107361 0 3
39.18271255493164 24.620155334472656 0.3846142590045929 0.8498856425285339 0 3
39.184200286865234 24.376522064208984 0.38354840874671936 0.8522414565086365 0 3
39.18567657470703 24.134159088134766 0.3824957311153412 0.8545801639556885 0 3
39.18714904785156 23.893144607543945 0.38145506381988525 0.8569015860557556 0 3
39.18861389160156 23.65340805053711 0.38043683767318726 0.859205961227417 0 3
39.1900634765625 23.414979934692383 0.3794299364089966 0.8614926338195801 0 3
39.19150924682617 23.177841186523438 0.37843412160873413 0.8637620210647583 0 3
39.19294738769531 22.941884994506836 0.37744826078414917 0.8660142421722412 0 3
39.19437789916992 22.707178115844727 0.37647947669029236 0.8682488203048706 0 3
39.195804595947266 22.473623275756836 0.37551483511924744 0.8704662322998047 0 3
39.19721984863281 22.241289138793945 0.3745742738246918 0.872665524482727 0 3
39.198631286621094 22.010107040405273 0.37363752722740173 0.8748476505279541 0 3
39.20003128051758 21.78011703491211 0.372710257768631 0.8770120143890381 0 3
39.2014274597168 21.551191329956055 0.37179991602897644 0.8791589140892029 0 3
39.202816009521484 21.323408126831055 0.37090346217155457 0.8812878727912903 0 3
39.204200744628906 21.096689224243164 0.3700173795223236 0.8833993077278137 0 3
39.20557403564453 20.87105369567871 0.3691451847553253 0.8854929208755493 0 3
39.20694351196289 20.646493911743164 0.36827605962753296 0.8875685930252075 0 3
39.208309173583984 20.42298698425293 0.367430716753006 0.8896263837814331 0 3
39.20966339111328 20.20050811767578 0.3665882647037506 0.8916662335395813 0 3
39.21101379394531 19.979013442993164 0.36575546860694885 0.8936882019042969 0 3
39.21236038208008 19.758525848388672 0.36494094133377075 0.8956921100616455 0 3
39.21369934082031 19.539012908935547 0.3641372621059418 0.897678017616272 0 3
39.215030670166016 19.32046890258789 0.3633308410644531 0.8996458053588867 0 3
39.21635818481445 19.102930068969727 0.3625500500202179 0.9015952944755554 0 3
39.21767807006836 18.886268615722656 0.3617706298828125 0.9035268425941467 0 3
39.218997955322266 18.67049789428711 0.36101484298706055 0.9054402112960815 0 3
39.220306396484375 18.455663681030273 0.3602544963359833 0.9073342084884644 0 3
39.22161102294922 18.241718292236328 0.35951825976371765 0.9092121720314026 0 3
39.22291564941406 18.02865219116211 0.3587782084941864 0.9110716581344604 0 3
39.22420883178711 17.816484451293945 0.35805800557136536 0.9129107594490051 0 3
39.44115447998047 17.701932907104492 0.3593101501464844 0.4038676619529724 0 3
39.92648696899414 17.70490264892578 0.3630024492740631 0.3997582197189331 0 3
40.421897888183594 17.70793914794922 0.366777628660202 0.3956405818462372 0 3
40.927757263183594 17.71102523803711 0.37065017223358154 0.39151492714881897 0 3
41.44434356689453 17.714189529418945 0.3746040165424347 0.38738176226615906 0 3
41.97212219238281 17.717411041259766 0.3786501884460449 0.3832404911518097 0 3
42.511474609375 17.720712661743164 0.38279157876968384 0.3790912926197052 0 3
43.062747955322266 17.724090576171875 0.3870404064655304 0.3749347925186157 0 3
43.62637710571289 17.7275390625 0.3913857936859131 0.37077075242996216 0 3
44.20283126831055 17.731063842773438 0.3958369493484497 0.36659908294677734 0 3
44.445701599121094 17.59730339050293 0.3973010182380676 0.9319300651550293 0 2
44.44710922241211 17.367528915405273 0.39661818742752075 0.9335471391677856 0 2
38.18461608886719 14.72329044342041 0.3401365578174591 0.9351418018341064 0 3
38.18581008911133 14.527235984802246 0.33956602215766907 0.9367221593856812 0 3
38.1870002746582 14.331826210021973 0.33899518847465515 0.9382838010787964 0 3
38.18818664550781 14.137069702148438 0.33844345808029175 0.9398245811462402 0 3
38.18937301635742 13.942977905273438 0.3378996253013611 0.9413474798202515 0 3
38.1905517578125 13.749482154846191 0.3373570144176483 0.9428513050079346 0 3
38.19172668457031 13.556601524353027 0.3368244767189026 0.9443361163139343 0 3
38.19289779663086 13.3643159866333 0.3363056778907776 0.9458019137382507 0 3
38.19406509399414 13.172607421875 0.33578917384147644 0.9472489356994629 0 3
38.19523239135742 12.981464385986328 0.33528441190719604 0.9486765265464783 0 3
38.19639205932617 12.79092788696289 0.3347910940647125 0.9500851631164551 0 3
38.19755172729492 12.60097599029541 0.3343002200126648 0.9514746069908142 0 3
38.19870376586914 12.41153335571289 0.3338165283203125 0.9528449773788452 0 3
38.19985580444336 12.22265625 0.33334457874298096 0.9541959166526794 0 3
38.20100402832031 12.034296989440918 0.33288314938545227 0.9555277824401855 0 3
38.2021484375 11.846454620361328 0.33242401480674744 0.9568403959274292 0 3
38.20328903198242 11.659120559692383 0.3319723308086395 0.9581338763237 0 3
38.204429626464844 11.472294807434082 0.33153578639030457 0.9594079256057739 0 3
38.20556640625 11.285995483398438 0.33110228180885315 0.9606626033782959 0 3
38.20669937133789 11.100107192993164 0.33067336678504944 0.9618982076644897 0 3
38.20783233642578 10.914726257324219 0.33025848865509033 0.9631140828132629 0 3
38.20895767211914 10.729804039001465 0.329851359128952 0.9643107652664185 0 3
38.2100830078125 10.545341491699219 0.32944318652153015 0.9654878377914429 0 3
38.211204528808594 10.361318588256836 0.32905104756355286 0.9666456580162048 0 3
38.21232223510742 10.177743911743164 0.32866424322128296 0.9677839875221252 0 3
38.21343994140625 9.994619369506836 0.3282836973667145 0.9689027070999146 0 3
38.21455383300781 9.811874389648438 0.32791563868522644 0.9700019955635071 0 3
38.215667724609375 9.62955093383789 0.32754820585250854 0.9710817337036133 0 3
38.21677780151367 9.447627067565918 0.32719147205352783 0.9721419811248779 0 3
38.2178840637207 9.266083717346191 0.3268453776836395 0.9731823801994324 0 3
38.21898651123047 9.084921836853027 0.3265005350112915 0.9742034077644348 0 3
38.22008514404297 8.904150009155273 0.3261590600013733 0.9752048254013062 0 3
38.22119140625 8.72377872467041 0.3258358836174011 0.9761865139007568 0 3
38.222286224365234 8.543730735778809 0.3255190849304199 0.9771485924720764 0 3
38.22338104248047 8.364032745361328 0.32520368695259094 0.9780910015106201 0 3
38.2244758605957 8.184677124023438 0.3248930275440216 0.9790136814117432 0 3
38.22557067871094 8.005654335021973 0.32459455728530884 0.9799166917800903 0 3
38.22665786743164 7.826962947845459 0.32430267333984375 0.9807998538017273 0 3
38.22774887084961 7.648583889007568 0.3240208327770233 0.9816632866859436 0 3
38.22883224487305 7.47048807144165 0.32373976707458496 0.9825071692466736 0 3
38.22991943359375 7.292773246765137 0.32347288727760315 0.9833309054374695 0 3
38.23099899291992 7.115302562713623 0.32320404052734375 0.9841350317001343 0 3
38.23208236694336 6.938115119934082 0.3229501247406006 0.9849192500114441 0 3
38.233158111572266 6.761210918426514 0.3226969838142395 0.9856836795806885 0 3
38.23423767089844 6.584569931030273 0.3224540650844574 0.9864283204078674 0 3
38.235313415527344 6.408193111419678 0.3222125172615051 0.9871530532836914 0 3
38.23638916015625 6.232079982757568 0.32198959589004517 0.9878578186035156 0 3
38.23746109008789 6.056250095367432 0.3217640519142151 0.988542377948761 0 3
38.23853302001953 5.880624771118164 0.3215487599372864 0.9892076253890991 0 3
38.23960494995117 5.705234050750732 0.3213393986225128 0.9898526668548584 0 3
38.24067306518555 5.530029296875 0.32113540172576904 0.9904783964157104 0 3
38.241737365722656 5.355097770690918 0.3209417760372162 0.9910830855369568 0 3
38.24280548095703 5.180341720581055 0.32074904441833496 0.9916684031486511 0 3
38.49372482299805 5.038515567779541 0.32266050577163696 0.992234468460083 0 3
38.49479293823242 4.863027095794678 0.32248228788375854 0.9927796721458435 0 3
38.49586486816406 4.68777322769165 0.3223098814487457 0.9933051466941833 0 3
38.4969367980957 4.512656211853027 0.3221476674079895 0.993810772895813 0 3
38.49800491333008 4.337714672088623 0.32199522852897644 0.9942958354949951 0 3
38.49907302856445 4.162939548492432 0.32183945178985596 0.9947607517242432 0 3
38.50014114379883 3.9883201122283936 0.32169845700263977 0.9952059984207153 0 3
38.5012092590332 3.8138670921325684 0.3215583860874176 0.9956310391426086 0 3
38.50227355957031 3.639531135559082 0.32142820954322815 0.9960359930992126 0 3
31.233280181884766 2.8110742568969727 0.2606378197669983 0.7660976052284241 0 6
38.50440216064453 3.2913475036621094 0.32118484377861023 0.9967858791351318 0 3
38.505462646484375 3.117421865463257 0.32108014822006226 0.9971307516098022 0 3
38.506526947021484 2.943613290786743 0.3209678530693054 0.9974555373191833 0 3
38.507591247558594 2.7699315547943115 0.3208691477775574 0.9977601170539856 0 3
38.50865173339844 2.596328020095825 0.32078155875205994 0.9980447292327881 0 3
38.50971221923828 2.4228320121765137 0.32069504261016846 0.9983091950416565 0 3
38.51076889038086 2.2494335174560547 0.32061767578125 0.998553454875946 0 3
38.5118293762207 2.0761327743530273 0.3205503821372986 0.9987776875495911 0 3
38.51288986206055 1.9028807878494263 0.32047927379608154 0.9989817142486572 0 3
38.51395034790039 1.729677677154541 0.3204237222671509 0.9991657137870789 0 3
38.5150032043457 1.556542992591858 0.32036787271499634 0.9993296265602112 0 3
38.51606369018555 1.3834764957427979 0.320322722196579 0.9994734525680542 0 3
38.51712417602539 1.21044921875 0.32028257846832275 0.999596893787384 0 3
38.51818084716797 1.0374609231948853 0.32024824619293213 0.9997004866600037 0 3
38.51923751831055 0.8645117282867432 0.32022354006767273 0.9997837543487549 0 3
38.520294189453125 0.6916112899780273 0.32020461559295654 0.9998469948768616 0 3
38.5213508605957 0.5187011361122131 0.3201908767223358 0.9998899698257446 0 3
38.52241134643555 0.3458007872104645 0.32018691301345825 0.9999128580093384 0 3
38.52346420288086 0.17290039360523224 0.3201838731765747 0.9999156594276428 0 3
38.52452087402344 -0.0 0.3201870620250702 0.9998981952667236 0 3
37.92136001586914 -0.17020507156848907 0.31518158316612244 0.43510985374450684 0 9
37.799861907958984 -0.33931639790534973 0.31418028473854065 0.4364951252937317 0 9
37.600364685058594 -0.5062890648841858 0.31253644824028015 0.29721030592918396 0 9
37.39906692504883 -0.671435534954071 0.3108871281147003 0.29878902435302734 0 9
37.19987106323242 -0.8348827958106995 0.309255987405777 0.3003617525100708 0 9
37.00278091430664 -0.9966210722923279 0.3076513707637787 0.3019280731678009 0 9
36.8077392578125 -1.1567089557647705 0.3060731291770935 0.30348822474479675 0 9
36.61470031738281 -1.3151659965515137 0.3045117259025574 0.30504220724105835 0 9
36.42363739013672 -1.472011685371399 0.30297577381134033 0.3065897822380066 0 9
36.2344970703125 -1.627285122871399 0.30146026611328125 0.30813106894493103 0 9
36.04725646972656 -1.78103506565094 0.2999652028083801 0.3096661865711212 0 9
35.86186599731445 -1.9332324266433716 0.2984899878501892 0.31119486689567566 0 9
38.53829574584961 -2.251035213470459 0.3208494484424591 0.9978402853012085 0 3
38.53936004638672 -2.4247069358825684 0.3209460377693176 0.9975411295890808 0 3
38.54042053222656 -2.5984764099121094 0.3210485875606537 0.9972218871116638 0 3
38.54148483276367 -2.7723631858825684 0.3211561441421509 0.9968826770782471 0 3
38.54254913330078 -2.9463768005371094 0.3212745487689972 0.9965232014656067 0 3
38.543617248535156 -3.1205174922943115 0.3213925063610077 0.9961436986923218 0 3
38.544681549072266 -3.2947654724121094 0.3215223550796509 0.9957441091537476 0 3
38.54574966430664 -3.469179630279541 0.3216560184955597 0.9953246712684631 0 3
38.54682159423828 -3.643740177154541 0.3218003809452057 0.9948849081993103 0 3
38.54788589477539 -3.818495988845825 0.3219468593597412 0.9944255352020264 0 3
36.32188034057617 -3.7626659870147705 0.30349746346473694 0.7054591774940491 0 9
36.468994140625 -3.943427562713623 0.30487045645713806 0.7022794485092163 0 9
36.08842849731445 -4.066210746765137 0.3018369972705841 0.7451077103614807 0 9
35.30192184448242 -4.138105392456055 0.29541245102882385 0.837730348110199 0 9
35.2413330078125 -4.291435241699219 0.29506438970565796 0.8946690559387207 0 9
35.27338790893555 -4.456074237823486 0.2955009341239929 0.8933584094047546 0 9
34.75992965698242 -4.549755573272705 0.29136213660240173 0.6395664215087891 0 9
34.80652618408203 -4.71484375 0.29192548990249634 0.5493888854980469 0 9
35.00393295288086 -4.901669979095459 0.29376691579818726 0.5459529161453247 0 9
35.0391960144043 -5.067050457000732 0.2942509353160858 0.772000789642334 0 9
34.86980438232422 -5.202431678771973 0.2930203080177307 0.6533204913139343 0 9
34.75608444213867 -5.345038890838623 0.2922613322734833 0.777247965335846 0 9
33.37008285522461 -5.285302639007568 0.2808041274547577 0.642911434173584 0 9
33.433231353759766 -5.449228286743164 0.2815428078174591 0.641234278678894 0 9
33.49671173095703 -5.61404275894165 0.28228163719177246 0.6395445466041565 0 9
29.412616729736328 -5.065331935882568 0.24805191159248352 0.6563098430633545 0 9
29.54195213317871 -5.224238395690918 0.24933898448944092 0.6529248356819153 0 9
29.286937713623047 -5.314795017242432 0.24738571047782898 0.7182880640029907 0 9
29.340576171875 -5.460663795471191 0.24804656207561493 0.7163838148117065 0 9
29.39450454711914 -5.607324123382568 0.24870772659778595 0.7144649624824524 0 9
28.508840560913086 -5.571093559265137 0.24142776429653168 0.7936956882476807 0 9
28.475032806396484 -5.697275161743164 0.24135252833366394 0.8699662089347839 0 9
28.501983642578125 -5.835839748382568 0.24180006980895996 0.8683544397354126 0 9
28.529027938842773 -5.974863052368164 0.24225661158561707 0.8667252659797668 0 9
28.02672576904297 -6.001083850860596 0.23821501433849335 0.5857032537460327 0 9
28.037445068359375 -6.135117053985596 0.23853881657123566 0.48592591285705566 0 9
28.21997833251953 -6.307900428771973 0.24033385515213013 0.48230403661727905 0 9
28.32345199584961 -6.464638710021973 0.2414579689502716 0.8169407248497009 0 9
28.21323013305664 -6.572841644287109 0.24076887965202332 0.819284200668335 0 9
28.103622436523438 -6.680429458618164 0.24008727073669434 0.821611225605011 0 9
27.99159049987793 -6.786660194396973 0.23938460648059845 0.3647952079772949 0 9
27.78911590576172 -6.869755744934082 0.23791655898094177 0.3670494556427002 0 9
27.44324493408203 -6.915107250213623 0.23521697521209717 0.670287013053894 0 9
26.531408309936523 -6.812108993530273 0.22766174376010895 0.6050075888633728 0 9
26.585954666137695 -6.953466415405273 0.2283952236175537 0.6030643582344055 0 9
11.90953254699707 -3.172060489654541 0.1024334728717804 0.9918302297592163 0 6
11.888520240783691 -3.2236719131469727 0.1023770123720169 0.9923855066299438 0 6
11.89942741394043 -3.2840330600738525 0.10259689390659332 0.7848114967346191 0 6
26.807756423950195 -7.528115272521973 0.23142211139202118 0.5951705574989319 0 9
26.735675811767578 -7.637490272521973 0.2310951203107834 0.9037143588066101 0 9
26.65130615234375 -7.742929458618164 0.2306625247001648 0.9054040312767029 0 9
26.82689094543457 -7.924667835235596 0.23248794674873352 0.8161686062812805 0 9
26.742610931396484 -8.030448913574219 0.23207075893878937 0.8176469802856445 0 9
26.65863800048828 -8.135839462280273 0.2316552698612213 0.8191089630126953 0 9
26.606786727905273 -8.250741958618164 0.23152542114257812 0.6406937837600708 0 9
26.46320343017578 -8.33658218383789 0.23059920966625214 0.6432670950889587 0 9
26.320768356323242 -8.421748161315918 0.22968153655529022 0.6458273530006409 0 9
27.473644256591797 -8.926718711853027 0.24009154736995697 0.34168124198913574 0 9
27.166166305541992 -8.961806297302246 0.23775023221969604 0.34504127502441406 0 9
27.343427658081055 -9.1565523147583 0.2396603375673294 0.5861247181892395 0 9
27.5989933013916 -9.380117416381836 0.24226944148540497 0.916047990322113 0 9
27.51047134399414 -9.487968444824219 0.24186186492443085 0.9175848960876465 0 9
16.75773811340332 -5.863818168640137 0.1475573629140854 0.578422486782074 0 9
16.6318359375 -5.903671741485596 0.14667998254299164 0.5818800330162048 0 9
16.51763343811035 -5.946699142456055 0.14591048657894135 0.7427414655685425 0 9
16.42943572998047 -5.998378753662109 0.14536666870117188 0.7455146908760071 0 9
16.34188461303711 -6.049667835235596 0.1448298543691635 0.7482727766036987 0 9
16.253942489624023 -6.100195407867432 0.1442919820547104 0.7364528775215149 0 9
16.16539192199707 -6.149882793426514 0.14374923706054688 0.73923259973526 0 9
16.09070587158203 -6.204277038574219 0.1433328241109848 0.9204883575439453 0 9
16.035062789916992 -6.265625 0.14308394491672516 0.9220748543739319 0 9
15.979606628417969 -6.32677698135376 0.14284087717533112 0.9236429333686829 0 9
15.92434024810791 -6.3876953125 0.14260025322437286 0.9251919984817505 0 9
15.86925983428955 -6.448437213897705 0.14236587285995483 0.9267227053642273 0 9
15.82365894317627 -6.51281213760376 0.14221785962581635 0.9857708811759949 0 9
15.782488822937012 -6.578847408294678 0.1421116590499878 0.986506998538971 0 9
15.745930671691895 -6.646718502044678 0.14205215871334076 0.9966789484024048 0 9
9.163064956665039 -3.9164648056030273 0.0828218087553978 0.6063317656517029 0 9
9.098301887512207 -3.9371776580810547 0.08239486813545227 0.4604529142379761 0 9
9.15975570678711 -4.012665748596191 0.08311477303504944 0.4564708471298218 0 9
9.222296714782715 -4.089501857757568 0.08384719491004944 0.45247945189476013 0 9
9.249101638793945 -4.151162147521973 0.084259033203125 0.5959856510162354 0 9
9.271079063415527 -4.211112976074219 0.08463012427091599 0.5933693647384644 0 9
9.293248176574707 -4.271601676940918 0.08500839024782181 0.5907413959503174 0 9
9.31561279296875 -4.332626819610596 0.08538894355297089 0.5881015062332153 0 9
9.338173866271973 -4.394198894500732 0.08577559888362885 0.5854500532150269 0 9
9.360945701599121 -4.456337928771973 0.08616821467876434 0.5827867984771729 0 9
9.383928298950195 -4.519052505493164 0.08656448125839233 0.580111563205719 0 9
9.407119750976562 -4.582353591918945 0.0869680792093277 0.5774245858192444 0 9
9.430525779724121 -4.646230220794678 0.0873759463429451 0.5747265815734863 0 9
9.454154968261719 -4.710683345794678 0.0877891555428505 0.5720169544219971 0 9
9.478007316589355 -4.775790691375732 0.08820877224206924 0.569295346736908 0 9
5.266688346862793 -2.6835057735443115 0.04912719503045082 0.6163612604141235 0 6
5.238016128540039 -2.6985740661621094 0.04902801290154457 0.8869369626045227 0 6
5.223663330078125 -2.7209179401397705 0.04895278811454773 0.9511540532112122 0 6
5.221660137176514 -2.7497265338897705 0.04904846101999283 0.7810767292976379 0 6
9.358041763305664 -4.98171854019165 0.08811035007238388 0.1354178935289383 0 9
9.266728401184082 -4.986611366271973 0.0874616950750351 0.289764404296875 0 9
8.938277244567871 -4.861718654632568 0.08456633985042572 0.7314643859863281 0 9
8.977218627929688 -4.935234069824219 0.08514312654733658 0.2976522445678711 0 9
8.838123321533203 -4.910546779632568 0.08403243869543076 0.30158731341362 0 9
8.19385814666748 -4.600869178771973 0.07810241729021072 0.08582275360822678 0 9
8.221651077270508 -4.665097713470459 0.0785662829875946 0.21483685076236725 0 9
8.357903480529785 -4.792119026184082 0.08007354289293289 0.21079455316066742 0 9
8.316177368164062 -4.817919731140137 0.0798797607421875 0.31726714968681335 0 9
8.646747589111328 -5.061415672302246 0.08327194303274155 0.20269577205181122 0 9
12.798518180847168 -7.569013595581055 0.1235809326171875 0.6291100382804871 0 9
10.567549705505371 -6.313798904418945 0.10231231153011322 0.2090471386909485 0 9
10.361969947814941 -6.254238128662109 0.1005912721157074 0.21262085437774658 0 9
8.157994270324707 -4.974052429199219 0.07941146939992905 0.22431562840938568 0 9
8.207026481628418 -5.054618835449219 0.08010940253734589 0.7164623737335205 0 9
8.205248832702637 -5.104453086853027 0.08031539618968964 0.7146298289299011 0 9
8.203460693359375 -5.154550552368164 0.08052261173725128 0.712782621383667 0 9
8.201659202575684 -5.204912185668945 0.08073470741510391 0.7109214067459106 0 9
8.199850082397461 -5.255527019500732 0.08094879239797592 0.7090461850166321 0 9
8.198029518127441 -5.30642557144165 0.08116424083709717 0.7071560025215149 0 9
8.196198463439941 -5.357607364654541 0.08138320595026016 0.705252468585968 0 9
8.194356918334961 -5.409052848815918 0.08160445839166641 0.7033342123031616 0 9
8.006734848022461 -5.33694314956665 0.07997344434261322 0.6634035110473633 0 9
7.946332931518555 -5.348339557647705 0.07961028814315796 0.6664398908615112 0 9
7.886468410491943 -5.35964822769165 0.0792512521147728 0.6694637537002563 0 9
7.827149391174316 -5.370839595794678 0.07889541238546371 0.6724734306335449 0 9
7.768356800079346 -5.381933689117432 0.07854553312063217 0.6754692196846008 0 9
7.71007776260376 -5.392929553985596 0.0782000720500946 0.6784518957138062 0 9
7.652315616607666 -5.40383768081665 0.07785995304584503 0.6814204454421997 0 9
7.595048427581787 -5.414638519287109 0.07752334326505661 0.6843754649162292 0 9
7.525318622589111 -5.416025161743164 0.07705917209386826 0.39518025517463684 0 9
7.435286521911621 -5.402050495147705 0.07638458162546158 0.398669958114624 0 9
7.346821308135986 -5.388319969177246 0.0757240280508995 0.40215060114860535 0 9
7.259877681732178 -5.374824047088623 0.07507491856813431 0.4056234359741211 0 9
7.174404144287109 -5.361562252044678 0.07444000244140625 0.40908804535865784 0 9
7.261501312255859 -5.477607250213623 0.07559844851493835 0.7018124461174011 0 9
7.207502365112305 -5.487802505493164 0.07529113441705704 0.7046693563461304 0 9
6.805459022521973 -5.230078220367432 0.07133544981479645 0.5714235901832581 0 9
6.822978496551514 -5.292411804199219 0.07176849246025085 0.5679850578308105 0 9
6.840710163116455 -5.355527400970459 0.07220642268657684 0.5645353198051453 0 9
6.858656883239746 -5.419414043426514 0.0726512148976326 0.5610732436180115 0 9
6.876834392547607 -5.484091758728027 0.07310470193624496 0.5576000213623047 0 9
6.892413139343262 -5.547304630279541 0.07353393733501434 0.7215095162391663 0 9
6.709477424621582 -5.449862957000732 0.07184295356273651 0.34337833523750305 0 9
6.760291576385498 -5.541679382324219 0.07265152037143707 0.3395514488220215 0 9
6.812259197235107 -5.635585784912109 0.07348159700632095 0.33571815490722656 0 9
6.86543083190918 -5.731669902801514 0.07433120906352997 0.33187782764434814 0 9
6.919854640960693 -5.830019474029541 0.07520370185375214 0.32803037762641907 0 9
6.975574970245361 -5.93069314956665 0.07609786838293076 0.32417649030685425 0 9
7.030917644500732 -6.032285213470459 0.07699599862098694 0.5294164419174194 0 9
7.034313678741455 -6.090224266052246 0.07733307033777237 0.1951916664838791 0 9
6.892548561096191 -6.021826267242432 0.0760691836476326 0.19843024015426636 0 9
7.093062400817871 -6.253359317779541 0.07859237492084503 0.5186684727668762 0 9
7.114357948303223 -6.329111099243164 0.0791415423154831 0.5150645971298218 0 9
6.790799617767334 -6.096074104309082 0.07584548741579056 0.8288989067077637 0 9
6.758029460906982 -6.121640682220459 0.0757862851023674 0.8295543789863586 0 9
6.725307464599609 -6.147187232971191 0.07572677731513977 0.8301931619644165 0 9
6.692638874053955 -6.172675609588623 0.07567107677459717 0.8308150768280029 0 9
6.66002082824707 -6.198144435882568 0.07561599463224411 0.8314202427864075 0 9
6.627446174621582 -6.223554611206055 0.07556228339672089 0.8320086002349854 0 9
6.574014663696289 -6.229150295257568 0.07527053356170654 0.45976880192756653 0 9
6.479644775390625 -6.195156097412109 0.07450775057077408 0.17634212970733643 0 9
6.407305717468262 -6.18126916885376 0.07399444282054901 0.4677005708217621 0 9
6.3260498046875 -6.157929420471191 0.07337341457605362 0.47165238857269287 0 9
6.246140003204346 -6.134980201721191 0.07276596128940582 0.4755946099758148 0 9
6.167539119720459 -6.112402439117432 0.07216918468475342 0.47952762246131897 0 9
15.440041542053223 13.489580154418945 -0.17040526866912842 0.9258917570114136 0 9
15.47225570678711 13.395751953125 -0.17009200155735016 0.9275777339935303 0 9
15.504352569580078 13.30224609375 -0.16978926956653595 0.9292449951171875 0 9
15.536335945129395 13.209091186523438 -0.16948974132537842 0.9308934211730957 0 9
15.600950241088867 13.143847465515137 -0.1695462018251419 0.7789767384529114 0 9
15.716706275939941 13.12123966217041 -0.17016083002090454 0.7761551141738892 0 9
15.833327293395996 13.098456382751465 -0.17078933119773865 0.7733175158500671 0 9
39.43659973144531 30.590185165405273 -0.41481032967567444 0.7938858866691589 0 3
39.438323974609375 30.30899429321289 -0.4133874475955963 0.7966068983078003 0 3
39.440032958984375 30.02971649169922 -0.4120033085346222 0.7993117570877075 0 3
39.441734313964844 29.752363204956055 -0.41062605381011963 0.8020002841949463 0 3
39.41775131225586 29.4576358795166 -0.40898481011390686 0.8046769499778748 0 3
39.419429779052734 29.184091567993164 -0.4076422154903412 0.8073291778564453 0 3
39.42109680175781 28.91233253479004 -0.40631240606307983 0.8099691867828369 0 3
39.422752380371094 28.64231300354004 -0.4050016701221466 0.812588632106781 0 3
39.428794860839844 28.37728500366211 -0.4037492275238037 0.9947224855422974 0 3
39.45170974731445 28.12582015991211 -0.4026872217655182 0.817791759967804 0 3
39.453330993652344 27.86077117919922 -0.40142562985420227 0.8203660249710083 0 3
39.4549446105957 27.597352981567383 -0.4001823365688324 0.8229241967201233 0 3
39.45552062988281 27.334882736206055 -0.3989318907260895 0.8254700899124146 0 3
39.45711898803711 27.074726104736328 -0.39772841334342957 0.8279951810836792 0 3
39.45870590209961 26.816181182861328 -0.39651381969451904 0.8305028080940247 0 3
39.46028137207031 26.55912971496582 -0.3953291177749634 0.8329943418502808 0 3
39.461849212646484 26.30362319946289 -0.394155889749527 0.8354690074920654 0 3
39.46341323852539 26.049589157104492 -0.39299970865249634 0.8379268646240234 0 3
39.46495819091797 25.79709815979004 -0.3918601870536804 0.8403677940368652 0 3
39.46649932861328 25.546045303344727 -0.3907313346862793 0.8427916169166565 0 3
39.46803283691406 25.296415328979492 -0.38961851596832275 0.8451986312866211 0 3
39.46955490112305 25.048192977905273 -0.38852766156196594 0.8475885987281799 0 3
39.4710693359375 24.801347732543945 -0.387442022562027 0.8499616980552673 0 3
39.47257614135742 24.555927276611328 -0.38636595010757446 0.8523175120353699 0 3
39.47407150268555 24.311796188354492 -0.38531142473220825 0.8546561002731323 0 3
39.47555923461914 24.06902313232422 -0.3842664957046509 0.8569774627685547 0 3
39.47704315185547 23.82754898071289 -0.38323667645454407 0.8592815399169922 0 3
39.478519439697266 23.587352752685547 -0.38221707940101624 0.8615683913230896 0 3
39.479984283447266 23.348417282104492 -0.38122329115867615 0.8638380169868469 0 3
39.481441497802734 23.110780715942383 -0.38022398948669434 0.8660901188850403 0 3
39.48289489746094 22.874324798583984 -0.3792513906955719 0.868324875831604 0 3
39.484336853027344 22.63909149169922 -0.3782794177532196 0.8705419898033142 0 3
39.48577117919922 22.405019760131836 -0.377326637506485 0.87274169921875 0 3
39.48719787597656 22.172147750854492 -0.37638840079307556 0.8749237060546875 0 3
39.48862075805664 21.940458297729492 -0.3754536211490631 0.8770880699157715 0 3
39.49003982543945 21.70985221862793 -0.37453779578208923 0.8792350888252258 0 3
39.4914436340332 21.48038101196289 -0.373635858297348 0.8813641667366028 0 3
39.49284744262695 21.252010345458984 -0.3727421462535858 0.8834755420684814 0 3
39.49423599243164 21.02474594116211 -0.3718617260456085 0.8855688571929932 0 3
39.495628356933594 20.798534393310547 -0.37098264694213867 0.8876445293426514 0 3
39.497005462646484 20.57339859008789 -0.3701271116733551 0.8897024393081665 0 3
39.498382568359375 20.34925651550293 -0.36928999423980713 0.8917422294616699 0 3
39.49974822998047 20.126142501831055 -0.36845138669013977 0.8937641978263855 0 3
39.475399017333984 19.891082763671875 -0.367391973733902 0.8957710266113281 0 3
30.977413177490234 15.435126304626465 -0.2876513600349426 0.7990992665290833 593 13
39.47810745239258 19.450098037719727 -0.3657746911048889 0.8997216820716858 0 3
39.479454040527344 19.2310733795166 -0.3649822771549225 0.9016714692115784 0 3
39.48078536987305 19.012968063354492 -0.36420226097106934 0.9035995602607727 0 3
39.43281173706055 18.77230453491211 -0.3630305528640747 0.9055169224739075 0 3
39.509159088134766 18.591611862182617 -0.3629100024700165 0.9074112772941589 0 3
39.51048278808594 18.3760929107666 -0.36216047406196594 0.9092881083488464 0 3
39.511802673339844 18.161455154418945 -0.3614230155944824 0.9111465811729431 0 3
39.51311111450195 17.947734832763672 -0.3606976270675659 0.912986695766449 0 3
39.5144157409668 17.734813690185547 -0.35997146368026733 0.9148085713386536 0 3
39.92662811279297 17.704980850219727 -0.363006591796875 0.3997567892074585 0 3
40.42203903198242 17.7080078125 -0.36677640676498413 0.39563921093940735 0 3
40.92786407470703 17.71109390258789 -0.37064483761787415 0.39151379466056824 0 3
41.44451141357422 17.714258193969727 -0.37460097670555115 0.3873801827430725 0 3
41.972293853759766 17.717479705810547 -0.37864989042282104 0.38323894143104553 0 3
42.51165008544922 17.720781326293945 -0.3827987611293793 0.37908974289894104 0 3
43.06292724609375 17.724159240722656 -0.3870301842689514 0.37493324279785156 0 3
43.62653350830078 17.72760772705078 -0.39138397574424744 0.37076935172080994 0 3
44.20299530029297 17.73113250732422 -0.3958410620689392 0.3665977120399475 0 3
44.44207763671875 17.59587860107422 -0.39726942777633667 0.9320060014724731 0 2
44.44349670410156 17.36610221862793 -0.3965817093849182 0.9336232542991638 0 2
38.47380828857422 14.834814071655273 -0.34270599484443665 0.9352185726165771 0 3
38.475013732910156 14.6372652053833 -0.34212324023246765 0.936798095703125 0 3
38.47621536254883 14.440390586853027 -0.3415662944316864 0.938358724117279 0 3
38.4774169921875 14.244150161743164 -0.34100326895713806 0.9399005770683289 0 3
38.47861862182617 14.048544883728027 -0.34044936299324036 0.9414235353469849 0 3
38.47980880737305 13.853622436523438 -0.3399101197719574 0.9429273009300232 0 3
38.48099899291992 13.659276962280273 -0.33937591314315796 0.9444122314453125 0 3
38.482181549072266 13.465537071228027 -0.3388514518737793 0.9458779692649841 0 3
38.48336410522461 13.272392272949219 -0.3383319079875946 0.947324812412262 0 3
38.48454284667969 13.079813957214355 -0.3378221094608307 0.9487524628639221 0 3
38.4857177734375 12.887812614440918 -0.33732694387435913 0.9501612782478333 0 3
38.48688888549805 12.69643497467041 -0.3368315100669861 0.9515505433082581 0 3
38.48805618286133 12.505576133728027 -0.33634552359580994 0.9529207944869995 0 3
38.48922348022461 12.315253257751465 -0.33587387204170227 0.9542717933654785 0 3
38.49038314819336 12.125458717346191 -0.33540207147598267 0.955603837966919 0 3
38.49154281616211 11.93619155883789 -0.33494430780410767 0.9569164514541626 0 3
38.49269485473633 11.747431755065918 -0.3344908058643341 0.9582098722457886 0 3
38.49384689331055 11.559199333190918 -0.3340469300746918 0.9594839215278625 0 3
38.4949951171875 11.371503829956055 -0.3336120545864105 0.9607385993003845 0 3
38.49614334106445 11.184208869934082 -0.33318373560905457 0.9619740843772888 0 3
38.497283935546875 10.997431755065918 -0.33276259899139404 0.963189959526062 0 3
38.49842834472656 10.811083793640137 -0.3323439061641693 0.9643868207931519 0 3
38.49956130981445 10.625244140625 -0.33194199204444885 0.9655638933181763 0 3
38.500694274902344 10.439824104309082 -0.33153867721557617 0.9667217135429382 0 3
38.5018310546875 10.254853248596191 -0.3311581313610077 0.9678599238395691 0 3
38.50295639038086 10.070302963256836 -0.33077606558799744 0.968978762626648 0 3
38.50408172607422 9.886220932006836 -0.3303980827331543 0.9700779318809509 0 3
38.50520324707031 9.702509880065918 -0.33002912998199463 0.9711577892303467 0 3
