ply
format ascii 1.0
element vertex 610
property float32 x
property float32 y
property float32 z
property float32 CosAngle
property uint32 ObjIdx
property uint32 ObjTag
end_header
12.520448684692383 -8.024725914001465 7.010014057159424 0.6128209233283997 0 3
12.423847198486328 -8.041777610778809 6.9760942459106445 0.6158009171485901 0 3
12.328242301940918 -8.058612823486328 6.942640781402588 0.6187680959701538 0 3
12.233534812927246 -8.075273513793945 6.909638404846191 0.6217236518859863 0 3
12.1397066116333 -8.091796875 6.877087116241455 0.6246660351753235 0 3
12.046757698059082 -8.108183860778809 6.844986438751221 0.6275956630706787 0 3
11.836288452148438 -8.0440034866333 6.745859146118164 0.630513072013855 0 3
11.746015548706055 -8.059863090515137 6.714922904968262 0.6334178447723389 0 3
11.656503677368164 -8.075644493103027 6.684409141540527 0.6363728046417236 0 3
11.567792892456055 -8.091288566589355 6.654303550720215 0.6392519474029541 0 3
11.479921340942383 -8.106738090515137 6.624604225158691 0.6421179175376892 0 3
11.491991996765137 -8.192831993103027 6.65273904800415 0.6345517635345459 0 3
11.50771427154541 -8.282206535339355 6.683289527893066 0.6316512823104858 0 3
11.523612976074219 -8.372382164001465 6.714260101318359 0.6287375688552856 0 3
11.539589881896973 -8.463418006896973 6.745651721954346 0.6258120536804199 0 3
11.555761337280273 -8.555273056030273 6.777470111846924 0.6228737235069275 0 3
11.572089195251465 -8.6480073928833 6.809732913970947 0.6199224591255188 0 3
11.588515281677246 -8.741679191589355 6.842449188232422 0.6169589757919312 0 3
11.605155944824219 -8.836211204528809 6.875613212585449 0.6139828562736511 0 3
11.62197208404541 -8.931659698486328 6.909238338470459 0.6109946370124817 0 3
11.638886451721191 -9.028066635131836 6.943333625793457 0.6079940795898438 0 3
11.656034469604492 -9.125429153442383 6.97791051864624 0.6049812436103821 0 3
11.67333984375 -9.223769187927246 7.012983798980713 0.6019561290740967 0 3
11.690800666809082 -9.323124885559082 7.048543930053711 0.5989193320274353 0 3
11.708456993103027 -9.423457145690918 7.084609031677246 0.5958703756332397 0 3
11.72630786895752 -9.524824142456055 7.121194362640381 0.5928086638450623 0 3
11.744336128234863 -9.627264976501465 7.158306121826172 0.5897356271743774 0 3
11.762518882751465 -9.73080062866211 7.195949077606201 0.5866503119468689 0 3
11.78091812133789 -9.835429191589355 7.23413610458374 0.5835539698600769 0 3
11.799511909484863 -9.941132545471191 7.272882461547852 0.5804448127746582 0 3
11.818320274353027 -10.04800796508789 7.312191486358643 0.5773245692253113 0 3
11.83730411529541 -10.156073570251465 7.352077960968018 0.5741924047470093 0 3
11.856523513793945 -10.265233993530273 7.392545223236084 0.5710492134094238 0 3
11.875956535339355 -10.375702857971191 7.433611869812012 0.5678941607475281 0 3
11.895586013793945 -10.487382888793945 7.475292205810547 0.5647276043891907 0 3
11.91542911529541 -10.600332260131836 7.517598628997803 0.5615500807762146 0 3
11.935526847839355 -10.714530944824219 7.560532093048096 0.5583609342575073 0 3
11.955878257751465 -10.830039024353027 7.604122161865234 0.5551604628562927 0 3
11.976425170898438 -10.946913719177246 7.648359298706055 0.5519493818283081 0 3
11.997245788574219 -11.065155982971191 7.693286418914795 0.5487264394760132 0 3
12.018241882324219 -11.184823989868164 7.7388834953308105 0.5454934239387512 0 3
12.039569854736328 -11.30589771270752 7.785194396972656 0.5422484278678894 0 3
12.0610933303833 -11.428418159484863 7.832211971282959 0.5389931201934814 0 3
12.082929611206055 -11.552421569824219 7.8799662590026855 0.5357269644737244 0 3
12.104999542236328 -11.677988052368164 7.928466796875 0.5324495434761047 0 3
12.12734317779541 -11.805058479309082 7.977725028991699 0.5291618704795837 0 3
12.149980545043945 -11.933769226074219 8.027764320373535 0.5258632302284241 0 3
12.1729097366333 -12.064082145690918 8.078601837158203 0.5225545167922974 0 3
12.58968734741211 12.58968734741211 8.033697128295898 0.8068678975105286 0 9
12.671405792236328 12.5581636428833 8.049793243408203 0.8052549362182617 0 9
12.7534761428833 12.52652359008789 8.06611156463623 0.8036254048347473 0 9
12.835859298706055 12.494765281677246 8.082674980163574 0.8019788265228271 0 9
12.866425514221191 12.412558555603027 8.066765785217285 0.28806936740875244 0 9
12.84244155883789 12.27865219116211 8.017135620117188 0.2898530066013336 0 9
12.81851577758789 12.146093368530273 7.968062400817871 0.2916377782821655 0 9
12.7944917678833 12.014823913574219 7.919548034667969 0.293424129486084 0 9
12.770526885986328 11.884902000427246 7.871584415435791 0.295212060213089 0 9
12.74642562866211 11.756152153015137 7.824154376983643 0.2970016300678253 0 9
12.722382545471191 11.62874984741211 7.777257442474365 0.29879260063171387 0 9
13.366073608398438 12.107460975646973 8.137454986572266 0.318545937538147 0 9
12.575605392456055 11.289101600646973 7.625301837921143 0.3292255103588104 0 9
12.775253295898438 11.365175247192383 7.715342998504639 0.3253832757472992 0 9
12.979628562927246 11.443085670471191 7.807685375213623 0.32153522968292236 0 9
13.18896484375 11.52285099029541 7.902420997619629 0.3176800012588501 0 9
13.403417587280273 11.6045503616333 7.999635219573975 0.3138198256492615 0 9
13.623261451721191 11.688300132751465 8.099428176879883 0.30995309352874756 0 9
13.848593711853027 11.77415943145752 8.201908111572266 0.3060804307460785 0 9
14.015409469604492 11.808027267456055 8.269232749938965 0.7146162986755371 0 9
14.012324333190918 11.6983003616333 8.23635196685791 0.7174692153930664 0 9
14.009218215942383 11.5894136428833 8.203871726989746 0.7203100323677063 0 9
14.006113052368164 11.481367111206055 8.17177677154541 0.7231391668319702 0 9
14.002909660339355 11.374042510986328 8.140066146850586 0.7259563207626343 0 9
13.999706268310547 11.267539024353027 8.10872745513916 0.7287615537643433 0 9
13.996503829956055 11.161816596984863 8.077766418457031 0.7315548062324524 0 9
13.993261337280273 11.056875228881836 8.047176361083984 0.7343357801437378 0 9
13.98997974395752 10.95263671875 8.016942977905273 0.7371050119400024 0 9
13.986699104309082 10.8491792678833 7.9870734214782715 0.739861786365509 0 9
13.983378410339355 10.74642562866211 7.957550525665283 0.7426067590713501 0 9
13.980019569396973 10.644393920898438 7.92838191986084 0.745339035987854 0 9
13.976659774780273 10.543066024780273 7.8995537757873535 0.7480588555335999 0 9
13.973241806030273 10.4424409866333 7.871064186096191 0.750766396522522 0 9
13.969804763793945 10.342499732971191 7.8429083824157715 0.7534615993499756 0 9
15.124062538146973 11.092304229736328 8.462883949279785 0.8495423793792725 0 9
15.194999694824219 11.039804458618164 8.474790573120117 0.84834885597229 0 9
15.266074180603027 10.987109184265137 8.486837387084961 0.8471446633338928 0 9
15.337225914001465 10.9341402053833 8.499030113220215 0.8459295034408569 0 9
15.408475875854492 10.880995750427246 8.511361122131348 0.8447034955024719 0 9
20.151580810546875 14.095312118530273 11.096306800842285 0.946548581123352 0 9
20.24296760559082 14.024374961853027 11.111856460571289 0.9452237486839294 0 9
20.334550857543945 13.953164100646973 11.127643585205078 0.9438831806182861 0 9
17.209491729736328 11.695566177368164 9.388705253601074 0.9153553247451782 0 9
17.449766159057617 11.744726181030273 9.490922927856445 0.743187427520752 0 9
15.58138656616211 10.385878562927246 8.449286460876465 0.6433755159378052 0 9
15.66673755645752 10.341504096984863 8.470320701599121 0.6623090505599976 0 9
15.780390739440918 10.315176010131836 8.506648063659668 0.6594805121421814 0 9
15.895058631896973 10.288593292236328 8.543468475341797 0.656638503074646 0 9
16.010683059692383 10.261757850646973 8.580779075622559 0.6537832617759705 0 9
16.127304077148438 10.23470687866211 8.618585586547852 0.650915265083313 0 9
16.244998931884766 10.20742130279541 8.656905174255371 0.648033857345581 0 9
16.363710403442383 10.179862976074219 8.69573974609375 0.6451398134231567 0 9
16.48353385925293 10.152070045471191 8.73511028289795 0.6422322988510132 0 9
16.604413986206055 10.124003410339355 8.775005340576172 0.6393123865127563 0 9
16.726444244384766 10.095722198486328 8.815445899963379 0.6363794803619385 0 9
16.849512100219727 10.067109107971191 8.856444358825684 0.6334336996078491 0 9
16.973846435546875 10.038300514221191 8.898001670837402 0.6304753422737122 0 9
17.099334716796875 10.009199142456055 8.940131187438965 0.6275039911270142 0 9
17.225955963134766 9.979784965515137 8.982839584350586 0.6245207190513611 0 9
17.26822280883789 9.901015281677246 8.98161792755127 0.7853302359580994 0 9
17.25697135925293 9.791953086853027 8.952828407287598 0.787855327129364 0 9
17.24578094482422 9.683515548706055 8.924376487731934 0.790367603302002 0 9
17.234569549560547 9.575761795043945 8.89624309539795 0.7928666472434998 0 9
17.223358154296875 9.468612670898438 8.868438720703125 0.7953527569770813 0 9
17.212186813354492 9.36214828491211 8.840950012207031 0.7978253960609436 0 9
17.20099639892578 9.256230354309082 8.8137788772583 0.8002849817276001 0 9
17.189804077148438 9.150957107543945 8.786920547485352 0.8027311563491821 0 9
17.178632736206055 9.046308517456055 8.7603759765625 0.805163562297821 0 9
17.167518615722656 8.942265510559082 8.73413372039795 0.8075830340385437 0 9
17.441776275634766 8.985858917236328 8.853053092956543 0.6719956398010254 0 9
17.481679916381836 8.907343864440918 8.852924346923828 0.6720051765441895 0 9
17.521678924560547 8.828886985778809 8.85302734375 0.6719977259635925 0 9
17.561737060546875 8.75048828125 8.85334300994873 0.6719735264778137 0 9
17.60189437866211 8.672089576721191 8.853889465332031 0.6719322800636292 0 9
19.612323760986328 9.553457260131836 9.843483924865723 0.7576440572738647 0 9
23.218612670898438 11.181464195251465 11.628175735473633 0.7692933082580566 0 9
23.677011489868164 11.271581649780273 11.832293510437012 0.7325131893157959 0 9
23.67644500732422 11.141288757324219 11.80690860748291 0.7340875267982483 0 9
23.599863052368164 10.847578048706055 11.71969223022461 0.2643096446990967 0 9
23.33167839050293 10.5977144241333 11.56277084350586 0.2678966522216797 0 9
30.923728942871094 13.71273422241211 15.263646125793457 0.9798176288604736 0 9
30.97509765625 13.569511413574219 15.258810997009277 0.9801284670829773 0 9
31.02634620666504 13.426288604736328 15.254212379455566 0.980424165725708 0 9
31.077383041381836 13.283124923706055 15.24984073638916 0.980704665184021 0 9
31.128280639648438 13.139960289001465 15.245711326599121 0.9809703826904297 0 9
31.178964614868164 12.996796607971191 15.241826057434082 0.9812210202217102 0 9
31.22945213317871 12.853612899780273 15.238161087036133 0.981456458568573 0 9
31.279842376708984 12.7105073928833 15.234734535217285 0.9816768765449524 0 9
31.329999923706055 12.567362785339355 15.231545448303223 0.9818823337554932 0 9
30.653417587280273 12.136542320251465 14.875996589660645 0.5711471438407898 0 9
30.871679306030273 12.06298828125 14.955496788024902 0.5681112408638 0 9
31.092050552368164 11.98851490020752 15.036036491394043 0.5650678873062134 0 9
31.314550399780273 11.9131441116333 15.117636680603027 0.5620181560516357 0 9
31.53923797607422 11.836874961853027 15.200300216674805 0.5589616894721985 0 9
31.627460479736328 11.708319664001465 15.2173433303833 0.9827991127967834 0 9
31.676464080810547 11.56509780883789 15.215791702270508 0.9828993082046509 0 9
31.725332260131836 11.421796798706055 15.214478492736816 0.982984185218811 0 9
31.245683670043945 11.090995788574219 14.960432052612305 0.10258658230304718 0 9
31.822538375854492 11.135175704956055 15.21254825592041 0.9831088781356812 0 9
31.870878219604492 10.991796493530273 15.211934089660645 0.9831488132476807 0 9
32.19736099243164 10.782011032104492 15.32094955444336 0.3562172055244446 0 9
32.042205810546875 10.5703706741333 15.224398612976074 0.35847651958465576 0 9
31.889413833618164 10.361503601074219 15.12954330444336 0.3607241213321686 0 9
31.738866806030273 10.1553316116333 15.036349296569824 0.3629598617553711 0 9
31.590566635131836 9.95181655883789 14.944771766662598 0.36518394947052 0 9
31.444414138793945 9.750859260559082 14.854776382446289 0.3673962354660034 0 9
18.546327590942383 -6.865742206573486 8.92343521118164 0.4916813373565674 0 3
18.383848190307617 -6.899609088897705 8.860079765319824 0.4951969087123871 0 3
18.223691940307617 -6.932909965515137 8.79778003692627 0.49870339035987854 0 3
18.06572151184082 -6.965781211853027 8.73652172088623 0.5022004246711731 0 3
17.909881591796875 -6.998183250427246 8.67626667022705 0.505687952041626 0 3
17.75615119934082 -7.030156135559082 8.616997718811035 0.5091664791107178 0 3
17.644941329956055 -7.077890396118164 8.578359603881836 0.6204185485839844 0 3
17.49003791809082 -7.10705041885376 8.518471717834473 0.4844186007976532 0 3
17.334178924560547 -7.134491920471191 8.45805835723877 0.48787879943847656 0 3
17.180448532104492 -7.161581993103027 8.398653030395508 0.4913298189640045 0 3
17.028867721557617 -7.18826150894165 8.340248107910156 0.4947706162929535 0 3
16.879413604736328 -7.214609146118164 8.282812118530273 0.49820128083229065 0 3
16.731971740722656 -7.240546703338623 8.22632884979248 0.5016220808029175 0 3
16.585975646972656 -7.26589822769165 8.170486450195312 0.4866829812526703 0 3
16.43843650817871 -7.289413928985596 8.113850593566895 0.4900800287723541 0 3
16.292949676513672 -7.312539100646973 8.058157920837402 0.49339723587036133 0 3
16.1494140625 -7.335429668426514 8.00338077545166 0.4967738687992096 0 3
16.007890701293945 -7.357949256896973 7.949518203735352 0.5001399517059326 0 3
15.868203163146973 -7.380214691162109 7.8965301513671875 0.5034958720207214 0 3
15.730409622192383 -7.402167797088623 7.844405174255371 0.5068413615226746 0 3
15.594452857971191 -7.423847675323486 7.7931365966796875 0.5101760029792786 0 3
15.460253715515137 -7.445253849029541 7.742685794830322 0.5135002732276917 0 3
15.327773094177246 -7.466367244720459 7.693045616149902 0.5168132781982422 0 3
15.196971893310547 -7.487246036529541 7.644195556640625 0.5201159715652466 0 3
15.06787109375 -7.507832050323486 7.596115589141846 0.5234081149101257 0 3
14.94033145904541 -7.528222560882568 7.548793315887451 0.5266869068145752 0 3
14.814472198486328 -7.548320293426514 7.502219200134277 0.529956579208374 0 3
14.653632164001465 -7.54943323135376 7.437865257263184 0.6123353838920593 0 3
14.543496131896973 -7.575448989868164 7.399130821228027 0.6155409216880798 0 3
14.43441390991211 -7.60119104385376 7.360926151275635 0.6187357902526855 0 3
14.326386451721191 -7.626679420471191 7.323239803314209 0.6219199299812317 0 3
14.219491958618164 -7.651835918426514 7.286069869995117 0.6250927448272705 0 3
14.113905906677246 -7.676894187927246 7.249542236328125 0.6792429089546204 0 3
14.018007278442383 -7.706445217132568 7.217974662780762 0.6822130680084229 0 3
13.922870635986328 -7.735722541809082 7.186801433563232 0.6851725578308105 0 3
13.828495979309082 -7.764726161956787 7.155999183654785 0.6881216764450073 0 3
13.734882354736328 -7.793417930603027 7.1255784034729 0.6910593509674072 0 3
13.641972541809082 -7.821874618530273 7.095521926879883 0.693986713886261 0 3
13.541132926940918 -7.845019340515137 7.061315059661865 0.5868329405784607 0 3
13.434276580810547 -7.863828182220459 7.023915767669678 0.5899571776390076 0 3
13.328495979309082 -7.882460594177246 6.987054347991943 0.5930700302124023 0 3
13.223847389221191 -7.900898456573486 6.950709819793701 0.5961708426475525 0 3
13.120311737060547 -7.919120788574219 6.914887428283691 0.5992593765258789 0 3
13.017792701721191 -7.937187194824219 6.879568099975586 0.6023359894752502 0 3
12.916269302368164 -7.955078125 6.844742774963379 0.6054009199142456 0 3
12.815878868103027 -7.972733974456787 6.810408115386963 0.6084527969360352 0 3
12.716425895690918 -7.990273475646973 6.776552200317383 0.6114926934242249 0 3
12.617987632751465 -8.007597923278809 6.743162631988525 0.6145203113555908 0 3
12.520487785339355 -8.024765014648438 6.710240840911865 0.6175355911254883 0 3
12.4238862991333 -8.041796684265137 6.677766799926758 0.6205387711524963 0 3
12.328300476074219 -8.058612823486328 6.6457414627075195 0.6235288977622986 0 3
12.23355484008789 -8.075312614440918 6.614151477813721 0.6265071034431458 0 3
12.139765739440918 -8.091835975646973 6.582995891571045 0.6294721364974976 0 3
12.046796798706055 -8.108183860778809 6.5522613525390625 0.6324249505996704 0 3
11.836386680603027 -8.044042587280273 6.457398414611816 0.6354255080223083 0 3
11.74609375 -8.059921264648438 6.427794456481934 0.63835209608078 0 3
11.65658187866211 -8.075702667236328 6.398581504821777 0.6412667036056519 0 3
11.56787109375 -8.091347694396973 6.369764804840088 0.6441673040390015 0 3
11.47998046875 -8.106796264648438 6.341330051422119 0.6470561027526855 0 3
11.4921875 -8.193007469177246 6.368322849273682 0.6394256353378296 0 3
11.507909774780273 -8.282343864440918 6.397568225860596 0.6365023851394653 0 3
11.523788452148438 -8.372499465942383 6.4272141456604 0.6335665583610535 0 3
11.53978443145752 -8.46353530883789 6.457265377044678 0.6306182146072388 0 3
11.555917739868164 -8.555390357971191 6.487726211547852 0.6276571154594421 0 3
11.572265625 -8.648144721984863 6.518606185913086 0.6246840953826904 0 3
11.58876895904541 -8.741777420043945 6.54992151260376 0.6216973066329956 0 3
11.60537052154541 -8.83632755279541 6.58167028427124 0.6186986565589905 0 3
11.622148513793945 -8.931816101074219 6.613861083984375 0.61568683385849 0 3
11.639140129089355 -9.028203010559082 6.646500587463379 0.6126635670661926 0 3
11.656269073486328 -9.125585556030273 6.679600715637207 0.6096276640892029 0 3
11.673554420471191 -9.223906517028809 6.713167190551758 0.6065789461135864 0 3
11.690996170043945 -9.323261260986328 6.7472124099731445 0.6035183668136597 0 3
11.708671569824219 -9.423593521118164 6.781737327575684 0.6004459857940674 0 3
11.726523399353027 -9.524980545043945 6.8167595863342285 0.5973609089851379 0 3
11.744511604309082 -9.627460479736328 6.852288246154785 0.5942637324333191 0 3
11.762734413146973 -9.73095703125 6.888317584991455 0.5911557078361511 0 3
11.78115177154541 -9.835585594177246 6.924877643585205 0.5880345106124878 0 3
11.799726486206055 -9.941328048706055 6.961960792541504 0.5849025249481201 0 3
11.818573951721191 -10.04818344116211 6.999592304229736 0.5817579030990601 0 3
11.837519645690918 -10.156229972839355 7.037769794464111 0.5786020755767822 0 3
11.856738090515137 -10.26546859741211 7.076517105102539 0.5754339694976807 0 3
11.876191139221191 -10.37587833404541 7.115825653076172 0.5722551941871643 0 3
11.895819664001465 -10.487558364868164 7.1557297706604 0.5690637826919556 0 3
11.915702819824219 -10.60048770904541 7.196227073669434 0.5658618807792664 0 3
11.935761451721191 -10.714726448059082 7.237326622009277 0.5626480579376221 0 3
11.956093788146973 -10.830253601074219 7.279046058654785 0.5594235062599182 0 3
11.9766206741333 -10.947148323059082 7.321400165557861 0.5561870336532593 0 3
11.997441291809082 -11.065390586853027 7.364399433135986 0.5529398918151855 0 3
12.018515586853027 -11.184999465942383 7.408055305480957 0.5496812462806702 0 3
12.039804458618164 -11.306093215942383 7.452378749847412 0.5464121699333191 0 3
12.06136703491211 -11.42861270904541 7.4973978996276855 0.5431310534477234 0 3
12.083144187927246 -11.552675247192383 7.543107509613037 0.5398399233818054 0 3
12.10521411895752 -11.678202629089355 7.589532375335693 0.5365375280380249 0 3
12.127577781677246 -11.80533218383789 7.636686325073242 0.5332241058349609 0 3
12.150214195251465 -11.934003829956055 7.684591293334961 0.5299003720283508 0 3
12.173144340515137 -12.06435489654541 7.733262062072754 0.526565670967102 0 3
12.569746017456055 12.56972599029541 7.667932987213135 0.8140987157821655 0 9
12.65126895904541 12.538203239440918 7.683271884918213 0.8124738931655884 0 9
12.733163833618164 12.506562232971191 7.698824882507324 0.8108322620391846 0 9
12.815351486206055 12.474784851074219 7.714606285095215 0.8091737627983093 0 9
12.897890090942383 12.4429292678833 7.730608940124512 0.8074985146522522 0 9
12.980819702148438 12.410917282104492 7.746847152709961 0.8058062195777893 0 9
13.064101219177246 12.378788948059082 7.763312339782715 0.8040973544120789 0 9
13.147753715515137 12.346562385559082 7.780007362365723 0.8023714423179626 0 9
13.23177719116211 12.314179420471191 7.796937465667725 0.8006289601325989 0 9
13.31615161895752 12.281620979309082 7.814113140106201 0.7988696694374084 0 9
12.904276847839355 11.795019149780273 7.541274070739746 0.051540568470954895 0 9
13.421914100646973 12.15804672241211 7.811829566955566 0.9495449662208557 0 9
13.39224624633789 12.022187232971191 7.763059616088867 0.28827106952667236 0 9
12.803808212280273 11.390585899353027 7.392245769500732 0.3270481824874878 0 9
13.009003639221191 11.468945503234863 7.480927467346191 0.32317090034484863 0 9
13.219179153442383 11.549238204956055 7.571907997131348 0.3192882239818573 0 9
13.2725191116333 11.4912109375 7.572837829589844 0.29551196098327637 0 9
13.24267578125 11.361777305603027 7.526653289794922 0.29732540249824524 0 9
13.881484031677246 11.802128791809082 7.859536170959473 0.30760329961776733 0 9
14.113593101501465 11.890722274780273 7.960651874542236 0.3036958873271942 0 9
14.127655982971191 11.794569969177246 7.938652038574219 0.7168510556221008 0 9
14.124042510986328 11.68441390991211 7.907088279724121 0.7197127938270569 0 9
14.120429039001465 11.575078010559082 7.875903129577637 0.7225626111030579 0 9
14.116816520690918 11.466562271118164 7.845090389251709 0.7254003882408142 0 9
14.113104820251465 11.358808517456055 7.814647197723389 0.7282264232635498 0 9
14.109492301940918 11.251914024353027 7.7845683097839355 0.7310402393341064 0 9
14.105780601501465 11.145761489868164 7.754848003387451 0.7338418364524841 0 9
14.10205078125 11.04037094116211 7.7254815101623535 0.7366315126419067 0 9
14.098320007324219 10.935742378234863 7.696465492248535 0.7394084334373474 0 9
14.094531059265137 10.831854820251465 7.667795181274414 0.742173433303833 0 9
14.09072208404541 10.728691101074219 7.639461994171143 0.744925856590271 0 9
14.086953163146973 10.626269340515137 7.6114678382873535 0.74766606092453 0 9
14.083105087280273 10.524531364440918 7.583798885345459 0.7503937482833862 0 9
14.07925796508789 10.423515319824219 7.556455612182617 0.7531083226203918 0 9
15.369921684265137 11.27261734008789 8.221944808959961 0.8421055674552917 0 9
15.442421913146973 11.21957015991211 8.233698844909668 0.8409033417701721 0 9
15.515019416809082 11.16624927520752 8.245596885681152 0.8396902084350586 0 9
15.862421989440918 11.308573722839355 8.403186798095703 0.25190675258636475 0 9
16.133729934692383 11.393163681030273 8.519739151000977 0.31272968649864197 0 9
15.98720645904541 11.182499885559082 8.415786743164062 0.3165926933288574 0 9
15.84414005279541 10.976855278015137 8.314452171325684 0.3204512894153595 0 9
15.70433521270752 10.775996208190918 8.215630531311035 0.32430580258369446 0 9
17.991601943969727 12.227089881896973 9.383377075195312 0.6502445936203003 0 9
20.585721969604492 13.855390548706055 10.703792572021484 0.9698658585548401 0 9
20.63066291809082 13.751503944396973 10.694942474365234 0.9706680774688721 0 9
20.6754093170166 13.647714614868164 10.686306953430176 0.9714527726173401 0 9
17.557598114013672 11.476855278015137 9.048110961914062 0.7507345676422119 0 9
17.545604705810547 11.356972694396973 9.015559196472168 0.7534453272819519 0 9
17.533594131469727 11.2378511428833 8.983392715454102 0.75614333152771 0 9
17.52161979675293 11.119550704956055 8.951597213745117 0.7588286399841309 0 9
17.509687423706055 11.002089500427246 8.920180320739746 0.7615014910697937 0 9
17.497753143310547 10.885332107543945 8.889131546020508 0.7641617059707642 0 9
17.485858917236328 10.76937484741211 8.85843563079834 0.7668094635009766 0 9
17.473983764648438 10.65419864654541 8.828105926513672 0.7694441676139832 0 9
17.462108612060547 10.539746284484863 8.798125267028809 0.7720658779144287 0 9
17.450254440307617 10.426015853881836 8.768491744995117 0.7746751308441162 0 9
17.438457489013672 10.313066482543945 8.739204406738281 0.7772712707519531 0 9
17.426639556884766 10.200819969177246 8.7102632522583 0.7798542976379395 0 9
17.41484260559082 10.089218139648438 8.681647300720215 0.7824243903160095 0 9
17.403085708618164 9.978378295898438 8.653366088867188 0.784981369972229 0 9
17.391307830810547 9.868183135986328 8.625412940979004 0.7875252366065979 0 9
17.379589080810547 9.758651733398438 8.597784996032715 0.7900563478469849 0 9
17.367870330810547 9.649824142456055 8.570472717285156 0.7925736308097839 0 9
17.356151580810547 9.541640281677246 8.543481826782227 0.7950777411460876 0 9
17.344451904296875 9.434062004089355 8.516797065734863 0.7975687384605408 0 9
17.332773208618164 9.3271484375 8.49042797088623 0.800046443939209 0 9
17.321151733398438 9.220878601074219 8.464348793029785 0.8025104403495789 0 9
18.693828582763672 9.844218254089355 9.113454818725586 0.19302046298980713 0 9
18.566776275634766 9.671133041381836 9.030277252197266 0.5982696413993835 0 9
18.708221435546875 9.638300895690918 9.0779447555542 0.5951283574104309 0 9
18.851152420043945 9.60513687133789 9.12629222869873 0.5919755697250366 0 9
23.052186965942383 11.615644454956055 11.134771347045898 0.4249245524406433 0 9
23.310136795043945 11.61474609375 11.234063148498535 0.7668386697769165 0 9
23.289453506469727 11.474257469177246 11.19916820526123 0.7692282199859619 0 9
23.26888656616211 11.33462905883789 11.164712905883789 0.7716025114059448 0 9
23.55550765991211 11.343710899353027 11.27769660949707 0.7401187419891357 0 9
23.55517578125 11.213593482971191 11.253328323364258 0.7417213320732117 0 9
24.59878921508789 11.575312614440918 11.726957321166992 0.7585678100585938 0 9
24.73259735107422 11.502968788146973 11.766031265258789 0.7560489177703857 0 9
24.867225646972656 11.430116653442383 11.805533409118652 0.7535189390182495 0 9
24.104549407958984 10.948808670043945 11.420019149780273 0.2612157464027405 0 9
23.823965072631836 10.692597389221191 11.264265060424805 0.2648281753063202 0 9
23.48990249633789 10.416269302368164 11.084081649780273 0.16365765035152435 0 9
23.009490966796875 10.07992172241211 10.83593463897705 0.16740553081035614 0 9
23.024608612060547 9.963632583618164 10.8218994140625 0.2756534814834595 0 9
22.771249771118164 9.732871055603027 10.682173728942871 0.2792589068412781 0 9
31.45964813232422 13.2798433303833 14.729864120483398 0.9777827858924866 0 9
30.31576156616211 12.63695240020752 14.167585372924805 0.6219960451126099 0 9
30.24138641357422 12.446952819824219 14.106571197509766 0.6496596932411194 0 9
30.39497947692871 12.350956916809082 14.152238845825195 0.6475633382797241 0 9
30.54976463317871 12.254374504089355 14.198539733886719 0.6454516649246216 0 9
30.705604553222656 12.157187461853027 14.245476722717285 0.6433250308036804 0 9
30.86261558532715 12.059432983398438 14.293058395385742 0.6411833763122559 0 9
31.020761489868164 11.961015701293945 14.341293334960938 0.6390267610549927 0 9
31.180097579956055 11.862011909484863 14.390207290649414 0.6368547677993774 0 9
31.340604782104492 11.762304306030273 14.439780235290527 0.6346683502197266 0 9
31.435935974121094 11.637421607971191 14.459478378295898 0.5372666716575623 0 9
31.289119720458984 11.423632621765137 14.368231773376465 0.5406789779663086 0 9
31.143983840942383 11.212499618530273 14.27833366394043 0.544082760810852 0 9
31.000526428222656 11.003984451293945 14.189766883850098 0.5474787950515747 0 9
30.858671188354492 10.7979097366333 14.102499961853027 0.5508666038513184 0 9
30.718339920043945 10.594316482543945 14.016510963439941 0.5542461276054382 0 9
31.486093521118164 10.7012300491333 14.344768524169922 0.3663911521434784 0 9
31.338085174560547 10.494257926940918 14.255760192871094 0.3686787188053131 0 9
31.192323684692383 10.289999961853027 14.168292999267578 0.37095457315444946 0 9
31.048709869384766 10.088358879089355 14.082345962524414 0.3732185959815979 0 9
19.629316329956055 -6.671425819396973 8.94293212890625 0.4418110251426697 0 3
19.440410614013672 -6.70470666885376 8.870490074157715 0.4454191327095032 0 3
19.25452995300293 -6.737460613250732 8.799383163452148 0.44901853799819946 0 3
19.081483840942383 -6.773163795471191 8.734099388122559 0.5137505531311035 0 3
18.922401428222656 -6.8125 8.675204277038574 0.517238199710846 0 3
18.765487670898438 -6.851288795471191 8.617264747619629 0.5207160115242004 0 3
18.647499084472656 -6.903203010559082 8.577228546142578 0.46336618065834045 0 3
18.474647521972656 -6.933671951293945 8.511957168579102 0.4669191837310791 0 3
18.304452896118164 -6.963632583618164 8.447839736938477 0.4704629182815552 0 3
18.136737823486328 -6.9931640625 8.384841918945312 0.47393274307250977 0 3
17.97150421142578 -7.022284984588623 8.322942733764648 0.4774670898914337 0 3
17.8087100982666 -7.050937175750732 8.262117385864258 0.4809821844100952 0 3
17.648221969604492 -7.079237937927246 8.20233154296875 0.48448801040649414 0 3
17.487323760986328 -7.105937480926514 8.1422758102417 0.4703115224838257 0 3
17.32697296142578 -7.131503582000732 8.082427024841309 0.47379425168037415 0 3
17.168886184692383 -7.156757831573486 8.023606300354004 0.4771997630596161 0 3
17.013164520263672 -7.181621074676514 7.9658050537109375 0.48066240549087524 0 3
16.859628677368164 -7.20617151260376 7.908990383148193 0.48411521315574646 0 3
16.70833969116211 -7.230331897735596 7.853155136108398 0.4875575602054596 0 3
16.559160232543945 -7.254159927368164 7.798249244689941 0.4909901022911072 0 3
16.411991119384766 -7.277714729309082 7.74426794052124 0.49441245198249817 0 3
16.26691436767578 -7.300878524780273 7.691193580627441 0.49782446026802063 0 3
16.123807907104492 -7.323769569396973 7.638997554779053 0.5012259483337402 0 3
15.982694625854492 -7.346347332000732 7.587664604187012 0.5046167969703674 0 3
15.843398094177246 -7.368671894073486 7.537171840667725 0.5079973340034485 0 3
15.705976486206055 -7.390664100646973 7.487497329711914 0.511367678642273 0 3
15.537050247192383 -7.396543025970459 7.422731876373291 0.5908967852592468 0 3
15.41748046875 -7.424648284912109 7.381439208984375 0.5942021608352661 0 3
15.299139976501465 -7.452460765838623 7.340735912322998 0.5974971652030945 0 3
15.18212890625 -7.479921817779541 7.300605773925781 0.6007810235023499 0 3
15.06630802154541 -7.50710916519165 7.26105260848999 0.6040540933609009 0 3
14.959355354309082 -7.537792682647705 7.225734233856201 0.6562827825546265 0 3
14.855976104736328 -7.569491863250732 7.192135334014893 0.6593486070632935 0 3
14.7534761428833 -7.600878715515137 7.158961772918701 0.6624040603637695 0 3
14.651874542236328 -7.631913661956787 7.126201629638672 0.6654495000839233 0 3
14.55111312866211 -7.662636756896973 7.09384822845459 0.6684840321540833 0 3
14.439433097839355 -7.686816215515137 7.056160926818848 0.5655477046966553 0 3
14.322714805603027 -7.707382678985596 7.0159502029418945 0.568789005279541 0 3
14.207304000854492 -7.727714538574219 6.97634220123291 0.5720183849334717 0 3
14.093183517456055 -7.747812271118164 6.9373087882995605 0.5752362608909607 0 3
13.980390548706055 -7.767675399780273 6.898860454559326 0.5784424543380737 0 3
13.868769645690918 -7.787323951721191 6.860964775085449 0.5816376209259033 0 3
13.758418083190918 -7.80675745010376 6.823625564575195 0.5848203897476196 0 3
13.649218559265137 -7.825995922088623 6.786821365356445 0.5879915952682495 0 3
13.402949333190918 -7.764941215515137 6.681639194488525 0.5959342122077942 0 3
13.297734260559082 -7.783905982971191 6.646535396575928 0.5990816950798035 0 3
13.193613052368164 -7.802675724029541 6.611930847167969 0.6022173166275024 0 3
13.09056568145752 -7.821269512176514 6.577816009521484 0.6053403615951538 0 3
12.988574028015137 -7.839609146118164 6.54418420791626 0.6084516048431396 0 3
12.887617111206055 -7.857851505279541 6.511018753051758 0.6115503907203674 0 3
12.786640167236328 -7.875175476074219 6.477783679962158 0.6044381856918335 0 3
12.686113357543945 -7.892011642456055 6.444736957550049 0.6075378060340881 0 3
12.648378372192383 -7.947519302368164 6.443639755249023 0.6812005639076233 0 3
12.618026733398438 -8.007616996765137 6.446396350860596 0.6190425157546997 0 3
12.520526885986328 -8.02480411529541 6.414919376373291 0.6220801472663879 0 3
12.423945426940918 -8.04183578491211 6.383874416351318 0.6251050233840942 0 3
12.328320503234863 -8.0586519241333 6.353262424468994 0.6281174421310425 0 3
12.233613014221191 -8.075312614440918 6.323065280914307 0.6311171650886536 0 3
12.139784812927246 -8.091875076293945 6.293280601501465 0.6341039538383484 0 3
12.046875 -8.108222007751465 6.263899803161621 0.6370784044265747 0 3
11.836464881896973 -8.04410171508789 6.173238277435303 0.6400985717773438 0 3
11.746171951293945 -8.059980392456055 6.144932746887207 0.6430469155311584 0 3
11.656660079956055 -8.075761795043945 6.117002010345459 0.6459828615188599 0 3
11.567949295043945 -8.091386795043945 6.089455604553223 0.6489055156707764 0 3
11.480077743530273 -8.106874465942383 6.062275409698486 0.651814877986908 0 3
11.492383003234863 -8.193124771118164 6.088139057159424 0.6441220641136169 0 3
11.508085250854492 -8.282461166381836 6.116095542907715 0.6411774754524231 0 3
11.5239839553833 -8.372655868530273 6.144434452056885 0.6382206678390503 0 3
11.539960861206055 -8.463652610778809 6.173164367675781 0.6352503895759583 0 3
11.556132316589355 -8.55556583404541 6.202286243438721 0.6322677135467529 0 3
11.572441101074219 -8.648300170898438 6.231810092926025 0.629271924495697 0 3
11.588945388793945 -8.741913795471191 6.26174259185791 0.6262634992599487 0 3
11.605566024780273 -8.836503982543945 6.292093276977539 0.623242974281311 0 3
11.622363090515137 -8.931933403015137 6.322870254516602 0.6202095746994019 0 3
11.63931655883789 -9.028359413146973 6.354074001312256 0.6171635985374451 0 3
11.656425476074219 -9.125761985778809 6.385721683502197 0.6141048073768616 0 3
11.67372989654541 -9.224101066589355 6.417816162109375 0.6110340356826782 0 3
11.691229820251465 -9.323417663574219 6.450361251831055 0.6079514026641846 0 3
11.708867073059082 -9.423789024353027 6.483373165130615 0.6048557162284851 0 3
11.726698875427246 -9.525156021118164 6.516846179962158 0.6017485857009888 0 3
11.744726181030273 -9.627616882324219 6.550810813903809 0.5986286997795105 0 3
11.762909889221191 -9.731152534484863 6.585259437561035 0.5954970717430115 0 3
11.781328201293945 -9.835761070251465 6.620209217071533 0.5923535227775574 0 3
11.799921989440918 -9.941503524780273 6.65566349029541 0.5891977548599243 0 3
11.818730354309082 -10.048378944396973 6.691640377044678 0.586030125617981 0 3
11.83773422241211 -10.15640640258789 6.728143692016602 0.5828512907028198 0 3
11.85693359375 -10.265664100646973 6.765178203582764 0.5796603560447693 0 3
11.876386642456055 -10.376073837280273 6.80275821685791 0.5764579772949219 0 3
11.896015167236328 -10.487753868103027 6.840908527374268 0.5732432007789612 0 3
11.915898323059082 -10.600703239440918 6.87962532043457 0.5700174570083618 0 3
11.935996055603027 -10.714921951293945 6.918920040130615 0.5667800307273865 0 3
11.956327438354492 -10.830449104309082 6.958806037902832 0.5635313987731934 0 3
11.976874351501465 -10.947343826293945 6.999296188354492 0.5602712631225586 0 3
11.997655868530273 -11.065605163574219 7.040409564971924 0.5569993257522583 0 3
12.018691062927246 -11.185234069824219 7.082137107849121 0.553717315196991 0 3
12.040019035339355 -11.30630874633789 7.124516487121582 0.5504239797592163 0 3
12.061562538146973 -11.428847312927246 7.167547225952148 0.5471194386482239 0 3
12.08339786529541 -11.552870750427246 7.21125602722168 0.5438035130500793 0 3
12.10546875 -11.678437232971191 7.2556376457214355 0.5404768586158752 0 3
12.127812385559082 -11.805526733398438 7.300714015960693 0.537139356136322 0 3
12.150429725646973 -11.934277534484863 7.346510887145996 0.5337908267974854 0 3
12.1733980178833 -12.064570426940918 7.39304256439209 0.530431866645813 0 3
12.471484184265137 12.471445083618164 7.262709617614746 0.617378830909729 0 9
12.572949409484863 12.460546493530273 7.28916072845459 0.6151387691497803 0 9
12.675214767456055 12.449647903442383 7.315968990325928 0.6128840446472168 0 9
12.778261184692383 12.438672065734863 7.343159198760986 0.610615074634552 0 9
12.877635955810547 12.42333984375 7.368161678314209 0.8144581317901611 0 9
12.960390090942383 12.391366958618164 7.383605003356934 0.8127539157867432 0 9
13.043476104736328 12.359257698059082 7.399277210235596 0.811032772064209 0 9
13.126933097839355 12.327011108398438 7.415162563323975 0.8092950582504272 0 9
12.591972351074219 11.718729972839355 7.083200454711914 0.05275142192840576 0 9
13.2949800491333 12.262089729309082 7.4476141929626465 0.8057687282562256 0 9
13.379570007324219 12.229453086853027 7.46418571472168 0.8039802312850952 0 9
13.464550018310547 12.19667911529541 7.4809794425964355 0.8021753430366516 0 9
13.514081954956055 12.131562232971191 7.47816276550293 0.9535546898841858 0 9
13.553886413574219 12.057909965515137 7.470180511474609 0.9545738697052002 0 9
13.627167701721191 12.013964653015137 7.4807634353637695 0.8497005701065063 0 9
13.2490234375 11.575331687927246 7.244605541229248 0.32080814242362976 0 9
13.465253829956055 11.658085823059082 7.334144592285156 0.31689131259918213 0 9
13.68685531616211 11.742871284484863 7.42606782913208 0.31296873092651367 0 9
13.914081573486328 11.82982349395752 7.5204620361328125 0.3090403974056244 0 9
13.928359031677246 11.734667778015137 7.499636173248291 0.2868571877479553 0 9
13.892265319824219 11.598066329956055 7.452112197875977 0.28868651390075684 0 9
13.85634708404541 11.462968826293945 7.405158042907715 0.2905169725418091 0 9
13.820507049560547 11.329218864440918 7.358767032623291 0.2923484742641449 0 9
13.784843444824219 11.196894645690918 7.312925338745117 0.29418104887008667 0 9
14.226757049560547 11.450273513793945 7.5200514793396 0.727490246295929 0 9
14.222617149353027 11.34212875366211 7.490872859954834 0.7303241491317749 0 9
14.218437194824219 11.23476505279541 7.462045192718506 0.7331454753875732 0 9
14.214238166809082 11.128202438354492 7.433561325073242 0.7359542846679688 0 9
14.210058212280273 11.022440910339355 7.405421733856201 0.7387509942054749 0 9
14.205839157104492 10.917402267456055 7.3776164054870605 0.7415353059768677 0 9
14.201601028442383 10.813105583190918 7.350146293640137 0.7443071603775024 0 9
14.197362899780273 10.709550857543945 7.322997093200684 0.7470666170120239 0 9
14.19310474395752 10.606757164001465 7.296168804168701 0.7498133182525635 0 9
14.188827514648438 10.504648208618164 7.269661903381348 0.7525471448898315 0 9
14.184550285339355 10.40322208404541 7.243468284606934 0.755268931388855 0 9
17.071523666381836 12.40316390991211 8.689221382141113 0.6750367879867554 0 9
15.30492115020752 11.015058517456055 7.764791488647461 0.26207542419433594 0 9
15.572031021118164 11.101542472839355 7.874955177307129 0.2584091126918793 0 9
15.846933364868164 11.190605163574219 7.988494873046875 0.25473636388778687 0 9
16.13001823425293 11.282362937927246 8.10559368133545 0.2510559856891632 0 9
16.080175399780273 11.14037036895752 8.055342674255371 0.3179683983325958 0 9
15.935487747192383 10.934589385986328 7.958193778991699 0.3218500018119812 0 9
15.794159889221191 10.733691215515137 7.86346960067749 0.32572701573371887 0 9
15.656015396118164 10.537402153015137 7.771090984344482 0.3295990824699402 0 9
18.16142463684082 12.105644226074219 8.987622261047363 0.6526247262954712 0 9
20.772401809692383 13.711737632751465 10.249163627624512 0.973717451095581 0 9
20.81722640991211 13.607597351074219 10.241040229797363 0.9744899868965149 0 9
20.8619327545166 13.503554344177246 10.233118057250977 0.9752447605133057 0 9
20.59783172607422 13.201835632324219 10.07441520690918 0.9303780198097229 0 9
20.88472557067871 13.253847122192383 10.185538291931152 0.4946100413799286 0 9
17.64972686767578 11.090058326721191 8.583462715148926 0.7607710361480713 0 9
16.279296875 10.12734317779541 7.894805908203125 0.7204738855361938 0 9
17.624765396118164 10.854941368103027 8.523579597473145 0.7661160230636597 0 9
17.61226463317871 10.738515853881836 8.494161605834961 0.7687693238258362 0 9
17.599863052368164 10.622909545898438 8.465089797973633 0.7714096903800964 0 9
17.587440490722656 10.508027076721191 8.436357498168945 0.7740369439125061 0 9
17.575077056884766 10.393847465515137 8.407958030700684 0.7766512632369995 0 9
17.562694549560547 10.28042984008789 8.379890441894531 0.7792525887489319 0 9
17.550390243530273 10.167753219604492 8.35214900970459 0.7818408012390137 0 9
17.5380859375 10.055781364440918 8.324731826782227 0.7844157218933105 0 9
17.525819778442383 9.944472312927246 8.297633171081543 0.7869776487350464 0 9
17.513534545898438 9.833867073059082 8.270846366882324 0.789526104927063 0 9
17.50130844116211 9.723944664001465 8.244373321533203 0.7920612692832947 0 9
17.489042282104492 9.614686965942383 8.218206405639648 0.7945832014083862 0 9
20.64794921875 11.230917930603027 9.67879581451416 0.7512993812561035 0 9
20.623319625854492 11.097851753234863 9.643814086914062 0.7540245652198792 0 9
20.598846435546875 10.965761184692383 9.6092529296875 0.7567366361618042 0 9
20.998476028442383 11.057831764221191 9.77243709564209 0.7654210329055786 0 9
21.019512176513672 10.948710441589355 9.759252548217773 0.7664552927017212 0 9
22.204530715942383 11.439570426940918 10.285512924194336 0.5190637111663818 0 9
22.377166748046875 11.401718139648438 10.341678619384766 0.5162448287010193 0 9
21.36310577392578 10.764531135559082 9.850576400756836 0.2223505973815918 0 9
22.72849464416504 11.324921607971191 10.45661735534668 0.5105700492858887 0 9
22.90720558166504 11.285917282104492 10.51544189453125 0.5077139139175415 0 9
23.08806610107422 11.246542930603027 10.575193405151367 0.5048453211784363 0 9
23.271093368530273 11.206757545471191 10.63588809967041 0.5019644498825073 0 9
23.45636749267578 11.166543006896973 10.697538375854492 0.49907124042510986 0 9
23.64388656616211 11.1259765625 10.760181427001953 0.49616581201553345 0 9
22.71466827392578 10.564453125 10.315625190734863 0.46789780259132385 0 9
22.91242218017578 10.531600952148438 10.383853912353516 0.4648232161998749 0 9
24.543163299560547 11.1480073928833 11.100126266479492 0.5595923662185669 0 9
24.52035140991211 11.005155563354492 11.067344665527344 0.5612494349479675 0 9
24.323593139648438 10.78597640991211 10.956575393676758 0.261735737323761 0 9
24.038007736206055 10.530508041381836 10.806544303894043 0.2653701901435852 0 9
23.579530715942383 10.203749656677246 10.579730987548828 0.16482897102832794 0 9
23.488672256469727 10.039511680603027 10.518670082092285 0.272632896900177 0 9
23.22443389892578 9.80355453491211 10.380501747131348 0.27626147866249084 0 9
24.389238357543945 10.166522979736328 10.880640983581543 0.5708805918693542 0 9
24.36833953857422 10.029667854309082 10.851110458374023 0.5724338293075562 0 9
24.347694396972656 9.893632888793945 10.82204532623291 0.5739715099334717 0 9
24.32728385925293 9.758339881896973 10.793405532836914 0.5754942893981934 0 9
24.307186126708984 9.623886108398438 10.765204429626465 0.5770018696784973 0 9
24.287303924560547 9.490156173706055 10.737422943115234 0.5784946084022522 0 9
24.267675399780273 9.357148170471191 10.71008014678955 0.5799718499183655 0 9
24.248281478881836 9.224883079528809 10.683146476745605 0.581433892250061 0 9
31.108943939208984 11.675371170043945 13.682561874389648 0.6438903212547302 0 9
30.965917587280273 11.463418006896973 13.596880912780762 0.4320763349533081 0 9
31.14076042175293 11.36947250366211 13.651127815246582 0.4593835175037384 0 9
31.252010345458984 11.251405715942383 13.677618980407715 0.3694029152393341 0 9
31.10429573059082 11.040800094604492 13.591145515441895 0.3717532157897949 0 9
31.2208194732666 10.92464828491211 13.620481491088867 0.5483049750328064 0 9
31.076601028442383 10.717870712280273 13.536460876464844 0.5517083406448364 0 9
30.93404197692871 10.513612747192383 13.453678131103516 0.5551031827926636 0 9
31.847713470458984 10.66494083404541 13.830074310302734 0.10273532569408417 0 9
32.49574279785156 10.719980239868164 14.090455055236816 0.6012158393859863 0 9
32.65214920043945 10.609315872192383 14.137499809265137 0.5992152690887451 0 9
19.637752532958984 -6.674296855926514 8.540732383728027 0.47082147002220154 0 3
19.479570388793945 -6.71826171875 8.484992027282715 0.9148482084274292 0 3
19.329158782958984 -6.763535022735596 8.43257999420166 0.4799615740776062 0 3
19.154706954956055 -6.799160003662109 8.369718551635742 0.4835665822029114 0 3
18.98287010192871 -6.834238052368164 8.307944297790527 0.4871620535850525 0 3
18.817245483398438 -6.870136737823486 8.248869895935059 0.4953903257846832 0 3
18.647558212280273 -6.903261661529541 8.188004493713379 0.46655789017677307 0 3
18.470233917236328 -6.932011604309082 8.123711585998535 0.45322442054748535 0 3
18.295019149780273 -6.960058212280273 8.060297012329102 0.4566579759120941 0 3
18.122480392456055 -6.987695217132568 7.9980149269104 0.4602138102054596 0 3
17.95259666442871 -7.014902114868164 7.93686056137085 0.4637598395347595 0 3
17.78531265258789 -7.041698932647705 7.876790523529053 0.46729645133018494 0 3
17.620546340942383 -7.068105220794678 7.81779146194458 0.4708229899406433 0 3
17.458242416381836 -7.094120979309082 7.759825706481934 0.4743401110172272 0 3
17.298320770263672 -7.11974573135376 7.702878952026367 0.4778473377227783 0 3
17.14076042175293 -7.145039081573486 7.646910190582275 0.4813445210456848 0 3
16.9854679107666 -7.169921875 7.591908931732178 0.4848315119743347 0 3
16.832382202148438 -7.194530963897705 7.5378594398498535 0.48830848932266235 0 3
16.681503295898438 -7.218710899353027 7.484714031219482 0.4917753040790558 0 3
16.499492645263672 -7.228066444396973 7.41752290725708 0.5684447288513184 0 3
16.36894416809082 -7.25857400894165 7.373403072357178 0.5718464851379395 0 3
16.239843368530273 -7.288769245147705 7.32992696762085 0.5752381682395935 0 3
16.112285614013672 -7.318534851074219 7.287096977233887 0.5786193013191223 0 3
15.988046646118164 -7.348827838897705 7.245741844177246 0.6291613578796387 0 3
15.874960899353027 -7.383320331573486 7.209434509277344 0.6323303580284119 0 3
15.762909889221191 -7.417460918426514 7.173603534698486 0.6354883909225464 0 3
15.6519136428833 -7.451210975646973 7.138236045837402 0.6386367082595825 0 3
15.541933059692383 -7.484609127044678 7.103324890136719 0.6417755484580994 0 3
15.424257278442383 -7.513417720794678 7.0648980140686035 0.5430049300193787 0 3
15.295937538146973 -7.535995960235596 7.021528720855713 0.5463587045669556 0 3
15.169139862060547 -7.558339595794678 6.978834629058838 0.5497016310691833 0 3
15.0439453125 -7.580390453338623 6.93679141998291 0.5530329942703247 0 3
14.92015552520752 -7.602187156677246 6.895390033721924 0.5563535690307617 0 3
14.7978515625 -7.623730182647705 6.854621887207031 0.5596624612808228 0 3
14.677011489868164 -7.644980430603027 6.814457893371582 0.5629609823226929 0 3
14.557558059692383 -7.666035175323486 6.774909496307373 0.5662472248077393 0 3
14.439531326293945 -7.686816215515137 6.735952377319336 0.5695219039916992 0 3
14.322772979736328 -7.707402229309082 6.697566986083984 0.572786271572113 0 3
14.207343101501465 -7.727753639221191 6.65975284576416 0.5760387182235718 0 3
14.09326171875 -7.74783182144165 6.622495651245117 0.5792793035507202 0 3
13.839042663574219 -7.689140319824219 6.519186973571777 0.5900968909263611 0 3
13.730116844177246 -7.70947265625 6.484111309051514 0.593288779258728 0 3
13.64404296875 -7.741894245147705 6.459813594818115 0.38029834628105164 0 3
13.60912036895752 -7.803066253662109 6.459794044494629 0.38029932975769043 0 3
13.556327819824219 -7.85378885269165 6.451386451721191 0.5953061580657959 0 3
13.449316024780273 -7.872636318206787 6.417219638824463 0.5984757542610168 0 3
