ply
format ascii 1.0
element vertex 589
property float32 x
property float32 y
property float32 z
property float32 CosAngle
property uint32 ObjIdx
property uint32 ObjTag
end_header
29.668670654296875 7.855175495147705 -1.7032426595687866 0.05533464252948761 0 2
29.70341682434082 7.722695350646973 -1.7032440900802612 0.05533464625477791 0 2
29.737655639648438 7.590097427368164 -1.7032456398010254 0.055334534496068954 0 2
29.771230697631836 7.457314491271973 -1.7032470703125 0.05533451959490776 0 2
26.45523452758789 6.501376628875732 -1.5118615627288818 0.9625441431999207 0 28
26.451581954956055 6.375449180603027 -1.5100136995315552 0.963409960269928 0 28
29.868377685546875 7.05810546875 -1.7032510042190552 0.05533452332019806 0 2
27.423728942871094 6.35134744644165 -1.5622111558914185 0.9619630575180054 0 28
29.930233001708984 6.791259765625 -1.7032533884048462 0.0553344301879406 0 2
28.64759635925293 6.365927696228027 -1.6286067962646484 0.314039945602417 0 28
29.98970603942871 6.523876667022705 -1.703255534172058 0.05533432960510254 0 2
29.457265853881836 6.270497798919678 -1.6714093685150146 0.9316841959953308 0 28
29.49509620666504 6.141103267669678 -1.6720010042190552 0.3588065505027771 0 28
30.074453353881836 6.121835708618164 -1.7032586336135864 0.055334173142910004 0 2
30.10152244567871 5.987568378448486 -1.7032595872879028 0.05533406883478165 0 2
30.127948760986328 5.853193283081055 -1.7032603025436401 0.05533406883478165 0 2
30.15376853942871 5.718691349029541 -1.7032610177993774 0.05533405393362045 0 2
30.17900276184082 5.584072113037109 -1.7032619714736938 0.05533404275774956 0 2
30.378496170043945 5.480898380279541 -1.7131257057189941 0.34897780418395996 0 2
30.227617263793945 5.314501762390137 -1.7032629251480103 0.05533408746123314 0 2
30.33445167541504 5.193837642669678 -1.7079607248306274 0.39351165294647217 0 2
30.613359451293945 5.101083755493164 -1.7223654985427856 0.5168579816818237 0 2
30.84488296508789 4.998300552368164 -1.7341201305389404 0.5133547186851501 0 2
31.07954978942871 4.894101619720459 -1.746069312095642 0.5098417401313782 0 2
31.317461013793945 4.788447380065918 -1.758217453956604 0.5063191056251526 0 2
31.55872917175293 4.681308269500732 -1.7705715894699097 0.5027865171432495 0 2
31.8033390045166 4.572646617889404 -1.7831335067749023 0.4992445111274719 0 2
32.060272216796875 4.46365213394165 -1.796400547027588 0.511407196521759 0 2
32.260292053222656 4.344804763793945 -1.8065012693405151 0.055333882570266724 0 1
32.27931594848633 4.200820446014404 -1.8065013885498047 0.0553339459002018 0 1
32.299217224121094 4.05691385269165 -1.8065848350524902 0.055821653455495834 0 1
32.31861114501953 3.9129295349121094 -1.8066751956939697 0.055818863213062286 0 1
32.337364196777344 3.76885724067688 -1.8067656755447388 0.05581607669591904 0 1
32.355506896972656 3.624706983566284 -1.806856393814087 0.0558132603764534 0 1
32.37298583984375 3.480458974838257 -1.8069474697113037 0.05581045150756836 0 1
32.38982391357422 3.3361425399780273 -1.80703866481781 0.05580763518810272 0 1
32.40603256225586 3.191728353500366 -1.807130217552185 0.055804796516895294 0 1
32.421600341796875 3.047236204147339 -1.8072221279144287 0.055801961570978165 0 1
32.43654251098633 2.9026756286621094 -1.8073142766952515 0.05579911172389984 0 1
32.45077896118164 2.7580273151397705 -1.8074065446853638 0.05579634755849838 0 1
32.46443176269531 2.613330125808716 -1.8074991703033447 0.05579347535967827 0 1
32.477439880371094 2.468554735183716 -1.8075919151306152 0.055790603160858154 0 1
32.489803314208984 2.323720693588257 -1.8076852560043335 0.05578773096203804 0 1
32.50154113769531 2.178828001022339 -1.8077784776687622 0.05578481778502464 0 1
32.51263427734375 2.033876895904541 -1.8078721761703491 0.05578193441033363 0 1
32.52310562133789 1.8888671398162842 -1.8079659938812256 0.05577899143099785 0 1
32.53290939331055 1.7438085079193115 -1.8080601692199707 0.055776070803403854 0 1
32.542030334472656 1.5986913442611694 -1.8081523180007935 0.055880941450595856 0 1
32.55031204223633 1.4535253047943115 -1.808233618736267 0.0558784082531929 0 1
32.55796813964844 1.3083202838897705 -1.808315396308899 0.05587583780288696 0 1
32.564979553222656 1.1630663871765137 -1.8083975315093994 0.05587329342961311 0 1
32.57126998901367 1.0177733898162842 -1.808479905128479 0.05587084963917732 0 1
32.57699203491211 0.8724609017372131 -1.8085626363754272 0.05586826056241989 0 1
32.581993103027344 0.7271093726158142 -1.808645486831665 0.055865805596113205 0 1
32.58644485473633 0.5817285180091858 -1.8087286949157715 0.05586317554116249 0 1
32.59015655517578 0.4363378882408142 -1.8088123798370361 0.05586070194840431 0 1
32.593318939208984 0.29090818762779236 -1.8088961839675903 0.05585808306932449 0 1
32.59585952758789 0.14545898139476776 -1.8089803457260132 0.0558553971350193 0 1
32.59763717651367 9.765624781721272e-06 -1.8090648651123047 0.055852897465229034 0 1
32.598846435546875 -0.1454785168170929 -1.8091496229171753 0.05585025995969772 0 1
14.56298828125 -0.1299706995487213 -0.8082308769226074 0.6431874632835388 2879 13
14.517401695251465 -0.19435545802116394 -0.8057396411895752 0.940146267414093 2879 13
14.50853443145752 -0.25899413228034973 -0.8053033947944641 0.9924415946006775 2879 13
14.529276847839355 -0.32423827052116394 -0.806526243686676 0.8466852307319641 2879 13
14.613242149353027 -0.391357421875 -0.8112777471542358 0.28234148025512695 2879 13
36.502967834472656 -1.1406347751617432 -2.026779890060425 0.0553346611559391 0 2
36.497440338134766 -1.3034961223602295 -2.026777982711792 0.05533478409051895 0 2
36.49119186401367 -1.4663573503494263 -2.026776075363159 0.055334895849227905 0 2
36.484256744384766 -1.629189372062683 -2.0267741680145264 0.0553349144756794 0 2
36.4765625 -1.7919628620147705 -2.0267720222473145 0.055335015058517456 0 2
36.468223571777344 -1.9547168016433716 -2.0267698764801025 0.055334996432065964 0 2
36.45912170410156 -2.117431640625 -2.0267677307128906 0.05533500388264656 0 2
36.44929504394531 -2.2801170349121094 -2.0267655849456787 0.05533502623438835 0 2
36.438690185546875 -2.442744016647339 -2.026763439178467 0.05533513426780701 0 2
36.42734146118164 -2.605341672897339 -2.026761054992676 0.055335238575935364 0 2
36.41535186767578 -2.7678515911102295 -2.0267586708068848 0.055335257202386856 0 2
36.4025764465332 -2.9303221702575684 -2.0267562866210938 0.055335357785224915 0 2
36.38898468017578 -3.092724561691284 -2.0267539024353027 0.055335599929094315 0 2
36.37478256225586 -3.255078077316284 -2.0267512798309326 0.0553356297314167 0 2
36.359920501708984 -3.417372941970825 -2.0267486572265625 0.055335599929094315 0 2
36.34431457519531 -3.57958984375 -2.0267460346221924 0.055335599929094315 0 2
36.32788848876953 -3.7417285442352295 -2.0267434120178223 0.05533571541309357 0 2
36.31074142456055 -3.903798818588257 -2.026740789413452 0.055335864424705505 0 2
36.29296875 -4.065800666809082 -2.026737689971924 0.05533585697412491 0 2
24.504745483398438 -2.855966806411743 -1.369136929512024 0.916474461555481 0 5
36.25507736206055 -4.389531135559082 -2.0267319679260254 0.055336080491542816 0 2
36.23513412475586 -4.551259517669678 -2.026729106903076 0.055336080491542816 0 2
32.30710983276367 -4.204423904418945 -1.808056354522705 0.05469389632344246 0 1
32.28720474243164 -4.348437309265137 -1.8080118894577026 0.05469528213143349 0 1
28.436445236206055 -3.9590916633605957 -1.5933483839035034 0.4467950165271759 0 5
28.371131896972656 -4.079140663146973 -1.5906944274902344 0.9993334412574768 0 6
28.2940616607666 -4.197011470794678 -1.5874121189117432 0.8516457676887512 0 6
28.217987060546875 -4.314511775970459 -1.5842056274414062 0.8959342837333679 0 6
28.41144561767578 -4.473935604095459 -1.5961579084396362 0.8433979749679565 0 6
32.15380859375 -5.210380554199219 -1.8077056407928467 0.05473798140883446 0 1
32.1291389465332 -5.353642463684082 -1.8076449632644653 0.05473983660340309 0 1
29.412948608398438 -5.036044597625732 -1.6560747623443604 0.7683719396591187 0 5
32.07859420776367 -5.639912128448486 -1.8075586557388306 0.05464531108736992 0 1
32.052303314208984 -5.782870769500732 -1.8075188398361206 0.05464667081832886 0 1
14.511659622192383 -2.685107469558716 -0.8190204501152039 0.9119009971618652 0 6
14.506562232971191 -2.751162052154541 -0.8194634318351746 0.6966990232467651 0 6
30.125995635986328 -5.852792739868164 -1.703156590461731 0.05533765256404877 0 2
30.09956932067871 -5.98717737197876 -1.703153371810913 0.05533765256404877 0 2
30.072500228881836 -6.121416091918945 -1.7031500339508057 0.05533776432275772 0 2
30.044803619384766 -6.255546569824219 -1.7031465768814087 0.05533788725733757 0 2
30.016542434692383 -6.389531135559082 -1.7031432390213013 0.05533800274133682 0 2
29.987655639648438 -6.523417949676514 -1.7031399011611938 0.055338114500045776 0 2
24.77732276916504 -5.50588846206665 -1.408598780632019 0.948053240776062 0 21
23.71757698059082 -5.381562232971191 -1.349703311920166 0.9493817090988159 0 21
23.660682678222656 -5.479794979095459 -1.3478469848632812 0.9506914019584656 0 21
23.603944778442383 -5.57775354385376 -1.3460159301757812 0.9519820213317871 0 21
23.64453125 -5.698866844177246 -1.3497687578201294 0.7201200127601624 0 21
23.72003936767578 -5.829189300537109 -1.355549693107605 0.717048704624176 0 21
25.01042938232422 -6.264804363250732 -1.430873990058899 0.24575094878673553 0 4
24.551015853881836 -6.266298770904541 -1.4061769247055054 0.2500673830509186 0 4
24.107206344604492 -6.267734050750732 -1.3823455572128296 0.2543783187866211 0 4
23.67818260192871 -6.269130706787109 -1.359334945678711 0.25868427753448486 0 4
23.263202667236328 -6.270478248596191 -1.3371028900146484 0.26298511028289795 0 4
22.825878143310547 -6.26199197769165 -1.3135626316070557 0.2672808766365051 0 4
22.437578201293945 -6.263251781463623 -1.2928106784820557 0.27157101035118103 0 4
22.323652267456055 -6.338964939117432 -1.287862777709961 0.055339567363262177 0 4
22.29507827758789 -6.43850564956665 -1.2878596782684326 0.055339712649583817 0 4
22.26609230041504 -6.537919998168945 -1.2878564596176147 0.05533977225422859 0 4
22.814453125 -6.809648513793945 -1.3213253021240234 0.28507888317108154 0 20
22.447811126708984 -6.809462547302246 -1.3018348217010498 0.28934624791145325 0 20
22.201112747192383 -6.842968463897705 -1.2892886400222778 0.9543226957321167 0 20
22.201074600219727 -6.951581954956055 -1.2910741567611694 0.9530029892921448 0 20
22.20101547241211 -7.060497760772705 -1.2928893566131592 0.951664388179779 0 20
22.200956344604492 -7.169726371765137 -1.2947360277175903 0.95030677318573 0 20
22.200897216796875 -7.279277324676514 -1.2966134548187256 0.9489301443099976 0 20
26.85287094116211 -8.937529563903809 -1.570636510848999 0.9461025595664978 0 5
29.073299407958984 -9.820839881896973 -1.7030401229858398 0.05534131079912186 0 2
29.029062271118164 -9.950429916381836 -1.703035593032837 0.055341560393571854 0 2
26.8544921875 -9.33919906616211 -1.5778907537460327 0.9417462348937988 0 5
26.855037689208984 -9.4739351272583 -1.580384373664856 0.9402565956115723 0 5
26.855566024780273 -9.609101295471191 -1.5829083919525146 0.9387479424476624 0 5
28.84652328491211 -10.46688461303711 -1.7030168771743774 0.055342141538858414 0 2
28.799530029296875 -10.595487594604492 -1.703012228012085 0.05534215644001961 0 2
26.857206344604492 -10.01723575592041 -1.5907877683639526 0.9341105222702026 0 5
26.85775375366211 -10.15419864654541 -1.5935167074203491 0.9325273633003235 0 5
26.858299255371094 -10.291621208190918 -1.5962518453598022 0.9309258460998535 0 5
28.605506896972656 -11.1077241897583 -1.7029926776885986 0.05534275621175766 0 2
28.55548858642578 -11.23519515991211 -1.7029876708984375 0.055343084037303925 0 2
26.859960556030273 -10.706787109375 -1.6047043800354004 0.9260098934173584 0 5
26.86052703857422 -10.846171379089355 -1.6076085567474365 0.9243341684341431 0 5
26.861074447631836 -10.986074447631836 -1.6105586290359497 0.9226400852203369 0 5
28.350038528442383 -11.742938995361328 -1.7029672861099243 0.055343810468912125 0 2
28.29734230041504 -11.869336128234863 -1.7029621601104736 0.055343806743621826 0 2
26.86277198791504 -11.408886909484863 -1.619675874710083 0.9174478650093079 0 5
26.863338470458984 -11.550898551940918 -1.622806191444397 0.9156805276870728 0 5
26.86390495300293 -11.693456649780273 -1.6259608268737793 0.9138951301574707 0 5
26.864471435546875 -11.83657169342041 -1.629172921180725 0.9120915532112122 0 5
26.85334014892578 -11.975049018859863 -1.6317403316497803 0.910269558429718 0 5
26.853904724121094 -12.119257926940918 -1.6350436210632324 0.9084295034408569 0 5
26.85447120666504 -12.264052391052246 -1.6383929252624512 0.9065714478492737 0 5
26.855058670043945 -12.409452438354492 -1.6417927742004395 0.904695451259613 0 5
26.85564422607422 -12.555468559265137 -1.6452364921569824 0.9028009176254272 0 5
26.85624885559082 -12.702079772949219 -1.6487295627593994 0.9008889198303223 0 5
26.856834411621094 -12.849326133728027 -1.6522669792175293 0.8989588022232056 0 5
26.857421875 -12.997197151184082 -1.6558566093444824 0.8970111012458801 0 5
26.858007431030273 -13.14574146270752 -1.65949547290802 0.8950449228286743 0 5
26.858612060546875 -13.294931411743164 -1.663179636001587 0.8930609822273254 0 5
26.85921859741211 -13.444785118103027 -1.6669161319732666 0.8910598754882812 0 5
26.859804153442383 -13.595312118530273 -1.6707043647766113 0.8890405893325806 0 5
26.860408782958984 -13.746542930603027 -1.674534559249878 0.8870036005973816 0 5
26.86101531982422 -13.898456573486328 -1.6784275770187378 0.8849488496780396 0 5
26.86164093017578 -14.051093101501465 -1.6823686361312866 0.8828770518302917 0 5
26.862245559692383 -14.204442977905273 -1.6863555908203125 0.8807869553565979 0 5
26.862871170043945 -14.358525276184082 -1.6904035806655884 0.8786797523498535 0 5
26.863494873046875 -14.513359069824219 -1.694498896598816 0.8765549063682556 0 5
26.864120483398438 -14.66893482208252 -1.6986510753631592 0.874413251876831 0 5
31.967206954956055 -17.641035079956055 -2.0262837409973145 0.055348340421915054 0 2
27.161640167236328 -15.147616386413574 -1.725935459136963 0.055348146706819534 0 0
27.093671798706055 -15.2686128616333 -1.7259290218353271 0.055348366498947144 0 0
27.025156021118164 -15.389296531677246 -1.7259228229522705 0.055348578840494156 0 0
26.956132888793945 -15.509696960449219 -1.7259162664413452 0.05534873902797699 0 0
26.88652229309082 -15.629775047302246 -1.7259098291397095 0.05534899979829788 0 0
26.81640625 -15.749540328979492 -1.7259033918380737 0.055349208414554596 0 0
26.74574089050293 -15.8689546585083 -1.7258967161178589 0.05534946918487549 0 0
26.674589157104492 -15.988115310668945 -1.7258905172348022 0.055349625647068024 0 0
26.60287094116211 -16.106943130493164 -1.7258837223052979 0.05534980073571205 0 0
26.530624389648438 -16.225439071655273 -1.7258771657943726 0.05535002052783966 0 0
26.45783233642578 -16.34359359741211 -1.7258706092834473 0.05535028874874115 0 0
26.384531021118164 -16.461416244506836 -1.7258639335632324 0.05535052344202995 0 0
26.310760498046875 -16.578964233398438 -1.7258572578430176 0.05535062402486801 0 0
26.236406326293945 -16.696151733398438 -1.7258504629135132 0.05535085126757622 0 0
26.161521911621094 -16.81298828125 -1.7258434295654297 0.05535108596086502 0 0
26.086132049560547 -16.929502487182617 -1.7258366346359253 0.05535130575299263 0 0
26.01023292541504 -17.045663833618164 -1.725829839706421 0.05535152554512024 0 0
25.933828353881836 -17.161523818969727 -1.7258230447769165 0.05535168945789337 0 0
25.856834411621094 -17.2769718170166 -1.7258158922195435 0.05535201355814934 0 0
25.7794132232666 -17.392148971557617 -1.72580885887146 0.05535215139389038 0 0
25.701425552368164 -17.50692367553711 -1.725801944732666 0.05535242706537247 0 0
3.9368162155151367 -2.707412004470825 -0.2651804983615875 0.5653235912322998 2795 6
3.9078710079193115 -2.713271379470825 -0.26402267813682556 0.8204130530357361 2795 6
3.9078612327575684 -2.739189386367798 -0.2648562490940094 0.8178654313087463 2795 6
3.9078612327575684 -2.765263557434082 -0.2656756639480591 0.8153029680252075 2795 6
25.303905487060547 -18.07559585571289 -1.7257663011550903 0.055353593081235886 0 0
25.222890853881836 -18.188261032104492 -1.7257590293884277 0.05535382032394409 0 0
25.141347885131836 -18.300546646118164 -1.7257516384124756 0.05535409599542618 0 0
25.059316635131836 -18.4124698638916 -1.7257442474365234 0.05535433813929558 0 0
24.976797103881836 -18.524023056030273 -1.7257370948791504 0.05535459518432617 0 0
24.89384651184082 -18.635272979736328 -1.7257295846939087 0.05535467714071274 0 0
24.810272216796875 -18.746044158935547 -1.725722312927246 0.055355049669742584 0 0
24.726268768310547 -18.856502532958984 -1.7257148027420044 0.055355269461870193 0 0
24.64177703857422 -18.966571807861328 -1.7257071733474731 0.0553554892539978 0 0
24.55677604675293 -19.076269149780273 -1.7256999015808105 0.055355750024318695 0 0
24.47136688232422 -19.185604095458984 -1.7256922721862793 0.05535585433244705 0 0
24.385292053222656 -19.294462203979492 -1.7256840467453003 0.055356308817863464 0 0
21.14875030517578 -16.887598037719727 -1.5019569396972656 0.2318720817565918 0 0
21.082929611206055 -16.989667892456055 -1.5026546716690063 0.2317647933959961 0 0
21.016971588134766 -17.091777801513672 -1.5033711194992065 0.23165374994277954 0 0
20.95083999633789 -17.193866729736328 -1.5041165351867676 0.23153947293758392 0 0
12.992714881896973 -10.76015567779541 -0.9363316297531128 0.9016832113265991 0 20
20.8804874420166 -17.450342178344727 -1.5101850032806396 0.18287649750709534 0 0
20.86031150817871 -17.592166900634766 -1.5143871307373047 0.11801369488239288 0 0
20.85546875 -17.747949600219727 -1.5197738409042358 0.1175956130027771 0 0
20.85042953491211 -17.904706954956055 -1.5252138376235962 0.11717619001865387 0 0
20.84517478942871 -18.06241226196289 -1.5307079553604126 0.11675556004047394 0 0
20.836366653442383 -18.21822166442871 -1.536016821861267 0.14189070463180542 0 0
20.797832489013672 -18.348955154418945 -1.5391982793807983 0.1415974497795105 0 0
20.759002685546875 -18.48006820678711 -1.5424102544784546 0.14130251109600067 0 0
20.719804763793945 -18.611591339111328 -1.5456575155258179 0.14100591838359833 0 0
20.699647903442383 -18.761064529418945 -1.5503802299499512 0.07523853331804276 0 0
20.702383041381836 -18.932479858398438 -1.5568994283676147 0.07492364197969437 0 0
20.704843521118164 -19.10511589050293 -1.5634809732437134 0.0746082067489624 0 0
20.71306610107422 -19.284549713134766 -1.5705904960632324 0.06897149980068207 0 0
20.729473114013672 -19.47323226928711 -1.5784025192260742 0.0686299055814743 0 0
20.738651275634766 -19.656795501708984 -1.5857675075531006 0.13386304676532745 0 0
20.702362060546875 -19.798505783081055 -1.5897268056869507 0.13352933526039124 0 0
20.6656436920166 -19.940702438354492 -1.5937304496765137 0.13319438695907593 0 0
20.628612518310547 -20.083534240722656 -1.5977671146392822 0.13285750150680542 0 0
12.53896427154541 -12.317090034484863 -0.9754435420036316 0.3853003978729248 0 20
12.434550285339355 -12.3240327835083 -0.971588671207428 0.3868287205696106 0 20
20.401874542236328 20.401865005493164 -1.7201038599014282 0.05945059284567833 0 25
20.49281120300293 20.310712814331055 -1.7201101779937744 0.059450339525938034 0 25
20.58332061767578 20.21912956237793 -1.7201162576675415 0.05945010483264923 0 25
19.853397369384766 19.328807830810547 -1.651896595954895 0.7148855328559875 0 3
19.85331916809082 19.15689468383789 -1.644759178161621 0.7179874777793884 0 3
19.853221893310547 18.98646354675293 -1.6377190351486206 0.7210750579833984 0 3
19.8531436920166 18.817489624023438 -1.6307650804519653 0.7241480946540833 0 3
19.853046417236328 18.649930953979492 -1.6239084005355835 0.7272069454193115 0 3
19.852968215942383 18.48377799987793 -1.6171404123306274 0.730251133441925 0 3
19.891326904296875 18.354482650756836 -1.6135735511779785 0.05944870784878731 0 3
19.973066329956055 18.265575408935547 -1.6135790348052979 0.05944858118891716 0 3
20.05451202392578 18.176366806030273 -1.6135845184326172 0.059448231011629105 0 3
20.135467529296875 18.08671760559082 -1.6135900020599365 0.05944811552762985 0 3
20.216014862060547 17.99671745300293 -1.6135954856872559 0.059447988867759705 0 3
20.296249389648438 17.906444549560547 -1.6136008501052856 0.059447627514600754 0 3
20.388261795043945 17.826454162597656 -1.614578366279602 0.6574479341506958 0 3
20.57271385192871 17.826356887817383 -1.6228711605072021 0.6540892124176025 0 3
20.75908088684082 17.826269149780273 -1.6312754154205322 0.6507173776626587 0 3
20.9473819732666 17.826171875 -1.6398098468780518 0.6473327875137329 0 3
21.13765525817871 17.826074600219727 -1.6484603881835938 0.6439353823661804 0 3
21.329959869384766 17.825965881347656 -1.6572355031967163 0.6405251026153564 0 3
21.524295806884766 17.825868606567383 -1.6661381721496582 0.6371023058891296 0 3
21.720760345458984 17.82577133178711 -1.6751738786697388 0.6336666941642761 0 3
21.919374465942383 17.825664520263672 -1.684338092803955 0.6302183270454407 0 3
22.120174407958984 17.825565338134766 -1.6936408281326294 0.6267575621604919 0 3
22.32322120666504 17.825458526611328 -1.7030776739120483 0.6232839822769165 0 3
22.528533935546875 17.82535171508789 -1.7126604318618774 0.6197983026504517 0 3
22.708261489868164 17.8033390045166 -1.7202587127685547 0.05944521352648735 0 25
22.787519454956055 17.70186424255371 -1.720263957977295 0.0594450905919075 0 25
22.8663272857666 17.60002899169922 -1.7202690839767456 0.05944496765732765 0 25
22.94478416442871 17.4979190826416 -1.7202743291854858 0.059444621205329895 0 25
23.022674560546875 17.395389556884766 -1.7202794551849365 0.05944451689720154 0 25
23.100116729736328 17.292518615722656 -1.7202845811843872 0.05944438278675079 0 25
23.177127838134766 17.1893253326416 -1.7202895879745483 0.05944417789578438 0 25
23.253671646118164 17.08576202392578 -1.72029447555542 0.05944404751062393 0 25
23.32972526550293 16.981855392456055 -1.720299482345581 0.05944392830133438 0 25
23.405351638793945 16.877655029296875 -1.7203043699264526 0.059443701058626175 0 25
23.480546951293945 16.77310562133789 -1.7203092575073242 0.05944346264004707 0 25
23.55515480041504 16.668153762817383 -1.7203140258789062 0.05944346264004707 0 25
23.62939453125 16.56294822692871 -1.7203189134597778 0.059443216770887375 0 25
23.703163146972656 16.457401275634766 -1.7203235626220703 0.059442970901727676 0 25
23.776424407958984 16.351503372192383 -1.7203283309936523 0.05944282189011574 0 25
23.849218368530273 16.24525260925293 -1.7203328609466553 0.05944272503256798 0 25
23.92156219482422 16.138750076293945 -1.7203376293182373 0.05944248288869858 0 25
23.993377685546875 16.031864166259766 -1.7203421592712402 0.05944238603115082 0 25
24.064725875854492 15.924667358398438 -1.7203468084335327 0.05944226309657097 0 25
24.135644912719727 15.817187309265137 -1.720351219177246 0.05944200977683067 0 25
24.20603370666504 15.709355354309082 -1.720355749130249 0.059441905468702316 0 25
24.275957107543945 15.60122013092041 -1.720360279083252 0.05944178253412247 0 25
24.34539031982422 15.492753982543945 -1.7203646898269653 0.059441644698381424 0 25
24.414316177368164 15.383994102478027 -1.7203688621520996 0.05944156274199486 0 25
24.482831954956055 15.274950981140137 -1.7203731536865234 0.05944129452109337 0 25
9.902694702148438 6.117128849029541 -0.6939237713813782 0.8489516377449036 2793 6
9.944999694824219 6.082109451293945 -0.6950234770774841 0.5212137699127197 2793 6
11.13109302520752 6.739433288574219 -0.7757576107978821 0.5910902619361877 0 6
11.134042739868164 6.673495769500732 -0.7738780975341797 0.9877814054489136 0 6
11.166386604309082 6.625331878662109 -0.7740626931190491 0.7998675107955933 0 6
11.250468254089355 6.607519149780273 -0.7778005003929138 0.13861477375030518 0 6
24.9483585357666 14.503066062927246 -1.7204023599624634 0.05944036692380905 0 25
25.012929916381836 14.391650199890137 -1.7204062938690186 0.05944013223052025 0 25
25.07695198059082 14.27993106842041 -1.7204102277755737 0.059439994394779205 0 25
25.140487670898438 14.167900085449219 -1.7204140424728394 0.05943986028432846 0 25
25.203495025634766 14.055595397949219 -1.720418095588684 0.05943978205323219 0 25
25.266035079956055 13.94301700592041 -1.7204219102859497 0.05943962559103966 0 25
25.32808494567871 13.830175399780273 -1.7204257249832153 0.05943942442536354 0 25
25.389570236206055 13.717011451721191 -1.7204293012619019 0.059439390897750854 0 25
25.450586318969727 13.603612899780273 -1.7204331159591675 0.05943925678730011 0 25
25.51107406616211 13.489921569824219 -1.7204368114471436 0.059439171105623245 0 25
25.57113265991211 13.376005172729492 -1.72044038772583 0.059438906610012054 0 25
25.630565643310547 13.261747360229492 -1.7204439640045166 0.05943891406059265 0 25
25.689531326293945 13.1472749710083 -1.7204475402832031 0.059438809752464294 0 25
25.748065948486328 13.032548904418945 -1.7204509973526 0.059438556432724 0 25
25.806015014648438 12.917548179626465 -1.7204543352127075 0.05943843722343445 0 25
25.86343765258789 12.802285194396973 -1.720457911491394 0.05943835526704788 0 25
25.920331954956055 12.686747550964355 -1.7204612493515015 0.059438306838274 0 25
25.97673797607422 12.570976257324219 -1.7204645872116089 0.05943819507956505 0 25
26.032636642456055 12.454951286315918 -1.7204678058624268 0.0594380721449852 0 25
26.0880069732666 12.338690757751465 -1.7204710245132446 0.05943794548511505 0 25
26.142850875854492 12.22216796875 -1.7204742431640625 0.05943785607814789 0 25
26.197166442871094 12.105420112609863 -1.7204774618148804 0.05943772941827774 0 25
26.2509765625 11.988417625427246 -1.7204804420471191 0.059437621384859085 0 25
26.304277420043945 11.871171951293945 -1.720483660697937 0.05943749099969864 0 25
26.3570499420166 11.753690719604492 -1.7204865217208862 0.05943736061453819 0 25
26.409217834472656 11.635956764221191 -1.7204896211624146 0.059437401592731476 0 25
26.460994720458984 11.518046379089355 -1.7204924821853638 0.05943714454770088 0 25
26.51220703125 11.399872779846191 -1.7204954624176025 0.05943698436021805 0 25
26.562850952148438 11.281464576721191 -1.7204983234405518 0.05943690612912178 0 25
26.61292839050293 11.162821769714355 -1.7205010652542114 0.05943691357970238 0 25
26.662460327148438 11.0439453125 -1.720503807067871 0.05943691357970238 0 25
26.7115421295166 10.924872398376465 -1.7205065488815308 0.05943677946925163 0 25
26.760135650634766 10.805615425109863 -1.7205092906951904 0.05943654477596283 0 25
26.808162689208984 10.686113357543945 -1.7205119132995605 0.05943639203906059 0 25
26.85562515258789 10.56640625 -1.7205145359039307 0.05943629518151283 0 25
26.90251922607422 10.44644546508789 -1.7205170392990112 0.059436291456222534 0 25
26.94886589050293 10.326298713684082 -1.7205196619033813 0.05943629518151283 0 25
26.994726181030273 10.20595645904541 -1.720522165298462 0.05943616107106209 0 25
27.040058135986328 10.085410118103027 -1.720524549484253 0.05943604186177254 0 25
27.084842681884766 9.964667320251465 -1.7205268144607544 0.05943594127893448 0 25
27.12908172607422 9.843720436096191 -1.720529317855835 0.059435855597257614 0 25
26.896562576293945 9.623749732971191 -1.7030445337295532 0.05943584442138672 0 2
26.939237594604492 9.503623008728027 -1.7030467987060547 0.059435855597257614 0 2
26.9814453125 9.383330345153809 -1.7030489444732666 0.05943572148680687 0 2
27.023046493530273 9.26284122467041 -1.7030510902404785 0.05943572521209717 0 2
27.064159393310547 9.14217758178711 -1.7030532360076904 0.05943559110164642 0 2
27.10480499267578 9.021357536315918 -1.7030552625656128 0.059435345232486725 0 2
27.144784927368164 8.90030288696289 -1.7030571699142456 0.05943536013364792 0 2
27.18423843383789 8.779082298278809 -1.703059196472168 0.05943535268306732 0 2
27.223201751708984 8.657705307006836 -1.7030612230300903 0.05943523347377777 0 2
27.26154327392578 8.5361328125 -1.7030630111694336 0.05943525582551956 0 2
27.2994327545166 8.414413452148438 -1.7030647993087769 0.05943511053919792 0 2
27.336698532104492 8.292510032653809 -1.7030667066574097 0.05943513661623001 0 2
27.37349510192871 8.170449256896973 -1.703068494796753 0.05943501368165016 0 2
27.409687042236328 8.048222541809082 -1.7030701637268066 0.05943501368165016 0 2
27.4454288482666 7.925858974456787 -1.7030718326568604 0.05943477153778076 0 2
27.480525970458984 7.803300380706787 -1.7030733823776245 0.05943477526307106 0 2
27.515077590942383 7.680595397949219 -1.7030750513076782 0.05943477898836136 0 2
27.549081802368164 7.55773401260376 -1.7030766010284424 0.05943477898836136 0 2
27.582576751708984 7.434736251831055 -1.7030779123306274 0.05943465232849121 0 2
27.615488052368164 7.311582088470459 -1.7030794620513916 0.059434644877910614 0 2
27.64790916442871 7.188281059265137 -1.7030808925628662 0.05943451076745987 0 2
27.679706573486328 7.064833641052246 -1.7030822038650513 0.05943452566862106 0 2
27.710956573486328 6.941249847412109 -1.7030836343765259 0.05943450331687927 0 2
26.45521354675293 6.501376628875732 -1.6241058111190796 0.9623169898986816 0 28
26.451581954956055 6.375449180603027 -1.622120976448059 0.9631825685501099 0 28
27.80144500732422 6.569677352905273 -1.703087329864502 0.059434425085783005 0 2
27.423728942871094 6.35134744644165 -1.678194284439087 0.9617360234260559 0 28
27.85902214050293 6.321298599243164 -1.7030895948410034 0.05943429842591286 0 2
27.886972427368164 6.196904182434082 -1.7030904293060303 0.059434279799461365 0 2
27.91439437866211 6.072421550750732 -1.7030915021896362 0.05943414568901062 0 2
27.941190719604492 5.94778299331665 -1.7030924558639526 0.059434205293655396 0 2
28.243417739868164 5.88048791885376 -1.7198967933654785 0.23781466484069824 0 2
27.993242263793945 5.698193073272705 -1.7030940055847168 0.05943405255675316 0 2
28.254472732543945 5.620185375213623 -1.7174465656280518 0.2523530125617981 0 2
28.72216796875 5.580078125 -1.7443444728851318 0.413779079914093 0 2
29.010526657104492 5.501874923706055 -1.7603493928909302 0.4100171625614166 0 2
29.304237365722656 5.422206878662109 -1.7766857147216797 0.4062473475933075 0 2
29.612010955810547 5.342607498168945 -1.7938790321350098 0.4091162085533142 0 2
29.841093063354492 5.246552467346191 -1.8063225746154785 0.0594339556992054 0 1
29.864355087280273 5.113349437713623 -1.8063308000564575 0.05975659564137459 0 1
29.888437271118164 4.980292797088623 -1.8064260482788086 0.059753455221652985 0 1
29.91193199157715 4.847118854522705 -1.8065215349197388 0.05975034460425377 0 1
29.934823989868164 4.713837623596191 -1.806617259979248 0.059747207909822464 0 1
29.95716667175293 4.580449104309082 -1.8067128658294678 0.059744030237197876 0 1
29.978944778442383 4.446972370147705 -1.8068089485168457 0.05974074453115463 0 1
30.000078201293945 4.313378810882568 -1.806904911994934 0.05973760783672333 0 1
30.0206241607666 4.179677486419678 -1.8070011138916016 0.05973441153764725 0 1
30.040584564208984 4.045888423919678 -1.8070975542068481 0.05973123386502266 0 1
30.059921264648438 3.911982297897339 -1.8071932792663574 0.059743598103523254 0 1
30.078670501708984 3.778007745742798 -1.8072887659072876 0.059740450233221054 0 1
30.09681510925293 3.6439452171325684 -1.8073842525482178 0.05973729118704796 0 1
30.11439323425293 3.5097851753234863 -1.8074800968170166 0.059734102338552475 0 1
30.13134765625 3.37554669380188 -1.8075759410858154 0.05973093584179878 0 1
30.147695541381836 3.241220712661743 -1.8076720237731934 0.05972777307033539 0 1
30.163455963134766 3.106826066970825 -1.8077682256698608 0.05972463637590408 0 1
30.178632736206055 2.972343683242798 -1.8078645467758179 0.05972142517566681 0 1
30.193222045898438 2.8377928733825684 -1.8079609870910645 0.05971823260188103 0 1
30.20720672607422 2.703173875808716 -1.8080575466156006 0.05971501022577286 0 1
30.220584869384766 2.568486213684082 -1.8081542253494263 0.05971183627843857 0 1
30.23335838317871 2.433720588684082 -1.808251142501831 0.05970863252878189 0 1
30.245506286621094 2.298906087875366 -1.8083480596542358 0.05970551446080208 0 1
30.257089614868164 2.1640331745147705 -1.8084452152252197 0.05970229580998421 0 1
30.26806640625 2.029101610183716 -1.8085424900054932 0.059699080884456635 0 1
30.27847671508789 1.8941112756729126 -1.8086397647857666 0.059695832431316376 0 1
30.28826141357422 1.75906240940094 -1.8087372779846191 0.05969259887933731 0 1
30.297460556030273 1.6239843368530273 -1.8088349103927612 0.059689365327358246 0 1
30.306034088134766 1.4888378381729126 -1.808931589126587 0.05978004261851311 0 1
30.31396484375 1.3536523580551147 -1.809028148651123 0.05977693572640419 0 1
30.321327209472656 1.2184374332427979 -1.8091248273849487 0.05977372080087662 0 1
30.32810401916504 1.0831737518310547 -1.8092217445373535 0.05977049469947815 0 1
30.334257125854492 0.9478808641433716 -1.8093183040618896 0.05986054986715317 0 1
30.339628219604492 0.812548816204071 -1.8094074726104736 0.05985768511891365 0 1
33.985252380371094 0.7584277391433716 -2.0266025066375732 0.05943415313959122 0 2
33.98830032348633 0.6067675352096558 -2.0266013145446777 0.05943415313959122 0 2
33.99064254760742 0.4550878703594208 -2.0266003608703613 0.0594341978430748 0 2
33.99228286743164 0.30338865518569946 -2.026599168777466 0.05943428352475166 0 2
33.99330139160156 0.15170897543430328 -2.026597738265991 0.05943428352475166 0 2
33.99365234375 9.765624781721272e-06 -2.0265965461730957 0.05943426117300987 0 2
15.258437156677246 -0.0680859386920929 -0.9096723198890686 0.20134836435317993 2879 18
14.569941520690918 -0.1300390660762787 -0.8686505556106567 0.5887865424156189 2879 13
14.521523475646973 -0.19441406428813934 -0.8658071756362915 0.9057881236076355 2879 13
14.512285232543945 -0.25907227396965027 -0.8653163909912109 0.9607259035110474 2879 13
14.533769607543945 -0.3243359327316284 -0.8666747808456421 0.8089377284049988 2879 13
14.636014938354492 -0.3919628858566284 -0.8728689551353455 0.12042096257209778 2879 13
33.97685623168945 -1.061679720878601 -2.026585817337036 0.05943463370203972 0 2
33.97177505493164 -1.213281273841858 -2.0265839099884033 0.05943463742733002 0 2
33.96595764160156 -1.364892601966858 -2.0265822410583496 0.05943475663661957 0 2
33.959510803222656 -1.516445279121399 -2.026580572128296 0.059434786438941956 0 2
33.95241928100586 -1.66796875 -2.026578426361084 0.05943475663661957 0 2
33.94462966918945 -1.8194628953933716 -2.0265767574310303 0.05943477898836136 0 2
33.93603515625 -1.9708983898162842 -2.0265746116638184 0.05943501368165016 0 2
33.92689514160156 -2.122324228286743 -2.0265724658966064 0.05943502485752106 0 2
33.917049407958984 -2.273691415786743 -2.0265703201293945 0.05943509191274643 0 2
33.90654373168945 -2.4250195026397705 -2.0265681743621826 0.05943513289093971 0 2
33.89533233642578 -2.576298713684082 -2.0265660285949707 0.059435222297906876 0 2
33.88349533081055 -2.727548837661743 -2.026563882827759 0.059435226023197174 0 2
33.87091827392578 -2.878710985183716 -2.0265614986419678 0.059435345232486725 0 2
33.85771560668945 -3.029834032058716 -2.0265591144561768 0.05943537876009941 0 2
33.843807220458984 -3.1808788776397705 -2.0265567302703857 0.05943546071648598 0 2
33.82919692993164 -3.3318943977355957 -2.0265541076660156 0.05943559855222702 0 2
33.813926696777344 -3.482783079147339 -2.0265517234802246 0.05943572148680687 0 2
33.79804611206055 -3.6336424350738525 -2.0265491008758545 0.05943572148680687 0 2
33.78142547607422 -3.784433603286743 -2.0265464782714844 0.05943584069609642 0 2
24.504745483398438 -2.855966806411743 -1.4707856178283691 0.9162581562995911 0 5
33.746307373046875 -4.085771560668945 -2.026541233062744 0.05943583324551582 0 2
28.343671798706055 -3.560068368911743 -1.7030394077301025 0.05943595618009567 0 2
28.327383041381836 -3.6865038871765137 -1.703036904335022 0.059436243027448654 0 2
28.310625076293945 -3.812861204147339 -1.703034520149231 0.05943627655506134 0 2
28.29330062866211 -3.9391698837280273 -1.7030320167541504 0.05943630263209343 0 2
28.275447845458984 -4.065390586853027 -1.7030296325683594 0.05943630263209343 0 2
28.25697135925293 -4.191523551940918 -1.7030270099639893 0.05943642556667328 0 2
28.19968605041504 -4.311718463897705 -1.700714111328125 0.9117801785469055 0 6
28.2183780670166 -4.443534851074219 -1.703021764755249 0.05943653732538223 0 2
28.198163986206055 -4.569394588470459 -1.7030192613601685 0.05943676829338074 0 2
28.177440643310547 -4.695166110992432 -1.7030165195465088 0.05943689122796059 0 2
28.156190872192383 -4.820868968963623 -1.7030137777328491 0.05943690240383148 0 2
28.13441276550293 -4.946455001831055 -1.7030110359191895 0.05943688750267029 0 2
28.112010955810547 -5.071943283081055 -1.7030080556869507 0.059436995536088943 0 2
14.511347770690918 -2.685048818588257 -0.8798079490661621 0.9117053151130676 0 6
14.506171226501465 -2.751093626022339 -0.8802058696746826 0.6965545415878296 0 6
28.041404724121094 -5.447802543640137 -1.702999234199524 0.05943741276860237 0 2
28.01675796508789 -5.57287073135376 -1.7029963731765747 0.05943751335144043 0 2
27.991561889648438 -5.697832107543945 -1.7029932737350464 0.05943761393427849 0 2
27.96579933166504 -5.822675704956055 -1.7029900550842285 0.059437744319438934 0 2
27.93941307067871 -5.947392463684082 -1.7029870748519897 0.059437982738018036 0 2
27.91259765625 -6.072001934051514 -1.7029838562011719 0.059437986463308334 0 2
24.782949447631836 -5.507128715515137 -1.5135236978530884 0.9476142525672913 0 21
23.722929000854492 -5.382782936096191 -1.4502404928207397 0.9489426016807556 0 21
23.666034698486328 -5.481035232543945 -1.4482406377792358 0.9502519965171814 0 21
23.609277725219727 -5.579003810882568 -1.4462748765945435 0.9515422582626343 0 21
23.651601791381836 -5.700566291809082 -1.450415015220642 0.7197349667549133 0 21
23.727128982543945 -5.83092737197876 -1.4566292762756348 0.7166644930839539 0 21
25.01042938232422 -6.264804363250732 -1.5371067523956299 0.24569293856620789 0 4
24.551054000854492 -6.266298770904541 -1.5105767250061035 0.2500079870223999 0 4
24.10722541809082 -6.267744064331055 -1.484975814819336 0.25431811809539795 0 4
23.67820167541504 -6.269130706787109 -1.4602582454681396 0.2586229741573334 0 4
23.263202667236328 -6.270478248596191 -1.4363752603530884 0.2629230320453644 0 4
22.861581802368164 -6.271787166595459 -1.4132896661758423 0.26721757650375366 0 4
22.472675323486328 -6.273046970367432 -1.3909642696380615 0.27150657773017883 0 4
22.0958194732666 -6.274267673492432 -1.3693606853485107 0.2757905423641205 0 4
21.730487823486328 -6.275449275970459 -1.34844172000885 0.280068576335907 0 4
21.37613296508789 -6.276601314544678 -1.32817542552948 0.28434181213378906 0 4
20.999452590942383 -6.267920017242432 -1.306494116783142 0.288609117269516 0 4
20.670135498046875 -6.270224571228027 -1.2877358198165894 0.059439998120069504 0 4
20.64191436767578 -6.362382888793945 -1.2877328395843506 0.05944008380174637 0 4
20.61328125 -6.454413890838623 -1.2877297401428223 0.05944020673632622 0 4
20.584197998046875 -6.546337604522705 -1.2877267599105835 0.05944037437438965 0 4
22.20867156982422 -7.172216415405273 -1.3913476467132568 0.8550146818161011 0 20
22.20947265625 -7.282079696655273 -1.3934184312820435 0.8537432551383972 0 20
26.84115219116211 -8.933632850646973 -1.6864951848983765 0.9458794593811035 0 5
26.841678619384766 -9.067060470581055 -1.6890532970428467 0.944446325302124 0 5
19.86181640625 -6.808125019073486 -1.251734733581543 0.3231934905052185 0 20
19.584901809692383 -6.81103515625 -1.236186146736145 0.3252302408218384 0 20
19.32417869567871 -6.81716775894165 -1.2216355800628662 0.18181854486465454 0 20
19.153045654296875 -6.85305643081665 -1.2127388715744019 0.059441812336444855 0 20
19.12220573425293 -6.938427448272705 -1.212735652923584 0.05944203585386276 0 20
19.091014862060547 -7.023681640625 -1.2127324342727661 0.05944216623902321 0 20
19.059452056884766 -7.108788967132568 -1.2127292156219482 0.05944226682186127 0 20
19.02750015258789 -7.193749904632568 -1.2127259969711304 0.05944235995411873 0 20
18.9951171875 -7.278564453125 -1.2127227783203125 0.05944265425205231 0 20
26.987733840942383 -10.479540824890137 -1.7259633541107178 0.05944244936108589 0 0
26.940664291381836 -10.599843978881836 -1.7259588241577148 0.05944254621863365 0 0
26.89304542541504 -10.719950675964355 -1.7259540557861328 0.059442657977342606 0 0
26.844745635986328 -10.839765548706055 -1.7259491682052612 0.05944305285811424 0 0
26.79605484008789 -10.959443092346191 -1.7259445190429688 0.05944317579269409 0 0
26.74689483642578 -11.078906059265137 -1.7259396314620972 0.0594431571662426 0 0
26.697011947631836 -11.19808578491211 -1.7259347438812256 0.05944354459643364 0 0
26.646757125854492 -11.317099571228027 -1.725929856300354 0.05944359675049782 0 0
26.595937728881836 -11.435858726501465 -1.7259248495101929 0.05944373086094856 0 0
26.54456901550293 -11.554394721984863 -1.7259197235107422 0.059443891048431396 0 0
26.492576599121094 -11.672675132751465 -1.725914716720581 0.05944422632455826 0 0
26.440214157104492 -11.790781021118164 -1.72590970993042 0.05944425240159035 0 0
26.387245178222656 -11.90860366821289 -1.7259044647216797 0.05944446474313736 0 0
26.333749771118164 -12.026190757751465 -1.7258994579315186 0.059444673359394073 0 0
26.27974510192871 -12.14354419708252 -1.7258940935134888 0.0594448484480381 0 0
26.22523307800293 -12.260673522949219 -1.7258886098861694 0.05944497883319855 0 0
26.170156478881836 -12.377538681030273 -1.72588312625885 0.05944519862532616 0 0
26.114608764648438 -12.494179725646973 -1.7258777618408203 0.059445321559906006 0 0
26.058534622192383 -12.610547065734863 -1.72587251663208 0.059445470571517944 0 0
26.00191307067871 -12.726669311523438 -1.7258672714233398 0.05944567546248436 0 0
25.94480323791504 -12.842548370361328 -1.725861668586731 0.05944580212235451 0 0
25.887107849121094 -12.958134651184082 -1.7258564233779907 0.059446070343256 0 0
25.82892608642578 -13.073486328125 -1.7258509397506714 0.059446290135383606 0 0
25.770214080810547 -13.18856430053711 -1.7258449792861938 0.0594465397298336 0 0
25.71107292175293 -13.303407669067383 -1.725839614868164 0.05944662541151047 0 0
25.65134620666504 -13.417939186096191 -1.7258343696594238 0.05944688618183136 0 0
25.59113311767578 -13.532255172729492 -1.7258281707763672 0.059447042644023895 0 0
25.53044891357422 -13.646288871765137 -1.7258226871490479 0.05944715812802315 0 0
25.469160079956055 -13.760009765625 -1.725817084312439 0.059447482228279114 0 0
25.407461166381836 -13.873505592346191 -1.725811243057251 0.05944758281111717 0 0
25.345233917236328 -13.98671817779541 -1.7258055210113525 0.059447720646858215 0 0
25.28240203857422 -14.09959888458252 -1.725799560546875 0.05944808945059776 0 0
25.219179153442383 -14.212255477905273 -1.725793719291687 0.05944821238517761 0 0
25.15540885925293 -14.324589729309082 -1.725787878036499 0.059448447078466415 0 0
25.09113311767578 -14.436650276184082 -1.725781798362732 0.05944868177175522 0 0
25.026405334472656 -14.54842758178711 -1.7257758378982544 0.059448856860399246 0 0
24.961132049560547 -14.659912109375 -1.7257698774337769 0.05944909527897835 0 0
24.895370483398438 -14.771093368530273 -1.7257637977600098 0.05944932624697685 0 0
24.829158782958984 -14.882011413574219 -1.7257577180862427 0.05944943428039551 0 0
24.762401580810547 -14.992607116699219 -1.7257513999938965 0.05944966524839401 0 0
24.69515609741211 -15.102900505065918 -1.7257455587387085 0.05944989249110222 0 0
24.62742042541504 -15.212890625 -1.7257391214370728 0.05945010110735893 0 0
24.559179306030273 -15.322587966918945 -1.7257330417633057 0.059450358152389526 0 0
24.490447998046875 -15.431962966918945 -1.725726842880249 0.05945061519742012 0 0
24.421327590942383 -15.5410737991333 -1.7257202863693237 0.059450663626194 0 0
24.351619720458984 -15.649833679199219 -1.7257139682769775 0.059450913220644 0 0
24.281463623046875 -15.75829029083252 -1.725707769393921 0.0594511479139328 0 0
24.210859298706055 -15.866455078125 -1.7257012128829956 0.05945124104619026 0 0
24.13492202758789 -15.971102714538574 -1.7253565788269043 0.05294415354728699 0 0
24.054609298706055 -16.072763442993164 -1.7247223854064941 0.05296351760625839 0 0
23.973711013793945 -16.173925399780273 -1.7240835428237915 0.05298326909542084 0 0
23.88474464416504 -16.26946258544922 -1.7228913307189941 0.05738823860883713 0 0
3.93682599067688 -2.7074217796325684 -0.28483855724334717 0.5651869177818298 2795 6
3.907890558242798 -2.7132811546325684 -0.2836286723613739 0.8202168941497803 2795 6
3.9078807830810547 -2.739199161529541 -0.2845046818256378 0.8176699280738831 2795 6
3.9078612327575684 -2.765273332595825 -0.28540465235710144 0.8151072859764099 2795 6
23.416561126708984 -16.727392196655273 -1.7156155109405518 0.05763150006532669 0 0
23.32193374633789 -16.817480087280273 -1.71416437625885 0.057680319994688034 0 0
23.226972579956055 -16.907060623168945 -1.7127145528793335 0.057729169726371765 0 0
22.57124900817871 -16.5843448638916 -1.6698037385940552 0.03843033313751221 0 0
22.331912994384766 -16.56245994567871 -1.6575459241867065 0.038714468479156494 0 0
21.29017448425293 -15.937597274780273 -1.585489273071289 0.0637865960597992 0 0
21.1396484375 -15.972597122192383 -1.57957124710083 0.1385924071073532 0 0
21.0494327545166 -16.052509307861328 -1.5781669616699219 0.13871556520462036 0 0
20.959218978881836 -16.13212776184082 -1.5767847299575806 0.13883720338344574 0 0
20.873905181884766 -16.215312957763672 -1.5757948160171509 0.08675505220890045 0 0
20.845272064208984 -16.34273338317871 -1.5791224241256714 0.08657227456569672 0 0
20.816190719604492 -16.470468521118164 -1.5824745893478394 0.0863889753818512 0 0
20.785917282104492 -16.597881317138672 -1.5857897996902466 0.23586374521255493 0 0
20.721094131469727 -16.698076248168945 -1.5865087509155273 0.23575624823570251 0 0
20.65607452392578 -16.79827117919922 -1.5872575044631958 0.23564550280570984 0 0
20.590917587280273 -16.898496627807617 -1.5880258083343506 0.23553097248077393 0 0
13.00796890258789 -10.772841453552246 -1.006911039352417 0.39896681904792786 0 20
20.4600772857666 -17.098974227905273 -1.589640736579895 0.23529160022735596 0 0
20.394393920898438 -17.199237823486328 -1.5904852151870728 0.23516663908958435 0 0
20.358379364013672 -17.32491111755371 -1.5936923027038574 0.18611618876457214 0 0
20.32386589050293 -17.452539443969727 -1.5970733165740967 0.18572217226028442 0 0
20.289119720458984 -17.580604553222656 -1.600489616394043 0.18532562255859375 0 0
20.25408172607422 -17.7091007232666 -1.6039434671401978 0.1849265992641449 0 0
20.218730926513672 -17.83804702758789 -1.607433795928955 0.1845250278711319 0 0
20.183124542236328 -17.96742057800293 -1.610962986946106 0.18412107229232788 0 0
19.98710823059082 -17.95345687866211 -1.6017017364501953 0.029198268428444862 0 0
19.76138687133789 -17.91069221496582 -1.5900061130523682 0.029413118958473206 0 0
19.538280487060547 -17.867910385131836 -1.578452229499817 0.029628373682498932 0 0
19.31751823425293 -17.824970245361328 -1.5670305490493774 0.029844366014003754 0 0
19.150331497192383 -17.829580307006836 -1.5599043369293213 0.08718046545982361 0 0
12.494140625 -11.73697280883789 -1.0219767093658447 0.2557528018951416 0 20
12.370800971984863 -11.725439071655273 -1.0161551237106323 0.2572178542613983 0 20
12.285780906677246 -11.749384880065918 -1.0134702920913696 0.7217867374420166 0 20
12.285722732543945 -11.854736328125 -1.017816424369812 0.7187028527259827 0 20
12.285663604736328 -11.961005210876465 -1.0222229957580566 0.715604305267334 0 20
12.285624504089355 -12.068212509155273 -1.0266906023025513 0.7124913930892944 0 20
12.285566329956055 -12.176366806030273 -1.0312165021896362 0.7093639969825745 0 20
19.081151962280273 19.08114242553711 -1.7199903726577759 0.06354943662881851 0 25
19.16617202758789 18.995878219604492 -1.7199960947036743 0.0635492205619812 0 25
19.25080108642578 18.910184860229492 -1.7200019359588623 0.06354910135269165 0 25
