ply
format ascii 1.0
element vertex 1322
property float32 x
property float32 y
property float32 z
property float32 CosAngle
property uint32 ObjIdx
property uint32 ObjTag
end_header
1.3238 0.1733 -0.4265 0.2072 458 14
1.3228 0.1762 -0.4263 0.2073 458 14
1.3218 0.1790 -0.4261 0.2074 458 14
1.3208 0.1820 -0.4259 0.2075 458 14
1.3198 0.1848 -0.4257 0.2076 458 14
1.3188 0.1877 -0.4255 0.2076 458 14
1.3177 0.1905 -0.4253 0.2077 458 14
1.3166 0.1934 -0.4251 0.2078 458 14
1.3156 0.1963 -0.4249 0.2079 458 14
1.3145 0.1992 -0.4247 0.2080 458 14
1.3135 0.2020 -0.4245 0.2081 458 14
1.3124 0.2049 -0.4243 0.2082 458 14
1.3113 0.2077 -0.4241 0.2083 458 14
1.3102 0.2106 -0.4239 0.2084 458 14
1.3091 0.2134 -0.4237 0.2085 458 14
1.3080 0.2163 -0.4235 0.2086 458 14
1.3068 0.2191 -0.4233 0.2087 458 14
1.3057 0.2219 -0.4231 0.2088 458 14
1.3046 0.2247 -0.4229 0.2089 458 14
1.3034 0.2275 -0.4227 0.2090 458 14
1.3023 0.2303 -0.4225 0.2091 458 14
1.3011 0.2331 -0.4223 0.2093 458 14
1.2999 0.2359 -0.4221 0.2094 458 14
1.2987 0.2387 -0.4218 0.2095 458 14
1.2976 0.2415 -0.4216 0.2096 458 14
1.2963 0.2443 -0.4214 0.2097 458 14
1.2952 0.2471 -0.4212 0.2098 458 14
1.2939 0.2499 -0.4210 0.2099 458 14
1.2935 0.2528 -0.4210 0.1988 458 14
1.2930 0.2557 -0.4211 0.1988 458 14
1.2926 0.2586 -0.4211 0.1988 458 14
1.2921 0.2616 -0.4211 0.1987 458 14
1.2917 0.2645 -0.4212 0.1987 458 14
1.2912 0.2674 -0.4212 0.1987 458 14
1.2907 0.2704 -0.4213 0.1987 458 14
1.2902 0.2732 -0.4213 0.1987 458 14
1.2897 0.2762 -0.4213 0.1986 458 14
1.2892 0.2791 -0.4214 0.1986 458 14
1.2887 0.2820 -0.4214 0.1986 458 14
1.2881 0.2849 -0.4214 0.1986 458 14
1.2876 0.2878 -0.4215 0.1986 458 14
1.2870 0.2907 -0.4215 0.1986 458 14
1.2865 0.2937 -0.4215 0.1985 458 14
1.2859 0.2966 -0.4216 0.1985 458 14
1.2853 0.2995 -0.4216 0.1985 458 14
1.2847 0.3024 -0.4216 0.1985 458 14
1.2841 0.3053 -0.4217 0.1985 458 14
1.2835 0.3081 -0.4217 0.1985 458 14
1.2829 0.3111 -0.4217 0.1985 458 14
1.2823 0.3140 -0.4217 0.1985 458 14
1.2816 0.3169 -0.4217 0.1985 458 14
1.2810 0.3197 -0.4218 0.1984 458 14
1.2803 0.3226 -0.4218 0.1984 458 14
1.2796 0.3255 -0.4218 0.1984 458 14
1.2789 0.3284 -0.4218 0.1984 458 14
1.2783 0.3313 -0.4218 0.1984 458 14
1.2776 0.3342 -0.4218 0.1984 458 14
1.2769 0.3371 -0.4219 0.1984 458 14
1.2761 0.3400 -0.4219 0.1984 458 14
1.2754 0.3428 -0.4219 0.1984 458 14
1.2746 0.3457 -0.4219 0.1984 458 14
1.2739 0.3485 -0.4219 0.1984 458 14
1.2731 0.3514 -0.4219 0.1984 458 14
1.2724 0.3543 -0.4219 0.1984 458 14
1.2716 0.3571 -0.4219 0.1984 458 14
1.2708 0.3600 -0.4219 0.1984 458 14
1.2700 0.3628 -0.4219 0.1984 458 14
1.2692 0.3657 -0.4219 0.1984 458 14
1.2684 0.3685 -0.4219 0.1984 458 14
1.2675 0.3714 -0.4219 0.1984 458 14
1.2667 0.3742 -0.4219 0.1984 458 14
1.2658 0.3771 -0.4219 0.1984 458 14
1.2650 0.3799 -0.4219 0.1984 458 14
1.2641 0.3827 -0.4219 0.1984 458 14
1.2632 0.3855 -0.4219 0.1984 458 14
1.2623 0.3884 -0.4219 0.1984 458 14
1.2614 0.3912 -0.4219 0.1984 458 14
1.2605 0.3940 -0.4219 0.1984 458 14
1.2596 0.3969 -0.4219 0.1984 458 14
1.2587 0.3997 -0.4219 0.1984 458 14
1.2578 0.4025 -0.4219 0.1984 458 14
1.2568 0.4053 -0.4219 0.1984 458 14
1.2558 0.4081 -0.4218 0.1984 458 14
1.2549 0.4109 -0.4218 0.1984 458 14
1.2539 0.4137 -0.4218 0.1984 458 14
1.2529 0.4165 -0.4218 0.1984 458 14
1.2520 0.4193 -0.4218 0.1984 458 14
1.2509 0.4221 -0.4218 0.1984 458 14
1.2499 0.4248 -0.4217 0.1985 458 14
1.2489 0.4276 -0.4217 0.1985 458 14
1.2479 0.4304 -0.4217 0.1989 458 14
1.2468 0.4331 -0.4217 0.1989 458 14
1.2458 0.4360 -0.4216 0.1989 458 14
1.2447 0.4387 -0.4216 0.1989 458 14
1.2437 0.4415 -0.4216 0.1989 458 14
1.2426 0.4442 -0.4216 0.1989 458 14
1.2415 0.4470 -0.4215 0.1989 458 14
1.2404 0.4498 -0.4215 0.1989 458 14
1.2394 0.4525 -0.4215 0.1989 458 14
1.2383 0.4553 -0.4215 0.1990 458 14
1.2371 0.4580 -0.4214 0.1990 458 14
1.2360 0.4607 -0.4214 0.1990 458 14
1.2349 0.4635 -0.4214 0.1990 458 14
1.2337 0.4662 -0.4213 0.1990 458 14
1.2326 0.4689 -0.4213 0.1990 458 14
1.2314 0.4716 -0.4212 0.1991 458 14
1.2302 0.4744 -0.4212 0.1991 458 14
1.2290 0.4771 -0.4212 0.1991 458 14
1.2279 0.4798 -0.4211 0.1991 458 14
1.2266 0.4825 -0.4211 0.1991 458 14
1.2255 0.4852 -0.4210 0.1992 458 14
1.2242 0.4879 -0.4210 0.1992 458 14
1.2230 0.4906 -0.4210 0.1992 458 14
1.2218 0.4933 -0.4209 0.1992 458 14
1.2205 0.4960 -0.4209 0.1992 458 14
1.2193 0.4987 -0.4208 0.1993 458 14
1.2180 0.5013 -0.4208 0.1993 458 14
1.2167 0.5040 -0.4207 0.1993 458 14
1.2155 0.5067 -0.4207 0.1993 458 14
1.2141 0.5093 -0.4206 0.1994 458 14
1.2128 0.5120 -0.4206 0.1994 458 14
1.2115 0.5146 -0.4205 0.1994 458 14
1.2102 0.5173 -0.4204 0.1994 458 14
1.2089 0.5200 -0.4204 0.1995 458 14
1.2075 0.5226 -0.4203 0.1995 458 14
1.2062 0.5252 -0.4203 0.1995 458 14
1.2049 0.5279 -0.4202 0.1995 458 14
1.2035 0.5305 -0.4202 0.1996 458 14
1.2021 0.5331 -0.4201 0.1996 458 14
1.2007 0.5357 -0.4200 0.1996 458 14
1.1994 0.5383 -0.4200 0.1997 458 14
1.1980 0.5409 -0.4199 0.1997 458 14
1.1966 0.5436 -0.4198 0.1997 458 14
1.1951 0.5461 -0.4198 0.1998 458 14
1.1937 0.5487 -0.4197 0.1998 458 14
1.1923 0.5513 -0.4196 0.1998 458 14
1.1908 0.5539 -0.4196 0.1999 458 14
1.1894 0.5564 -0.4195 0.1999 458 14
1.1879 0.5590 -0.4194 0.1999 458 14
1.1865 0.5616 -0.4193 0.2000 458 14
1.1850 0.5641 -0.4193 0.2000 458 14
1.1835 0.5667 -0.4192 0.2000 458 14
1.1820 0.5692 -0.4191 0.2001 458 14
1.1805 0.5718 -0.4190 0.2001 458 14
1.1790 0.5743 -0.4190 0.2001 458 14
1.1775 0.5769 -0.4189 0.2002 458 14
1.1760 0.5794 -0.4188 0.2002 458 14
1.1745 0.5819 -0.4187 0.2003 458 14
1.1729 0.5844 -0.4186 0.2003 458 14
1.1713 0.5869 -0.4185 0.2003 458 14
1.1698 0.5895 -0.4185 0.2004 458 14
1.1682 0.5920 -0.4184 0.2004 458 14
1.1666 0.5945 -0.4183 0.2005 458 14
1.1651 0.5970 -0.4182 0.2005 458 14
1.1635 0.5994 -0.4181 0.2006 458 14
1.1619 0.6019 -0.4180 0.2006 458 14
1.1603 0.6044 -0.4179 0.2006 458 14
1.1586 0.6068 -0.4178 0.2007 458 14
1.1570 0.6093 -0.4177 0.2007 458 14
1.1554 0.6118 -0.4176 0.2008 458 14
1.1538 0.6142 -0.4175 0.2008 458 14
1.1521 0.6167 -0.4174 0.2009 458 14
1.1504 0.6191 -0.4174 0.2009 458 14
1.1488 0.6215 -0.4173 0.2010 458 14
1.1471 0.6240 -0.4172 0.2010 458 14
1.1454 0.6264 -0.4171 0.2011 458 14
1.1438 0.6288 -0.4170 0.2011 458 14
1.1421 0.6312 -0.4168 0.2012 458 14
1.1404 0.6336 -0.4167 0.2012 458 14
1.1386 0.6360 -0.4166 0.2013 458 14
1.1369 0.6384 -0.4165 0.2013 458 14
1.1352 0.6408 -0.4164 0.2014 458 14
1.1335 0.6432 -0.4163 0.2014 458 14
1.1317 0.6456 -0.4162 0.2015 458 14
1.1299 0.6479 -0.4161 0.2015 458 14
1.1282 0.6502 -0.4160 0.2016 458 14
1.1265 0.6526 -0.4159 0.2016 458 14
1.1247 0.6550 -0.4158 0.2017 458 14
1.1229 0.6573 -0.4157 0.2017 458 14
1.1211 0.6596 -0.4155 0.2018 458 14
1.1193 0.6620 -0.4154 0.2019 458 14
1.1175 0.6643 -0.4153 0.2019 458 14
1.1157 0.6666 -0.4152 0.2020 458 14
1.1139 0.6689 -0.4151 0.2020 458 14
1.1121 0.6712 -0.4149 0.2021 458 14
1.1102 0.6736 -0.4148 0.2021 458 14
1.1084 0.6758 -0.4147 0.2022 458 14
1.1066 0.6781 -0.4146 0.2023 458 14
1.1047 0.6804 -0.4145 0.2023 458 14
1.1028 0.6827 -0.4143 0.2024 458 14
1.1010 0.6849 -0.4142 0.2024 458 14
1.0991 0.6872 -0.4141 0.2025 458 14
1.0972 0.6895 -0.4140 0.2026 458 14
1.0953 0.6917 -0.4138 0.2026 458 14
1.0934 0.6939 -0.4137 0.2027 458 14
1.0915 0.6962 -0.4136 0.2028 458 14
1.0896 0.6984 -0.4134 0.2028 458 14
1.0877 0.7006 -0.4133 0.2029 458 14
1.0858 0.7028 -0.4132 0.2029 458 14
1.0838 0.7050 -0.4130 0.2030 458 14
1.0819 0.7072 -0.4129 0.2031 458 14
1.0799 0.7094 -0.4128 0.2031 458 14
1.0786 0.7120 -0.4129 0.1370 458 14
1.0782 0.7152 -0.4133 0.1404 458 14
1.0779 0.7185 -0.4138 0.1402 458 14
1.0776 0.7218 -0.4143 0.1401 458 14
1.0773 0.7251 -0.4148 0.1399 458 14
1.0769 0.7284 -0.4153 0.1397 458 14
1.0766 0.7317 -0.4158 0.1396 458 14
1.0762 0.7350 -0.4163 0.1394 458 14
1.0759 0.7383 -0.4168 0.1392 458 14
1.0755 0.7416 -0.4173 0.1390 458 14
1.0751 0.7449 -0.4178 0.1389 458 14
1.0747 0.7481 -0.4183 0.1387 458 14
1.0743 0.7514 -0.4188 0.1386 458 14
1.0739 0.7547 -0.4193 0.1384 458 14
1.0734 0.7580 -0.4198 0.1382 458 14
1.0730 0.7613 -0.4203 0.1381 458 14
1.0725 0.7646 -0.4208 0.1379 458 14
1.0720 0.7679 -0.4213 0.1378 458 14
1.0715 0.7712 -0.4217 0.1376 458 14
1.0710 0.7745 -0.4222 0.1374 458 14
1.0705 0.7778 -0.4227 0.1373 458 14
1.0700 0.7811 -0.4232 0.1371 458 14
1.0694 0.7844 -0.4237 0.1370 458 14
1.0688 0.7876 -0.4241 0.1368 458 14
1.0683 0.7909 -0.4246 0.1367 458 14
1.0677 0.7942 -0.4251 0.1365 458 14
1.0671 0.7975 -0.4256 0.1364 458 14
1.0665 0.8008 -0.4260 0.1362 458 14
1.0659 0.8041 -0.4265 0.1361 458 14
1.0652 0.8073 -0.4270 0.1359 458 14
1.0647 0.8107 -0.4275 0.2313 458 14
1.0642 0.8140 -0.4280 0.2310 458 14
1.0636 0.8174 -0.4285 0.2307 458 14
1.0631 0.8208 -0.4291 0.2304 458 14
1.0625 0.8242 -0.4296 0.2302 458 14
1.0620 0.8276 -0.4301 0.2299 458 14
1.0614 0.8310 -0.4306 0.2296 458 14
1.0608 0.8343 -0.4311 0.2293 458 14
1.0602 0.8377 -0.4317 0.2290 458 14
1.0596 0.8411 -0.4322 0.2288 458 14
1.0590 0.8445 -0.4327 0.2285 458 14
1.0584 0.8479 -0.4332 0.2282 458 14
1.0577 0.8513 -0.4337 0.2279 458 14
1.0571 0.8547 -0.4343 0.2277 458 14
1.0564 0.8581 -0.4348 0.2274 458 14
1.0558 0.8616 -0.4353 0.2271 458 14
1.0551 0.8650 -0.4358 0.2268 458 14
1.0545 0.8684 -0.4364 0.2266 458 14
1.0538 0.8718 -0.4369 0.2263 458 14
1.0531 0.8752 -0.4374 0.2260 458 14
1.0524 0.8786 -0.4379 0.2257 458 14
1.0517 0.8821 -0.4385 0.2255 458 14
1.0510 0.8854 -0.4390 0.2252 458 14
1.0502 0.8889 -0.4395 0.2249 458 14
1.0495 0.8923 -0.4401 0.2247 458 14
1.0488 0.8957 -0.4406 0.2244 458 14
1.0480 0.8992 -0.4411 0.2241 458 14
1.0472 0.9026 -0.4417 0.2239 458 14
1.0465 0.9061 -0.4422 0.2236 458 14
1.0457 0.9095 -0.4427 0.2233 458 14
1.0449 0.9129 -0.4433 0.2231 458 14
1.0441 0.9164 -0.4438 0.2228 458 14
1.0433 0.9198 -0.4443 0.2225 458 14
1.0425 0.9232 -0.4449 0.2222 458 14
1.0417 0.9267 -0.4454 0.2220 458 14
1.0408 0.9301 -0.4459 0.2217 458 14
1.0400 0.9336 -0.4465 0.2214 458 14
1.0391 0.9371 -0.4470 0.2212 458 14
1.0383 0.9405 -0.4475 0.2209 458 14
1.0374 0.9440 -0.4481 0.2206 458 14
1.0365 0.9475 -0.4486 0.2204 458 14
1.0357 0.9510 -0.4491 0.2201 458 14
1.0348 0.9544 -0.4497 0.2199 458 14
1.0338 0.9579 -0.4502 0.2196 458 14
1.0329 0.9613 -0.4508 0.2193 458 14
1.0320 0.9648 -0.4513 0.2191 458 14
1.0311 0.9683 -0.4518 0.2188 458 14
1.0301 0.9717 -0.4524 0.2185 458 14
1.0292 0.9752 -0.4529 0.2183 458 14
1.0282 0.9787 -0.4535 0.2180 458 14
1.0273 0.9822 -0.4540 0.2178 458 14
1.0263 0.9857 -0.4546 0.2175 458 14
1.0253 0.9892 -0.4551 0.2172 458 14
1.0243 0.9926 -0.4556 0.2170 458 14
1.0232 0.9961 -0.4562 0.2167 458 14
1.0222 0.9995 -0.4567 0.2165 458 14
1.0212 1.0030 -0.4573 0.2162 458 14
1.0202 1.0065 -0.4578 0.2159 458 14
1.0191 1.0100 -0.4584 0.2157 458 14
1.0180 1.0135 -0.4589 0.2154 458 14
2.9347 -2.9347 -1.3637 0.6489 437 14
2.9483 -2.9351 -1.3669 0.6473 437 14
2.9620 -2.9355 -1.3702 0.6458 437 14
2.9757 -2.9359 -1.3735 0.6442 437 14
2.9895 -2.9363 -1.3768 0.6427 437 14
3.0033 -2.9367 -1.3802 0.6411 437 14
3.0172 -2.9371 -1.3835 0.6396 437 14
3.0312 -2.9375 -1.3869 0.6380 437 14
3.0453 -2.9379 -1.3903 0.6364 437 14
3.0594 -2.9383 -1.3938 0.6349 437 14
3.0736 -2.9387 -1.3972 0.6333 437 14
3.0879 -2.9391 -1.4007 0.6317 437 14
3.1022 -2.9395 -1.4042 0.6301 437 14
3.1166 -2.9399 -1.4077 0.6286 437 14
3.1311 -2.9403 -1.4113 0.6270 437 14
3.1457 -2.9408 -1.4149 0.6254 437 14
3.1603 -2.9412 -1.4185 0.6238 437 14
3.1750 -2.9416 -1.4221 0.6222 437 14
3.1894 -2.9416 -1.4256 0.6605 437 14
3.2034 -2.9412 -1.4289 0.6590 437 14
3.2174 -2.9408 -1.4322 0.6575 437 14
3.2315 -2.9404 -1.4355 0.6560 437 14
3.2456 -2.9400 -1.4389 0.6544 437 14
3.2598 -2.9396 -1.4423 0.6529 437 14
3.2741 -2.9391 -1.4457 0.6514 437 14
3.2885 -2.9387 -1.4491 0.6498 437 14
3.3029 -2.9383 -1.4525 0.6483 437 14
3.3174 -2.9379 -1.4560 0.6468 437 14
3.3319 -2.9375 -1.4595 0.6452 437 14
3.3465 -2.9370 -1.4630 0.6437 437 14
3.3612 -2.9366 -1.4665 0.6421 437 14
3.3760 -2.9362 -1.4701 0.6406 437 14
3.3908 -2.9357 -1.4737 0.6390 437 14
3.4058 -2.9353 -1.4773 0.6374 437 14
3.4207 -2.9349 -1.4809 0.6359 437 14
3.4358 -2.9344 -1.4846 0.6343 437 14
3.4509 -2.9340 -1.4883 0.6327 437 14
3.4662 -2.9336 -1.4920 0.6311 437 14
3.4814 -2.9331 -1.4958 0.6296 437 14
3.4968 -2.9327 -1.4995 0.6280 437 14
3.5144 -2.9340 -1.5042 0.5197 437 14
3.5321 -2.9354 -1.5090 0.5181 437 14
3.5499 -2.9368 -1.5138 0.5164 437 14
3.5679 -2.9381 -1.5186 0.5148 437 14
3.5860 -2.9396 -1.5235 0.5131 437 14
3.6042 -2.9410 -1.5284 0.5115 437 14
3.6225 -2.9424 -1.5334 0.5098 437 14
3.6409 -2.9438 -1.5384 0.5082 437 14
3.6595 -2.9453 -1.5435 0.5065 437 14
3.6781 -2.9467 -1.5485 0.5048 437 14
3.6969 -2.9482 -1.5537 0.5032 437 14
3.7159 -2.9496 -1.5588 0.5015 437 14
3.7349 -2.9512 -1.5641 0.4998 437 14
3.7541 -2.9527 -1.5693 0.4981 437 14
3.7734 -2.9542 -1.5746 0.4965 437 14
3.7929 -2.9557 -1.5800 0.4948 437 14
3.8125 -2.9572 -1.5854 0.4931 437 14
3.8322 -2.9588 -1.5908 0.4914 437 14
3.8521 -2.9604 -1.5963 0.4897 437 14
4.0158 -3.0719 -1.6612 0.5078 437 14
4.0141 -3.0563 -1.6577 0.5089 437 14
4.0124 -3.0408 -1.6542 0.5100 437 14
4.0107 -3.0254 -1.6507 0.5111 437 14
4.0091 -3.0101 -1.6472 0.5121 437 14
4.0074 -2.9948 -1.6438 0.5132 437 14
4.0058 -2.9796 -1.6404 0.5143 437 14
4.0042 -2.9645 -1.6370 0.5153 437 14
4.0026 -2.9494 -1.6336 0.5164 437 14
4.0010 -2.9343 -1.6303 0.5175 437 14
3.9994 -2.9195 -1.6269 0.5185 437 14
3.9978 -2.9046 -1.6236 0.5196 437 14
4.0040 -2.8954 -1.6235 0.5391 437 14
4.0237 -2.8958 -1.6288 0.5373 437 14
4.0434 -2.8963 -1.6342 0.5356 437 14
4.0632 -2.8967 -1.6396 0.5338 437 14
4.0832 -2.8972 -1.6450 0.5320 437 14
4.1033 -2.8976 -1.6505 0.5303 437 14
4.1236 -2.8981 -1.6560 0.5285 437 14
4.1440 -2.8985 -1.6616 0.5267 437 14
4.1645 -2.8990 -1.6672 0.5249 437 14
4.1852 -2.8995 -1.6729 0.5232 437 14
4.2060 -2.8999 -1.6786 0.5214 437 14
4.2270 -2.9004 -1.6844 0.5196 437 14
4.2480 -2.9009 -1.6902 0.5178 437 14
4.2693 -2.9014 -1.6960 0.5160 437 14
4.2907 -2.9019 -1.7020 0.5142 437 14
4.3122 -2.9024 -1.7079 0.5124 437 14
4.3339 -2.9029 -1.7139 0.5106 437 14
4.3558 -2.9034 -1.7200 0.5088 437 14
4.3778 -2.9039 -1.7261 0.5070 437 14
4.3999 -2.9044 -1.7323 0.5052 437 14
4.4223 -2.9049 -1.7385 0.5034 437 14
4.4447 -2.9054 -1.7447 0.5016 437 14
4.4674 -2.9059 -1.7511 0.4998 437 14
4.4902 -2.9064 -1.7574 0.4980 437 14
4.5132 -2.9070 -1.7639 0.4962 437 14
4.6252 -2.9645 -1.8051 0.3119 0 1
4.6319 -2.9541 -1.8051 0.3119 0 1
4.6385 -2.9437 -1.8051 0.3119 0 1
4.6451 -2.9333 -1.8051 0.3119 0 1
4.6517 -2.9228 -1.8051 0.3119 0 1
4.6582 -2.9124 -1.8051 0.3119 0 1
4.6648 -2.9019 -1.8051 0.3119 0 1
4.6712 -2.8915 -1.8051 0.3119 0 1
4.6777 -2.8810 -1.8051 0.3119 0 1
4.6842 -2.8705 -1.8051 0.3119 0 1
4.6906 -2.8600 -1.8051 0.3119 0 1
4.6970 -2.8494 -1.8051 0.3119 0 1
4.7034 -2.8389 -1.8051 0.3119 0 1
4.7098 -2.8283 -1.8051 0.3119 0 1
4.7161 -2.8178 -1.8051 0.3119 0 1
4.7224 -2.8072 -1.8051 0.3119 0 1
4.7287 -2.7965 -1.8051 0.3119 0 1
4.7350 -2.7860 -1.8051 0.3119 0 1
4.7413 -2.7753 -1.8051 0.3119 0 1
4.7475 -2.7647 -1.8051 0.3119 0 1
4.7537 -2.7540 -1.8051 0.3119 0 1
4.7598 -2.7433 -1.8051 0.3119 0 1
4.7660 -2.7326 -1.8051 0.3119 0 1
4.7721 -2.7219 -1.8051 0.3119 0 1
4.7782 -2.7112 -1.8051 0.3119 0 1
4.7843 -2.7005 -1.8051 0.3119 0 1
4.7903 -2.6898 -1.8051 0.3119 0 1
4.7964 -2.6790 -1.8051 0.3119 0 1
4.8023 -2.6683 -1.8051 0.3119 0 1
4.8083 -2.6575 -1.8051 0.3119 0 1
4.8143 -2.6467 -1.8051 0.3119 0 1
4.8203 -2.6359 -1.8051 0.3119 0 1
4.8261 -2.6251 -1.8051 0.3119 0 1
4.8320 -2.6142 -1.8051 0.3119 0 1
4.8379 -2.6034 -1.8051 0.3119 0 1
4.8437 -2.5925 -1.8051 0.3119 0 1
4.8496 -2.5816 -1.8051 0.3119 0 1
4.8553 -2.5708 -1.8051 0.3119 0 1
4.8611 -2.5598 -1.8051 0.3119 0 1
4.8668 -2.5489 -1.8051 0.3119 0 1
4.8725 -2.5380 -1.8051 0.3119 0 1
4.8782 -2.5271 -1.8051 0.3119 0 1
4.8838 -2.5161 -1.8051 0.3119 0 1
4.8895 -2.5051 -1.8051 0.3119 0 1
4.8951 -2.4942 -1.8051 0.3119 0 1
4.9007 -2.4832 -1.8051 0.3119 0 1
4.9062 -2.4722 -1.8051 0.3119 0 1
4.9118 -2.4611 -1.8051 0.3119 0 1
4.9173 -2.4502 -1.8051 0.3119 0 1
4.9228 -2.4391 -1.8051 0.3119 0 1
4.9283 -2.4281 -1.8051 0.3119 0 1
4.9337 -2.4170 -1.8051 0.3119 0 1
4.9391 -2.4059 -1.8051 0.3119 0 1
4.9445 -2.3948 -1.8052 0.3119 0 1
4.9499 -2.3837 -1.8052 0.3119 0 1
4.9552 -2.3726 -1.8052 0.3119 0 1
4.9605 -2.3615 -1.8052 0.3119 0 1
4.9658 -2.3503 -1.8052 0.3119 0 1
4.9711 -2.3392 -1.8052 0.3119 0 1
4.9763 -2.3281 -1.8052 0.3119 0 1
4.9816 -2.3169 -1.8052 0.3119 0 1
4.9868 -2.3057 -1.8052 0.3119 0 1
4.9919 -2.2945 -1.8052 0.3119 0 1
4.9971 -2.2833 -1.8052 0.3119 0 1
5.0022 -2.2721 -1.8052 0.3119 0 1
5.0072 -2.2609 -1.8052 0.3119 0 1
5.0123 -2.2496 -1.8052 0.3119 0 1
5.0174 -2.2384 -1.8052 0.3119 0 1
5.0224 -2.2271 -1.8052 0.3119 0 1
5.0273 -2.2159 -1.8052 0.3119 0 1
5.0323 -2.2045 -1.8052 0.3119 0 1
5.0373 -2.1932 -1.8052 0.3119 0 1
5.0422 -2.1819 -1.8052 0.3119 0 1
5.0471 -2.1706 -1.8052 0.3119 0 1
5.0519 -2.1593 -1.8052 0.3119 0 1
5.0568 -2.1479 -1.8052 0.3119 0 1
5.0616 -2.1366 -1.8052 0.3119 0 1
5.0663 -2.1253 -1.8052 0.3119 0 1
5.0711 -2.1138 -1.8052 0.3119 0 1
5.0758 -2.1024 -1.8052 0.3119 0 1
5.0806 -2.0911 -1.8052 0.3119 0 1
5.0853 -2.0796 -1.8052 0.3119 0 1
5.0899 -2.0683 -1.8052 0.3119 0 1
5.0946 -2.0568 -1.8052 0.3119 0 1
5.0991 -2.0454 -1.8052 0.3119 0 1
5.1037 -2.0339 -1.8052 0.3119 0 1
5.1083 -2.0225 -1.8052 0.3119 0 1
5.1128 -2.0110 -1.8052 0.3119 0 1
5.1173 -1.9996 -1.8052 0.3119 0 1
1.4248 -0.5530 -0.5022 0.1629 458 14
1.4241 -0.5491 -0.5015 0.1632 458 14
1.4234 -0.5451 -0.5008 0.1634 458 14
1.4226 -0.5412 -0.5001 0.1636 458 14
1.4219 -0.5373 -0.4994 0.1638 458 14
1.4211 -0.5334 -0.4987 0.1641 458 14
1.4203 -0.5294 -0.4980 0.1643 458 14
1.4196 -0.5255 -0.4974 0.1645 458 14
1.4187 -0.5216 -0.4967 0.1647 458 14
1.4179 -0.5177 -0.4960 0.1650 458 14
1.4171 -0.5138 -0.4953 0.1652 458 14
1.4163 -0.5099 -0.4946 0.1654 458 14
1.4154 -0.5060 -0.4939 0.1657 458 14
1.4146 -0.5021 -0.4932 0.1659 458 14
1.4137 -0.4983 -0.4925 0.1661 458 14
1.4128 -0.4943 -0.4918 0.1664 458 14
1.4120 -0.4905 -0.4911 0.1666 458 14
1.4110 -0.4866 -0.4904 0.1668 458 14
1.4101 -0.4828 -0.4897 0.1671 458 14
1.4092 -0.4790 -0.4890 0.1673 458 14
1.4083 -0.4751 -0.4883 0.1676 458 14
1.4073 -0.4712 -0.4877 0.1678 458 14
1.4064 -0.4674 -0.4870 0.1680 458 14
1.4054 -0.4636 -0.4863 0.1683 458 14
1.4045 -0.4598 -0.4856 0.1685 458 14
1.4035 -0.4561 -0.4849 0.1687 458 14
1.4025 -0.4522 -0.4842 0.1690 458 14
1.4015 -0.4485 -0.4835 0.1692 458 14
1.4005 -0.4446 -0.4828 0.1695 458 14
1.3995 -0.4409 -0.4821 0.1697 458 14
1.3985 -0.4371 -0.4814 0.1700 458 14
1.3974 -0.4333 -0.4807 0.1702 458 14
1.3964 -0.4296 -0.4800 0.1705 458 14
1.3953 -0.4259 -0.4793 0.1707 458 14
1.3942 -0.4221 -0.4786 0.1709 458 14
1.3931 -0.4184 -0.4779 0.1712 458 14
1.3921 -0.4146 -0.4773 0.1714 458 14
1.3910 -0.4109 -0.4766 0.1717 458 14
1.3899 -0.4072 -0.4759 0.1719 458 14
1.3887 -0.4035 -0.4752 0.1722 458 14
1.3876 -0.3998 -0.4745 0.1724 458 14
1.3865 -0.3961 -0.4738 0.1727 458 14
1.3854 -0.3924 -0.4731 0.1730 458 14
1.3842 -0.3887 -0.4724 0.1732 458 14
1.3830 -0.3851 -0.4717 0.1735 458 14
1.3819 -0.3814 -0.4710 0.1737 458 14
1.3807 -0.3777 -0.4703 0.1740 458 14
1.3795 -0.3741 -0.4696 0.1742 458 14
1.3783 -0.3704 -0.4689 0.1745 458 14
1.3771 -0.3668 -0.4683 0.1747 458 14
1.3759 -0.3632 -0.4676 0.1750 458 14
1.3747 -0.3596 -0.4669 0.1753 458 14
1.3735 -0.3559 -0.4662 0.1755 458 14
1.3722 -0.3524 -0.4655 0.1758 458 14
1.3710 -0.3487 -0.4648 0.1760 458 14
1.3697 -0.3451 -0.4641 0.1763 458 14
1.3685 -0.3416 -0.4634 0.1766 458 14
1.3672 -0.3380 -0.4627 0.1768 458 14
1.3659 -0.3344 -0.4621 0.1771 458 14
1.3646 -0.3309 -0.4614 0.1773 458 14
1.3633 -0.3273 -0.4607 0.1776 458 14
1.3620 -0.3237 -0.4600 0.1779 458 14
1.3607 -0.3202 -0.4593 0.1781 458 14
1.3594 -0.3167 -0.4586 0.1784 458 14
1.3581 -0.3132 -0.4579 0.1787 458 14
1.3567 -0.3097 -0.4572 0.1789 458 14
1.3554 -0.3062 -0.4566 0.1792 458 14
1.3541 -0.3026 -0.4559 0.1795 458 14
1.3527 -0.2991 -0.4552 0.1798 458 14
1.3513 -0.2957 -0.4545 0.1800 458 14
1.3500 -0.2922 -0.4538 0.1803 458 14
1.3486 -0.2887 -0.4531 0.1806 458 14
1.3472 -0.2853 -0.4525 0.1808 458 14
1.3458 -0.2818 -0.4518 0.1811 458 14
1.3444 -0.2784 -0.4511 0.1814 458 14
1.3430 -0.2749 -0.4504 0.1817 458 14
1.3416 -0.2715 -0.4497 0.1819 458 14
1.3402 -0.2681 -0.4491 0.1822 458 14
1.3387 -0.2647 -0.4484 0.1825 458 14
1.3373 -0.2613 -0.4477 0.1828 458 14
1.3358 -0.2579 -0.4470 0.1830 458 14
1.3344 -0.2545 -0.4463 0.1833 458 14
1.3329 -0.2511 -0.4457 0.1836 458 14
1.3314 -0.2478 -0.4450 0.1839 458 14
1.3300 -0.2444 -0.4443 0.1842 458 14
1.3285 -0.2411 -0.4436 0.1844 458 14
1.3270 -0.2377 -0.4430 0.1847 458 14
1.3255 -0.2344 -0.4423 0.1850 458 14
1.3240 -0.2311 -0.4416 0.1853 458 14
1.3225 -0.2277 -0.4409 0.1856 458 14
1.3210 -0.2244 -0.4403 0.1858 458 14
1.3195 -0.2211 -0.4396 0.1861 458 14
1.3180 -0.2179 -0.4389 0.1864 458 14
1.3164 -0.2145 -0.4382 0.1867 458 14
1.3149 -0.2112 -0.4376 0.1870 458 14
1.3148 -0.2082 -0.4374 0.2077 458 14
1.3151 -0.2052 -0.4373 0.2078 458 14
1.3154 -0.2023 -0.4373 0.2078 458 14
1.3156 -0.1993 -0.4372 0.2078 458 14
1.3159 -0.1963 -0.4371 0.2079 458 14
1.3161 -0.1933 -0.4371 0.2079 458 14
1.3163 -0.1904 -0.4370 0.2079 458 14
1.3165 -0.1873 -0.4369 0.2080 458 14
1.3167 -0.1844 -0.4369 0.2080 458 14
1.3169 -0.1814 -0.4368 0.2080 458 14
1.3171 -0.1783 -0.4367 0.2081 458 14
1.3173 -0.1754 -0.4366 0.2081 458 14
1.3174 -0.1724 -0.4366 0.2081 458 14
1.3176 -0.1694 -0.4365 0.2082 458 14
1.3177 -0.1665 -0.4364 0.2082 458 14
1.3178 -0.1634 -0.4363 0.2083 458 14
1.3179 -0.1604 -0.4362 0.2083 458 14
1.3180 -0.1575 -0.4362 0.2083 458 14
1.3182 -0.1545 -0.4361 0.2084 458 14
1.3182 -0.1515 -0.4360 0.2084 458 14
1.3183 -0.1486 -0.4359 0.2085 458 14
1.3184 -0.1455 -0.4358 0.2085 458 14
1.3185 -0.1425 -0.4357 0.2085 458 14
1.3185 -0.1396 -0.4356 0.2086 458 14
1.3185 -0.1366 -0.4356 0.2086 458 14
1.3186 -0.1336 -0.4355 0.2087 458 14
1.3186 -0.1306 -0.4354 0.2087 458 14
1.3186 -0.1276 -0.4353 0.2087 458 14
1.3186 -0.1246 -0.4352 0.2088 458 14
1.3186 -0.1216 -0.4351 0.2088 458 14
1.3186 -0.1187 -0.4350 0.2089 458 14
1.3186 -0.1157 -0.4349 0.2089 458 14
1.3185 -0.1127 -0.4348 0.2090 458 14
1.3185 -0.1097 -0.4347 0.2090 458 14
1.3184 -0.1067 -0.4346 0.2091 458 14
1.3183 -0.1037 -0.4345 0.2091 458 14
1.3183 -0.1007 -0.4344 0.2092 458 14
1.3182 -0.0978 -0.4343 0.2092 458 14
1.3181 -0.0948 -0.4342 0.2093 458 14
1.3180 -0.0918 -0.4341 0.2093 458 14
1.3179 -0.0888 -0.4340 0.2094 458 14
1.3177 -0.0858 -0.4339 0.2094 458 14
1.3176 -0.0829 -0.4338 0.2095 458 14
1.3174 -0.0799 -0.4337 0.2095 458 14
1.3173 -0.0769 -0.4336 0.2096 458 14
1.3171 -0.0739 -0.4334 0.2096 458 14
1.3170 -0.0710 -0.4333 0.2097 458 14
1.3168 -0.0680 -0.4332 0.2097 458 14
1.3166 -0.0650 -0.4331 0.2098 458 14
1.3164 -0.0621 -0.4330 0.2098 458 14
1.3161 -0.0591 -0.4329 0.2099 458 14
1.3159 -0.0561 -0.4328 0.2100 458 14
1.3157 -0.0531 -0.4326 0.2100 458 14
1.3155 -0.0502 -0.4325 0.2101 458 14
1.3152 -0.0472 -0.4324 0.2101 458 14
1.3149 -0.0443 -0.4323 0.2102 458 14
1.3146 -0.0413 -0.4322 0.2103 458 14
1.3144 -0.0383 -0.4320 0.2103 458 14
1.3141 -0.0354 -0.4319 0.2104 458 14
1.3138 -0.0324 -0.4318 0.2104 458 14
1.3135 -0.0295 -0.4317 0.2105 458 14
1.3131 -0.0265 -0.4315 0.2106 458 14
1.3128 -0.0235 -0.4314 0.2106 458 14
1.3125 -0.0206 -0.4313 0.2107 458 14
1.3121 -0.0176 -0.4312 0.2107 458 14
1.3118 -0.0147 -0.4310 0.2103 458 14
1.3114 -0.0117 -0.4309 0.2103 458 14
1.3110 -0.0088 -0.4308 0.2104 458 14
1.3107 -0.0059 -0.4306 0.2105 458 14
1.3103 -0.0029 -0.4305 0.2105 458 14
1.3098 0.0000 -0.4304 0.2106 458 14
1.3095 0.0030 -0.4302 0.2107 458 14
1.3090 0.0059 -0.4301 0.2107 458 14
1.3086 0.0088 -0.4300 0.2108 458 14
1.3082 0.0118 -0.4298 0.2109 458 14
1.3077 0.0147 -0.4297 0.2109 458 14
1.3072 0.0176 -0.4296 0.2110 458 14
1.3068 0.0206 -0.4294 0.2111 458 14
1.3063 0.0235 -0.4293 0.2111 458 14
1.3058 0.0264 -0.4291 0.2112 458 14
1.3053 0.0294 -0.4290 0.2113 458 14
1.3048 0.0322 -0.4288 0.2114 458 14
1.3043 0.0352 -0.4287 0.2114 458 14
1.3038 0.0381 -0.4286 0.2115 458 14
1.3032 0.0410 -0.4284 0.2116 458 14
1.3027 0.0439 -0.4283 0.2116 458 14
1.3021 0.0468 -0.4281 0.2117 458 14
1.3016 0.0497 -0.4280 0.2118 458 14
1.3010 0.0526 -0.4278 0.2119 458 14
1.3004 0.0555 -0.4277 0.2119 458 14
1.2998 0.0584 -0.4275 0.2120 458 14
1.2992 0.0613 -0.4274 0.2121 458 14
1.2986 0.0642 -0.4272 0.2122 458 14
1.2980 0.0671 -0.4271 0.2122 458 14
1.2974 0.0700 -0.4269 0.2123 458 14
1.2968 0.0728 -0.4267 0.2124 458 14
1.2961 0.0757 -0.4266 0.2125 458 14
1.2954 0.0786 -0.4264 0.2125 458 14
1.2948 0.0815 -0.4263 0.2126 458 14
1.2941 0.0844 -0.4261 0.2127 458 14
1.2935 0.0872 -0.4260 0.2128 458 14
1.2928 0.0901 -0.4258 0.2129 458 14
1.2921 0.0930 -0.4256 0.2129 458 14
1.2914 0.0959 -0.4255 0.2130 458 14
1.2907 0.0987 -0.4253 0.2131 458 14
1.2899 0.1016 -0.4251 0.2132 458 14
1.2892 0.1044 -0.4250 0.2133 458 14
1.2885 0.1072 -0.4248 0.2134 458 14
1.2877 0.1101 -0.4246 0.2134 458 14
1.2870 0.1129 -0.4245 0.2135 458 14
1.2862 0.1158 -0.4243 0.2136 458 14
1.2854 0.1186 -0.4241 0.2137 458 14
1.2846 0.1214 -0.4240 0.2138 458 14
1.2838 0.1243 -0.4238 0.2139 458 14
1.2830 0.1271 -0.4236 0.2140 458 14
1.2822 0.1300 -0.4234 0.2140 458 14
1.2814 0.1328 -0.4233 0.2141 458 14
1.2805 0.1356 -0.4231 0.2142 458 14
1.2797 0.1384 -0.4229 0.2143 458 14
1.2788 0.1412 -0.4228 0.2144 458 14
1.2780 0.1440 -0.4226 0.2145 458 14
1.2771 0.1468 -0.4224 0.2146 458 14
1.2763 0.1496 -0.4222 0.2147 458 14
1.2754 0.1525 -0.4220 0.2148 458 14
1.2745 0.1552 -0.4219 0.2149 458 14
1.2736 0.1580 -0.4217 0.2149 458 14
1.2727 0.1608 -0.4215 0.2150 458 14
1.2718 0.1636 -0.4213 0.2151 458 14
1.2709 0.1664 -0.4211 0.2152 458 14
1.2699 0.1692 -0.4209 0.2153 458 14
1.2690 0.1720 -0.4208 0.2154 458 14
1.2681 0.1747 -0.4206 0.2155 458 14
1.2671 0.1775 -0.4204 0.2156 458 14
1.2661 0.1802 -0.4202 0.2157 458 14
1.2652 0.1830 -0.4200 0.2158 458 14
1.2642 0.1858 -0.4198 0.2159 458 14
1.2632 0.1885 -0.4196 0.2160 458 14
1.2622 0.1912 -0.4194 0.2161 458 14
1.2612 0.1940 -0.4193 0.2162 458 14
1.2602 0.1968 -0.4191 0.2163 458 14
1.2591 0.1995 -0.4189 0.2164 458 14
1.2581 0.2022 -0.4187 0.2165 458 14
1.2571 0.2049 -0.4185 0.2166 458 14
1.2560 0.2076 -0.4183 0.2167 458 14
1.2550 0.2103 -0.4181 0.2168 458 14
1.2539 0.2131 -0.4179 0.2169 458 14
1.2529 0.2158 -0.4177 0.2170 458 14
1.2517 0.2185 -0.4175 0.2171 458 14
1.2507 0.2212 -0.4173 0.2172 458 14
1.2496 0.2239 -0.4171 0.2173 458 14
1.2485 0.2266 -0.4169 0.2174 458 14
1.2474 0.2293 -0.4167 0.2175 458 14
1.2462 0.2320 -0.4165 0.2176 458 14
1.2451 0.2346 -0.4163 0.2177 458 14
1.2440 0.2373 -0.4161 0.2178 458 14
1.2429 0.2400 -0.4159 0.2179 458 14
1.2417 0.2427 -0.4157 0.2180 458 14
1.2405 0.2453 -0.4155 0.2181 458 14
1.2394 0.2480 -0.4153 0.2183 458 14
1.2383 0.2507 -0.4151 0.2068 458 14
1.2379 0.2535 -0.4152 0.2068 458 14
1.2375 0.2563 -0.4152 0.2068 458 14
1.2370 0.2591 -0.4153 0.2067 458 14
1.2365 0.2619 -0.4153 0.2067 458 14
1.2360 0.2647 -0.4153 0.2067 458 14
1.2355 0.2675 -0.4154 0.2067 458 14
1.2350 0.2703 -0.4154 0.2067 458 14
1.2345 0.2730 -0.4154 0.2067 458 14
1.2340 0.2758 -0.4155 0.2066 458 14
1.2335 0.2786 -0.4155 0.2066 458 14
1.2329 0.2814 -0.4155 0.2066 458 14
1.2324 0.2842 -0.4155 0.2066 458 14
1.2318 0.2870 -0.4156 0.2066 458 14
1.2312 0.2898 -0.4156 0.2066 458 14
1.2306 0.2926 -0.4156 0.2066 458 14
1.2300 0.2954 -0.4156 0.2066 458 14
1.2294 0.2981 -0.4157 0.2065 458 14
1.2288 0.3009 -0.4157 0.2065 458 14
1.2282 0.3036 -0.4157 0.2065 458 14
1.2276 0.3064 -0.4157 0.2065 458 14
1.2270 0.3092 -0.4157 0.2065 458 14
1.2263 0.3120 -0.4158 0.2065 458 14
1.2257 0.3147 -0.4158 0.2065 458 14
1.2250 0.3175 -0.4158 0.2065 458 14
1.2243 0.3202 -0.4158 0.2065 458 14
1.2236 0.3230 -0.4158 0.2065 458 14
1.2229 0.3257 -0.4158 0.2065 458 14
1.2222 0.3285 -0.4158 0.2065 458 14
1.2215 0.3312 -0.4158 0.2065 458 14
1.2208 0.3340 -0.4159 0.2065 458 14
1.2201 0.3367 -0.4159 0.2064 458 14
1.2193 0.3395 -0.4159 0.2064 458 14
1.2186 0.3422 -0.4159 0.2064 458 14
1.2178 0.3450 -0.4159 0.2064 458 14
1.2171 0.3477 -0.4159 0.2064 458 14
1.2163 0.3504 -0.4159 0.2064 458 14
1.2155 0.3532 -0.4159 0.2064 458 14
1.2147 0.3559 -0.4159 0.2064 458 14
1.2139 0.3586 -0.4159 0.2064 458 14
1.2131 0.3613 -0.4159 0.2064 458 14
1.2122 0.3641 -0.4159 0.2064 458 14
1.2114 0.3667 -0.4159 0.2064 458 14
1.2106 0.3694 -0.4159 0.2064 458 14
1.2097 0.3722 -0.4159 0.2064 458 14
1.2089 0.3749 -0.4159 0.2065 458 14
1.2080 0.3776 -0.4158 0.2068 458 14
1.2071 0.3803 -0.4158 0.2068 458 14
1.2063 0.3830 -0.4158 0.2068 458 14
1.2054 0.3857 -0.4158 0.2069 458 14
1.2045 0.3884 -0.4158 0.2069 458 14
1.2036 0.3911 -0.4158 0.2069 458 14
1.2026 0.3937 -0.4158 0.2069 458 14
1.2017 0.3964 -0.4158 0.2069 458 14
1.2008 0.3991 -0.4158 0.2069 458 14
1.1998 0.4018 -0.4157 0.2069 458 14
1.1989 0.4045 -0.4157 0.2069 458 14
1.1979 0.4072 -0.4157 0.2069 458 14
1.1970 0.4098 -0.4157 0.2069 458 14
1.1960 0.4125 -0.4157 0.2069 458 14
1.1950 0.4152 -0.4157 0.2069 458 14
1.1940 0.4178 -0.4156 0.2069 458 14
1.1930 0.4205 -0.4156 0.2070 458 14
1.1920 0.4231 -0.4156 0.2070 458 14
1.1910 0.4258 -0.4156 0.2070 458 14
1.1899 0.4284 -0.4155 0.2070 458 14
1.1889 0.4311 -0.4155 0.2070 458 14
1.1879 0.4337 -0.4155 0.2070 458 14
1.1868 0.4364 -0.4155 0.2070 458 14
1.1857 0.4390 -0.4154 0.2071 458 14
1.1846 0.4416 -0.4154 0.2071 458 14
1.1836 0.4442 -0.4154 0.2071 458 14
1.1825 0.4469 -0.4153 0.2071 458 14
1.1813 0.4495 -0.4153 0.2071 458 14
1.1803 0.4521 -0.4153 0.2071 458 14
1.1791 0.4547 -0.4152 0.2072 458 14
1.1780 0.4573 -0.4152 0.2072 458 14
1.1769 0.4599 -0.4151 0.2072 458 14
1.1757 0.4625 -0.4151 0.2072 458 14
1.1746 0.4650 -0.4151 0.2072 458 14
1.1734 0.4677 -0.4150 0.2072 458 14
1.1722 0.4702 -0.4150 0.2073 458 14
1.1710 0.4728 -0.4149 0.2073 458 14
1.1699 0.4754 -0.4149 0.2073 458 14
1.1687 0.4780 -0.4149 0.2073 458 14
1.1675 0.4805 -0.4148 0.2074 458 14
1.1662 0.4831 -0.4148 0.2074 458 14
1.1650 0.4857 -0.4147 0.2074 458 14
1.1638 0.4882 -0.4147 0.2074 458 14
1.1625 0.4908 -0.4146 0.2075 458 14
1.1613 0.4933 -0.4146 0.2075 458 14
1.1600 0.4959 -0.4145 0.2075 458 14
1.1588 0.4984 -0.4145 0.2075 458 14
1.1575 0.5009 -0.4144 0.2076 458 14
1.1562 0.5034 -0.4143 0.2076 458 14
1.1549 0.5060 -0.4143 0.2076 458 14
1.1536 0.5085 -0.4142 0.2077 458 14
1.1523 0.5110 -0.4142 0.2077 458 14
1.1510 0.5135 -0.4141 0.2077 458 14
1.1497 0.5160 -0.4140 0.2077 458 14
1.1483 0.5186 -0.4140 0.2078 458 14
1.1470 0.5210 -0.4139 0.2078 458 14
1.1457 0.5235 -0.4139 0.2078 458 14
1.1443 0.5260 -0.4138 0.2079 458 14
1.1429 0.5285 -0.4137 0.2079 458 14
1.1416 0.5310 -0.4137 0.2079 458 14
1.1402 0.5334 -0.4136 0.2080 458 14
1.1388 0.5359 -0.4135 0.2080 458 14
1.1374 0.5383 -0.4135 0.2080 458 14
1.1360 0.5408 -0.4134 0.2081 458 14
1.1346 0.5433 -0.4133 0.2081 458 14
1.1332 0.5457 -0.4132 0.2081 458 14
1.1317 0.5481 -0.4132 0.2082 458 14
1.1303 0.5506 -0.4131 0.2082 458 14
1.1288 0.5530 -0.4130 0.2083 458 14
1.1274 0.5555 -0.4129 0.2083 458 14
1.1259 0.5579 -0.4129 0.2083 458 14
1.1245 0.5603 -0.4128 0.2084 458 14
1.1230 0.5627 -0.4127 0.2084 458 14
1.1215 0.5651 -0.4126 0.2085 458 14
1.1200 0.5676 -0.4125 0.2085 458 14
1.1185 0.5700 -0.4125 0.2085 458 14
1.1170 0.5723 -0.4124 0.2086 458 14
1.1155 0.5747 -0.4123 0.2086 458 14
1.1140 0.5771 -0.4122 0.2087 458 14
1.1124 0.5795 -0.4121 0.2087 458 14
1.1109 0.5819 -0.4120 0.2088 458 14
1.1093 0.5842 -0.4119 0.2088 458 14
1.1078 0.5866 -0.4119 0.2088 458 14
1.1062 0.5889 -0.4118 0.2089 458 14
1.1046 0.5913 -0.4117 0.2089 458 14
1.1031 0.5936 -0.4116 0.2090 458 14
1.1015 0.5960 -0.4115 0.2090 458 14
1.0999 0.5983 -0.4114 0.2091 458 14
1.0983 0.6006 -0.4113 0.2091 458 14
1.0967 0.6029 -0.4112 0.2092 458 14
1.0951 0.6053 -0.4111 0.2092 458 14
1.0935 0.6076 -0.4110 0.2093 458 14
1.0919 0.6099 -0.4109 0.2093 458 14
1.0902 0.6121 -0.4108 0.2094 458 14
1.0886 0.6145 -0.4107 0.2094 458 14
1.0869 0.6168 -0.4106 0.2095 458 14
1.0853 0.6191 -0.4105 0.2095 458 14
1.0836 0.6213 -0.4104 0.2096 458 14
1.0819 0.6236 -0.4103 0.2191 458 14
1.0803 0.6259 -0.4102 0.2191 458 14
1.0787 0.6282 -0.4101 0.2192 458 14
1.0770 0.6305 -0.4101 0.2192 458 14
1.0754 0.6328 -0.4100 0.2192 458 14
1.0738 0.6350 -0.4099 0.2193 458 14
1.0721 0.6373 -0.4098 0.2193 458 14
1.0704 0.6396 -0.4097 0.2194 458 14
1.0688 0.6419 -0.4096 0.2194 458 14
1.0671 0.6441 -0.4095 0.2195 458 14
1.0654 0.6464 -0.4094 0.2195 458 14
1.0637 0.6486 -0.4093 0.2196 458 14
1.0620 0.6508 -0.4093 0.2196 458 14
1.0603 0.6530 -0.4092 0.2197 458 14
1.0586 0.6553 -0.4091 0.2197 458 14
1.0569 0.6575 -0.4090 0.2198 458 14
1.0551 0.6597 -0.4089 0.2198 458 14
1.0537 0.6621 -0.4089 0.2882 458 14
1.0529 0.6649 -0.4091 0.2880 458 14
1.0520 0.6676 -0.4094 0.2879 458 14
1.0511 0.6704 -0.4096 0.2877 458 14
1.0502 0.6731 -0.4098 0.2876 458 14
1.0493 0.6759 -0.4101 0.2874 458 14
1.0484 0.6786 -0.4103 0.2872 458 14
1.0474 0.6813 -0.4106 0.2871 458 14
1.0465 0.6841 -0.4108 0.2869 458 14
1.0456 0.6868 -0.4110 0.2867 458 14
1.0446 0.6896 -0.4113 0.2866 458 14
1.0436 0.6923 -0.4115 0.2864 458 14
1.0427 0.6950 -0.4117 0.2862 458 14
1.0417 0.6978 -0.4120 0.2861 458 14
1.0408 0.7005 -0.4122 0.2859 458 14
1.0398 0.7033 -0.4124 0.2857 458 14
1.0388 0.7060 -0.4127 0.2856 458 14
1.0378 0.7088 -0.4129 0.2854 458 14
1.0370 0.7116 -0.4132 0.2454 458 14
1.0366 0.7147 -0.4137 0.2451 458 14
1.0362 0.7179 -0.4142 0.2449 458 14
1.0358 0.7211 -0.4147 0.2446 458 14
1.0354 0.7243 -0.4152 0.2443 458 14
1.0350 0.7274 -0.4156 0.2440 458 14
1.0345 0.7306 -0.4161 0.2437 458 14
1.0341 0.7338 -0.4166 0.2434 458 14
1.0337 0.7370 -0.4171 0.2431 458 14
1.0332 0.7401 -0.4176 0.2429 458 14
1.0327 0.7433 -0.4181 0.2426 458 14
1.0323 0.7465 -0.4186 0.2423 458 14
1.0318 0.7497 -0.4190 0.2420 458 14
1.0313 0.7529 -0.4195 0.2417 458 14
1.0308 0.7560 -0.4200 0.2414 458 14
1.0303 0.7592 -0.4205 0.2412 458 14
1.0298 0.7624 -0.4210 0.2409 458 14
1.0293 0.7656 -0.4215 0.2406 458 14
1.0288 0.7688 -0.4220 0.2403 458 14
1.0283 0.7721 -0.4225 0.2400 458 14
1.0277 0.7753 -0.4230 0.2398 458 14
1.0272 0.7785 -0.4235 0.2395 458 14
1.0266 0.7817 -0.4240 0.2392 458 14
1.0261 0.7849 -0.4245 0.2389 458 14
1.0255 0.7881 -0.4250 0.2387 458 14
1.0249 0.7914 -0.4254 0.2384 458 14
1.0243 0.7946 -0.4259 0.2381 458 14
1.0237 0.7978 -0.4264 0.2378 458 14
1.0231 0.8010 -0.4269 0.2375 458 14
1.0225 0.8043 -0.4274 0.2373 458 14
1.0219 0.8075 -0.4279 0.2370 458 14
1.0213 0.8107 -0.4284 0.2367 458 14
1.0206 0.8140 -0.4289 0.2364 458 14
1.0200 0.8172 -0.4294 0.2362 458 14
1.0194 0.8204 -0.4299 0.2359 458 14
1.0187 0.8236 -0.4304 0.2356 458 14
1.0180 0.8269 -0.4309 0.2353 458 14
1.0173 0.8301 -0.4314 0.2351 458 14
1.0167 0.8334 -0.4319 0.2348 458 14
1.0160 0.8367 -0.4324 0.2345 458 14
1.0153 0.8399 -0.4329 0.2342 458 14
1.0146 0.8432 -0.4334 0.2340 458 14
1.0138 0.8464 -0.4339 0.2337 458 14
1.0131 0.8497 -0.4344 0.2334 458 14
1.0124 0.8529 -0.4350 0.2332 458 14
1.0116 0.8562 -0.4355 0.2329 458 14
1.0109 0.8595 -0.4360 0.2326 458 14
1.0101 0.8628 -0.4365 0.2324 458 14
1.0093 0.8660 -0.4370 0.2321 458 14
1.0086 0.8693 -0.4375 0.2318 458 14
1.0078 0.8726 -0.4380 0.2315 458 14
1.0070 0.8758 -0.4385 0.2313 458 14
1.0062 0.8791 -0.4390 0.2310 458 14
1.0054 0.8824 -0.4395 0.2307 458 14
1.0046 0.8857 -0.4400 0.2305 458 14
1.0037 0.8889 -0.4405 0.2302 458 14
1.0029 0.8922 -0.4410 0.2299 458 14
1.0021 0.8955 -0.4416 0.2297 458 14
1.0012 0.8988 -0.4421 0.2294 458 14
1.0004 0.9021 -0.4426 0.2291 458 14
0.9995 0.9054 -0.4431 0.2289 458 14
0.9986 0.9087 -0.4436 0.2286 458 14
0.9977 0.9120 -0.4441 0.2284 458 14
0.9968 0.9153 -0.4446 0.2281 458 14
0.9959 0.9185 -0.4451 0.2278 458 14
0.9950 0.9218 -0.4457 0.2276 458 14
0.9940 0.9251 -0.4462 0.2273 458 14
0.9931 0.9285 -0.4467 0.2270 458 14
0.9921 0.9317 -0.4472 0.2268 458 14
0.9912 0.9350 -0.4477 0.2265 458 14
0.9902 0.9383 -0.4482 0.2263 458 14
0.9893 0.9416 -0.4487 0.2260 458 14
0.9883 0.9449 -0.4493 0.2257 458 14
0.9873 0.9482 -0.4498 0.2255 458 14
0.9863 0.9515 -0.4503 0.2252 458 14
0.9853 0.9548 -0.4508 0.2250 458 14
0.9843 0.9581 -0.4513 0.2247 458 14
0.9833 0.9614 -0.4518 0.2244 458 14
0.9822 0.9647 -0.4524 0.2242 458 14
0.9812 0.9681 -0.4529 0.2239 458 14
0.9801 0.9714 -0.4534 0.2237 458 14
0.9791 0.9747 -0.4539 0.2234 458 14
2.9356 -2.9356 -1.4021 0.6469 437 14
2.9492 -2.9360 -1.4055 0.6454 437 14
2.9629 -2.9364 -1.4088 0.6438 437 14
2.9766 -2.9368 -1.4122 0.6423 437 14
2.9904 -2.9372 -1.4156 0.6407 437 14
3.0043 -2.9376 -1.4191 0.6392 437 14
3.0182 -2.9380 -1.4225 0.6376 437 14
3.0322 -2.9384 -1.4260 0.6361 437 14
3.0463 -2.9388 -1.4295 0.6345 437 14
3.0604 -2.9392 -1.4331 0.6329 437 14
3.0746 -2.9396 -1.4366 0.6314 437 14
3.0889 -2.9400 -1.4402 0.6298 437 14
3.1032 -2.9404 -1.4438 0.6282 437 14
3.1176 -2.9408 -1.4475 0.6266 437 14
3.1321 -2.9412 -1.4511 0.6251 437 14
3.1467 -2.9416 -1.4548 0.6235 437 14
3.1613 -2.9421 -1.4585 0.6219 437 14
3.1761 -2.9425 -1.4623 0.6203 437 14
3.1904 -2.9426 -1.4658 0.6585 437 14
3.2044 -2.9421 -1.4692 0.6570 437 14
3.2184 -2.9417 -1.4726 0.6555 437 14
3.2325 -2.9413 -1.4760 0.6540 437 14
3.2466 -2.9409 -1.4795 0.6524 437 14
3.2609 -2.9405 -1.4829 0.6509 437 14
3.2752 -2.9401 -1.4864 0.6494 437 14
3.2895 -2.9397 -1.4899 0.6479 437 14
3.3039 -2.9392 -1.4935 0.6463 437 14
3.3184 -2.9388 -1.4971 0.6448 437 14
3.3330 -2.9384 -1.5006 0.6432 437 14
3.3476 -2.9380 -1.5043 0.6417 437 14
3.3623 -2.9375 -1.5079 0.6401 437 14
3.3771 -2.9371 -1.5116 0.6386 437 14
3.3919 -2.9367 -1.5153 0.6370 437 14
3.4069 -2.9362 -1.5190 0.6355 437 14
3.4219 -2.9358 -1.5227 0.6339 437 14
3.4383 -2.9366 -1.5271 0.5247 437 14
3.4556 -2.9379 -1.5318 0.5231 437 14
3.4729 -2.9393 -1.5366 0.5215 437 14
3.4904 -2.9407 -1.5414 0.5199 437 14
3.5080 -2.9421 -1.5463 0.5182 437 14
3.5257 -2.9435 -1.5512 0.5166 437 14
3.5435 -2.9449 -1.5561 0.5150 437 14
3.5614 -2.9462 -1.5611 0.5133 437 14
3.5795 -2.9477 -1.5661 0.5117 437 14
3.5977 -2.9491 -1.5711 0.5100 437 14
3.6160 -2.9506 -1.5762 0.5084 437 14
3.6344 -2.9520 -1.5813 0.5067 437 14
3.6529 -2.9535 -1.5865 0.5051 437 14
3.6716 -2.9550 -1.5917 0.5034 437 14
3.6904 -2.9565 -1.5970 0.5018 437 14
4.1784 -3.3321 -1.8050 0.3198 0 1
4.1858 -3.3227 -1.8050 0.3198 0 1
4.1933 -3.3133 -1.8050 0.3198 0 1
4.2007 -3.3039 -1.8050 0.3198 0 1
4.2081 -3.2945 -1.8050 0.3198 0 1
4.2155 -3.2850 -1.8050 0.3198 0 1
4.2229 -3.2756 -1.8050 0.3198 0 1
4.2302 -3.2661 -1.8050 0.3198 0 1
4.2376 -3.2566 -1.8050 0.3198 0 1
4.0870 -3.1263 -1.7378 0.2459 437 14
4.0807 -3.1070 -1.7322 0.2467 437 14
4.0744 -3.0879 -1.7266 0.2475 437 14
4.0682 -3.0688 -1.7210 0.2483 437 14
4.0621 -3.0499 -1.7155 0.2491 437 14
4.0560 -3.0311 -1.7101 0.2499 437 14
4.0500 -3.0124 -1.7047 0.2507 437 14
4.0440 -2.9939 -1.6994 0.2515 437 14
4.0381 -2.9755 -1.6941 0.2523 437 14
4.0350 -2.9593 -1.6900 0.5117 437 14
4.0333 -2.9442 -1.6865 0.5127 437 14
4.0317 -2.9291 -1.6830 0.5138 437 14
4.0300 -2.9141 -1.6796 0.5148 437 14
4.0284 -2.8992 -1.6762 0.5159 437 14
4.0434 -2.8963 -1.6798 0.5341 437 14
4.0632 -2.8967 -1.6853 0.5323 437 14
4.0832 -2.8971 -1.6909 0.5306 437 14
4.1034 -2.8976 -1.6965 0.5288 437 14
4.1236 -2.8981 -1.7022 0.5270 437 14
4.1440 -2.8985 -1.7079 0.5253 437 14
4.1645 -2.8990 -1.7137 0.5235 437 14
4.1852 -2.8995 -1.7195 0.5217 437 14
4.2060 -2.9000 -1.7254 0.5200 437 14
4.2270 -2.9004 -1.7313 0.5182 437 14
4.2480 -2.9009 -1.7373 0.5164 437 14
4.2693 -2.9014 -1.7433 0.5146 437 14
4.2907 -2.9019 -1.7494 0.5128 437 14
4.3122 -2.9024 -1.7555 0.5110 437 14
4.3339 -2.9029 -1.7617 0.5092 437 14
4.3558 -2.9034 -1.7679 0.5075 437 14
4.3778 -2.9039 -1.7742 0.5057 437 14
4.3999 -2.9044 -1.7806 0.5039 437 14
4.4222 -2.9048 -1.7869 0.5021 437 14
4.4448 -2.9054 -1.7934 0.5003 437 14
4.4802 -2.9142 -1.8050 0.3198 0 1
4.4867 -2.9041 -1.8050 0.3198 0 1
4.4932 -2.8941 -1.8050 0.3198 0 1
4.4997 -2.8840 -1.8050 0.3198 0 1
4.5062 -2.8739 -1.8050 0.3198 0 1
4.5126 -2.8637 -1.8050 0.3198 0 1
4.5190 -2.8536 -1.8050 0.3198 0 1
4.5254 -2.8435 -1.8050 0.3198 0 1
4.5318 -2.8333 -1.8050 0.3198 0 1
4.5381 -2.8232 -1.8050 0.3198 0 1
4.5445 -2.8129 -1.8050 0.3198 0 1
4.5508 -2.8028 -1.8050 0.3198 0 1
4.5570 -2.7926 -1.8050 0.3198 0 1
4.5633 -2.7823 -1.8051 0.3198 0 1
4.5696 -2.7721 -1.8051 0.3198 0 1
4.5758 -2.7618 -1.8051 0.3198 0 1
4.5819 -2.7515 -1.8051 0.3198 0 1
4.5881 -2.7413 -1.8051 0.3198 0 1
4.5943 -2.7310 -1.8051 0.3198 0 1
4.6004 -2.7206 -1.8051 0.3198 0 1
4.6065 -2.7103 -1.8051 0.3198 0 1
4.6125 -2.6999 -1.8051 0.3198 0 1
4.6186 -2.6896 -1.8051 0.3198 0 1
4.6246 -2.6793 -1.8051 0.3198 0 1
4.6306 -2.6689 -1.8051 0.3198 0 1
4.6366 -2.6584 -1.8051 0.3198 0 1
4.6426 -2.6480 -1.8051 0.3198 0 1
4.6485 -2.6376 -1.8051 0.3198 0 1
4.6544 -2.6272 -1.8051 0.3198 0 1
4.6603 -2.6168 -1.8051 0.3198 0 1
4.6662 -2.6063 -1.8051 0.3198 0 1
4.6720 -2.5958 -1.8051 0.3198 0 1
4.6779 -2.5854 -1.8051 0.3198 0 1
4.6836 -2.5749 -1.8051 0.3198 0 1
4.6894 -2.5643 -1.8051 0.3198 0 1
4.6952 -2.5538 -1.8051 0.3198 0 1
4.7009 -2.5432 -1.8051 0.3198 0 1
4.7066 -2.5327 -1.8051 0.3198 0 1
4.7122 -2.5221 -1.8051 0.3198 0 1
4.7179 -2.5115 -1.8051 0.3198 0 1
4.7235 -2.5010 -1.8051 0.3198 0 1
4.7291 -2.4904 -1.8051 0.3198 0 1
4.7347 -2.4797 -1.8051 0.3198 0 1
4.7402 -2.4691 -1.8051 0.3198 0 1
4.7458 -2.4585 -1.8051 0.3198 0 1
4.7513 -2.4478 -1.8051 0.3198 0 1
4.7568 -2.4372 -1.8051 0.3198 0 1
4.7622 -2.4264 -1.8051 0.3198 0 1
4.7677 -2.4157 -1.8051 0.3198 0 1
4.7731 -2.4051 -1.8051 0.3198 0 1
4.7785 -2.3944 -1.8051 0.3198 0 1
4.7838 -2.3836 -1.8051 0.3198 0 1
4.7892 -2.3729 -1.8051 0.3198 0 1
4.7945 -2.3621 -1.8051 0.3198 0 1
1.3695 -0.6709 -0.5150 0.1679 458 14
1.3692 -0.6670 -0.5144 0.1681 458 14
1.3690 -0.6630 -0.5137 0.1683 458 14
1.3687 -0.6591 -0.5131 0.1685 458 14
1.3684 -0.6552 -0.5124 0.1687 458 14
1.3681 -0.6513 -0.5117 0.1690 458 14
1.3678 -0.6474 -0.5111 0.1692 458 14
1.3675 -0.6434 -0.5104 0.1694 458 14
1.3671 -0.6396 -0.5097 0.1696 458 14
1.3667 -0.6357 -0.5091 0.1698 458 14
1.3664 -0.6317 -0.5084 0.1701 458 14
1.3660 -0.6279 -0.5078 0.1703 458 14
1.3656 -0.6240 -0.5071 0.1705 458 14
1.3652 -0.6201 -0.5064 0.1707 458 14
1.3648 -0.6162 -0.5058 0.1710 458 14
1.3644 -0.6123 -0.5051 0.1712 458 14
1.3639 -0.6085 -0.5044 0.1714 458 14
1.3636 -0.6047 -0.5038 0.1665 458 14
1.3632 -0.6008 -0.5031 0.1667 458 14
1.3629 -0.5970 -0.5025 0.1669 458 14
1.3625 -0.5932 -0.5019 0.1671 458 14
1.3621 -0.5894 -0.5012 0.1673 458 14
1.3617 -0.5856 -0.5006 0.1675 458 14
1.3613 -0.5818 -0.5000 0.1677 458 14
1.3608 -0.5780 -0.4993 0.1680 458 14
1.3604 -0.5743 -0.4987 0.1682 458 14
1.3600 -0.5704 -0.4981 0.1684 458 14
1.3595 -0.5667 -0.4974 0.1686 458 14
1.3590 -0.5629 -0.4968 0.1688 458 14
1.3586 -0.5592 -0.4962 0.1690 458 14
1.3581 -0.5554 -0.4955 0.1693 458 14
1.3576 -0.5517 -0.4949 0.1695 458 14
1.3571 -0.5479 -0.4943 0.1697 458 14
1.3565 -0.5441 -0.4936 0.1699 458 14
1.3560 -0.5404 -0.4930 0.1701 458 14
1.3554 -0.5367 -0.4924 0.1704 458 14
1.3549 -0.5329 -0.4917 0.1706 458 14
1.3543 -0.5292 -0.4911 0.1708 458 14
1.3537 -0.5254 -0.4904 0.1710 458 14
1.3531 -0.5218 -0.4898 0.1712 458 14
1.3526 -0.5180 -0.4892 0.1715 458 14
1.3519 -0.5143 -0.4885 0.1717 458 14
1.3513 -0.5106 -0.4879 0.1719 458 14
1.3507 -0.5069 -0.4872 0.1721 458 14
1.3500 -0.5032 -0.4866 0.1724 458 14
1.3494 -0.4995 -0.4860 0.1726 458 14
1.3487 -0.4958 -0.4853 0.1728 458 14
1.3480 -0.4922 -0.4847 0.1731 458 14
1.3474 -0.4885 -0.4840 0.1733 458 14
1.3466 -0.4848 -0.4834 0.1735 458 14
1.3459 -0.4812 -0.4827 0.1737 458 14
1.3452 -0.4775 -0.4821 0.1740 458 14
1.3445 -0.4738 -0.4815 0.1742 458 14
1.3438 -0.4702 -0.4808 0.1744 458 14
1.3430 -0.4665 -0.4802 0.1747 458 14
1.3422 -0.4629 -0.4795 0.1749 458 14
1.3414 -0.4593 -0.4789 0.1751 458 14
1.3407 -0.4557 -0.4782 0.1754 458 14
1.3399 -0.4521 -0.4776 0.1756 458 14
1.3391 -0.4484 -0.4769 0.1759 458 14
1.3383 -0.4448 -0.4763 0.1761 458 14
1.3374 -0.4412 -0.4756 0.1763 458 14
1.3366 -0.4376 -0.4750 0.1766 458 14
1.3358 -0.4340 -0.4744 0.1768 458 14
1.3349 -0.4304 -0.4737 0.1771 458 14
1.3341 -0.4269 -0.4731 0.1773 458 14
1.3332 -0.4233 -0.4724 0.1775 458 14
1.3323 -0.4197 -0.4718 0.1778 458 14
1.3314 -0.4162 -0.4711 0.1780 458 14
1.3305 -0.4126 -0.4705 0.1783 458 14
1.3296 -0.4090 -0.4698 0.1785 458 14
1.3287 -0.4055 -0.4692 0.1788 458 14
1.3278 -0.4020 -0.4685 0.1790 458 14
1.3268 -0.3985 -0.4679 0.1793 458 14
1.3259 -0.3949 -0.4672 0.1795 458 14
1.3250 -0.3914 -0.4666 0.1798 458 14
1.3240 -0.3879 -0.4660 0.1800 458 14
1.3230 -0.3844 -0.4653 0.1802 458 14
1.3220 -0.3809 -0.4647 0.1805 458 14
1.3211 -0.3774 -0.4640 0.1808 458 14
1.3201 -0.3739 -0.4634 0.1810 458 14
1.3190 -0.3704 -0.4627 0.1813 458 14
1.3180 -0.3669 -0.4621 0.1815 458 14
1.3170 -0.3635 -0.4614 0.1818 458 14
1.3160 -0.3600 -0.4608 0.1820 458 14
1.3150 -0.3566 -0.4601 0.1823 458 14
1.3139 -0.3531 -0.4595 0.1825 458 14
1.3129 -0.3496 -0.4588 0.1828 458 14
1.3118 -0.3463 -0.4582 0.1830 458 14
1.3107 -0.3428 -0.4576 0.1833 458 14
1.3096 -0.3394 -0.4569 0.1836 458 14
1.3085 -0.3360 -0.4563 0.1838 458 14
1.3075 -0.3325 -0.4556 0.1841 458 14
1.3063 -0.3292 -0.4550 0.1843 458 14
1.3053 -0.3257 -0.4543 0.1846 458 14
1.3041 -0.3223 -0.4537 0.1849 458 14
1.3030 -0.3190 -0.4530 0.1851 458 14
1.3019 -0.3156 -0.4524 0.1854 458 14
1.3007 -0.3122 -0.4518 0.1857 458 14
1.2996 -0.3089 -0.4511 0.1859 458 14
1.2984 -0.3055 -0.4505 0.1862 458 14
1.2972 -0.3022 -0.4498 0.1865 458 14
1.2961 -0.2988 -0.4492 0.1867 458 14
1.2948 -0.2955 -0.4486 0.1870 458 14
1.2937 -0.2922 -0.4479 0.1873 458 14
1.2925 -0.2889 -0.4473 0.1875 458 14
1.2912 -0.2856 -0.4466 0.1878 458 14
1.2900 -0.2822 -0.4460 0.1881 458 14
1.2888 -0.2790 -0.4453 0.1883 458 14
1.2876 -0.2756 -0.4447 0.1886 458 14
1.2864 -0.2724 -0.4441 0.1889 458 14
1.2851 -0.2691 -0.4434 0.1891 458 14
1.2838 -0.2658 -0.4428 0.1894 458 14
1.2826 -0.2626 -0.4421 0.1897 458 14
1.2813 -0.2593 -0.4415 0.1900 458 14
1.2801 -0.2561 -0.4409 0.1902 458 14
1.2788 -0.2528 -0.4402 0.1905 458 14
1.2775 -0.2496 -0.4396 0.1908 458 14
1.2762 -0.2464 -0.4390 0.1911 458 14
1.2749 -0.2432 -0.4383 0.1913 458 14
1.2736 -0.2400 -0.4377 0.1916 458 14
1.2723 -0.2367 -0.4371 0.1919 458 14
1.2709 -0.2336 -0.4364 0.1922 458 14
1.2696 -0.2304 -0.4358 0.1925 458 14
1.2683 -0.2272 -0.4352 0.1927 458 14
1.2669 -0.2240 -0.4345 0.1930 458 14
1.2656 -0.2209 -0.4339 0.1933 458 14
1.2642 -0.2177 -0.4333 0.1936 458 14
1.2629 -0.2146 -0.4326 0.1939 458 14
1.2615 -0.2114 -0.4320 0.1942 458 14
1.2614 -0.2085 -0.4318 0.2157 458 14
1.2617 -0.2056 -0.4317 0.2157 458 14
1.2620 -0.2028 -0.4317 0.2158 458 14
1.2623 -0.1999 -0.4316 0.2158 458 14
1.2625 -0.1970 -0.4316 0.2158 458 14
1.2628 -0.1942 -0.4315 0.2159 458 14
1.2630 -0.1913 -0.4314 0.2159 458 14
1.2633 -0.1885 -0.4314 0.2159 458 14
1.2635 -0.1856 -0.4313 0.2160 458 14
1.2637 -0.1827 -0.4312 0.2160 458 14
1.2639 -0.1798 -0.4312 0.2160 458 14
1.2642 -0.1770 -0.4311 0.2161 458 14
1.2643 -0.1741 -0.4310 0.2161 458 14
1.2645 -0.1713 -0.4310 0.2161 458 14
1.2647 -0.1684 -0.4309 0.2162 458 14
1.2649 -0.1655 -0.4308 0.2162 458 14
1.2650 -0.1626 -0.4307 0.2162 458 14
1.2651 -0.1598 -0.4307 0.2163 458 14
1.2653 -0.1569 -0.4306 0.2163 458 14
1.2654 -0.1541 -0.4305 0.2163 458 14
1.2655 -0.1512 -0.4304 0.2164 458 14
1.2656 -0.1484 -0.4304 0.2164 458 14
1.2657 -0.1454 -0.4303 0.2165 458 14
1.2658 -0.1426 -0.4302 0.2165 458 14
1.2659 -0.1397 -0.4301 0.2165 458 14
1.2659 -0.1368 -0.4300 0.2166 458 14
1.2660 -0.1340 -0.4300 0.2166 458 14
1.2661 -0.1312 -0.4299 0.2167 458 14
1.2661 -0.1283 -0.4298 0.2167 458 14
1.2661 -0.1254 -0.4297 0.2168 458 14
1.2661 -0.1225 -0.4296 0.2168 458 14
1.2662 -0.1197 -0.4295 0.2168 458 14
1.2662 -0.1168 -0.4294 0.2169 458 14
1.2662 -0.1139 -0.4293 0.2169 458 14
1.2661 -0.1111 -0.4292 0.2170 458 14
1.2661 -0.1082 -0.4292 0.2170 458 14
1.2661 -0.1053 -0.4291 0.2171 458 14
1.2660 -0.1025 -0.4290 0.2171 458 14
1.2660 -0.0996 -0.4289 0.2172 458 14
1.2659 -0.0968 -0.4288 0.2172 458 14
1.2658 -0.0939 -0.4287 0.2173 458 14
1.2657 -0.0911 -0.4286 0.2173 458 14
1.2656 -0.0881 -0.4285 0.2174 458 14
1.2656 -0.0853 -0.4284 0.2174 458 14
1.2655 -0.0824 -0.4283 0.2175 458 14
1.2653 -0.0796 -0.4282 0.2175 458 14
1.2652 -0.0767 -0.4281 0.2176 458 14
1.2650 -0.0739 -0.4280 0.2176 458 14
1.2649 -0.0710 -0.4279 0.2177 458 14
1.2648 -0.0681 -0.4278 0.2177 458 14
1.2646 -0.0653 -0.4277 0.2178 458 14
1.2644 -0.0624 -0.4276 0.2178 458 14
1.2642 -0.0596 -0.4274 0.2179 458 14
