ply
format ascii 1.0
element vertex 596
property float32 x
property float32 y
property float32 z
property float32 CosAngle
property uint32 ObjIdx
property uint32 ObjTag
end_header
10.974355697631836 -6.759042739868164 -1.5484002828598022 0.12117733061313629 0 2
10.914297103881836 -6.857900142669678 -1.54854416847229 0.1211661696434021 0 2
10.853320121765137 -6.956230163574219 -1.5486901998519897 0.12115468829870224 0 2
10.791483879089355 -7.05407190322876 -1.548837661743164 0.12114305794239044 0 2
10.728769302368164 -7.151337623596191 -1.5489875078201294 0.12113136053085327 0 2
10.665136337280273 -7.248046875 -1.5491392612457275 0.12111976742744446 0 2
10.60074234008789 -7.344218730926514 -1.5492929220199585 0.12110773473978043 0 2
10.535468101501465 -7.43981409072876 -1.5494483709335327 0.12109539657831192 0 2
10.4692964553833 -7.534843444824219 -1.5496058464050293 0.12108322232961655 0 2
10.40234375 -7.629306316375732 -1.5497651100158691 0.12107066065073013 0 2
10.334491729736328 -7.723193168640137 -1.5499262809753418 0.1210581511259079 0 2
10.265859603881836 -7.816445350646973 -1.5500893592834473 0.12104534357786179 0 2
10.196328163146973 -7.909121036529541 -1.5502543449401855 0.12103251367807388 0 2
10.126015663146973 -8.001191139221191 -1.550421118736267 0.12101951241493225 0 2
10.054941177368164 -8.092636108398438 -1.5505895614624023 0.12100619822740555 0 2
9.9829683303833 -8.183456420898438 -1.5507601499557495 0.1209929883480072 0 2
9.910234451293945 -8.273672103881836 -1.5509324073791504 0.12097945809364319 0 2
9.836679458618164 -8.363203048706055 -1.551106572151184 0.12096596509218216 0 2
9.7622652053833 -8.452109336853027 -1.551282286643982 0.12095248699188232 0 2
9.687148094177246 -8.540380477905273 -1.5514599084854126 0.12093842774629593 0 2
9.611210823059082 -8.627997398376465 -1.5516393184661865 0.12092442810535431 0 2
9.534530639648438 -8.714950561523438 -1.5518203973770142 0.12091021984815598 0 2
9.45703125 -8.801210403442383 -1.5520031452178955 0.12089625746011734 0 2
9.37874984741211 -8.886767387390137 -1.5521878004074097 0.12088173627853394 0 2
9.299726486206055 -8.971698760986328 -1.5523741245269775 0.12086725980043411 0 2
9.219922065734863 -9.055878639221191 -1.55256187915802 0.12085273861885071 0 2
9.236855506896973 9.2368745803833 -1.678691029548645 0.12913872301578522 0 2
9.318378448486328 9.152636528015137 -1.6785132884979248 0.12915238738059998 0 2
9.399198532104492 9.067675590515137 -1.678337574005127 0.12916576862335205 0 2
9.479257583618164 8.982001304626465 -1.6781635284423828 0.12917926907539368 0 2
9.558515548706055 8.89565372467041 -1.6779913902282715 0.1291925460100174 0 2
9.636972427368164 8.808603286743164 -1.6778212785720825 0.12920579314231873 0 2
9.714648246765137 8.720878601074219 -1.6776528358459473 0.1292186677455902 0 2
9.7915620803833 8.632460594177246 -1.6774861812591553 0.12923160195350647 0 2
9.867694854736328 8.543378829956055 -1.677321434020996 0.12924405932426453 0 2
9.94302749633789 8.453652381896973 -1.6771588325500488 0.12925657629966736 0 2
10.017539024353027 8.363271713256836 -1.6769979000091553 0.12926916778087616 0 2
10.091269493103027 8.272246360778809 -1.676838994026184 0.12928131222724915 0 2
10.164140701293945 8.180537223815918 -1.6766821146011353 0.12929336726665497 0 2
10.236210823059082 8.08822250366211 -1.6765270233154297 0.12930545210838318 0 2
10.307440757751465 7.995312213897705 -1.676373839378357 0.12931719422340393 0 2
10.377870559692383 7.901757717132568 -1.676222801208496 0.12932884693145752 0 2
10.447480201721191 7.807597637176514 -1.6760735511779785 0.12934023141860962 0 2
10.516210556030273 7.712821960449219 -1.6759264469146729 0.12935161590576172 0 2
10.584081649780273 7.617470741271973 -1.675781488418579 0.12936300039291382 0 2
10.651132583618164 7.521503925323486 -1.675638198852539 0.1293739229440689 0 2
10.717265129089355 7.424980163574219 -1.675497055053711 0.12938494980335236 0 2
10.782597541809082 7.327880859375 -1.6753580570220947 0.1293957680463791 0 2
10.84706974029541 7.230205059051514 -1.6752209663391113 0.1294059455394745 0 2
10.910624504089355 7.131991863250732 -1.6750860214233398 0.1294165551662445 0 2
10.973359107971191 7.033212661743164 -1.6749531030654907 0.1294267624616623 0 2
11.03515625 6.933896541595459 -1.6748223304748535 0.12943705916404724 0 2
11.09609317779541 6.834023475646973 -1.6746935844421387 0.12944699823856354 0 2
11.156171798706055 6.733642578125 -1.6745667457580566 0.1294567734003067 0 2
11.21533203125 6.632753849029541 -1.6744420528411865 0.12946631014347076 0 2
11.273554801940918 6.531328201293945 -1.6743197441101074 0.12947584688663483 0 2
11.330937385559082 6.429423809051514 -1.6741994619369507 0.12948521971702576 0 2
11.387382507324219 6.326992034912109 -1.6740810871124268 0.12949411571025848 0 2
11.442910194396973 6.224091529846191 -1.6739650964736938 0.12950314581394196 0 2
11.49755859375 6.120712757110596 -1.6738511323928833 0.12951205670833588 0 2
11.586288452148438 6.035146236419678 -1.678821086883545 0.4763674736022949 0 2
11.604022979736328 5.912548542022705 -1.6736245155334473 0.12951016426086426 0 2
11.74437427520752 5.851874828338623 -1.6862242221832275 0.46076536178588867 0 2
11.998906135559082 5.844862937927246 -1.7151696681976318 0.45299088954925537 0 2
12.272226333618164 5.842294692993164 -1.7466710805892944 0.43013423681259155 0 2
12.521367073059082 5.823632717132568 -1.774621844291687 0.12954384088516235 0 1
12.572382926940918 5.710654258728027 -1.7745122909545898 0.1295517385005951 0 1
12.622343063354492 5.597255706787109 -1.7744053602218628 0.12955962121486664 0 1
12.671366691589355 5.4833984375 -1.774300456047058 0.1295672059059143 0 1
12.719316482543945 5.369121074676514 -1.774198293685913 0.12957485020160675 0 1
12.76626968383789 5.254443168640137 -1.7740981578826904 0.129582017660141 0 1
12.812226295471191 5.139355182647705 -1.7740005254745483 0.12958920001983643 0 1
12.857128143310547 5.023886680603027 -1.7739051580429077 0.12959614396095276 0 1
12.901054382324219 4.908027172088623 -1.773812174797058 0.12960287928581238 0 1
12.9439058303833 4.791767597198486 -1.7737215757369995 0.12960952520370483 0 1
12.98574161529541 4.675166130065918 -1.773633360862732 0.12961603701114655 0 1
13.026561737060547 4.558193206787109 -1.773547649383545 0.1296222060918808 0 1
13.06630802154541 4.440878868103027 -1.7734642028808594 0.1296282410621643 0 1
13.105097770690918 4.323222637176514 -1.7733831405639648 0.12963424623012543 0 1
13.142772674560547 4.205214977264404 -1.7733044624328613 0.12964002788066864 0 1
13.179413795471191 4.0869140625 -1.7732282876968384 0.12964554131031036 0 1
13.215019226074219 3.9682812690734863 -1.773154616355896 0.12965093553066254 0 1
13.2495698928833 3.849355459213257 -1.773083209991455 0.12965638935565948 0 1
13.283085823059082 3.7301464080810547 -1.7730141878128052 0.12966133654117584 0 1
13.315507888793945 3.6106152534484863 -1.7729476690292358 0.12966613471508026 0 1
13.34691333770752 3.490849494934082 -1.7728835344314575 0.12967072427272797 0 1
13.377225875854492 3.370781183242798 -1.7728219032287598 0.12967529892921448 0 1
13.406522750854492 3.2504589557647705 -1.7727627754211426 0.1296796351671219 0 1
13.434706687927246 3.1298828125 -1.7727059125900269 0.12968388199806213 0 1
13.461835861206055 3.0090625286102295 -1.7726516723632812 0.1296878308057785 0 1
13.487929344177246 2.8880467414855957 -1.772599697113037 0.12969152629375458 0 1
13.512968063354492 2.766796827316284 -1.772550344467163 0.12969505786895752 0 1
13.536815643310547 2.645312547683716 -1.7725036144256592 0.12969863414764404 0 1
13.55972671508789 2.523632764816284 -1.7724590301513672 0.1297018826007843 0 1
13.581522941589355 2.4017674922943115 -1.7724170684814453 0.12970492243766785 0 1
13.60220718383789 2.279716730117798 -1.772377610206604 0.1297079473733902 0 1
13.621835708618164 2.157480478286743 -1.7723406553268433 0.1297106146812439 0 1
13.640429496765137 2.0350780487060547 -1.7723058462142944 0.1297130286693573 0 1
13.657890319824219 1.912539005279541 -1.7722737789154053 0.12971539795398712 0 1
13.674257278442383 1.789833903312683 -1.7722442150115967 0.12971748411655426 0 1
13.689570426940918 1.6670117378234863 -1.7722172737121582 0.12971951067447662 0 1
13.70376968383789 1.544033169746399 -1.7721925973892212 0.12972144782543182 0 1
13.716914176940918 1.4209471940994263 -1.7721705436706543 0.12972292304039001 0 1
13.728964805603027 1.2977635860443115 -1.7721508741378784 0.12972447276115417 0 1
13.739921569824219 1.1744823455810547 -1.772133708000183 0.12972573935985565 0 1
13.749804496765137 1.0510839223861694 -1.7721190452575684 0.129726842045784 0 1
13.758593559265137 0.9276171922683716 -1.7721068859100342 0.12972767651081085 0 1
13.766307830810547 0.8040722608566284 -1.7720974683761597 0.12972834706306458 0 1
13.772890090942383 0.6804785132408142 -1.7720900774002075 0.12972885370254517 0 1
13.778417587280273 0.556835949420929 -1.7720855474472046 0.129729226231575 0 1
13.782812118530273 0.4331445097923279 -1.7720834016799927 0.12972944974899292 0 1
13.786171913146973 0.30940428376197815 -1.7720837593078613 0.12972934544086456 0 1
13.788397789001465 0.18564452230930328 -1.772086501121521 0.129729226231575 0 1
13.78955078125 0.061884764581918716 -1.7720919847488403 0.12972880899906158 0 1
13.7896089553833 -0.061894528567790985 -1.7720997333526611 0.12972819805145264 0 1
13.788593292236328 -0.18566405773162842 -1.7721099853515625 0.12972724437713623 0 1
13.786483764648438 -0.3094433546066284 -1.772122859954834 0.12972649931907654 0 1
13.7832612991333 -0.43315428495407104 -1.7721383571624756 0.1297254115343094 0 1
13.77896499633789 -0.5568652153015137 -1.772156000137329 0.1297241598367691 0 1
13.77359390258789 -0.6805175542831421 -1.7721762657165527 0.12972259521484375 0 1
13.767069816589355 -0.8041406273841858 -1.7721991539001465 0.12972083687782288 0 1
13.759531021118164 -0.9277148246765137 -1.7722244262695312 0.12971895933151245 0 1
13.75082015991211 -1.0511913299560547 -1.7722522020339966 0.12971711158752441 0 1
13.741093635559082 -1.1745898723602295 -1.7722824811935425 0.1297147572040558 0 1
13.730253219604492 -1.297890543937683 -1.7723153829574585 0.12971244752407074 0 1
13.718280792236328 -1.4211132526397705 -1.7723504304885864 0.129709854722023 0 1
13.70531177520752 -1.54421865940094 -1.772388219833374 0.12970712780952454 0 1
13.691171646118164 -1.6672070026397705 -1.7724283933639526 0.1297042816877365 0 1
13.675995826721191 -1.7900975942611694 -1.7724709510803223 0.12970098853111267 0 1
13.6597261428833 -1.9128124713897705 -1.772516131401062 0.1296977996826172 0 1
13.642382621765137 -2.0354199409484863 -1.7725636959075928 0.1296941488981247 0 1
13.623945236206055 -2.157841682434082 -1.772613763809204 0.12969063222408295 0 1
13.188983917236328 -2.2104785442352295 -1.7185295820236206 0.2029634714126587 0 2
12.8062105178833 -2.2646875381469727 -1.671240210533142 0.12968267500400543 0 2
12.78580093383789 -2.3796191215515137 -1.6712943315505981 0.12967844307422638 0 2
12.764374732971191 -2.494374990463257 -1.6713508367538452 0.12967407703399658 0 2
12.739686965942383 -2.608476400375366 -1.6711196899414062 0.9175232648849487 26 6
12.71841812133789 -2.723281145095825 -1.6714706420898438 0.12966486811637878 0 2
12.693944931030273 -2.837451219558716 -1.6715340614318848 0.12965989112854004 0 2
12.668476104736328 -2.9513866901397705 -1.6715997457504272 0.12965482473373413 0 2
12.64199161529541 -3.065136671066284 -1.671667456626892 0.12964946031570435 0 2
12.614530563354492 -3.178583860397339 -1.671737790107727 0.12964406609535217 0 2
10.583691596984863 -2.7681541442871094 -1.405847191810608 0.9229212999343872 0 20
10.546953201293945 -2.8599023818969727 -1.4043139219284058 0.9574593901634216 0 20
10.676562309265137 -2.998183488845825 -1.4250978231430054 0.04162750765681267 0 20
12.49453067779541 -3.6300292015075684 -1.6720412969589233 0.1296204924583435 0 2
12.462050437927246 -3.742197275161743 -1.6721227169036865 0.12961409986019135 0 2
12.42855453491211 -3.8541111946105957 -1.6722066402435303 0.12960781157016754 0 2
12.394140243530273 -3.965712785720825 -1.6722925901412964 0.12960101664066315 0 2
12.358671188354492 -4.077021598815918 -1.6723809242248535 0.1295943409204483 0 2
12.322304725646973 -4.187997817993164 -1.672471284866333 0.12958726286888123 0 2
12.284882545471191 -4.298671722412109 -1.6725640296936035 0.12957991659641266 0 2
12.24648380279541 -4.409023284912109 -1.672658920288086 0.12957261502742767 0 2
12.207109451293945 -4.519023418426514 -1.6727561950683594 0.1295653134584427 0 2
12.166776657104492 -4.62869119644165 -1.6728554964065552 0.12955732643604279 0 2
12.125468254089355 -4.737998008728027 -1.672956943511963 0.12954960763454437 0 2
12.083222389221191 -4.846943378448486 -1.6730607748031616 0.12954144179821014 0 2
12.039960861206055 -4.955517292022705 -1.6731665134429932 0.12953342497348785 0 2
11.995780944824219 -5.063720703125 -1.6732746362686157 0.12952499091625214 0 2
11.950663566589355 -5.171513557434082 -1.6733847856521606 0.1295165866613388 0 2
11.904569625854492 -5.278944969177246 -1.6734973192214966 0.12950783967971802 0 2
11.857460975646973 -5.385956764221191 -1.6736117601394653 0.12949880957603455 0 2
11.809492111206055 -5.492548942565918 -1.6737284660339355 0.12948991358280182 0 2
11.760565757751465 -5.598711013793945 -1.6738473176956177 0.1294807642698288 0 2
11.710663795471191 -5.704472541809082 -1.6739681959152222 0.12947125732898712 0 2
11.659863471984863 -5.809784889221191 -1.674091100692749 0.12946178019046783 0 2
11.608085632324219 -5.914628982543945 -1.6742162704467773 0.1294521689414978 0 2
11.555429458618164 -6.01907205581665 -1.6743435859680176 0.1294422298669815 0 2
11.501835823059082 -6.123007774353027 -1.6744729280471802 0.1294323205947876 0 2
11.495956420898438 -6.252939224243164 -1.681719183921814 0.4723156988620758 0 2
11.253241539001465 -6.25247049331665 -1.6543660163879395 0.4801252782344818 0 2
11.01839828491211 -6.252050876617432 -1.6280159950256348 0.48789599537849426 0 2
10.790781021118164 -6.251630783081055 -1.60261869430542 0.49562808871269226 0 2
10.570195198059082 -6.251210689544678 -1.5781304836273193 0.5033188462257385 0 2
10.356268882751465 -6.250820159912109 -1.5545001029968262 0.510970413684845 0 2
10.269804000854492 -6.325097560882568 -1.549984097480774 0.12935806810855865 0 2
10.21353530883789 -6.417587757110596 -1.5501190423965454 0.12934668362140656 0 2
10.15640640258789 -6.509580135345459 -1.5502554178237915 0.12933535873889923 0 2
10.098456382751465 -6.60107421875 -1.5503939390182495 0.1293238252401352 0 2
10.039726257324219 -6.692070007324219 -1.5505341291427612 0.12931205332279205 0 2
9.980155944824219 -6.782509803771973 -1.5506762266159058 0.12930049002170563 0 2
9.91982364654541 -6.872460842132568 -1.5508201122283936 0.12928831577301025 0 2
9.858633041381836 -6.961855411529541 -1.5509659051895142 0.12927623093128204 0 2
9.796698570251465 -7.050771236419678 -1.551113247871399 0.12926393747329712 0 2
9.733964920043945 -7.139091491699219 -1.5512624979019165 0.12925133109092712 0 2
9.670429229736328 -7.226894378662109 -1.5514135360717773 0.1292387992143631 0 2
9.606093406677246 -7.314130783081055 -1.551566243171692 0.1292261928319931 0 2
9.541015625 -7.400781154632568 -1.5517208576202393 0.1292133331298828 0 2
9.4751558303833 -7.486884593963623 -1.5518769025802612 0.12920033931732178 0 2
9.40853500366211 -7.572402000427246 -1.552034854888916 0.12918713688850403 0 2
9.341132164001465 -7.657333850860596 -1.5521944761276245 0.12917380034923553 0 2
9.272988319396973 -7.741679668426514 -1.5523558855056763 0.12916041910648346 0 2
9.204081535339355 -7.825409889221191 -1.5525188446044922 0.12914688885211945 0 2
9.134472846984863 -7.90856409072876 -1.5526834726333618 0.12913310527801514 0 2
9.064082145690918 -7.991074085235596 -1.5528500080108643 0.12911947071552277 0 2
8.992968559265137 -8.072998046875 -1.5530178546905518 0.129105344414711 0 2
8.921113014221191 -8.154287338256836 -1.5531874895095825 0.1290913224220276 0 2
8.848554611206055 -8.234941482543945 -1.5533586740493774 0.12907695770263672 0 2
8.775273323059082 -8.314960479736328 -1.5535314083099365 0.12906260788440704 0 2
8.701250076293945 -8.394335746765137 -1.5537058115005493 0.12904813885688782 0 2
8.626503944396973 -8.47304630279541 -1.5538820028305054 0.12903350591659546 0 2
8.677617073059082 8.677626609802246 -1.6800298690795898 0.13731084764003754 0 2
8.754277229309082 8.598525047302246 -1.6798629760742188 0.1373245269060135 0 2
8.83023452758789 8.518769264221191 -1.6796975135803223 0.13733802735805511 0 2
8.905468940734863 8.438339233398438 -1.6795339584350586 0.13735131919384003 0 2
8.979999542236328 8.357275009155273 -1.6793721914291382 0.13736459612846375 0 2
9.053789138793945 8.27553653717041 -1.6792120933532715 0.13737761974334717 0 2
9.126874923706055 8.1931734085083 -1.679053783416748 0.13739055395126343 0 2
9.199179649353027 8.110156059265137 -1.6788972616195679 0.1374034732580185 0 2
9.270722389221191 8.02651309967041 -1.6787422895431519 0.13741619884967804 0 2
9.341523170471191 7.942245960235596 -1.6785893440246582 0.13742879033088684 0 2
9.41162109375 7.857392311096191 -1.6784380674362183 0.1374409943819046 0 2
9.480937004089355 7.771894454956055 -1.6782886981964111 0.1374533474445343 0 2
9.549433708190918 7.685810565948486 -1.6781409978866577 0.13746550679206848 0 2
9.617226600646973 7.599111080169678 -1.6779950857162476 0.13747721910476685 0 2
9.684199333190918 7.51183557510376 -1.6778512001037598 0.13748925924301147 0 2
9.750429153442383 7.423994064331055 -1.6777089834213257 0.13750077784061432 0 2
9.815839767456055 7.335556507110596 -1.6775689125061035 0.1375122219324112 0 2
9.880468368530273 7.246552467346191 -1.677430510520935 0.13752372562885284 0 2
9.944296836853027 7.157001972198486 -1.6772940158843994 0.13753484189510345 0 2
10.007343292236328 7.066874980926514 -1.6771594285964966 0.1375458985567093 0 2
10.069570541381836 6.976230144500732 -1.6770267486572266 0.13755670189857483 0 2
10.130976676940918 6.885019302368164 -1.6768958568572998 0.13756753504276276 0 2
10.191601753234863 6.793300628662109 -1.676767110824585 0.137578085064888 0 2
10.251405715942383 6.701035022735596 -1.676640272140503 0.1375884860754013 0 2
10.310351371765137 6.608242034912109 -1.6765151023864746 0.13759875297546387 0 2
10.36849594116211 6.514980316162109 -1.6763920783996582 0.13760870695114136 0 2
10.425820350646973 6.421181678771973 -1.6762709617614746 0.13761861622333527 0 2
10.48226547241211 6.326884746551514 -1.6761517524719238 0.1376284807920456 0 2
10.537909507751465 6.232109069824219 -1.676034688949585 0.1376381665468216 0 2
10.592695236206055 6.13683557510376 -1.6759194135665894 0.1376476138830185 0 2
10.64664077758789 6.041103363037109 -1.6758062839508057 0.13765688240528107 0 2
10.699647903442383 5.944882869720459 -1.6756913661956787 0.13764588534832 0 2
10.764531135559082 5.855107307434082 -1.6775503158569336 0.49285897612571716 0 2
10.986639976501465 5.848720550537109 -1.7039066553115845 0.4852255582809448 0 2
11.218437194824219 5.843476295471191 -1.73164963722229 0.4616902470588684 0 2
11.466581344604492 5.842509746551514 -1.7617934942245483 0.45379042625427246 0 2
11.615976333618164 5.787919998168945 -1.7766952514648438 0.1376907229423523 0 1
11.666757583618164 5.683046817779541 -1.7765858173370361 0.13769906759262085 0 1
11.716601371765137 5.577773094177246 -1.77647864818573 0.1377074122428894 0 1
11.765507698059082 5.472050666809082 -1.7763735055923462 0.13771551847457886 0 1
11.8134765625 5.365917682647705 -1.7762707471847534 0.13772358000278473 0 1
11.860468864440918 5.259384632110596 -1.776170015335083 0.1377314031124115 0 1
11.906561851501465 5.152411937713623 -1.7760714292526245 0.13773885369300842 0 1
11.951679229736328 5.045068264007568 -1.7759753465652466 0.13774636387825012 0 1
11.995820045471191 4.937324047088623 -1.7758811712265015 0.13775378465652466 0 1
12.039042472839355 4.829189300537109 -1.7757892608642578 0.13776081800460815 0 1
12.081308364868164 4.72073221206665 -1.7756996154785156 0.13776767253875732 0 1
12.122538566589355 4.61184549331665 -1.7756121158599854 0.1377747356891632 0 1
12.162890434265137 4.502646446228027 -1.775527000427246 0.13778111338615417 0 1
12.202265739440918 4.393075942993164 -1.7754440307617188 0.13778764009475708 0 1
12.24062442779541 4.283183574676514 -1.7753633260726929 0.13779401779174805 0 1
12.278046607971191 4.172949314117432 -1.7752846479415894 0.13780009746551514 0 1
12.314492225646973 4.062411785125732 -1.775208592414856 0.13780593872070312 0 1
12.349921226501465 3.951542854309082 -1.775134563446045 0.1378118246793747 0 1
12.384374618530273 3.8403806686401367 -1.7750627994537354 0.13781727850437164 0 1
12.417909622192383 3.7289159297943115 -1.7749935388565063 0.13782264292240143 0 1
12.450409889221191 3.6171875 -1.7749264240264893 0.1378278136253357 0 1
12.481913566589355 3.505136728286743 -1.7748615741729736 0.13783299922943115 0 1
12.512421607971191 3.3928515911102295 -1.77479887008667 0.1378377079963684 0 1
12.541933059692383 3.280283212661743 -1.7747387886047363 0.13784243166446686 0 1
12.57046890258789 3.16748046875 -1.7746806144714355 0.13784699141979218 0 1
12.598007202148438 3.0544140338897705 -1.7746249437332153 0.13785117864608765 0 1
12.624530792236328 2.9411327838897705 -1.7745715379714966 0.13785533607006073 0 1
12.65005874633789 2.82763671875 -1.7745205163955688 0.13785941898822784 0 1
12.674609184265137 2.713876962661743 -1.7744717597961426 0.13786308467388153 0 1
12.69808578491211 2.5999510288238525 -1.7744252681732178 0.13786685466766357 0 1
12.72060489654541 2.4858105182647705 -1.7743810415267944 0.13787014782428741 0 1
12.742109298706055 2.371454954147339 -1.774339199066162 0.13787351548671722 0 1
12.762617111206055 2.256953001022339 -1.7742998600006104 0.13787633180618286 0 1
12.782089233398438 2.1422460079193115 -1.7742626667022705 0.13787926733493805 0 1
12.800546646118164 2.027412176132202 -1.7742278575897217 0.13788199424743652 0 1
12.817988395690918 1.9123729467391968 -1.7741953134536743 0.13788476586341858 0 1
12.834413528442383 1.7972265481948853 -1.774165153503418 0.1378869265317917 0 1
12.849803924560547 1.6819335222244263 -1.774137258529663 0.137889102101326 0 1
12.864237785339355 1.566503882408142 -1.7741117477416992 0.13789106905460358 0 1
12.877616882324219 1.45095694065094 -1.774088740348816 0.13789282739162445 0 1
12.889941215515137 1.3352733850479126 -1.774067997932434 0.13789473474025726 0 1
12.901249885559082 1.2195117473602295 -1.7740492820739746 0.13789600133895874 0 1
12.911601066589355 1.1036523580551147 -1.7740331888198853 0.13789720833301544 0 1
12.920859336853027 0.9877246022224426 -1.774019479751587 0.13789837062358856 0 1
12.929160118103027 0.8716992139816284 -1.7740081548690796 0.137899249792099 0 1
12.936386108398438 0.7556054592132568 -1.7739989757537842 0.13789986073970795 0 1
12.942577362060547 0.639453113079071 -1.7739923000335693 0.13790039718151093 0 1
12.947772979736328 0.5232519507408142 -1.7739880084991455 0.13790084421634674 0 1
12.951913833618164 0.4070214629173279 -1.7739858627319336 0.13790100812911987 0 1
12.955078125 0.29075193405151367 -1.7739862203598022 0.13790087401866913 0 1
12.957167625427246 0.17445312440395355 -1.773988962173462 0.13790065050125122 0 1
12.958261489868164 0.058125000447034836 -1.773993968963623 0.13790032267570496 0 1
12.958319664001465 -0.05815429612994194 -1.7740012407302856 0.137899711728096 0 1
12.957324028015137 -0.1744726449251175 -1.7740108966827393 0.1378989964723587 0 1
12.95531177520752 -0.290771484375 -1.7740230560302734 0.13789798319339752 0 1
12.952323913574219 -0.407050758600235 -1.774037480354309 0.13789688050746918 0 1
12.9482421875 -0.5232909917831421 -1.7740541696548462 0.13789567351341248 0 1
12.943163871765137 -0.6395214796066284 -1.7740734815597534 0.1378941684961319 0 1
12.9370698928833 -0.7556542754173279 -1.774094820022583 0.13789238035678864 0 1
12.929941177368164 -0.8717675805091858 -1.7741186618804932 0.1378905177116394 0 1
12.921796798706055 -0.9878124594688416 -1.7741448879241943 0.137888565659523 0 1
12.912616729736328 -1.103759765625 -1.7741732597351074 0.13788636028766632 0 1
12.902421951293945 -1.2196385860443115 -1.7742040157318115 0.13788387179374695 0 1
12.8911714553833 -1.3354296684265137 -1.7742371559143066 0.13788153231143951 0 1
12.878925323486328 -1.451113224029541 -1.7742726802825928 0.13787876069545746 0 1
12.865644454956055 -1.5666991472244263 -1.7743104696273804 0.13787570595741272 0 1
12.851386070251465 -1.6821386814117432 -1.7743505239486694 0.13787265121936798 0 1
12.836015701293945 -1.7974804639816284 -1.7743929624557495 0.13786935806274414 0 1
12.81972599029541 -1.9126757383346558 -1.7744377851486206 0.13786567747592926 0 1
12.802382469177246 -2.027714729309082 -1.7744848728179932 0.1378621906042099 0 1
12.784003257751465 -2.1426074504852295 -1.7745342254638672 0.1378583014011383 0 1
12.480429649353027 -2.2070703506469727 -1.7350715398788452 0.17567573487758636 0 2
12.014687538146973 -2.2361133098602295 -1.6730490922927856 0.13785023987293243 0 2
11.994491577148438 -2.343945264816284 -1.6731022596359253 0.1378457099199295 0 2
11.973398208618164 -2.451591730117798 -1.6731574535369873 0.13784104585647583 0 2
11.95132827758789 -2.5590527057647705 -1.6732150316238403 0.1378364861011505 0 2
11.928319931030273 -2.666327953338623 -1.6732745170593262 0.1378314197063446 0 2
11.904335975646973 -2.773369073867798 -1.6733362674713135 0.13782647252082825 0 2
11.879374504089355 -2.8802244663238525 -1.6734002828598022 0.1378212720155716 0 2
11.853515625 -2.986865282058716 -1.6734662055969238 0.13781580328941345 0 2
10.583906173706055 -2.768203020095825 -1.4976671934127808 0.9218969345092773 0 20
10.547186851501465 -2.8599607944488525 -1.4960397481918335 0.9563932418823242 0 20
10.67822265625 -2.9986326694488525 -1.5183866024017334 0.041612427681684494 0 20
11.740702629089355 -3.411015510559082 -1.6737515926361084 0.13779209554195404 0 2
11.710156440734863 -3.51641583442688 -1.673828363418579 0.13778594136238098 0 2
11.6787109375 -3.6215527057647705 -1.6739071607589722 0.13777922093868256 0 2
11.64622974395752 -3.726396322250366 -1.6739881038665771 0.13777287304401398 0 2
11.612910270690918 -3.830986261367798 -1.674071192741394 0.1377660036087036 0 2
11.57861328125 -3.9352636337280273 -1.6741563081741333 0.13775888085365295 0 2
11.543476104736328 -4.039247989654541 -1.674243450164795 0.1377517282962799 0 2
11.5073823928833 -4.142910003662109 -1.6743327379226685 0.1377442479133606 0 2
11.470312118530273 -4.246279239654541 -1.6744240522384644 0.137736976146698 0 2
11.432401657104492 -4.349306583404541 -1.6745175123214722 0.13772910833358765 0 2
11.393515586853027 -4.451982498168945 -1.6746129989624023 0.137721449136734 0 2
11.353769302368164 -4.554336071014404 -1.6747106313705444 0.13771341741085052 0 2
11.313124656677246 -4.656347751617432 -1.6748101711273193 0.13770495355129242 0 2
11.271523475646973 -4.757997989654541 -1.6749117374420166 0.13769689202308655 0 2
11.229101181030273 -4.859248161315918 -1.6750155687332153 0.13768824934959412 0 2
11.185722351074219 -4.960165977478027 -1.6751210689544678 0.13767962157726288 0 2
11.14144515991211 -5.060693264007568 -1.6752288341522217 0.13767088949680328 0 2
11.096288681030273 -5.160839557647705 -1.6753385066986084 0.1376616656780243 0 2
11.050272941589355 -5.260595798492432 -1.6754502058029175 0.13765259087085724 0 2
11.003358840942383 -5.359931468963623 -1.675563931465149 0.13764312863349915 0 2
10.955585479736328 -5.458857536315918 -1.6756799221038818 0.13763365149497986 0 2
10.906874656677246 -5.557353496551514 -1.6757973432540894 0.13762399554252625 0 2
10.857382774353027 -5.655448913574219 -1.675917148590088 0.13761405646800995 0 2
10.806952476501465 -5.753085613250732 -1.6760387420654297 0.13760408759117126 0 2
10.755624771118164 -5.850283145904541 -1.6761623620986938 0.1375940591096878 0 2
10.70351505279541 -5.947031021118164 -1.6762877702713013 0.1375836580991745 0 2
10.650527000427246 -6.043339729309082 -1.6764153242111206 0.1375732421875 0 2
10.596640586853027 -6.139140605926514 -1.6765447854995728 0.13756263256072998 0 2
10.570234298706055 -6.251210689544678 -1.6811721324920654 0.5027692317962646 0 2
10.356210708618164 -6.250810623168945 -1.6559972763061523 0.5104119181632996 0 2
10.148554801940918 -6.250429630279541 -1.6316970586776733 0.5180136561393738 0 2
9.946874618530273 -6.250068187713623 -1.6082290410995483 0.5255733728408813 0 2
9.750917434692383 -6.249706745147705 -1.5855486392974854 0.5330907702445984 0 2
9.56039047241211 -6.249345779418945 -1.563627004623413 0.5405653119087219 0 2
9.4326171875 -6.287412166595459 -1.5518969297409058 0.13748423755168915 0 2
9.376660346984863 -6.37234354019165 -1.5520305633544922 0.13747233152389526 0 2
9.319902420043945 -6.45681619644165 -1.5521657466888428 0.13746032118797302 0 2
9.262343406677246 -6.54080057144165 -1.5523028373718262 0.13744820654392242 0 2
9.2041015625 -6.624277114868164 -1.5524414777755737 0.1374359279870987 0 2
9.1450777053833 -6.707245826721191 -1.552581787109375 0.13742345571517944 0 2
9.08535099029541 -6.78966760635376 -1.5527236461639404 0.1374109536409378 0 2
9.024882316589355 -6.871572017669678 -1.5528674125671387 0.13739809393882751 0 2
8.963671684265137 -6.952968597412109 -1.5530126094818115 0.1373853236436844 0 2
8.90175724029541 -7.033798694610596 -1.553159475326538 0.13737231492996216 0 2
8.839101791381836 -7.114110946655273 -1.553308129310608 0.1373591423034668 0 2
8.77572250366211 -7.19384765625 -1.5534580945968628 0.13734592497348785 0 2
8.711640357971191 -7.273036956787109 -1.553609848022461 0.13733252882957458 0 2
8.64687442779541 -7.351669788360596 -1.5537630319595337 0.13731908798217773 0 2
8.581405639648438 -7.429707050323486 -1.5539180040359497 0.1373053938150406 0 2
8.5151948928833 -7.507206916809082 -1.5540741682052612 0.1372915655374527 0 2
8.448339462280273 -7.584111213684082 -1.554232120513916 0.1372774839401245 0 2
8.380800247192383 -7.66042947769165 -1.5543917417526245 0.1372634917497635 0 2
8.312578201293945 -7.736142635345459 -1.5545525550842285 0.13724921643733978 0 2
8.243632316589355 -7.811240196228027 -1.5547152757644653 0.1372348517179489 0 2
8.174062728881836 -7.885761737823486 -1.554879069328308 0.13722053170204163 0 2
8.103827476501465 -7.959648132324219 -1.5550445318222046 0.13720577955245972 0 2
8.181171417236328 8.181191444396973 -1.6812185049057007 0.14547370374202728 0 2
8.253496170043945 8.106659889221191 -1.681061029434204 0.14548718929290771 0 2
8.325175285339355 8.031523704528809 -1.6809051036834717 0.14550068974494934 0 2
8.396132469177246 7.955722332000732 -1.6807507276535034 0.14551420509815216 0 2
8.466425895690918 7.879345417022705 -1.6805979013442993 0.14552736282348633 0 2
8.536054611206055 7.802323818206787 -1.6804468631744385 0.14554056525230408 0 2
8.604960441589355 7.724687099456787 -1.6802974939346313 0.1455533504486084 0 2
8.67324161529541 7.646484375 -1.680149793624878 0.14556607604026794 0 2
8.74072265625 7.56765604019165 -1.6800036430358887 0.14557889103889465 0 2
8.807538986206055 7.488261699676514 -1.6798592805862427 0.14559127390384674 0 2
8.873632431030273 7.408271312713623 -1.6797165870666504 0.1456037312746048 0 2
8.939062118530273 7.327695369720459 -1.6795754432678223 0.1456158459186554 0 2
9.003710746765137 7.246552467346191 -1.6794363260269165 0.14562806487083435 0 2
9.067656517028809 7.164853572845459 -1.6792988777160645 0.14564010500907898 0 2
9.130859375 7.082626819610596 -1.679162859916687 0.14565177261829376 0 2
9.193320274353027 6.999814510345459 -1.679028868675232 0.14566335082054138 0 2
9.255078315734863 6.916464805603027 -1.678896427154541 0.14567483961582184 0 2
9.316015243530273 6.832578182220459 -1.6787657737731934 0.1456862986087799 0 2
9.376250267028809 6.748193264007568 -1.678637146949768 0.1456974297761917 0 2
9.435742378234863 6.663232326507568 -1.678510069847107 0.14570832252502441 0 2
9.49447250366211 6.577802658081055 -1.678384780883789 0.14571908116340637 0 2
9.552421569824219 6.491835594177246 -1.678261399269104 0.1457299292087555 0 2
9.609609603881836 6.405370712280273 -1.6781398057937622 0.14574050903320312 0 2
9.666054725646973 6.318378925323486 -1.6780200004577637 0.14575091004371643 0 2
9.721659660339355 6.230947017669678 -1.6779019832611084 0.14576111733913422 0 2
9.77652359008789 6.143007755279541 -1.677785873413086 0.14577129483222961 0 2
9.8306245803833 6.054579734802246 -1.6776716709136963 0.14578120410442352 0 2
9.883906364440918 5.965703010559082 -1.6775561571121216 0.145769402384758 0 2
9.93636703491211 5.876347541809082 -1.677441954612732 0.1457793265581131 0 2
10.100370407104492 5.851601600646973 -1.6961945295333862 0.516778826713562 0 2
10.302069664001465 5.845585823059082 -1.721179485321045 0.5092768669128418 0 2
10.51742172241211 5.843593597412109 -1.7483264207839966 0.4848168194293976 0 2
10.7417573928833 5.842714786529541 -1.7768322229385376 0.47703883051872253 0 2
10.804218292236328 5.751630783081055 -1.7785546779632568 0.1458265781402588 0 1
10.854726791381836 5.654062271118164 -1.7784453630447388 0.14583571255207062 0 1
10.904414176940918 5.556064128875732 -1.7783379554748535 0.1458442509174347 0 1
10.953164100646973 5.457655906677246 -1.7782328128814697 0.14585304260253906 0 1
11.001093864440918 5.358798503875732 -1.7781295776367188 0.14586135745048523 0 1
11.048124313354492 5.25955057144165 -1.7780283689498901 0.14586971700191498 0 1
11.09423828125 5.159882545471191 -1.7779293060302734 0.14587785303592682 0 1
11.13949203491211 5.059814453125 -1.7778321504592896 0.14588576555252075 0 1
11.183886528015137 4.959355354309082 -1.7777371406555176 0.1458936631679535 0 1
11.22738265991211 4.858525276184082 -1.777644157409668 0.1459011733531952 0 1
11.26992130279541 4.757304668426514 -1.7775533199310303 0.14590880274772644 0 1
11.311640739440918 4.655732154846191 -1.777464509010315 0.14591598510742188 0 1
11.352421760559082 4.553769588470459 -1.777377724647522 0.14592301845550537 0 1
11.392304420471191 4.451484203338623 -1.777293086051941 0.14593005180358887 0 1
11.431249618530273 4.348857402801514 -1.7772107124328613 0.1459367573261261 0 1
11.4692964553833 4.245859146118164 -1.7771302461624146 0.14594341814517975 0 1
11.506444931030273 4.142587661743164 -1.7770519256591797 0.14594991505146027 0 1
11.542695045471191 4.038974285125732 -1.7769756317138672 0.14595606923103333 0 1
11.57796859741211 3.9350292682647705 -1.7769017219543457 0.14596226811408997 0 1
11.612343788146973 3.8307812213897705 -1.7768298387527466 0.1459682732820511 0 1
11.645819664001465 3.726269483566284 -1.7767598628997803 0.14597398042678833 0 1
11.67837905883789 3.6214256286621094 -1.7766921520233154 0.14597944915294647 0 1
11.7099609375 3.5163378715515137 -1.776626706123352 0.14598482847213745 0 1
11.740605354309082 3.4109764099121094 -1.7765634059906006 0.14599014818668365 0 1
11.770370483398438 3.3053319454193115 -1.776502013206482 0.14599508047103882 0 1
11.799179077148438 3.1994433403015137 -1.7764431238174438 0.14600010216236115 0 1
11.827031135559082 3.09332013130188 -1.776386022567749 0.14600467681884766 0 1
11.853944778442383 2.986933469772339 -1.7763314247131348 0.14600908756256104 0 1
11.879921913146973 2.8803417682647705 -1.7762788534164429 0.14601346850395203 0 1
11.904999732971191 2.77349591255188 -1.776228427886963 0.1460176259279251 0 1
11.92910099029541 2.6664648056030273 -1.7761802673339844 0.14602148532867432 0 1
11.952226638793945 2.559208869934082 -1.7761342525482178 0.14602531492710114 0 1
11.974393844604492 2.4517576694488525 -1.776090383529663 0.1460290402173996 0 1
11.9956636428833 2.344130754470825 -1.7760485410690308 0.1460321843624115 0 1
12.015936851501465 2.236318349838257 -1.776009202003479 0.14603570103645325 0 1
12.035292625427246 2.128310441970825 -1.7759718894958496 0.14603857696056366 0 1
12.053671836853027 2.0201854705810547 -1.7759368419647217 0.14604152739048004 0 1
12.071093559265137 1.911865234375 -1.7759040594100952 0.14604432880878448 0 1
12.08755874633789 1.8034179210662842 -1.7758731842041016 0.1460466980934143 0 1
12.103066444396973 1.6948144435882568 -1.7758448123931885 0.14604908227920532 0 1
12.11757755279541 1.5860936641693115 -1.7758185863494873 0.14605124294757843 0 1
12.131210327148438 1.477236270904541 -1.775794506072998 0.14605318009853363 0 1
12.143808364868164 1.3682714700698853 -1.7757726907730103 0.14605510234832764 0 1
12.15542984008789 1.2591991424560547 -1.775753140449524 0.14605677127838135 0 1
12.16617202758789 1.1500293016433716 -1.77573561668396 0.14605794847011566 0 1
12.175878524780273 1.0407812595367432 -1.775720477104187 0.1460592895746231 0 1
12.184648513793945 0.931445300579071 -1.7757073640823364 0.14606057107448578 0 1
12.1924409866333 0.8220117092132568 -1.7756965160369873 0.14606113731861115 0 1
12.1992769241333 0.7125585675239563 -1.7756879329681396 0.14606204628944397 0 1
12.205117225646973 0.60302734375 -1.775681734085083 0.1460626721382141 0 1
12.210039138793945 0.49342772364616394 -1.7756774425506592 0.14606276154518127 0 1
12.213964462280273 0.3838476538658142 -1.775675654411316 0.14606298506259918 0 1
12.216875076293945 0.27418944239616394 -1.775675892829895 0.14606311917304993 0 1
12.21890640258789 0.16453124582767487 -1.7756783962249756 0.1460627019405365 0 1
12.219922065734863 0.05482421815395355 -1.7756832838058472 0.14606241881847382 0 1
12.21996021270752 -0.05483398213982582 -1.7756900787353516 0.14606180787086487 0 1
12.219042778015137 -0.16456054151058197 -1.7756993770599365 0.14606110751628876 0 1
12.217147827148438 -0.2741992175579071 -1.7757107019424438 0.1460600644350052 0 1
12.214296340942383 -0.383857399225235 -1.7757242918014526 0.14605894684791565 0 1
12.210468292236328 -0.4934960901737213 -1.775740146636963 0.14605772495269775 0 1
12.205663681030273 -0.6030663847923279 -1.775758147239685 0.1460561752319336 0 1
12.199882507324219 -0.7126171588897705 -1.7757784128189087 0.14605455100536346 0 1
12.193163871765137 -0.8220898509025574 -1.7758009433746338 0.14605261385440826 0 1
12.185468673706055 -0.9315136671066284 -1.7758255004882812 0.1460506021976471 0 1
12.1767578125 -1.040859341621399 -1.7758523225784302 0.14604851603507996 0 1
12.16714859008789 -1.1501562595367432 -1.7758816480636597 0.14604614675045013 0 1
12.156561851501465 -1.2593358755111694 -1.7759127616882324 0.14604350924491882 0 1
12.144980430603027 -1.3684375286102295 -1.7759462594985962 0.14604079723358154 0 1
12.132460594177246 -1.4774023294448853 -1.7759820222854614 0.14603783190250397 0 1
12.118964195251465 -1.586279273033142 -1.776019811630249 0.1460346132516861 0 1
12.104531288146973 -1.6950488090515137 -1.776059865951538 0.14603136479854584 0 1
12.08910083770752 -1.8036816120147705 -1.7761023044586182 0.14602814614772797 0 1
12.072733879089355 -1.912148356437683 -1.776146650314331 0.14602425694465637 0 1
12.05540943145752 -2.0204784870147705 -1.776193380355835 0.14602062106132507 0 1
12.037089347839355 -2.128652334213257 -1.7762420177459717 0.14601655304431915 0 1
11.849413871765137 -2.2053515911102295 -1.7514033317565918 0.18451406061649323 0 2
11.3447265625 -2.2169530391693115 -1.679675817489624 0.2183580994606018 0 2
11.290898323059082 -2.311836004257202 -1.6747097969055176 0.14600330591201782 0 2
11.29281234741211 -2.4180078506469727 -1.6781411170959473 0.2359500229358673 0 2
11.248319625854492 -2.5143065452575684 -1.6748201847076416 0.14599372446537018 0 2
11.225703239440918 -2.615283250808716 -1.674878478050232 0.1459885984659195 0 2
11.202167510986328 -2.7160253524780273 -1.6749389171600342 0.14598339796066284 0 2
11.177773475646973 -2.8165624141693115 -1.6750011444091797 0.14597782492637634 0 2
10.573593139648438 -2.7654783725738525 -1.5881167650222778 0.9208112359046936 0 20
10.53726577758789 -2.8572752475738525 -1.5864516496658325 0.9552620649337769 0 20
10.679628372192383 -2.9990527629852295 -1.6118825674057007 0.04161541536450386 0 20
11.071229934692383 -3.2165234088897705 -1.675270676612854 0.14595454931259155 0 2
11.042421340942383 -3.315908193588257 -1.6753430366516113 0.1459479182958603 0 2
11.0126953125 -3.415029287338257 -1.675417423248291 0.14594165980815887 0 2
10.982069969177246 -3.5138964653015137 -1.6754937171936035 0.14593498408794403 0 2
10.950624465942383 -3.612490177154541 -1.675572156906128 0.14592815935611725 0 2
10.918280601501465 -3.710810422897339 -1.6756523847579956 0.1459212601184845 0 2
10.885019302368164 -3.8088574409484863 -1.6757348775863647 0.14591406285762787 0 2
10.850956916809082 -3.9065818786621094 -1.6758190393447876 0.14590677618980408 0 2
10.816015243530273 -4.004033088684082 -1.6759052276611328 0.14589928090572357 0 2
10.780195236206055 -4.101181507110596 -1.6759933233261108 0.14589154720306396 0 2
10.74355411529541 -4.198017597198486 -1.6760836839675903 0.14588366448879242 0 2
10.706034660339355 -4.294501781463623 -1.676175594329834 0.14587560296058655 0 2
10.667655944824219 -4.390683650970459 -1.67626953125 0.14586742222309113 0 2
10.62841796875 -4.486513614654541 -1.676365613937378 0.14585915207862854 0 2
10.588319778442383 -4.581982135772705 -1.6764634847640991 0.14585067331790924 0 2
10.5474214553833 -4.677119255065918 -1.6765632629394531 0.14584188163280487 0 2
10.505663871765137 -4.771903991699219 -1.6766647100448608 0.1458331048488617 0 2
10.46304702758789 -4.866308689117432 -1.6767683029174805 0.14582397043704987 0 2
10.419609069824219 -4.960341453552246 -1.6768736839294434 0.1458149254322052 0 2
10.375311851501465 -5.05398416519165 -1.6769812107086182 0.14580553770065308 0 2
10.330195426940918 -5.147236347198486 -1.6770904064178467 0.14579610526561737 0 2
10.284257888793945 -5.240107536315918 -1.677201509475708 0.14578640460968018 0 2
10.237500190734863 -5.332578182220459 -1.6773144006729126 0.14577649533748627 0 2
10.189921379089355 -5.424599647521973 -1.67742919921875 0.14576669037342072 0 2
10.14150333404541 -5.516240119934082 -1.6775457859039307 0.14575651288032532 0 2
10.09228515625 -5.607441425323486 -1.6776641607284546 0.14574621617794037 0 2
10.042264938354492 -5.698203086853027 -1.6777845621109009 0.1457357108592987 0 2
9.991445541381836 -5.788564205169678 -1.6779065132141113 0.14572514593601227 0 2
9.93984317779541 -5.878427505493164 -1.6780303716659546 0.14571449160575867 0 2
9.887421607971191 -5.967861175537109 -1.6781561374664307 0.14570340514183044 0 2
9.834218978881836 -6.056826114654541 -1.67828369140625 0.14569251239299774 0 2
9.78017520904541 -6.145322322845459 -1.678412914276123 0.14568129181861877 0 2
9.750898361206055 -6.249687194824219 -1.682949185371399 0.5324714779853821 0 2
9.56039047241211 -6.249326229095459 -1.6596794128417969 0.5399367213249207 0 2
9.375039100646973 -6.248993873596191 -1.6371746063232422 0.5473594069480896 0 2
9.194609642028809 -6.248681545257568 -1.6154000759124756 0.5547373294830322 0 2
9.018925666809082 -6.248359203338623 -1.5943230390548706 0.5620710849761963 0 2
8.847773551940918 -6.248056411743164 -1.5739141702651978 0.569359540939331 0 2
8.680917739868164 -6.247753620147705 -1.5541465282440186 0.5766010284423828 0 2
8.622304916381836 -6.323808670043945 -1.5537530183792114 0.14558623731136322 0 2
8.565937042236328 -6.401503562927246 -1.5538870096206665 0.14557373523712158 0 2
8.508867263793945 -6.478681564331055 -1.5540224313735962 0.14556093513965607 0 2
8.451112747192383 -6.555390357971191 -1.5541596412658691 0.14554820954799652 0 2
8.392695426940918 -6.631562232971191 -1.5542980432510376 0.1455351561307907 0 2
8.333613395690918 -6.707245826721191 -1.5544382333755493 0.14552195370197296 0 2
8.273788452148438 -6.782382488250732 -1.554579734802246 0.14550867676734924 0 2
8.213319778442383 -6.857011795043945 -1.5547230243682861 0.14549550414085388 0 2
8.152226448059082 -6.931113243103027 -1.5548675060272217 0.14548185467720032 0 2
8.090449333190918 -7.004648208618164 -1.555013656616211 0.14546817541122437 0 2
8.028007507324219 -7.077656269073486 -1.5551611185073853 0.14545440673828125 0 2
7.964921474456787 -7.150126934051514 -1.5553101301193237 0.14544038474559784 0 2
7.901171684265137 -7.222021102905273 -1.5554605722427368 0.14542649686336517 0 2
7.836796760559082 -7.293368816375732 -1.5556124448776245 0.14541210234165192 0 2
7.771796703338623 -7.364150047302246 -1.5557657480239868 0.1453978270292282 0 2
7.70617151260376 -7.43435525894165 -1.5559204816818237 0.14538347721099854 0 2
7.639882564544678 -7.503974437713623 -1.5560766458511353 0.145368754863739 0 2
7.737460613250732 7.737480163574219 -1.6822808980941772 0.1536264717578888 0 2
7.805898189544678 7.66702127456665 -1.6821318864822388 0.15364018082618713 0 2
7.873691082000732 7.595986366271973 -1.6819841861724854 0.15365354716777802 0 2
7.940859317779541 7.524345397949219 -1.681838035583496 0.15366695821285248 0 2
8.007421493530273 7.452138423919678 -1.68169367313385 0.15368013083934784 0 2
8.0733003616333 7.379345417022705 -1.6815507411956787 0.15369322896003723 0 2
8.138476371765137 7.305956840515137 -1.681409239768982 0.15370623767375946 0 2
8.203085899353027 7.232001781463623 -1.6812695264816284 0.1537190079689026 0 2
8.26699161529541 7.157490253448486 -1.6811312437057495 0.15373165905475616 0 2
8.33023452758789 7.082421779632568 -1.6809945106506348 0.15374410152435303 0 2
8.392773628234863 7.006816387176514 -1.6808593273162842 0.1537562608718872 0 2
8.454668045043945 6.930644512176514 -1.6807259321212769 0.1537686288356781 0 2
8.515898704528809 6.853945255279541 -1.6805940866470337 0.15378062427043915 0 2
8.576367378234863 6.776708602905273 -1.6804640293121338 0.15379269421100616 0 2
8.636210441589355 6.698935508728027 -1.6803354024887085 0.1538044959306717 0 2
8.695331573486328 6.620664119720459 -1.680208444595337 0.15381598472595215 0 2
8.75374984741211 6.541855335235596 -1.6800832748413086 0.1538274586200714 0 2
8.811445236206055 6.462529182434082 -1.6799596548080444 0.1538388729095459 0 2
8.868475914001465 6.382724285125732 -1.679837703704834 0.15384985506534576 0 2
8.924784660339355 6.302421569824219 -1.6797174215316772 0.15386083722114563 0 2
8.98037052154541 6.221601486206055 -1.6795989274978638 0.15387175977230072 0 2
9.035195350646973 6.140322208404541 -1.679482102394104 0.15388251841068268 0 2
9.089316368103027 6.058564186096191 -1.6793670654296875 0.15389306843280792 0 2
9.142714500427246 5.976327896118164 -1.6792510747909546 0.15388040244579315 0 2
9.195351600646973 5.893613338470459 -1.679136037826538 0.15389126539230347 0 2
9.31607437133789 5.853701114654541 -1.691516399383545 0.5476006865501404 0 2
9.49544906616211 5.84814453125 -1.7144756317138672 0.5402625203132629 0 2
9.683046340942383 5.844501972198486 -1.738816499710083 0.5151119232177734 0 2
9.881132125854492 5.843691349029541 -1.7648905515670776 0.5075031518936157 0 2
10.020116806030273 5.805146217346191 -1.780344843864441 0.15394149720668793 0 1
10.071210861206055 5.714609146118164 -1.7802338600158691 0.1539512425661087 0 1
10.12148380279541 5.623642444610596 -1.7801247835159302 0.15396052598953247 0 1
10.170937538146973 5.5322265625 -1.7800174951553345 0.15396976470947266 0 1
10.219609260559082 5.440400123596191 -1.7799121141433716 0.1539788544178009 0 1
10.267382621765137 5.348124980926514 -1.7798086404800415 0.15398791432380676 0 1
10.314374923706055 5.255449295043945 -1.7797071933746338 0.15399682521820068 0 1
10.360605239868164 5.16238260269165 -1.7796075344085693 0.15400519967079163 0 1
10.405937194824219 5.068906307220459 -1.7795099020004272 0.15401381254196167 0 1
10.450448989868164 4.975019454956055 -1.7794140577316284 0.15402187407016754 0 1
10.494140625 4.880761623382568 -1.7793200016021729 0.15403009951114655 0 1
10.536992073059082 4.786122798919678 -1.7792282104492188 0.1540381759405136 0 1
10.57894515991211 4.691112995147705 -1.7791383266448975 0.15404605865478516 0 1
10.620136260986328 4.595742225646973 -1.7790502309799194 0.1540534645318985 0 1
10.660449028015137 4.500019550323486 -1.7789641618728638 0.15406088531017303 0 1
10.699902534484863 4.403935432434082 -1.77888023853302 0.1540682464838028 0 1
