ply
format ascii 1.0
element vertex 614
property float32 x
property float32 y
property float32 z
property float32 CosAngle
property uint32 ObjIdx
property uint32 ObjTag
end_header
36.0060920715332 3.7300000190734863 7.103459358215332 0.3789293169975281 0 9
36.72530746459961 3.471621036529541 7.238909721374512 0.648291826248169 0 9
35.124107360839844 3.00244140625 6.917705059051514 0.12612342834472656 0 9
36.588253021240234 2.796992063522339 7.200836181640625 0.6517196893692017 0 9
36.51914596557617 2.462226390838623 7.182602405548096 0.6533746123313904 0 9
36.44965362548828 2.1290624141693115 7.164887428283691 0.654990017414093 0 9
36.379783630371094 1.7975000143051147 7.147690296173096 0.6565655469894409 0 9
39.25606918334961 1.5865429639816284 7.70969820022583 0.5357329249382019 0 9
39.13802719116211 1.230019450187683 7.684035301208496 0.1735793501138687 0 9
39.80927276611328 0.8935155868530273 7.813942909240723 0.8624014854431152 0 9
40.06238555908203 0.5394921898841858 7.862354755401611 0.9769366383552551 0 9
40.07205581665039 0.1799023449420929 7.863616943359375 0.976779580116272 0 9
41.142391204833984 -0.1846289038658142 8.073653221130371 0.9695660471916199 0 9
41.41845703125 -0.5576562285423279 8.128479957580566 0.7407863736152649 0 9
38.6397705078125 -1.9091014862060547 7.591719627380371 0.5252707004547119 0 9
39.15369415283203 -2.2869529724121094 7.696413516998291 0.5181251764297485 0 9
39.12250900268555 -2.6376953125 7.694633483886719 0.9089773893356323 0 9
38.819461822509766 -2.967519521713257 7.639960765838623 0.49268463253974915 0 9
38.32049560546875 -3.275585889816284 7.5472412109375 0.5226055383682251 0 9
38.337562561035156 -3.6239452362060547 7.556706428527832 0.8525879979133606 0 9
37.5245475769043 -3.88720703125 7.403030872344971 0.7495070099830627 0 9
37.77272033691406 -4.255937576293945 7.459224700927734 0.7438600659370422 0 9
38.02475357055664 -4.630351543426514 7.516899108886719 0.7381526827812195 0 9
38.27837371826172 -5.010293006896973 7.575624942779541 0.8222920298576355 0 9
38.447872161865234 -5.383944988250732 7.618427753448486 0.8176720142364502 0 9
38.61935806274414 -5.761855125427246 7.662349700927734 0.8129853010177612 0 9
44.71817398071289 -7.08263635635376 8.884648323059082 0.5426864624023438 0 9
46.57497024536133 -7.805898189544678 9.267108917236328 0.7652881741523743 0 9
43.78273010253906 -7.742578029632568 8.72500991821289 0.40054261684417725 0 9
41.083377838134766 -7.646132469177246 8.200424194335938 0.3081188201904297 0 9
38.24589157104492 -7.473847389221191 7.647133827209473 0.5231944918632507 0 9
37.36482238769531 -7.650468349456787 7.484399318695068 0.687145471572876 0 9
37.61459732055664 -8.054061889648438 7.548610687255859 0.6813005208969116 0 9
35.68918228149414 -7.977460861206055 7.176294803619385 0.9305305480957031 0 9
35.74081802368164 -8.326542854309082 7.201416969299316 0.9272845387458801 0 9
35.792694091796875 -8.67806625366211 7.227270126342773 0.9239671230316162 0 9
36.49816131591797 -9.196738243103027 7.38608980178833 0.5005375742912292 0 9
35.88534927368164 -9.385663986206055 7.278829097747803 0.50791335105896 0 9
36.288490295410156 -9.839921951293945 7.378220081329346 0.6855195760726929 0 9
36.13929748535156 -10.148573875427246 7.366115570068359 0.6866464614868164 0 9
35.98991775512695 -10.456034660339355 7.354500770568848 0.6877309083938599 0 9
35.840309143066406 -10.762343406677246 7.343373775482178 0.688772976398468 0 9
35.690486907958984 -11.06753921508789 7.332734107971191 0.6897723078727722 0 9
35.54041290283203 -11.371699333190918 7.322575569152832 0.690729022026062 0 9
38.82135772705078 -12.806718826293945 8.021928787231445 0.8013103604316711 0 9
39.1790657043457 -13.315800666809082 8.120213508605957 0.9619149565696716 0 9
39.11399459838867 -13.686562538146973 8.13186264038086 0.9605370163917542 0 9
39.04875564575195 -14.058398246765137 8.144210815429688 0.9590811729431152 0 9
44.474159240722656 -16.464120864868164 9.306200981140137 0.9193935394287109 0 9
43.87158203125 -16.69027328491211 9.211089134216309 0.689022421836853 0 9
43.53038787841797 -17.009296417236328 9.171138763427734 0.1600942462682724 0 9
43.775146484375 -17.559473037719727 9.255545616149902 0.15863430500030518 0 9
43.51962661743164 -17.912090301513672 9.235136985778809 0.665266215801239 0 9
42.50067138671875 -17.940488815307617 9.052718162536621 0.9704358577728271 0 9
42.35398483276367 -18.328184127807617 9.056154251098633 0.9700677394866943 0 9
42.20720672607422 -18.716249465942383 9.060321807861328 0.969620943069458 0 9
41.99667739868164 -19.0757999420166 9.051522254943848 0.953669548034668 0 9
43.86635208129883 -20.882909774780273 9.533766746520996 0.49288517236709595 0 9
37.95838928222656 -18.490116119384766 8.285482406616211 0.4619230031967163 0 9
37.42563247680664 -18.6480655670166 8.205398559570312 0.4664311707019806 0 9
36.90205764770508 -18.802518844604492 8.127285957336426 0.4709143042564392 0 9
36.38735580444336 -18.953594207763672 8.051074981689453 0.47537195682525635 0 9
36.031761169433594 -19.18146514892578 8.01016902923584 0.5247918367385864 0 9
15.435830116271973 -8.395936965942383 3.4481453895568848 0.46935150027275085 0 3
15.111411094665527 -8.396132469177246 3.3923635482788086 0.47706785798072815 0 3
14.7972993850708 -8.396307945251465 3.3386385440826416 0.4847455322742462 0 3
14.492948532104492 -8.396464347839355 3.2868411540985107 0.49238428473472595 0 3
14.197904586791992 -8.39664077758789 3.2368905544281006 0.4999827444553375 0 3
13.911640167236328 -8.396796226501465 3.1886818408966064 0.5075417757034302 0 3
13.633764266967773 -8.396952629089355 3.142138957977295 0.5150596499443054 0 3
13.363862037658691 -8.397089958190918 3.097188949584961 0.5225359201431274 0 3
13.101542472839355 -8.397246360778809 3.0537333488464355 0.5299703478813171 0 3
12.846479415893555 -8.397382736206055 3.0117313861846924 0.5373616814613342 0 3
12.598305702209473 -8.3975191116333 2.9711010456085205 0.544710099697113 0 3
9.333056449890137 -6.342734336853027 2.214369773864746 0.5520138144493103 0 3
9.155322074890137 -6.342832088470459 2.185626983642578 0.5592744946479797 0 3
8.982133865356445 -6.342929363250732 2.1577913761138916 0.5664911866188049 0 3
8.84011173248291 -6.362324237823486 2.13730788230896 0.1925959438085556 0 3
3.771245002746582 -2.765918016433716 0.9177569150924683 0.9279294013977051 0 6
3.745439291000366 -2.7990429401397705 0.9175540208816528 0.874228835105896 0 6
8.665634155273438 -6.598046779632568 2.137314796447754 0.19259539246559143 0 3
8.606074333190918 -6.67556619644165 2.137317180633545 0.19259506464004517 0 3
8.545820236206055 -6.752538681030273 2.137319326400757 0.1925949603319168 0 3
8.484868049621582 -6.828984260559082 2.137321710586548 0.19259488582611084 0 3
8.423247337341309 -6.904863357543945 2.137324094772339 0.19259458780288696 0 3
8.360932350158691 -6.980214595794678 2.137326240539551 0.1925942748785019 0 3
8.297964096069336 -7.054999828338623 2.1373291015625 0.19259387254714966 0 3
8.234301567077637 -7.129199028015137 2.1373307704925537 0.19259388744831085 0 3
8.170000076293945 -7.202831745147705 2.1373343467712402 0.19259361922740936 0 3
8.105019569396973 -7.27587890625 2.137336492538452 0.19259333610534668 0 3
8.03939437866211 -7.348339557647705 2.1373393535614014 0.19259320199489594 0 3
7.973119735717773 -7.420214653015137 2.137341260910034 0.19259294867515564 0 3
7.906210899353027 -7.49148416519165 2.1373443603515625 0.1925927698612213 0 3
7.838662147521973 -7.562148094177246 2.1373467445373535 0.19259260594844818 0 3
7.770473480224609 -7.632226467132568 2.1373491287231445 0.19259226322174072 0 3
37.79416275024414 30.981386184692383 9.172128677368164 0.35735246539115906 0 9
37.31705093383789 30.03433609008789 8.99055004119873 0.724384605884552 0 9
37.89397048950195 29.94222640991211 9.064435005187988 0.7184804081916809 0 9
38.48030090332031 29.848379135131836 9.140223503112793 0.7125226259231567 0 9
38.594661712646484 29.38605308532715 9.104366302490234 0.3426031172275543 0 9
39.11872863769531 29.234140396118164 9.165727615356445 0.7048120498657227 0 9
39.30774688720703 28.829198837280273 9.14901065826416 0.9576929211616516 0 9
39.4954948425293 28.42525291442871 9.132953643798828 0.9593764543533325 0 9
39.69025802612305 26.455839157104492 8.95246696472168 0.9112581610679626 0 9
40.0833740234375 26.20130729675293 8.987715721130371 0.9076834321022034 0 9
39.64199447631836 25.40789031982422 8.837262153625488 0.23040294647216797 0 9
23.350833892822266 14.672324180603027 5.175962924957275 0.6223388314247131 0 6
39.57059860229492 24.37122917175293 8.722395896911621 0.9178634881973267 0 9
39.65489196777344 23.93486213684082 8.69326400756836 0.9209389686584473 0 9
35.04817199707031 20.727441787719727 7.642273902893066 0.780139684677124 0 9
34.816650390625 20.1708984375 7.551995754241943 0.6857591867446899 0 9
34.79384231567383 19.742713928222656 7.508317470550537 0.20710182189941406 0 9
35.46860122680664 19.70685577392578 7.615444183349609 0.6800461411476135 0 9
35.7978630065918 19.47134780883789 7.648306846618652 0.6771243810653687 0 9
36.1294059753418 19.233436584472656 7.681941986083984 0.6741597652435303 0 9
36.82592010498047 19.182031631469727 7.793110370635986 0.7650390863418579 0 9
36.56621170043945 18.631425857543945 7.702459335327148 0.95852130651474 0 9
36.71104049682617 18.292030334472656 7.698063850402832 0.9590678215026855 0 9
36.63432693481445 17.845136642456055 7.648079872131348 0.8748137354850769 0 9
37.00042724609375 17.614336013793945 7.691195964813232 0.9599246978759766 0 9
37.14503479003906 17.275917053222656 7.688712120056152 0.9602349996566772 0 9
36.982139587402344 16.798086166381836 7.623475074768066 0.873613178730011 0 9
37.209346771240234 16.500019073486328 7.63946533203125 0.8522835969924927 0 9
37.45276641845703 16.207244873046875 7.659271240234375 0.5379989743232727 0 9
37.09395217895508 15.658183097839355 7.556840419769287 0.5452911853790283 0 9
37.956687927246094 15.622480392456055 7.703724384307861 0.9967660903930664 0 9
37.95638656616211 15.225390434265137 7.675612449645996 0.7339947819709778 0 9
37.78950881958008 14.766093254089355 7.614755630493164 0.7398607730865479 0 9
37.68166732788086 14.335429191589355 7.566794395446777 0.7918139100074768 0 9
40.906959533691406 15.143534660339355 8.186832427978516 0.39850914478302 0 9
40.96317672729492 14.747675895690918 8.171263694763184 0.42319387197494507 0 9
40.70037078857422 14.241679191589355 8.093010902404785 0.42728590965270996 0 9
43.29264450073242 14.713945388793945 8.581865310668945 0.417393296957016 0 9
43.29203414916992 14.28158187866211 8.555983543395996 0.871172308921814 0 9
36.93943405151367 11.819375038146973 7.279236793518066 0.636287271976471 0 9
37.425865173339844 11.605761528015137 7.354266166687012 0.6297957301139832 0 9
37.92218017578125 11.387578010559082 7.431406021118164 0.6232582330703735 0 9
38.2674446105957 11.117773056030273 7.479213714599609 0.8322342038154602 0 9
37.553043365478516 10.545644760131836 7.320796966552734 0.3648827075958252 0 9
38.72919464111328 10.501835823059082 7.531394958496094 0.8264676332473755 0 9
36.48663330078125 9.542987823486328 7.078358173370361 0.840295135974884 0 9
36.76881408691406 9.26498031616211 7.116684436798096 0.8357701897621155 0 9
37.054100036621094 8.983964920043945 7.156002044677734 0.8311777114868164 0 9
37.342594146728516 8.699785232543945 7.196340084075928 0.8265179395675659 0 9
37.596134185791016 8.40380859375 7.230377197265625 0.8923325538635254 0 9
37.81682586669922 8.097421646118164 7.258553504943848 0.8888691067695618 0 9
37.97933578491211 7.776347637176514 7.276048183441162 0.504534125328064 0 9
45.17131805419922 8.827245712280273 8.638360023498535 0.44511526823043823 0 9
44.544677734375 8.290410041809082 8.503949165344238 0.4521506428718567 0 9
35.290523529052734 6.240859031677246 6.7262864112854 0.41955602169036865 0 9
38.60985565185547 6.471035003662109 7.347578048706055 0.3894619941711426 0 9
37.242374420166016 5.898652076721191 7.076982498168945 0.77265864610672 0 9
34.49696731567383 5.146874904632568 6.546239852905273 0.2554669976234436 0 9
35.70884323120117 5.000449180603027 6.767420291900635 0.9739570617675781 0 9
35.825721740722656 4.689355373382568 6.781318187713623 0.9719607830047607 0 9
35.94295883178711 4.376933574676514 6.795800685882568 0.9698896408081055 0 9
34.88801956176758 3.930976390838623 6.589406490325928 0.5377667546272278 0 9
35.93506622314453 3.72265625 6.780581951141357 0.38027942180633545 0 9
36.9914436340332 3.496757745742798 6.973726749420166 0.12676846981048584 0 9
37.0616340637207 3.168046712875366 6.981293678283691 0.6439462900161743 0 9
36.216461181640625 2.768613338470459 6.817137241363525 0.12260224670171738 0 9
36.92020797729492 2.4892773628234863 6.945112228393555 0.647300660610199 0 9
36.84895706176758 2.152402400970459 6.927796363830566 0.648918628692627 0 9
36.77734375 1.8171484470367432 6.91099214553833 0.6504969596862793 0 9
40.82009506225586 1.649746060371399 7.667590141296387 0.9779806733131409 0 9
40.03586196899414 1.258242130279541 7.517861366271973 0.978738009929657 0 9
40.04550552368164 0.8988085985183716 7.517850399017334 0.9787390232086182 0 9
41.0712890625 0.5530663728713989 7.709179401397705 0.9727047085762024 0 9
41.15530776977539 0.18476562201976776 7.724328517913818 0.9707971811294556 0 9
39.1237907409668 -1.9330272674560547 7.351922512054443 0.7789179086685181 0 9
39.30142593383789 -2.295585870742798 7.388877868652344 0.7750223278999329 0 9
39.48111343383789 -2.661875009536743 7.426852703094482 0.771059513092041 0 9
39.66288757324219 -3.031992197036743 7.46586275100708 0.7670302987098694 0 9
39.84683609008789 -3.4060544967651367 7.505939960479736 0.7629348039627075 0 9
37.593963623046875 -3.553652286529541 7.08729362487793 0.8419880867004395 0 9
37.51186752319336 -3.885937452316284 7.078105449676514 0.7509476542472839 0 9
37.75984573364258 -4.254492282867432 7.131814956665039 0.7452925443649292 0 9
38.011688232421875 -4.628749847412109 7.186933517456055 0.7395760416984558 0 9
38.252235412597656 -5.006894588470459 7.240627288818359 0.8241572380065918 0 9
38.42146301269531 -5.380234241485596 7.281502723693848 0.819530189037323 0 9
38.59267807006836 -5.757871150970459 7.323450565338135 0.8148359656333923 0 9
46.22509765625 -7.321308612823486 8.783919334411621 0.6907985806465149 0 9
44.46562576293945 -7.452382564544678 8.461945533752441 0.4575310945510864 0 9
44.330467224121094 -7.839452743530273 8.4492769241333 0.9836395382881165 0 9
35.83320617675781 -6.669003963470459 6.840855598449707 0.5053222179412842 0 9
35.481292724609375 -6.933574199676514 6.785285472869873 0.5094611048698425 0 9
37.5613899230957 -7.69070291519165 7.195976257324219 0.6846323013305664 0 9
35.70649719238281 -7.645488262176514 6.853492259979248 0.9333842396736145 0 9
34.99774169921875 -7.822929382324219 6.730652809143066 0.10295461863279343 0 9
35.810211181640625 -8.342714309692383 6.901037216186523 0.9269534349441528 0 9
35.86243438720703 -8.694960594177246 6.925865173339844 0.9236310720443726 0 9
35.914920806884766 -9.049765586853027 6.951408386230469 0.9202370047569275 0 9
35.82027816772461 -9.368632316589355 6.949085712432861 0.5096418261528015 0 9
36.66310119628906 -9.941523551940918 7.129613876342773 0.6795902252197266 0 9
36.511749267578125 -10.253164291381836 7.117796421051025 0.6807188987731934 0 9
36.36024475097656 -10.563593864440918 7.106459617614746 0.681804895401001 0 9
36.20853042602539 -10.872909545898438 7.095600605010986 0.6828485727310181 0 9
36.05662536621094 -11.181093215942383 7.085212230682373 0.6838495135307312 0 9
35.904502868652344 -11.48818302154541 7.075291633605957 0.6848077774047852 0 9
39.23109436035156 -12.941874504089355 7.753410339355469 0.9650573134422302 0 9
39.16618347167969 -13.311445236206055 7.763888835906982 0.9637554883956909 0 9
40.009971618652344 -14.000078201293945 7.955735683441162 0.6744588017463684 0 9
40.189048767089844 -14.468944549560547 8.016846656799316 0.6693170666694641 0 9
44.62372970581055 -16.519453048706055 8.930681228637695 0.9177636504173279 0 9
44.622108459472656 -16.975799560546875 8.960493087768555 0.9147104620933533 0 9
44.164634704589844 -17.25714874267578 8.899372100830078 0.683165967464447 0 9
43.95673751831055 -17.632305145263672 8.889017105102539 0.6621044278144836 0 9
42.62992477416992 -17.545917510986328 8.652204513549805 0.9726585149765015 0 9
42.483367919921875 -17.933183670043945 8.654787063598633 0.9723690152168274 0 9
42.33673095703125 -18.320722579956055 8.658072471618652 0.9720004200935364 0 9
42.17302703857422 -18.701093673706055 8.658564567565918 0.9550257325172424 0 9
41.96202087402344 -19.060039520263672 8.650023460388184 0.9559693336486816 0 9
41.75145721435547 -19.418338775634766 8.642202377319336 0.9568344354629517 0 9
38.0749626159668 -18.125879287719727 7.914551734924316 0.939255952835083 0 9
42.87074279785156 -20.88298797607422 8.950048446655273 0.5029515624046326 0 9
37.971153259277344 -18.91988182067871 7.962302207946777 0.4604583978652954 0 9
36.57251739501953 -18.634628295898438 7.703779220581055 0.5627358555793762 0 9
36.330772399902344 -18.92411994934082 7.688332557678223 0.5237667560577393 0 9
36.38949966430664 -19.37191390991211 7.737242221832275 0.47385185956954956 0 9
15.43581485748291 -8.395936965942383 3.2979066371917725 0.47009530663490295 0 3
15.11141586303711 -8.396132469177246 3.244568109512329 0.4778233468532562 0 3
14.797289848327637 -8.396307945251465 3.193178415298462 0.4855135977268219 0 3
14.492948532104492 -8.396464347839355 3.1436378955841064 0.49316439032554626 0 3
14.19789981842041 -8.39664077758789 3.0958657264709473 0.5007750391960144 0 3
13.911630630493164 -8.396796226501465 3.049752950668335 0.508345901966095 0 3
13.63375473022461 -8.396952629089355 3.0052404403686523 0.5158756971359253 0 3
13.363847732543945 -8.397089958190918 2.962250232696533 0.5233639478683472 0 3
9.895605087280273 -6.342421531677246 2.2059898376464844 0.530809760093689 0 3
9.702987670898438 -6.342519283294678 2.1756463050842285 0.5382116436958313 0 3
9.515478134155273 -6.342617034912109 2.1462960243225098 0.5455753207206726 0 3
9.41845703125 -6.400781154632568 2.137284278869629 0.1844988316297531 0 3
9.36063003540039 -6.485077857971191 2.137286424636841 0.1844986379146576 0 3
9.302045822143555 -6.568828105926514 2.1372880935668945 0.18449857831001282 0 3
9.2427339553833 -6.652070045471191 2.1372907161712646 0.1844981610774994 0 3
3.7710838317871094 -2.765800714492798 0.8777340650558472 0.929439902305603 0 6
3.7452685832977295 -2.798906087875366 0.8775381445884705 0.8756545186042786 0 6
9.060312271118164 -6.898534774780273 2.1372978687286377 0.18449755012989044 0 3
8.998026847839355 -6.979589462280273 2.137300729751587 0.18449750542640686 0 3
8.93502426147461 -7.060078144073486 2.1373023986816406 0.18449737131595612 0 3
8.87130355834961 -7.140019416809082 2.137305974960327 0.18449705839157104 0 3
8.806869506835938 -7.21935510635376 2.13730788230896 0.18449696898460388 0 3
8.741728782653809 -7.29812479019165 2.137310028076172 0.18449652194976807 0 3
8.675883293151855 -7.376308441162109 2.137312889099121 0.18449625372886658 0 3
8.609326362609863 -7.45388650894165 2.137315034866333 0.1844962239265442 0 3
8.542089462280273 -7.53087854385376 2.1373181343078613 0.18449591100215912 0 3
8.47415542602539 -7.607265472412109 2.1373207569122314 0.18449562788009644 0 3
8.40554141998291 -7.683027267456055 2.1373231410980225 0.1844954937696457 0 3
8.336259841918945 -7.758183479309082 2.1373257637023926 0.18449507653713226 0 3
8.266298294067383 -7.832695007324219 2.137328863143921 0.1844949573278427 0 3
8.195673942565918 -7.906581878662109 2.1373322010040283 0.1844947636127472 0 3
8.124394416809082 -7.979843616485596 2.1373343467712402 0.18449431657791138 0 3
36.59352111816406 32.261600494384766 8.740294456481934 0.6351259350776672 0 9
36.02008056640625 30.624568939208984 8.470632553100586 0.5742323398590088 0 9
36.575069427490234 30.535057067871094 8.536336898803711 0.5698121190071106 0 9
37.971580505371094 31.126834869384766 8.796714782714844 0.9255212545394897 0 9
38.33193588256836 30.851171493530273 8.815686225891113 0.9235293865203857 0 9
38.03047180175781 30.050058364868164 8.683960914611816 0.7169855833053589 0 9
38.620018005371094 29.956777572631836 8.756834983825684 0.7110193371772766 0 9
38.60438537597656 29.393476486206055 8.693110466003418 0.34303519129753113 0 9
38.94853210449219 29.106952667236328 8.711424827575684 0.31410545110702515 0 9
39.44049072265625 28.92656135559082 8.76303482055664 0.9559141993522644 0 9
39.62864685058594 28.521074295043945 8.74760627746582 0.9576002359390259 0 9
39.98915100097656 28.239158630371094 8.770878791809082 0.7531827092170715 0 9
40.49991989135742 26.995527267456055 8.72025203704834 0.9746848344802856 0 9
40.74300765991211 26.63249969482422 8.720765113830566 0.9746273159980774 0 9
40.32867431640625 25.84798812866211 8.582074165344238 0.07784444093704224 0 9
39.48234176635742 24.80843734741211 8.354249000549316 0.9161772131919861 0 9
39.56721115112305 24.369140625 8.325582504272461 0.919331431388855 0 9
35.92131423950195 21.681365966796875 7.517168998718262 0.7155953645706177 0 9
34.892879486083984 20.63558578491211 7.262903690338135 0.7847976088523865 0 9
35.14702224731445 20.362323760986328 7.277457237243652 0.6803411245346069 0 9
35.47314453125 20.128164291381836 7.307282447814941 0.7800309658050537 0 9
35.283382415771484 19.603925704956055 7.231650352478027 0.20557090640068054 0 9
36.061832427978516 19.614940643310547 7.354816913604736 0.7749892473220825 0 9
35.912776947021484 19.11812400817871 7.289129257202148 0.23007246851921082 0 9
36.65955352783203 19.09537124633789 7.405606746673584 0.7696740627288818 0 9
36.53569030761719 18.6158390045166 7.346535682678223 0.9607742428779602 0 9
36.6804084777832 18.276758193969727 7.342348575592041 0.9613215923309326 0 9
36.825035095214844 17.938026428222656 7.33877420425415 0.9617900252342224 0 9
36.96958541870117 17.599647521972656 7.335803031921387 0.9621797204017639 0 9
37.11408615112305 17.261503219604492 7.33342981338501 0.9624904990196228 0 9
37.066200256347656 16.83626937866211 7.2938232421875 0.9171011447906494 0 9
37.36056137084961 16.56705093383789 7.322181224822998 0.9135485887527466 0 9
37.42344665527344 16.194570541381836 7.305721282958984 0.5392352938652039 0 9
37.69200897216797 15.91064453125 7.329976558685303 0.962944507598877 0 9
38.2381477355957 15.738300323486328 7.408410549163818 0.727032482624054 0 9
38.0673713684082 15.26992130279541 7.348474979400635 0.7329623103141785 0 9
39.68906784057617 15.508339881896973 7.634347915649414 0.5187301635742188 0 9
43.889244079589844 16.697011947631836 8.413098335266113 0.9486665725708008 0 9
40.5627555847168 15.016132354736328 7.749300479888916 0.5739560127258301 0 9
41.1976203918457 14.832070350646973 7.844836235046387 0.5669662952423096 0 9
41.383750915527344 14.480819702148438 7.855205059051514 0.42086610198020935 0 9
41.11386489868164 13.973456382751465 7.779860496520996 0.4249423146247864 0 9
43.26563262939453 14.27285099029541 8.162467002868652 0.6862533688545227 0 9
37.47854232788086 11.991894721984863 7.050087928771973 0.8440726399421692 0 9
37.70245361328125 11.691523551940918 7.072176456451416 0.8414356708526611 0 9
37.92797088623047 11.38931655883789 7.095016956329346 0.8387270569801331 0 9
38.155174255371094 11.085175514221191 7.118628978729248 0.8359463214874268 0 9
38.38408279418945 10.779023170471191 7.142989158630371 0.8330944776535034 0 9
36.197322845458984 9.81527328491211 6.719388484954834 0.8462675213813782 0 9
36.47635269165039 9.540292739868164 6.755015850067139 0.841804027557373 0 9
36.75838088989258 9.26236343383789 6.791573524475098 0.837272584438324 0 9
37.04354476928711 8.981386184692383 6.829086780548096 0.8326731324195862 0 9
37.33189010620117 8.697284698486328 6.867571830749512 0.8280065059661865 0 9
37.57450866699219 8.398944854736328 6.89806604385376 0.8941974639892578 0 9
37.79498291015625 8.092753410339355 6.92492151260376 0.8907288908958435 0 9
35.0430793762207 7.175156116485596 6.408653259277344 0.8481113910675049 0 9
33.687599182128906 6.583144187927246 6.149704456329346 0.7718954086303711 0 9
33.840694427490234 6.298242092132568 6.167084693908691 0.7697201371192932 0 9
35.87556838989258 6.34435510635376 6.527276515960693 0.4133385419845581 0 9
35.545989990234375 5.957539081573486 6.457321643829346 0.4178164005279541 0 9
35.22241973876953 5.578749656677246 6.389193058013916 0.42227208614349365 0 9
34.71182632446289 5.178925514221191 6.287888050079346 0.2542698383331299 0 9
35.77802658081055 5.010117053985596 6.472613334655762 0.9735450744628906 0 9
35.854373931884766 4.693085670471191 6.478543758392334 0.9430718421936035 0 9
34.79642868041992 4.237285137176514 6.280258655548096 0.5394303798675537 0 9
35.21841049194336 3.968203067779541 6.349736213684082 0.5335283875465393 0 9
35.64926528930664 3.693046808242798 6.421180248260498 0.5275921821594238 0 9
31.632110595703125 2.9901366233825684 5.692548751831055 0.210991770029068 0 6
35.792320251464844 3.0595507621765137 6.436017990112305 0.9493032693862915 0 9
35.779273986816406 2.735175609588623 6.428996562957764 0.9503397345542908 0 9
35.766014099121094 2.4114646911621094 6.422468185424805 0.9513062238693237 0 9
36.966190338134766 2.159257650375366 6.634233474731445 0.7209485173225403 0 9
37.18243408203125 1.8371484279632568 6.669811725616455 0.6443839073181152 0 9
40.915462493896484 1.65359365940094 7.336492538452148 0.9771779775619507 0 9
40.99942398071289 1.288515567779541 7.349179744720459 0.9754913449287415 0 9
41.08352279663086 0.9221093654632568 7.362470626831055 0.9737299084663391 0 9
41.167762756347656 0.5543749928474426 7.376382827758789 0.9718940258026123 0 9
49.21287155151367 0.22095702588558197 8.81716251373291 0.16918215155601501 0 9
38.99896240234375 -1.9268358945846558 6.99566650390625 0.7825939655303955 0 9
39.17540740966797 -2.288222551345825 7.030717849731445 0.7786922454833984 0 9
39.353858947753906 -2.6532812118530273 7.066734313964844 0.7747236490249634 0 9
39.53438949584961 -3.022167921066284 7.103737831115723 0.7706881165504456 0 9
39.717041015625 -3.394960880279541 7.141748905181885 0.7665865421295166 0 9
37.56892776489258 -3.5512890815734863 6.76093864440918 0.8438244462013245 0 9
37.49920654296875 -3.884589672088623 6.754396915435791 0.7523385286331177 0 9
37.74700927734375 -4.253046989440918 6.805633544921875 0.7466741800308228 0 9
37.998680114746094 -4.627187252044678 6.858221054077148 0.7409489750862122 0 9
38.226219177246094 -5.003476619720459 6.907113075256348 0.8259665966033936 0 9
38.395179748535156 -5.376562595367432 6.946086406707764 0.8213325142860413 0 9
35.59785461425781 -5.966152191162109 6.466745376586914 0.7741304636001587 0 9
34.164268493652344 -6.041659832000732 6.215920448303223 0.7342945337295532 0 9
34.2490234375 -6.374159812927246 6.24149751663208 0.7312855124473572 0 9
34.334007263183594 -6.709394454956055 6.267712116241455 0.7282272577285767 0 9
35.60105895996094 -7.289355278015137 6.510693073272705 0.5076032876968384 0 9
35.25040817260742 -7.547832012176514 6.458699703216553 0.5116897225379944 0 9
35.58019256591797 -7.953105449676514 6.531929969787598 0.10142288357019424 0 9
35.85173416137695 -8.35238265991211 6.595290184020996 0.9620338678359985 0 9
35.767478942871094 -8.6719331741333 6.593836307525635 0.9622448086738586 0 9
34.81352615356445 -8.772226333618164 6.432234764099121 0.4364893138408661 0 9
35.24919891357422 -9.219257354736328 6.527753829956055 0.4301021695137024 0 9
35.51344299316406 -9.629765510559082 6.592430114746094 0.9624502062797546 0 9
35.428306579589844 -9.948925971984863 6.592941761016846 0.962376058101654 0 9
35.34292221069336 -10.268046379089355 6.593942642211914 0.9622304439544678 0 9
36.55302810668945 -10.976366996765137 6.83781623840332 0.8129005432128906 0 9
36.22795104980469 -11.23421859741211 6.795594215393066 0.8179511427879333 0 9
36.27497863769531 -11.606718063354492 6.823678970336914 0.6788398623466492 0 9
39.21825408935547 -12.937636375427246 7.398891448974609 0.9668344259262085 0 9
40.16472625732422 -13.650819778442383 7.600266933441162 0.9367291927337646 0 9
44.77384567260742 -16.575057983398438 8.553804397583008 0.9160709381103516 0 9
44.77272033691406 -17.033105850219727 8.582447052001953 0.9130132794380188 0 9
44.37948226928711 -17.341093063354492 8.536561012268066 0.6688359975814819 0 9
43.844871520996094 -17.587440490722656 8.463754653930664 0.6647985577583313 0 9
42.612632751464844 -17.538808822631836 8.255948066711426 0.9745261669158936 0 9
42.46613311767578 -17.9258975982666 8.258404731750488 0.9742361903190613 0 9
42.31954574584961 -18.31328010559082 8.261530876159668 0.9738669991493225 0 9
42.13832092285156 -18.68570327758789 8.258563041687012 0.9572591781616211 0 9
41.927513122558594 -19.044374465942383 8.250418663024902 0.9582041501998901 0 9
41.68428039550781 -19.387088775634766 8.236471176147461 0.05984111875295639 0 9
38.134056091308594 -18.154003143310547 7.566867351531982 0.9392198920249939 0 9
37.848846435546875 -18.436758041381836 7.542805194854736 0.9422158002853394 0 9
39.33599853515625 -19.599960327148438 7.873924255371094 0.9646314978599548 0 9
36.33988571166992 -18.516094207763672 7.307164192199707 0.5671953558921814 0 9
36.52845001220703 -19.027090072631836 7.379129409790039 0.5616639852523804 0 9
36.721195220947266 -19.54849624633789 7.453210353851318 0.556081235408783 0 9
15.435819625854492 -8.395936965942383 3.1481435298919678 0.4708068370819092 0 3
15.111411094665527 -8.396132469177246 3.0972256660461426 0.4785468280315399 0 3
14.797294616699219 -8.396307945251465 3.048170804977417 0.48624828457832336 0 3
14.492959022521973 -8.396464347839355 3.0008842945098877 0.49391046166419983 0 3
14.197890281677246 -8.39664077758789 2.9552743434906006 0.5015331506729126 0 3
10.507436752319336 -6.34207010269165 2.198866844177246 0.5091162323951721 0 3
10.297499656677246 -6.342187404632568 2.1667730808258057 0.5166605710983276 0 3
10.1007080078125 -6.346718788146973 2.137255907058716 0.17638926208019257 0 3
10.043349266052246 -6.437108993530273 2.137258291244507 0.1763891577720642 0 3
9.985170364379883 -6.527011394500732 2.137260675430298 0.17638902366161346 0 3
9.926186561584473 -6.616386413574219 2.1372628211975098 0.1763889342546463 0 3
9.86642074584961 -6.705214500427246 2.137265205383301 0.17638856172561646 0 3
9.805834770202637 -6.793515682220459 2.137267827987671 0.17638856172561646 0 3
9.744486808776855 -6.881269454956055 2.137270212173462 0.1763882339000702 0 3
9.68233871459961 -6.968476295471191 2.137272357940674 0.1763879656791687 0 3
3.7709226608276367 -2.765683650970459 0.8378393650054932 0.9308869242668152 0 6
3.7450976371765137 -2.7987890243530273 0.8376489281654358 0.8770193457603455 0 6
9.491239547729492 -7.226659774780273 2.1372792720794678 0.17638729512691498 0 3
9.426005363464355 -7.311562538146973 2.137282133102417 0.17638720571994781 0 3
9.360004425048828 -7.395878791809082 2.137284755706787 0.17638714611530304 0 3
9.293261528015137 -7.47960901260376 2.137287139892578 0.1763867735862732 0 3
9.225751876831055 -7.562734127044678 2.1372900009155273 0.17638665437698364 0 3
9.157519340515137 -7.645253658294678 2.1372921466827393 0.176386296749115 0 3
9.088530540466309 -7.727148056030273 2.1372954845428467 0.17638623714447021 0 3
9.018828392028809 -7.808437347412109 2.1372978687286377 0.176385760307312 0 3
8.948383331298828 -7.889081954956055 2.137300729751587 0.17638565599918365 0 3
8.877216339111328 -7.969101428985596 2.137303352355957 0.17638541758060455 0 3
8.805351257324219 -8.048457145690918 2.1373064517974854 0.17638522386550903 0 3
8.732758522033691 -8.127187728881836 2.1373093128204346 0.17638497054576874 0 3
8.659462928771973 -8.205253601074219 2.137312173843384 0.17638476192951202 0 3
8.585488319396973 -8.282636642456055 2.137315034866333 0.17638464272022247 0 3
8.510820388793945 -8.359394073486328 2.1373181343078613 0.1763841062784195 0 3
36.3751106262207 32.06902313232422 8.276031494140625 0.6398619413375854 0 9
35.85686111450195 31.04458999633789 8.094389915466309 0.5732470750808716 0 9
36.41295623779297 30.9586124420166 8.156869888305664 0.5688565969467163 0 9
36.97711181640625 30.87074089050293 8.220834732055664 0.5644299983978271 0 9
37.54956817626953 30.78089714050293 8.286345481872559 0.5599679946899414 0 9
38.28360366821289 30.812265396118164 8.386951446533203 0.9260298609733582 0 9
38.16748809814453 30.1583194732666 8.301880836486816 0.7154425382614136 0 9
38.7603759765625 30.065643310546875 8.371795654296875 0.709467351436615 0 9
38.61407470703125 29.40085792541504 8.282869338989258 0.34344401955604553 0 9
39.32937240600586 29.391542434692383 8.379368782043457 0.7031115293502808 0 9
39.573753356933594 29.02425765991211 8.375595092773438 0.9540706276893616 0 9
40.00184631347656 28.78968620300293 8.411163330078125 0.749220609664917 0 9
39.96112823486328 28.2193546295166 8.349005699157715 0.7547988295555115 0 9
40.63660430908203 27.086660385131836 8.334665298461914 0.972808301448822 0 9
40.88051986694336 26.722381591796875 8.335165977478027 0.9727504849433899 0 9
40.97665786743164 26.26331901550293 8.306365013122559 0.4364297389984131 0 9
39.478965759277344 24.80630874633789 7.957309246063232 0.9175781607627869 0 9
36.12686538696289 22.250234603881836 7.24111795425415 0.7086617946624756 0 9
34.45395278930664 20.795682907104492 6.868118762969971 0.7916854023933411 0 9
34.73940658569336 20.544843673706055 6.887979507446289 0.7894024848937988 0 9
35.02681350708008 20.29265594482422 6.908574104309082 0.7870499491691589 0 9
35.31618881225586 20.039081573486328 6.929884910583496 0.7846286296844482 0 9
35.607635498046875 19.784101486206055 6.951949119567871 0.782138466835022 0 9
35.776161193847656 19.459529876708984 6.950467586517334 0.20403629541397095 0 9
35.0844612121582 18.67720603942871 6.78324556350708 0.20906630158424377 0 9
37.17587661743164 19.364295959472656 7.153720378875732 0.22363072633743286 0 9
37.29410171508789 19.00228500366211 7.143342018127441 0.9126319289207458 0 9
37.40088653564453 18.6357421875 7.1314697265625 0.9141514897346497 0 9
37.49044418334961 18.26216697692871 7.11700439453125 0.89418625831604 0 9
37.51469802856445 17.859159469604492 7.090889930725098 0.8974791765213013 0 9
37.53882598876953 17.459043502807617 7.065539360046387 0.9006989598274231 0 9
39.30069351196289 17.8511905670166 7.366704940795898 0.7100074887275696 0 9
39.711456298828125 17.60955047607422 7.413774013519287 0.7567780613899231 0 9
40.10062789916992 17.353086471557617 7.457047939300537 0.7523863911628723 0 9
38.52574157714844 16.262577056884766 7.136744022369385 0.7199478149414062 0 9
38.35087203979492 15.784707069396973 7.077822208404541 0.7259416580200195 0 9
38.178672790527344 15.314570426940918 7.020395278930664 0.7318805456161499 0 9
39.60810852050781 15.476698875427246 7.257399559020996 0.5205406546592712 0 9
41.344486236572266 15.72890567779541 7.549386024475098 0.9551803469657898 0 9
40.38116455078125 14.948885917663574 7.348694801330566 0.40489256381988525 0 9
41.12687301635742 14.806581497192383 7.459904670715332 0.5687611699104309 0 9
41.77573013305664 14.617987632751465 7.553494930267334 0.561714231967926 0 9
41.660614013671875 14.159257888793945 7.509404182434082 0.5460422039031982 0 9
41.39191436767578 13.654746055603027 7.438571453094482 0.5512412786483765 0 9
43.287559509277344 13.850546836853027 7.756592750549316 0.4609334468841553 0 9
43.51746368408203 13.494707107543945 7.775765419006348 0.874231219291687 0 9
37.817726135253906 11.35619068145752 6.738846302032471 0.8423861265182495 0 9
38.04388427734375 11.052851676940918 6.761191368103027 0.8396018147468567 0 9
38.27176284790039 10.74746036529541 6.784274578094482 0.8367453813552856 0 9
38.50138473510742 10.440058708190918 6.808097839355469 0.8338178992271423 0 9
36.68851852416992 9.595800399780273 6.472042083740234 0.9091633558273315 0 9
36.74799346923828 9.259765625 6.467607498168945 0.8387182354927063 0 9
37.03302001953125 8.97884750366211 6.50332498550415 0.8341119885444641 0 9
37.321224212646484 8.694804191589355 6.539968013763428 0.8294383883476257 0 9
37.55295944213867 8.394160270690918 6.567110538482666 0.8960019946098328 0 9
37.77323532104492 8.088105201721191 6.592665672302246 0.8925283551216125 0 9
34.95912170410156 7.157968521118164 6.090052127838135 0.8513751029968262 0 9
33.950401306152344 6.634472370147705 5.903714656829834 0.767025887966156 0 9
34.10543441772461 6.347519397735596 5.920530796051025 0.7648475766181946 0 9
34.26094055175781 6.058808326721191 5.937846660614014 0.7626173496246338 0 9
34.41694641113281 5.768300533294678 5.955667495727539 0.7603349089622498 0 9
34.573448181152344 5.475956916809082 5.974002361297607 0.7580013275146484 0 9
34.928775787353516 5.211288928985596 6.027073860168457 0.2530554234981537 0 9
35.14944839477539 4.922109127044678 6.05728006362915 0.4248959422111511 0 9
34.70362854003906 4.54248046875 5.97319221496582 0.5410399436950684 0 9
35.124454498291016 4.277245998382568 6.038773059844971 0.5351642966270447 0 9
35.55411148071289 4.006034851074219 6.106218338012695 0.5292536616325378 0 9
35.79448318481445 3.708085775375366 6.141531944274902 0.3829028904438019 0 9
32.04071807861328 3.028749942779541 5.492585182189941 0.5443229675292969 0 6
35.93572998046875 3.0718164443969727 6.155308723449707 0.946879506111145 0 9
35.9224739074707 2.7461133003234863 6.148570537567139 0.9479175806045532 0 9
35.90901184082031 2.421093702316284 6.142297267913818 0.9488853216171265 0 9
37.07586669921875 2.165644407272339 6.33831262588501 0.7198535203933716 0 9
36.78742599487305 1.81765615940094 6.285959243774414 0.7258487343788147 0 9
41.92800521850586 1.6945312023162842 7.161455154418945 0.8520117998123169 0 9
41.09532165527344 1.2915234565734863 7.016960144042969 0.9746196866035461 0 9
41.17979049682617 0.9242773056030273 7.02969217300415 0.972855806350708 0 9
44.705238342285156 0.6020116806030273 7.630285263061523 0.7795418500900269 0 9
39.22780227661133 -2.644785165786743 6.709983825683594 0.7783350944519043 0 9
39.40708541870117 -3.012441396713257 6.745006084442139 0.7742936611175537 0 9
39.58847427368164 -3.383984327316284 6.780978679656982 0.7701861262321472 0 9
42.31597137451172 -4.000019550323486 7.254019737243652 0.8678675293922424 0 9
37.705413818359375 -3.905956983566284 6.46940803527832 0.8412351608276367 0 9
37.7342414855957 -4.251601696014404 6.480635643005371 0.7480050921440125 0 9
37.9857063293457 -4.625586032867432 6.530692100524902 0.7422720193862915 0 9
38.20030975341797 -5.000097751617432 6.575040340423584 0.8277196288108826 0 9
38.36901092529297 -5.372890472412109 6.612112998962402 0.8230787515640259 0 9
35.355613708496094 -5.599765300750732 6.109155178070068 0.7817021608352661 0 9
35.501956939697266 -5.950097560882568 6.143424987792969 0.7773416042327881 0 9
34.44247055053711 -6.090839862823486 5.969305515289307 0.7294148206710815 0 9
34.529075622558594 -6.426289081573486 5.994071960449219 0.7264012098312378 0 9
34.61594009399414 -6.764492034912109 6.01945161819458 0.7233386039733887 0 9
34.70309066772461 -7.10546875 6.045454025268555 0.7202274799346924 0 9
34.7905387878418 -7.449374675750732 6.072092056274414 0.7170677781105042 0 9
35.36566162109375 -7.905175685882568 6.184598445892334 0.5097560882568359 0 9
35.016292572021484 -8.157753944396973 6.13606071472168 0.5137883424758911 0 9
34.787986755371094 -8.434453010559082 6.109074592590332 0.4384118914604187 0 9
35.22266387939453 -8.875350952148438 6.19915246963501 0.43204155564308167 0 9
35.669677734375 -9.32925796508789 6.292315483093262 0.425645112991333 0 9
35.6488037109375 -9.666483879089355 6.303681373596191 0.9601794481277466 0 9
35.5633544921875 -9.98681640625 6.304168701171875 0.9601051211357117 0 9
35.477664947509766 -10.307207107543945 6.305125713348389 0.9599595069885254 0 9
35.391727447509766 -10.627636909484863 6.306550025939941 0.9597422480583191 0 9
36.31463623046875 -11.261113166809082 6.488763332366943 0.8171764016151428 0 9
36.65202713012695 -11.727362632751465 6.567590236663818 0.6728259325027466 0 9
40.252506256103516 -13.278827667236328 7.23381233215332 0.9388534426689148 0 9
44.924530029296875 -16.630800247192383 8.17550277709961 0.9143162965774536 0 9
44.92390441894531 -17.09062385559082 8.20297622680664 0.9112539887428284 0 9
44.16201400756836 -17.256113052368164 8.091814041137695 0.6730996966362 0 9
42.74180603027344 -17.144960403442383 7.859472274780273 0.9765384197235107 0 9
42.59539794921875 -17.53169822692871 7.861171722412109 0.9763274192810059 0 9
42.448944091796875 -17.918670654296875 7.863510608673096 0.9760369658470154 0 9
39.3876953125 -17.04456901550293 7.324470043182373 0.10239143669605255 0 9
37.92008972167969 -16.815176010131836 7.079338073730469 0.7510406970977783 0 9
38.06159210205078 -17.28837776184082 7.134440898895264 0.7452400922775269 0 9
38.48076248168945 -17.89714813232422 7.242829322814941 0.9360464215278625 0 9
37.000919342041016 -17.61454963684082 6.993775367736816 0.8430119156837463 0 9
37.907325744628906 -18.465234756469727 7.196141242980957 0.9421199560165405 0 9
36.92874526977539 -18.400487899780273 7.041443824768066 0.521559476852417 0 9
36.11085510253906 -18.39937400817871 6.916707515716553 0.5716167688369751 0 9
36.29598617553711 -18.905975341796875 6.984386920928955 0.5660772323608398 0 9
36.48516845703125 -19.4228515625 7.054059982299805 0.5604863166809082 0 9
15.435819625854492 -8.395936965942383 2.998821258544922 0.47148627042770386 0 3
15.111411094665527 -8.396132469177246 2.950319766998291 0.47923743724823 0 3
11.17635726928711 -6.341699123382568 2.1930737495422363 0.4869515001773834 0 3
10.946508407592773 -6.341835975646973 2.1590521335601807 0.49462541937828064 0 3
10.779067039489746 -6.374745845794678 2.137227773666382 0.16826756298542023 0 3
10.721420288085938 -6.471230506896973 2.137230157852173 0.16826747357845306 0 3
10.662915229797363 -6.567226409912109 2.137232542037964 0.16826725006103516 0 3
10.603554725646973 -6.662675857543945 2.137235403060913 0.16826707124710083 0 3
10.543330192565918 -6.757577896118164 2.137237310409546 0.16826693713665009 0 3
10.482270240783691 -6.851953029632568 2.137239694595337 0.1682666689157486 0 3
10.4203462600708 -6.945781230926514 2.137242078781128 0.16826653480529785 0 3
10.357592582702637 -7.039042949676514 2.13724422454834 0.1682663857936859 0 3
10.294018745422363 -7.131718635559082 2.13724684715271 0.16826611757278442 0 3
10.229598999023438 -7.223847389221191 2.13724946975708 0.16826589405536652 0 3
10.164355278015137 -7.315371036529541 2.137251615524292 0.16826581954956055 0 3
3.770761728286743 -2.765566349029541 0.7980639338493347 0.9322706460952759 0 6
3.744926691055298 -2.798652172088623 0.7978811264038086 0.8783259987831116 0 6
9.963740348815918 -7.58642578125 2.1372597217559814 0.16826526820659637 0 3
9.895258903503418 -7.67556619644165 2.1372621059417725 0.1682649850845337 0 3
9.8259859085083 -7.764081954956055 2.1372649669647217 0.168264701962471 0 3
9.755903244018555 -7.851972579956055 2.137267827987671 0.16826462745666504 0 3
9.685053825378418 -7.93923807144165 2.137270212173462 0.16826428472995758 0 3
9.613412857055664 -8.025858879089355 2.1372733116149902 0.16826409101486206 0 3
9.540990829467773 -8.111835479736328 2.1372759342193604 0.16826395690441132 0 3
9.467812538146973 -8.19716739654541 2.1372790336608887 0.16826362907886505 0 3
9.393877029418945 -8.281835556030273 2.1372814178466797 0.16826319694519043 0 3
9.319165229797363 -8.365819931030273 2.137284994125366 0.16826319694519043 0 3
9.189282417297363 -8.3994140625 2.124704599380493 0.665458619594574 0 3
9.025351524353027 -8.399492263793945 2.1041505336761475 0.671959400177002 0 3
8.8645601272583 -8.399589538574219 2.084157705307007 0.6784056425094604 0 3
8.706787109375 -8.399667739868164 2.064701557159424 0.6847971081733704 0 3
8.55190372467041 -8.399765014648438 2.0457751750946045 0.691133975982666 0 3
35.62242126464844 31.978240966796875 7.76409912109375 0.6490752696990967 0 9
35.69087600708008 31.46578025817871 7.717153072357178 0.5721989274024963 0 9
36.04905319213867 31.210956573486328 7.733701229095459 0.39016157388687134 0 9
35.915748596191406 30.535879135131836 7.645993709564209 0.39463722705841064 0 9
37.01533508300781 30.90263557434082 7.820713996887207 0.06741055846214294 0 9
37.876277923583984 31.048728942871094 7.943416595458984 0.9304651021957397 0 9
38.235530853271484 30.7735538482666 7.960506439208984 0.9284674525260925 0 9
38.30516052246094 30.26708984375 7.918118953704834 0.7138504385948181 0 9
38.9464111328125 30.20993995666504 7.994287967681885 0.9534805417060852 0 9
39.435062408447266 29.47054672241211 7.984696865081787 0.7021899819374084 0 9
39.70751953125 29.12240219116211 7.986624717712402 0.952161967754364 0 9
39.97370910644531 28.769432067871094 7.987902641296387 0.7507776021957397 0 9
35.12344741821289 22.95915985107422 6.805769920349121 0.9532997608184814 0 9
35.42436981201172 22.704668045043945 6.824305057525635 0.9507095217704773 0 9
34.789024353027344 21.859394073486328 6.663838863372803 0.8634690642356873 0 9
34.9586296081543 21.530742645263672 6.65903902053833 0.8640915155410767 0 9
34.30393981933594 20.705135345458984 6.49867057800293 0.7962396144866943 0 9
34.58771514892578 20.455135345458984 6.517380237579346 0.7939534187316895 0 9
34.87339782714844 20.20378875732422 6.536780834197998 0.7915977239608765 0 9
35.16103744506836 19.951053619384766 6.556859016418457 0.7891730666160583 0 9
35.45071029663086 19.6968936920166 6.577642440795898 0.7866795063018799 0 9
35.74250030517578 19.44120979309082 6.599138259887695 0.7841170430183411 0 9
35.42334747314453 18.85757827758789 6.508703231811523 0.23390881717205048 0 9
35.560752868652344 18.523008346557617 6.503132343292236 0.20752812922000885 0 9
37.22250747680664 18.965801239013672 6.775615215301514 0.9156429171562195 0 9
37.32920455932617 18.600038528442383 6.764380931854248 0.9171645045280457 0 9
37.435672760009766 18.23548698425293 6.753737449645996 0.918609619140625 0 9
37.4837760925293 17.844432830810547 6.733243465423584 0.8994531035423279 0 9
37.50799560546875 17.444726943969727 6.709194183349609 0.9026772379875183 0 9
39.16292953491211 17.788652420043945 6.97637939453125 0.7134836316108704 0 9
39.58206558227539 17.552148818969727 7.022694110870361 0.7602945566177368 0 9
39.96918487548828 17.29621124267578 7.06355094909668 0.7558972239494324 0 9
40.361083984375 17.037343978881836 7.105495452880859 0.7514351606369019 0 9
38.46393585205078 15.831249237060547 6.746216773986816 0.7248018980026245 0 9
39.415462493896484 15.810683250427246 6.887930870056152 0.09039431810379028 0 9
39.52772521972656 15.445292472839355 6.88305139541626 0.5223156809806824 0 9
41.331504821777344 15.72396469116211 7.172274112701416 0.9567925333976746 0 9
41.556846618652344 15.384100914001465 7.187136173248291 0.9548155665397644 0 9
40.99674606323242 14.759745597839355 7.067069053649902 0.40067148208618164 0 9
41.61747360229492 14.562597274780273 7.151243686676025 0.5456669330596924 0 9
41.34816360473633 14.053085327148438 7.083005428314209 0.5509239435195923 0 9
41.08438491821289 13.553300857543945 7.016698837280273 0.5561299920082092 0 9
43.74698257446289 13.997519493103027 7.449679851531982 0.868380069732666 0 9
43.52736282348633 13.497773170471191 7.391355991363525 0.45171988010406494 0 9
39.44155502319336 11.8438081741333 6.679225921630859 0.3706592321395874 0 9
38.16039276123047 10.716191291809082 6.428650856018066 0.840339720249176 0 9
38.38895797729492 10.409550666809082 6.451155662536621 0.8374081254005432 0 9
41.487060546875 10.850820541381836 6.955137729644775 0.9960743188858032 0 9
41.60221481323242 10.48291015625 6.958388328552246 0.9956090450286865 0 9
37.02252960205078 8.976288795471191 6.178661823272705 0.8354936838150024 0 9
37.31059646606445 8.692323684692383 6.213465213775635 0.8308138847351074 0 9
37.53150939941406 8.389355659484863 6.237460613250732 0.8977452516555786 0 9
34.686546325683594 7.427148342132568 5.753342151641846 0.8576300144195557 0 9
