ply
format ascii 1.0
element vertex 596
property float32 x
property float32 y
property float32 z
property float32 CosAngle
property uint32 ObjIdx
property uint32 ObjTag
end_header
10.891141891479492 2.0655174255371094 -1.7674007415771484 0.16066451370716095 0 1
10.900068283081055 2.016855478286743 -1.7673711776733398 0.16066709160804749 0 1
10.90877914428711 1.9681639671325684 -1.767342209815979 0.16066990792751312 0 1
10.917275428771973 1.9194238185882568 -1.767313838005066 0.1606723964214325 0 1
10.925576210021973 1.8706640005111694 -1.7672860622406006 0.1606748402118683 0 1
10.933642387390137 1.821865200996399 -1.767259120941162 0.1606772243976593 0 1
10.941513061523438 1.773037075996399 -1.767232894897461 0.16067957878112793 0 1
10.94913101196289 1.724160075187683 -1.7672076225280762 0.16068217158317566 0 1
10.956571578979492 1.6752636432647705 -1.7671828269958496 0.16068442165851593 0 1
10.96377944946289 1.6263281106948853 -1.7671587467193604 0.16068659722805023 0 1
10.970809936523438 1.5773632526397705 -1.7671352624893188 0.16068848967552185 0 1
10.977567672729492 1.5283788442611694 -1.7671128511428833 0.16069085896015167 0 1
10.984169960021973 1.4793554544448853 -1.7670906782150269 0.16069260239601135 0 1
10.990517616271973 1.4303027391433716 -1.767069697380066 0.16069461405277252 0 1
10.99666976928711 1.3812206983566284 -1.7670491933822632 0.16069650650024414 0 1
11.00258731842041 1.332128882408142 -1.7670294046401978 0.16069835424423218 0 1
11.008329391479492 1.2830077409744263 -1.76701021194458 0.16069987416267395 0 1
11.01381778717041 1.2338476181030273 -1.7669918537139893 0.16070160269737244 0 1
11.019091606140137 1.1846777200698853 -1.7669740915298462 0.16070327162742615 0 1
11.024169921875 1.1354882717132568 -1.76695716381073 0.1607048511505127 0 1
11.029013633728027 1.086269497871399 -1.7669410705566406 0.16070637106895447 0 1
11.033681869506836 1.0370311737060547 -1.7669254541397095 0.16070754826068878 0 1
11.038095474243164 0.9877734184265137 -1.7669106721878052 0.16070891916751862 0 1
11.042314529418945 0.9384960532188416 -1.7668966054916382 0.16071023046970367 0 1
11.046278953552246 0.889208972454071 -1.7668832540512085 0.16071173548698425 0 1
11.050087928771973 0.8399023413658142 -1.7668704986572266 0.1607126146554947 0 1
11.053642272949219 0.790576159954071 -1.766858458518982 0.16071370244026184 0 1
11.057002067565918 0.7412402033805847 -1.7668473720550537 0.16071471571922302 0 1
11.060107231140137 0.6918749809265137 -1.7668367624282837 0.16071590781211853 0 1
11.063055992126465 0.6425195336341858 -1.76682710647583 0.1607164740562439 0 1
11.0657320022583 0.5931347608566284 -1.7668179273605347 0.16071751713752747 0 1
11.068232536315918 0.543749988079071 -1.7668097019195557 0.16071820259094238 0 1
11.070478439331055 0.4943554699420929 -1.7668020725250244 0.160719096660614 0 1
11.072528839111328 0.4449511766433716 -1.766795039176941 0.1607196033000946 0 1
11.074384689331055 0.3955175578594208 -1.7667887210845947 0.1607200652360916 0 1
11.0759859085083 0.3461035192012787 -1.7667832374572754 0.16072069108486176 0 1
11.077411651611328 0.2966699004173279 -1.7667784690856934 0.16072097420692444 0 1
11.078583717346191 0.24723632633686066 -1.7667745351791382 0.16072145104408264 0 1
11.079560279846191 0.19779296219348907 -1.7667710781097412 0.16072183847427368 0 1
11.080322265625 0.1483496129512787 -1.766768455505371 0.16072186827659607 0 1
11.080849647521973 0.0989062488079071 -1.7667666673660278 0.16072236001491547 0 1
11.081161499023438 0.04945312440395355 -1.7667653560638428 0.1607224941253662 0 1
11.081298828125 -0.0 -1.766764760017395 0.1607222706079483 0 1
11.081181526184082 -0.049443356692790985 -1.7667651176452637 0.16072224080562592 0 1
11.0808687210083 -0.09889648109674454 -1.76676607131958 0.16072213649749756 0 1
11.080322265625 -0.14833983778953552 -1.7667675018310547 0.16072192788124084 0 1
11.079560279846191 -0.19779296219348907 -1.7667700052261353 0.16072164475917816 0 1
11.078583717346191 -0.2472265511751175 -1.766772985458374 0.160721555352211 0 1
11.077392578125 -0.2966699004173279 -1.7667768001556396 0.16072110831737518 0 1
11.076005935668945 -0.3460937440395355 -1.7667814493179321 0.1607205867767334 0 1
11.07436466217041 -0.3955175578594208 -1.766786813735962 0.16072024405002594 0 1
11.072528839111328 -0.44493162631988525 -1.7667927742004395 0.16071981191635132 0 1
11.070478439331055 -0.49433591961860657 -1.7667993307113647 0.16071903705596924 0 1
11.068212509155273 -0.5437402129173279 -1.7668066024780273 0.16071845591068268 0 1
11.065712928771973 -0.5931347608566284 -1.7668148279190063 0.16071778535842896 0 1
11.063016891479492 -0.6425097584724426 -1.766823649406433 0.16071704030036926 0 1
11.060107231140137 -0.6918749809265137 -1.7668331861495972 0.16071593761444092 0 1
11.056982040405273 -0.7412304282188416 -1.766843557357788 0.1607150286436081 0 1
11.05362319946289 -0.7905663847923279 -1.7668544054031372 0.1607140600681305 0 1
11.050048828125 -0.839892566204071 -1.7668660879135132 0.16071298718452454 0 1
11.046278953552246 -0.8891991972923279 -1.766878604888916 0.1607118546962738 0 1
11.042255401611328 -0.9384960532188416 -1.7668917179107666 0.16071093082427979 0 1
11.038076400756836 -0.9877636432647705 -1.766905426979065 0.16070936620235443 0 1
11.033642768859863 -1.037021517753601 -1.7669200897216797 0.1607079952955246 0 1
11.029013633728027 -1.0862597227096558 -1.7669352293014526 0.16070656478405 0 1
11.024130821228027 -1.1354687213897705 -1.7669512033462524 0.16070537269115448 0 1
11.019071578979492 -1.184667944908142 -1.766968011856079 0.16070379316806793 0 1
11.013778686523438 -1.2338378429412842 -1.7669854164123535 0.1607021540403366 0 1
11.008291244506836 -1.282997965812683 -1.7670034170150757 0.16070044040679932 0 1
11.002548217773438 -1.332119107246399 -1.7670223712921143 0.16069893538951874 0 1
10.996630668640137 -1.3812206983566284 -1.7670419216156006 0.1606971025466919 0 1
10.990478515625 -1.4302831888198853 -1.7670620679855347 0.16069521009922028 0 1
10.984110832214355 -1.479335904121399 -1.7670830488204956 0.16069354116916656 0 1
10.977548599243164 -1.528359293937683 -1.7671047449111938 0.16069123148918152 0 1
10.970731735229492 -1.5773534774780273 -1.7671273946762085 0.16068941354751587 0 1
10.963740348815918 -1.626318335533142 -1.7671502828598022 0.16068728268146515 0 1
10.956513404846191 -1.6752440929412842 -1.7671740055084229 0.16068510711193085 0 1
10.949091911315918 -1.72415030002594 -1.7671985626220703 0.16068284213542938 0 1
10.941434860229492 -1.7730077505111694 -1.767223834991455 0.16068057715892792 0 1
10.933584213256836 -1.8218456506729126 -1.7672497034072876 0.16067823767662048 0 1
10.925498008728027 -1.870644450187683 -1.7672765254974365 0.16067583858966827 0 1
10.917216300964355 -1.9194140434265137 -1.767303705215454 0.16067340970039368 0 1
10.908720016479492 -1.9681445360183716 -1.767331838607788 0.16067065298557281 0 1
10.900009155273438 -2.016835927963257 -1.7673604488372803 0.16066813468933105 0 1
10.891083717346191 -2.065488338470459 -1.7673901319503784 0.16066531836986542 0 1
10.881942749023438 -2.1141111850738525 -1.7674202919006348 0.1606627106666565 0 1
10.872568130493164 -2.1626853942871094 -1.7674511671066284 0.16066008806228638 0 1
10.863017082214355 -2.2112207412719727 -1.7674827575683594 0.1606571525335312 0 1
10.853251457214355 -2.2597265243530273 -1.767514944076538 0.16065390408039093 0 1
10.843252182006836 -2.308173894882202 -1.7675480842590332 0.16065119206905365 0 1
10.790283203125 -2.347285032272339 -1.7606056928634644 0.22529250383377075 0 2
10.578740119934082 -2.3507518768310547 -1.7277801036834717 0.22954505681991577 0 2
10.374208450317383 -2.3539257049560547 -1.6960748434066772 0.23263703286647797 0 2
10.183778762817383 -2.3585546016693115 -1.66664457321167 0.16063840687274933 0 2
10.173349380493164 -2.4040331840515137 -1.666678786277771 0.1606351137161255 0 2
10.16274356842041 -2.449453115463257 -1.666713833808899 0.1606317162513733 0 2
10.151923179626465 -2.4948339462280273 -1.6667494773864746 0.16062818467617035 0 2
10.140908241271973 -2.540165901184082 -1.6667861938476562 0.16062487661838531 0 2
10.129716873168945 -2.58544921875 -1.6668230295181274 0.16062112152576447 0 2
10.118290901184082 -2.630683422088623 -1.666860818862915 0.16061756014823914 0 2
10.106689453125 -2.6758689880371094 -1.6668990850448608 0.16061389446258545 0 2
10.09487247467041 -2.721015453338623 -1.6669381856918335 0.1606101244688034 0 2
10.082880973815918 -2.766103506088257 -1.6669777631759644 0.1606062352657318 0 2
10.070693016052246 -2.8111326694488525 -1.6670182943344116 0.16060228645801544 0 2
9.002020835876465 -2.5561914443969727 -1.491998553276062 0.6703230142593384 0 6
8.800634384155273 -2.541494131088257 -1.4604666233062744 0.4888617694377899 0 6
8.757704734802246 -2.5714941024780273 -1.455250859260559 0.9412304759025574 0 6
8.747001647949219 -2.6108105182647705 -1.4553921222686768 0.8848783373832703 0 6
8.765127182006836 -2.658867120742798 -1.4603676795959473 0.6870641112327576 0 6
8.76772403717041 -2.702451229095459 -1.4627970457077026 0.9549318552017212 0 6
8.767509460449219 -2.7452733516693115 -1.4647881984710693 0.9536339640617371 0 6
8.764326095581055 -2.787285089492798 -1.4663238525390625 0.973494827747345 0 6
8.747782707214355 -2.825078010559082 -1.4656448364257812 0.9914485812187195 0 6
8.751904487609863 -2.8695898056030273 -1.4684690237045288 0.6194591522216797 0 6
9.92348575592041 -3.302851438522339 -1.667505145072937 0.16055576503276825 0 2
9.908954620361328 -3.3471972942352295 -1.6675530672073364 0.16055095195770264 0 2
9.89418888092041 -3.391484260559082 -1.6676019430160522 0.16054633259773254 0 2
9.879267692565918 -3.4357030391693115 -1.6676512956619263 0.16054143011569977 0 2
9.864130973815918 -3.479853391647339 -1.6677013635635376 0.1605367660522461 0 2
9.848798751831055 -3.5239453315734863 -1.6677520275115967 0.16053177416324615 0 2
9.833291053771973 -3.5679686069488525 -1.667803406715393 0.16052675247192383 0 2
9.817587852478027 -3.611933469772339 -1.6678555011749268 0.16052165627479553 0 2
9.80167007446289 -3.65582013130188 -1.667907953262329 0.16051660478115082 0 2
9.785575866699219 -3.699638605117798 -1.6679613590240479 0.16051152348518372 0 2
9.769267082214355 -3.7433886528015137 -1.6680152416229248 0.16050639748573303 0 2
9.752802848815918 -3.7870800495147705 -1.6680697202682495 0.16050094366073608 0 2
9.736123085021973 -3.830683469772339 -1.6681249141693115 0.1604958474636078 0 2
9.719228744506836 -3.874218702316284 -1.6681808233261108 0.1604907065629959 0 2
9.702197074890137 -3.9176855087280273 -1.6682372093200684 0.16048501431941986 0 2
9.684950828552246 -3.9610838890075684 -1.6682943105697632 0.1604795604944229 0 2
9.667490005493164 -4.004404067993164 -1.6683520078659058 0.16047415137290955 0 2
9.649872779846191 -4.047646522521973 -1.668410301208496 0.1604684740304947 0 2
9.632080078125 -4.0908203125 -1.6684691905975342 0.16046251356601715 0 2
9.614052772521973 -4.133906364440918 -1.6685290336608887 0.16045689582824707 0 2
9.595869064331055 -4.176913738250732 -1.6685891151428223 0.1604510396718979 0 2
9.577470779418945 -4.219843864440918 -1.6686501502990723 0.160445436835289 0 2
9.5588960647583 -4.2626953125 -1.668711543083191 0.1604393720626831 0 2
9.54012680053711 -4.305468559265137 -1.6687736511230469 0.1604335904121399 0 2
9.521201133728027 -4.34817361831665 -1.6688363552093506 0.1604272574186325 0 2
9.50204086303711 -4.390780925750732 -1.6688997745513916 0.16042132675647736 0 2
9.4827241897583 -4.433310508728027 -1.6689635515213013 0.1604151576757431 0 2
9.463212966918945 -4.475751876831055 -1.6690282821655273 0.16040901839733124 0 2
9.44350528717041 -4.518115043640137 -1.6690934896469116 0.16040268540382385 0 2
9.423623085021973 -4.560390472412109 -1.6691594123840332 0.16039644181728363 0 2
9.403564453125 -4.602587699890137 -1.6692256927490234 0.1603899598121643 0 2
9.383291244506836 -4.644677639007568 -1.66929292678833 0.16038361191749573 0 2
9.362860679626465 -4.686708927154541 -1.6693602800369263 0.16037696599960327 0 2
9.342236518859863 -4.728632926940918 -1.669428825378418 0.16037052869796753 0 2
9.321415901184082 -4.770478248596191 -1.6694976091384888 0.1603638380765915 0 2
9.300419807434082 -4.812216758728027 -1.6695672273635864 0.1603572964668274 0 2
9.279248237609863 -4.853877067565918 -1.6696372032165527 0.16035057604312897 0 2
9.25790023803711 -4.895449161529541 -1.669708013534546 0.16034367680549622 0 2
9.236337661743164 -4.936923503875732 -1.6697793006896973 0.16033686697483063 0 2
9.214618682861328 -4.978310585021973 -1.669851303100586 0.1603299230337143 0 2
9.192724227905273 -5.019609451293945 -1.6699237823486328 0.16032281517982483 0 2
9.170615196228027 -5.060791015625 -1.6699968576431274 0.16031590104103088 0 2
9.14834976196289 -5.101894378662109 -1.670070767402649 0.1603088229894638 0 2
9.12588882446289 -5.142890453338623 -1.670145034790039 0.16030186414718628 0 2
9.103271484375 -5.183798789978027 -1.6702200174331665 0.1602945476770401 0 2
9.080439567565918 -5.224609375 -1.6702954769134521 0.16028738021850586 0 2
9.057451248168945 -5.265312194824219 -1.670371651649475 0.16028007864952087 0 2
9.034286499023438 -5.305927753448486 -1.6704485416412354 0.16027268767356873 0 2
9.010947227478027 -5.346435546875 -1.6705257892608643 0.16026516258716583 0 2
8.98739242553711 -5.386836051940918 -1.670603632926941 0.16025793552398682 0 2
8.963701248168945 -5.427148342132568 -1.6706821918487549 0.16025018692016602 0 2
8.939814567565918 -5.467353343963623 -1.6707613468170166 0.1602427363395691 0 2
8.915771484375 -5.507451057434082 -1.670840859413147 0.16023491322994232 0 2
8.89151382446289 -5.547461032867432 -1.6709213256835938 0.1602272093296051 0 2
8.86709976196289 -5.587343692779541 -1.6710021495819092 0.16021955013275146 0 2
8.842509269714355 -5.627138614654541 -1.671083688735962 0.16021177172660828 0 2
8.817744255065918 -5.666816234588623 -1.6711655855178833 0.1602039635181427 0 2
8.792802810668945 -5.706396579742432 -1.6712480783462524 0.16019585728645325 0 2
8.767684936523438 -5.745859146118164 -1.6713314056396484 0.16018794476985931 0 2
8.742392539978027 -5.785224437713623 -1.671415090560913 0.160180002450943 0 2
8.71694278717041 -5.824462890625 -1.671499252319336 0.16017185151576996 0 2
8.691298484802246 -5.863603591918945 -1.6715844869613647 0.16016355156898499 0 2
8.665478706359863 -5.902636528015137 -1.671669840812683 0.16015556454658508 0 2
8.639501571655273 -5.941542625427246 -1.6717559099197388 0.16014733910560608 0 2
8.613348960876465 -5.980360984802246 -1.6718424558639526 0.16013900935649872 0 2
8.587040901184082 -6.01904296875 -1.6719295978546143 0.1601305603981018 0 2
8.560517311096191 -6.0576171875 -1.6720174551010132 0.16012230515480042 0 2
8.533857345581055 -6.096083641052246 -1.6721057891845703 0.16011382639408112 0 2
8.507020950317383 -6.134433269500732 -1.6721946001052856 0.16010531783103943 0 2
8.480029106140137 -6.172656059265137 -1.6722842454910278 0.160096675157547 0 2
8.452841758728027 -6.210781097412109 -1.6723742485046387 0.16008822619915009 0 2
8.425498008728027 -6.248769283294678 -1.6724647283554077 0.16007940471172333 0 2
8.397978782653809 -6.28665018081665 -1.6725558042526245 0.1600707769393921 0 2
8.340302467346191 -6.301728248596191 -1.666636347770691 0.5978040099143982 0 4
8.263681411743164 -6.301962852478027 -1.6569308042526245 0.6013056635856628 0 4
8.187958717346191 -6.302206993103027 -1.6473698616027832 0.6047954559326172 0 4
8.113115310668945 -6.302431583404541 -1.6379516124725342 0.6082726120948792 0 4
8.039092063903809 -6.302675724029541 -1.6286715269088745 0.611738920211792 0 4
7.965908050537109 -6.302900314331055 -1.6195286512374878 0.615192174911499 0 4
7.893564224243164 -6.303134441375732 -1.6105223894119263 0.6186332106590271 0 4
7.822001934051514 -6.303359031677246 -1.6016448736190796 0.6220619082450867 0 4
7.751240253448486 -6.30358362197876 -1.5928966999053955 0.6254780292510986 0 4
7.681220531463623 -6.303798675537109 -1.5842729806900024 0.6288828253746033 0 4
7.611982345581055 -6.304013729095459 -1.5757757425308228 0.6322734355926514 0 4
7.543447017669678 -6.304238319396973 -1.5673996210098267 0.6356528997421265 0 4
7.475673675537109 -6.304452896118164 -1.5591435432434082 0.6390184164047241 0 4
7.40856409072876 -6.304657936096191 -1.551005244255066 0.6423724293708801 0 4
7.342177391052246 -6.304862976074219 -1.542979121208191 0.6457128524780273 0 4
7.276474475860596 -6.305078029632568 -1.5350682735443115 0.6490411162376404 0 4
7.211435317993164 -6.305283069610596 -1.5272676944732666 0.652355432510376 0 4
7.147060394287109 -6.305488109588623 -1.5195772647857666 0.6556572318077087 0 4
7.083330154418945 -6.305683612823486 -1.51199209690094 0.658945620059967 0 4
7.020205020904541 -6.305888652801514 -1.5045123100280762 0.6622219681739807 0 4
6.957724571228027 -6.306083679199219 -1.497135877609253 0.6654844284057617 0 4
6.895849227905273 -6.306279182434082 -1.4898622035980225 0.6687331795692444 0 4
6.834560394287109 -6.306474685668945 -1.4826886653900146 0.671968936920166 0 4
6.773876667022705 -6.306660175323486 -1.4756112098693848 0.6751908659934998 0 4
6.713759422302246 -6.306855201721191 -1.4686304330825806 0.6784005761146545 0 4
6.654208660125732 -6.307040691375732 -1.4617464542388916 0.6815955638885498 0 4
6.595204830169678 -6.307226657867432 -1.4549529552459717 0.6847781538963318 0 4
6.536747932434082 -6.307412147521973 -1.4482533931732178 0.6879459619522095 0 4
6.478818416595459 -6.307597637176514 -1.4416418075561523 0.6911010146141052 0 4
6.421435356140137 -6.307773113250732 -1.4351202249526978 0.6942413449287415 0 4
6.364560604095459 -6.307949066162109 -1.4286850690841675 0.6973682045936584 0 4
7.242861270904541 7.242841720581055 -1.6762615442276 0.1638137251138687 0 2
7.274658203125 7.20999002456665 -1.676155924797058 0.16382402181625366 0 2
7.306298732757568 7.177001953125 -1.6760510206222534 0.1638343781232834 0 2
7.33776330947876 7.143877029418945 -1.675946593284607 0.1638447791337967 0 2
7.369130611419678 7.11062479019165 -1.6758424043655396 0.1638547033071518 0 2
7.400321960449219 7.077236175537109 -1.6757389307022095 0.16386500000953674 0 2
7.431376934051514 7.043720722198486 -1.675635814666748 0.16387490928173065 0 2
7.46227502822876 7.010048866271973 -1.675533413887024 0.16388508677482605 0 2
7.49303674697876 6.976249694824219 -1.6754311323165894 0.16389501094818115 0 2
7.523622989654541 6.942333698272705 -1.6753296852111816 0.16390499472618103 0 2
7.554091453552246 6.908271312713623 -1.6752285957336426 0.16391468048095703 0 2
7.584384441375732 6.874072074890137 -1.6751281023025513 0.1639246642589569 0 2
7.614521503448486 6.839755535125732 -1.6750280857086182 0.16393451392650604 0 2
7.644521236419678 6.80529260635376 -1.6749281883239746 0.163944274187088 0 2
7.674365043640137 6.770722389221191 -1.674829363822937 0.1639537811279297 0 2
7.704032897949219 6.736015319824219 -1.6747307777404785 0.16396348178386688 0 2
7.733564376831055 6.701171875 -1.6746327877044678 0.1639731079339981 0 2
7.762939453125 6.666210651397705 -1.6745351552963257 0.16398261487483978 0 2
7.792158126831055 6.631103515625 -1.674438238143921 0.1639922708272934 0 2
7.821200847625732 6.595888614654541 -1.6743417978286743 0.1640017032623291 0 2
7.850107192993164 6.560536861419678 -1.674245834350586 0.1640111804008484 0 2
7.878876686096191 6.525087833404541 -1.6741503477096558 0.16402019560337067 0 2
7.907451152801514 6.489482402801514 -1.674055576324463 0.16402985155582428 0 2
7.935888290405273 6.453769207000732 -1.6739611625671387 0.1640390306711197 0 2
7.964169979095459 6.417929649353027 -1.6738674640655518 0.16404816508293152 0 2
7.992294788360596 6.381982326507568 -1.6737738847732544 0.1640571653842926 0 2
8.020243644714355 6.345888614654541 -1.6736812591552734 0.16406646370887756 0 2
8.048036575317383 6.30968713760376 -1.6735888719558716 0.16407553851604462 0 2
8.075654029846191 6.273359298706055 -1.6734970808029175 0.16408458352088928 0 2
8.103134155273438 6.23693323135376 -1.6734060049057007 0.16409339010715485 0 2
8.13045883178711 6.200370788574219 -1.6733150482177734 0.16410216689109802 0 2
8.157607078552246 6.16369104385376 -1.6732251644134521 0.16411104798316956 0 2
8.184599876403809 6.126904010772705 -1.67313551902771 0.16411980986595154 0 2
8.211416244506836 6.089999675750732 -1.673046588897705 0.16412858664989471 0 2
8.238076210021973 6.052968502044678 -1.6729580163955688 0.1641373336315155 0 2
8.26456069946289 6.015839576721191 -1.6728700399398804 0.16414585709571838 0 2
8.290888786315918 5.978583812713623 -1.67278254032135 0.16415449976921082 0 2
8.317060470581055 5.941210746765137 -1.6726958751678467 0.1641630083322525 0 2
8.343056678771973 5.903739929199219 -1.672609567642212 0.16417154669761658 0 2
8.368896484375 5.866152286529541 -1.6725237369537354 0.16417986154556274 0 2
8.394560813903809 5.828456878662109 -1.6724385023117065 0.16418829560279846 0 2
8.420048713684082 5.790634632110596 -1.672353744506836 0.16419661045074463 0 2
8.445380210876465 5.75271463394165 -1.6722697019577026 0.16420488059520721 0 2
8.49600601196289 5.731864929199219 -1.6772150993347168 0.5758991241455078 0 2
8.574189186096191 5.729101657867432 -1.6875841617584229 0.5723609328269958 0 2
8.653329849243164 5.726288795471191 -1.6981124877929688 0.5688118934631348 0 2
8.733466148376465 5.723427772521973 -1.7088069915771484 0.5652514696121216 0 2
8.781747817993164 5.69921875 -1.713262915611267 0.5569978952407837 0 2
8.863799095153809 5.696425437927246 -1.7242952585220337 0.539295494556427 0 2
8.950458526611328 5.69582986831665 -1.7361855506896973 0.5356017351150513 0 2
9.038290977478027 5.695214748382568 -1.748276948928833 0.5318976640701294 0 2
9.12735366821289 5.694599628448486 -1.760573387145996 0.5281829833984375 0 2
9.217080116271973 5.693593502044678 -1.772961974143982 0.16428446769714355 0 1
9.241982460021973 5.652148246765137 -1.7728792428970337 0.16429199278354645 0 1
9.266650199890137 5.610585689544678 -1.7727973461151123 0.1642998456954956 0 1
9.291181564331055 5.568935394287109 -1.7727159261703491 0.16430723667144775 0 1
9.31551742553711 5.527148246765137 -1.7726351022720337 0.1643148809671402 0 1
9.3396577835083 5.485292911529541 -1.772554874420166 0.164322167634964 0 1
9.363642692565918 5.443300724029541 -1.772475242614746 0.1643294394016266 0 1
9.387412071228027 5.401220798492432 -1.7723965644836426 0.16433699429035187 0 1
9.410985946655273 5.359033107757568 -1.7723181247711182 0.16434432566165924 0 1
9.434423446655273 5.316757678985596 -1.7722402811050415 0.164351224899292 0 1
9.457646369934082 5.274374961853027 -1.7721630334854126 0.16435837745666504 0 1
9.480673789978027 5.231894493103027 -1.772086501121521 0.16436539590358734 0 1
9.50350570678711 5.189306735992432 -1.7720108032226562 0.16437269747257233 0 1
9.526162147521973 5.146620750427246 -1.7719355821609497 0.16437985002994537 0 1
9.5486421585083 5.103857517242432 -1.771860957145691 0.16438667476177216 0 1
9.570927619934082 5.060976505279541 -1.7717868089675903 0.1643933206796646 0 1
9.593017578125 5.018017292022705 -1.7717134952545166 0.16440020501613617 0 1
9.614931106567383 4.974951267242432 -1.7716407775878906 0.16440695524215698 0 1
9.63663101196289 4.931787014007568 -1.7715685367584229 0.16441364586353302 0 1
9.658154487609863 4.888545036315918 -1.771497130393982 0.16442033648490906 0 1
9.679482460021973 4.845195293426514 -1.7714262008666992 0.1644268035888672 0 1
9.700634956359863 4.801767349243164 -1.7713559865951538 0.16443324089050293 0 1
9.72159194946289 4.758251667022705 -1.7712864875793457 0.16443966329097748 0 1
9.74233341217041 4.714638710021973 -1.7712175846099854 0.16444611549377441 0 1
9.762900352478027 4.67092752456665 -1.7711492776870728 0.16445255279541016 0 1
9.783270835876465 4.627138614654541 -1.7710814476013184 0.1644589751958847 0 1
9.803446769714355 4.583261489868164 -1.7710143327713013 0.16446509957313538 0 1
9.823447227478027 4.539306640625 -1.7709481716156006 0.16447114944458008 0 1
9.843252182006836 4.495244026184082 -1.770882248878479 0.16447724401950836 0 1
9.862841606140137 4.451122760772705 -1.7708172798156738 0.1644831895828247 0 1
9.88223648071289 4.406894207000732 -1.7707527875900269 0.1644894927740097 0 1
9.901434898376465 4.362597465515137 -1.7706888914108276 0.16449539363384247 0 1
9.920477867126465 4.318222522735596 -1.7706257104873657 0.1645009070634842 0 1
9.939287185668945 4.273740291595459 -1.7705633640289307 0.16450709104537964 0 1
9.957900047302246 4.229208946228027 -1.7705013751983643 0.1645127683877945 0 1
9.976337432861328 4.184579849243164 -1.7704399824142456 0.16451849043369293 0 1
9.994580268859863 4.139882564544678 -1.7703795433044434 0.16452406346797943 0 1
10.01260757446289 4.095107555389404 -1.7703195810317993 0.16452954709529877 0 1
10.030439376831055 4.050243854522705 -1.7702603340148926 0.1645352989435196 0 1
10.048075675964355 4.005321979522705 -1.7702016830444336 0.1645406037569046 0 1
10.065536499023438 3.9603025913238525 -1.770143747329712 0.16454587876796722 0 1
10.082782745361328 3.915214776992798 -1.7700862884521484 0.16455133259296417 0 1
10.099814414978027 3.870058536529541 -1.770029902458191 0.16455668210983276 0 1
10.116689682006836 3.824833869934082 -1.7699737548828125 0.16456161439418793 0 1
10.133310317993164 3.779531240463257 -1.769918441772461 0.1645670235157013 0 1
10.149775505065918 3.7341601848602295 -1.7698638439178467 0.16457203030586243 0 1
10.166006088256836 3.688710927963257 -1.7698098421096802 0.16457723081111908 0 1
10.182080268859863 3.643203020095825 -1.7697564363479614 0.16458196938037872 0 1
10.197938919067383 3.5976171493530273 -1.7697036266326904 0.16458693146705627 0 1
10.213563919067383 3.5519726276397705 -1.7696517705917358 0.164591982960701 0 1
10.229052543640137 3.5062596797943115 -1.7696003913879395 0.16459636390209198 0 1
10.24428653717041 3.4604785442352295 -1.7695494890213013 0.1646011471748352 0 1
10.259345054626465 3.4146385192871094 -1.76949942111969 0.1646057814359665 0 1
10.274188995361328 3.368720531463623 -1.769450068473816 0.16461032629013062 0 1
10.288837432861328 3.322744131088257 -1.7694015502929688 0.1646149605512619 0 1
10.303290367126465 3.2767186164855957 -1.7693536281585693 0.16461944580078125 0 1
10.31752872467041 3.2306249141693115 -1.769305944442749 0.16462373733520508 0 1
10.331571578979492 3.184462785720825 -1.7692594528198242 0.16462819278240204 0 1
10.345399856567383 3.13824200630188 -1.769213318824768 0.16463249921798706 0 1
10.359052658081055 3.091972589492798 -1.7691680192947388 0.1646365523338318 0 1
10.37247085571289 3.0456249713897705 -1.7691235542297363 0.16464081406593323 0 1
10.385712623596191 2.9992382526397705 -1.7690794467926025 0.16464483737945557 0 1
10.3987398147583 2.9528026580810547 -1.7690361738204956 0.16464895009994507 0 1
10.41153335571289 2.906298875808716 -1.7689934968948364 0.16465318202972412 0 1
10.424169540405273 2.8597264289855957 -1.7689515352249146 0.16465699672698975 0 1
10.436591148376465 2.813124895095825 -1.7689101696014404 0.1646605283021927 0 1
10.448798179626465 2.7664549350738525 -1.7688696384429932 0.16466449201107025 0 1
10.460790634155273 2.7197461128234863 -1.768829584121704 0.1646682471036911 0 1
10.472587585449219 2.672978401184082 -1.768790602684021 0.16467207670211792 0 1
10.4841890335083 2.626152276992798 -1.7687517404556274 0.16467542946338654 0 1
10.495575904846191 2.579296827316284 -1.7687139511108398 0.16467911005020142 0 1
10.50674819946289 2.5323729515075684 -1.7686767578125 0.16468262672424316 0 1
10.517744064331055 2.485410213470459 -1.7686400413513184 0.1646859049797058 0 1
10.528525352478027 2.438408136367798 -1.7686043977737427 0.16468925774097443 0 1
10.539072036743164 2.391347646713257 -1.7685693502426147 0.164692685008049 0 1
10.549443244934082 2.344248056411743 -1.768534779548645 0.1646958589553833 0 1
10.559579849243164 2.2970995903015137 -1.7685009241104126 0.16469915211200714 0 1
10.569560050964355 2.2499217987060547 -1.7684677839279175 0.16470184922218323 0 1
10.579286575317383 2.202685594558716 -1.7684353590011597 0.16470493376255035 0 1
10.588818550109863 2.1554198265075684 -1.7684035301208496 0.16470806300640106 0 1
10.598134994506836 2.108105421066284 -1.768372654914856 0.16471098363399506 0 1
10.607275009155273 2.0607616901397705 -1.7683422565460205 0.16471360623836517 0 1
10.616181373596191 2.013369083404541 -1.7683124542236328 0.16471633315086365 0 1
10.624892234802246 1.9659472703933716 -1.768283486366272 0.16471907496452332 0 1
10.633368492126465 1.9184764623641968 -1.7682552337646484 0.16472187638282776 0 1
10.641669273376465 1.8709765672683716 -1.768227458000183 0.16472439467906952 0 1
10.649755477905273 1.8234374523162842 -1.7682006359100342 0.16472671926021576 0 1
10.65762710571289 1.7758691310882568 -1.768174409866333 0.1647293120622635 0 1
10.665283203125 1.728271484375 -1.7681488990783691 0.16473166644573212 0 1
10.672743797302246 1.6806445121765137 -1.7681241035461426 0.16473403573036194 0 1
10.6799898147583 1.6329686641693115 -1.7680999040603638 0.16473615169525146 0 1
10.687040328979492 1.5852831602096558 -1.7680764198303223 0.16473829746246338 0 1
10.693857192993164 1.5375487804412842 -1.768053650856018 0.16474048793315887 0 1
10.700478553771973 1.4897948503494263 -1.7680315971374512 0.16474267840385437 0 1
10.706884384155273 1.4420019388198853 -1.7680102586746216 0.16474461555480957 0 1
10.713095664978027 1.3941991329193115 -1.7679895162582397 0.16474656760692596 0 1
10.719111442565918 1.3463671207427979 -1.7679694890975952 0.16474823653697968 0 1
10.724872589111328 1.2984960079193115 -1.7679500579833984 0.16475024819374084 0 1
10.730459213256836 1.2506152391433716 -1.7679314613342285 0.16475194692611694 0 1
10.735810279846191 1.2027148008346558 -1.767913579940796 0.16475366055965424 0 1
10.740985870361328 1.1547753810882568 -1.7678964138031006 0.16475512087345123 0 1
10.745927810668945 1.1068261861801147 -1.7678799629211426 0.16475658118724823 0 1
10.750654220581055 1.0588574409484863 -1.7678639888763428 0.1647583246231079 0 1
10.755166053771973 1.0108495950698853 -1.767849087715149 0.1647598147392273 0 1
10.759501457214355 0.9628417491912842 -1.7678344249725342 0.1647609919309616 0 1
10.763603210449219 0.9148144125938416 -1.7678207159042358 0.1647621989250183 0 1
10.767509460449219 0.8667675852775574 -1.7678076028823853 0.164763405919075 0 1
10.771181106567383 0.8187011480331421 -1.7677953243255615 0.1647646129131317 0 1
10.774677276611328 0.7706249952316284 -1.7677836418151855 0.16476553678512573 0 1
10.77791976928711 0.7225292921066284 -1.7677726745605469 0.16476674377918243 0 1
10.780985832214355 0.6744238138198853 -1.7677624225616455 0.16476766765117645 0 1
10.783818244934082 0.6262987852096558 -1.767753005027771 0.16476859152317047 0 1
10.786455154418945 0.5781640410423279 -1.7677440643310547 0.1647695153951645 0 1
10.7888765335083 0.530029296875 -1.7677358388900757 0.16477012634277344 0 1
10.79110336303711 0.4818750023841858 -1.767728328704834 0.16477075219154358 0 1
10.793095588684082 0.4337109327316284 -1.7677216529846191 0.16477139294147491 0 1
10.794892311096191 0.38554686307907104 -1.7677156925201416 0.16477200388908386 0 1
10.79647445678711 0.3373730480670929 -1.7677102088928223 0.16477234661579132 0 1
10.797842025756836 0.2891894578933716 -1.7677054405212402 0.16477295756340027 0 1
10.79897403717041 0.2409960925579071 -1.7677016258239746 0.16477355360984802 0 1
10.79995059967041 0.19280272722244263 -1.7676982879638672 0.1647735983133316 0 1
10.800673484802246 0.14459960162639618 -1.7676957845687866 0.16477389633655548 0 1
10.801220893859863 0.0964062511920929 -1.7676937580108643 0.16477391123771667 0 1
10.801513671875 0.04820312559604645 -1.7676926851272583 0.16477420926094055 0 1
10.801630973815918 -0.0 -1.7676922082901 0.16477422416210175 0 1
10.801513671875 -0.04820312559604645 -1.7676925659179688 0.16477420926094055 0 1
10.801200866699219 -0.0964062511920929 -1.7676934003829956 0.16477419435977936 0 1
10.800673484802246 -0.14459960162639618 -1.7676949501037598 0.16477391123771667 0 1
10.799931526184082 -0.19279296696186066 -1.7676972150802612 0.1647738814353943 0 1
10.798994064331055 -0.24098631739616394 -1.7677001953125 0.16477327048778534 0 1
10.797842025756836 -0.28916990756988525 -1.7677041292190552 0.16477295756340027 0 1
10.796454429626465 -0.33735349774360657 -1.767708420753479 0.164772629737854 0 1
10.794892311096191 -0.3855370879173279 -1.7677135467529297 0.16477201879024506 0 1
10.793075561523438 -0.43370115756988525 -1.7677193880081177 0.1647716909646988 0 1
10.791083335876465 -0.4818652272224426 -1.7677258253097534 0.16477106511592865 0 1
10.788857460021973 -0.5300195217132568 -1.767733097076416 0.1647704392671585 0 1
10.7864351272583 -0.5781640410423279 -1.767741084098816 0.16476979851722717 0 1
10.783818244934082 -0.6262890696525574 -1.767749547958374 0.16476859152317047 0 1
10.780966758728027 -0.6744140386581421 -1.767759084701538 0.16476796567440033 0 1
10.777899742126465 -0.7225195169448853 -1.7677688598632812 0.1647670418024063 0 1
10.774638175964355 -0.7706152200698853 -1.7677797079086304 0.1647661179304123 0 1
10.771162033081055 -0.8186913728713989 -1.7677911520004272 0.1647649109363556 0 1
10.76749038696289 -0.866748034954071 -1.7678029537200928 0.16476371884346008 0 1
10.763564109802246 -0.9148046374320984 -1.7678159475326538 0.16476279497146606 0 1
10.759482383728027 -0.9628320336341858 -1.7678295373916626 0.16476130485534668 0 1
10.755146026611328 -1.0108495950698853 -1.7678436040878296 0.16476009786128998 0 1
10.75063419342041 -1.058837890625 -1.7678585052490234 0.1647586226463318 0 1
10.745868682861328 -1.1068066358566284 -1.7678741216659546 0.16475746035575867 0 1
10.740946769714355 -1.1547656059265137 -1.7678903341293335 0.1647556871175766 0 1
10.735771179199219 -1.2027050256729126 -1.7679073810577393 0.1647542417049408 0 1
10.730420112609863 -1.2506054639816284 -1.7679250240325928 0.1647525131702423 0 1
10.724833488464355 -1.2984960079193115 -1.7679433822631836 0.16475079953670502 0 1
10.7190523147583 -1.3463475704193115 -1.7679624557495117 0.16474910080432892 0 1
10.713056564331055 -1.394189476966858 -1.7679821252822876 0.16474710404872894 0 1
10.706865310668945 -1.4420019388198853 -1.7680026292800903 0.16474516689777374 0 1
10.700439453125 -1.48977530002594 -1.7680238485336304 0.16474322974681854 0 1
10.693818092346191 -1.537539005279541 -1.7680456638336182 0.16474130749702454 0 1
10.686982154846191 -1.5852636098861694 -1.7680681943893433 0.16473913192749023 0 1
10.679950714111328 -1.6329588890075684 -1.7680914402008057 0.16473697125911713 0 1
10.672685623168945 -1.6806249618530273 -1.7681151628494263 0.1647348403930664 0 1
10.665244102478027 -1.7282519340515137 -1.7681399583816528 0.16473247110843658 0 1
10.657567977905273 -1.7758593559265137 -1.7681652307510376 0.16473010182380676 0 1
10.649697303771973 -1.823427677154541 -1.7681912183761597 0.16472776234149933 0 1
10.641611099243164 -1.8709667921066284 -1.76821768283844 0.1647251695394516 0 1
10.633329391479492 -1.91845703125 -1.7682452201843262 0.16472263634204865 0 1
10.624834060668945 -1.9659277200698853 -1.7682732343673706 0.164719820022583 0 1
10.61612319946289 -2.0133495330810547 -1.7683019638061523 0.16471736133098602 0 1
10.607196807861328 -2.060742139816284 -1.768331527709961 0.16471463441848755 0 1
10.598095893859863 -2.108085870742798 -1.7683614492416382 0.16471169888973236 0 1
10.588740348815918 -2.155390501022339 -1.7683923244476318 0.16470906138420105 0 1
10.579228401184082 -2.2026660442352295 -1.7684236764907837 0.16470593214035034 0 1
10.569501876831055 -2.249892473220825 -1.7684561014175415 0.16470283269882202 0 1
10.559521675109863 -2.2970898151397705 -1.768488883972168 0.16470006108283997 0 1
10.549384117126465 -2.344228506088257 -1.7685225009918213 0.1646968126296997 0 1
10.354462623596191 -2.349443197250366 -1.737586498260498 0.23292598128318787 0 2
10.157685279846191 -2.3525097370147705 -1.7063082456588745 0.23719586431980133 0 2
9.970829963684082 -2.3561718463897705 -1.6766728162765503 0.2598133683204651 0 2
9.906123161315918 -2.3875975608825684 -1.6675649881362915 0.16468366980552673 0 2
9.895556449890137 -2.431826114654541 -1.6676000356674194 0.1646803468465805 0 2
9.884814262390137 -2.476015567779541 -1.667635440826416 0.1646769940853119 0 2
9.940048217773438 -2.537040948867798 -1.6788451671600342 0.2772316634654999 0 2
9.862763404846191 -2.5642480850219727 -1.667708396911621 0.16466957330703735 0 2
9.851454734802246 -2.6083006858825684 -1.66774582862854 0.1646658033132553 0 2
9.83993148803711 -2.652294874191284 -1.6677837371826172 0.16466201841831207 0 2
9.828231811523438 -2.696240186691284 -1.6678224802017212 0.16465818881988525 0 2
9.063798904418945 -2.5300683975219727 -1.540000557899475 0.12071604281663895 0 6
8.99112319946289 -2.553095579147339 -1.5295748710632324 0.28418490290641785 0 6
8.79110336303711 -2.5387401580810547 -1.4974606037139893 0.4890672564506531 0 6
8.752197265625 -2.569873094558716 -1.4927705526351929 0.9411997199058533 0 6
8.743056297302246 -2.609619140625 -1.493181586265564 0.8846928477287292 0 6
8.761689186096191 -2.657831907272339 -1.4983785152435303 0.6868767738342285 0 6
8.763895988464355 -2.7012693881988525 -1.5008022785186768 0.9547162055969238 0 6
8.763662338256836 -2.744081974029541 -1.5028446912765503 0.9534187316894531 0 6
8.761903762817383 -2.7865233421325684 -1.5046637058258057 0.9731181859970093 0 6
8.744267463684082 -2.8239355087280273 -1.5037752389907837 0.9911921620368958 0 6
8.744951248168945 -2.867314338684082 -1.506079077720642 0.8702210187911987 0 6
9.672821998596191 -3.219413995742798 -1.6683363914489746 0.16460734605789185 0 2
9.65860366821289 -3.262646436691284 -1.6683834791183472 0.16460293531417847 0 2
9.644227981567383 -3.305800676345825 -1.668431043624878 0.16459830105304718 0 2
9.629657745361328 -3.3489062786102295 -1.668479323387146 0.1645936220884323 0 2
9.61489200592041 -3.3919432163238525 -1.6685280799865723 0.16458870470523834 0 2
9.599950790405273 -3.4349119663238525 -1.6685775518417358 0.16458386182785034 0 2
9.584814071655273 -3.4778223037719727 -1.6686276197433472 0.16457901895046234 0 2
9.56948184967041 -3.5206639766693115 -1.6686784029006958 0.16457395255565643 0 2
9.553994178771973 -3.5634472370147705 -1.668729543685913 0.16456860303878784 0 2
9.538290977478027 -3.6061620712280273 -1.6687817573547363 0.1645635962486267 0 2
9.522392272949219 -3.648798704147339 -1.6688342094421387 0.16455841064453125 0 2
9.506318092346191 -3.6913671493530273 -1.6688872575759888 0.16455328464508057 0 2
9.490068435668945 -3.733876943588257 -1.6689412593841553 0.1645478904247284 0 2
9.473603248596191 -3.776308536529541 -1.6689956188201904 0.16454260051250458 0 2
9.456982612609863 -3.818681478500366 -1.6690505743026733 0.16453701257705688 0 2
9.440165519714355 -3.860966682434082 -1.6691062450408936 0.1645316183567047 0 2
9.4231538772583 -3.903193235397339 -1.6691625118255615 0.16452619433403015 0 2
9.405966758728027 -3.9453418254852295 -1.6692194938659668 0.16452033817768097 0 2
9.38858413696289 -3.9874119758605957 -1.6692769527435303 0.16451486945152283 0 2
9.371045112609863 -4.029414176940918 -1.669335126876831 0.1645088940858841 0 2
9.353271484375 -4.071328163146973 -1.6693938970565796 0.16450335085391998 0 2
9.33536148071289 -4.113163948059082 -1.6694532632827759 0.16449730098247528 0 2
9.317235946655273 -4.154931545257568 -1.66951322555542 0.1644916534423828 0 2
9.298934936523438 -4.196620941162109 -1.6695736646652222 0.16448555886745453 0 2
9.280458450317383 -4.238232135772705 -1.6696349382400513 0.1644795536994934 0 2
9.26180648803711 -4.279765605926514 -1.669696569442749 0.16447339951992035 0 2
9.242938995361328 -4.321220397949219 -1.6697591543197632 0.16446734964847565 0 2
9.223916053771973 -4.36257791519165 -1.669822096824646 0.1644611656665802 0 2
9.204716682434082 -4.403867244720459 -1.6698856353759766 0.16445483267307281 0 2
9.185341835021973 -4.445068359375 -1.6699497699737549 0.16444839537143707 0 2
9.165751457214355 -4.486191272735596 -1.6700146198272705 0.1644420623779297 0 2
9.146005630493164 -4.527226448059082 -1.6700799465179443 0.16443561017513275 0 2
9.12606430053711 -4.568163871765137 -1.670146107673645 0.16442932188510895 0 2
9.105966567993164 -4.609033107757568 -1.6702126264572144 0.16442260146141052 0 2
9.085654258728027 -4.649824142456055 -1.670279860496521 0.16441597044467926 0 2
9.065185546875 -4.690507888793945 -1.6703475713729858 0.16440938413143158 0 2
9.044540405273438 -4.731093406677246 -1.6704158782958984 0.16440267860889435 0 2
9.023700714111328 -4.771611213684082 -1.6704849004745483 0.16439580917358398 0 2
9.002685546875 -4.81204080581665 -1.670554518699646 0.16438908874988556 0 2
8.981513023376465 -4.852363109588623 -1.6706246137619019 0.16438207030296326 0 2
8.960145950317383 -4.892597675323486 -1.670695424079895 0.16437527537345886 0 2
8.938583374023438 -4.932753562927246 -1.670766830444336 0.16436831653118134 0 2
8.916884422302246 -4.972802639007568 -1.6708385944366455 0.16436102986335754 0 2
8.894989967346191 -5.012763500213623 -1.670911192893982 0.16435398161411285 0 2
8.872920036315918 -5.052626609802246 -1.670984148979187 0.16434690356254578 0 2
8.85067367553711 -5.092392444610596 -1.6710578203201294 0.16433945298194885 0 2
8.828251838684082 -5.132070064544678 -1.671132206916809 0.16433221101760864 0 2
8.805654525756836 -5.171640396118164 -1.6712069511413574 0.16432495415210724 0 2
8.782899856567383 -5.211132526397705 -1.6712822914123535 0.1643173098564148 0 2
8.759950637817383 -5.25051736831665 -1.671358346939087 0.16430996358394623 0 2
8.736825942993164 -5.289784908294678 -1.6714348793029785 0.16430239379405975 0 2
8.713544845581055 -5.328974723815918 -1.6715120077133179 0.16429471969604492 0 2
8.69008731842041 -5.368056297302246 -1.6715896129608154 0.1642870008945465 0 2
8.666435241699219 -5.407031059265137 -1.6716680526733398 0.16427965462207794 0 2
8.642626762390137 -5.445898532867432 -1.6717467308044434 0.1642717570066452 0 2
8.618642807006836 -5.484687328338623 -1.6718262434005737 0.1642639935016632 0 2
8.594501495361328 -5.523349285125732 -1.6719062328338623 0.16425609588623047 0 2
8.570185661315918 -5.561923503875732 -1.6719868183135986 0.16424813866615295 0 2
8.545693397521973 -5.600380897521973 -1.6720678806304932 0.16424021124839783 0 2
8.521025657653809 -5.638730525970459 -1.672149658203125 0.16423216462135315 0 2
8.496200561523438 -5.676972389221191 -1.672231674194336 0.16422408819198608 0 2
8.471200942993164 -5.715126991271973 -1.6723147630691528 0.16421595215797424 0 2
8.446044921875 -5.753154277801514 -1.6723978519439697 0.16420766711235046 0 2
8.4207124710083 -5.791083812713623 -1.6724820137023926 0.16419942677021027 0 2
8.395204544067383 -5.828896522521973 -1.672566294670105 0.16419123113155365 0 2
8.369521141052246 -5.866591453552246 -1.6726512908935547 0.1641829013824463 0 2
8.343681335449219 -5.904189109802246 -1.6727368831634521 0.16417460143566132 0 2
8.3176851272583 -5.941659927368164 -1.672823190689087 0.1641661524772644 0 2
8.291513442993164 -5.979023456573486 -1.6729098558425903 0.16415776312351227 0 2
8.265204429626465 -6.016288757324219 -1.672996997833252 0.16414888203144073 0 2
8.238700866699219 -6.053417682647705 -1.6730847358703613 0.1641404777765274 0 2
8.212020874023438 -6.090458869934082 -1.673173189163208 0.1641317456960678 0 2
8.18520450592041 -6.127363204956055 -1.6732618808746338 0.16412296891212463 0 2
8.158212661743164 -6.164160251617432 -1.6733514070510864 0.16411423683166504 0 2
8.131064414978027 -6.200829982757568 -1.6734411716461182 0.16410544514656067 0 2
8.103759765625 -6.237392425537109 -1.6735317707061768 0.16409654915332794 0 2
8.076278686523438 -6.273837566375732 -1.673622727394104 0.16408763825893402 0 2
8.039092063903809 -6.302675724029541 -1.6717188358306885 0.611332893371582 0 4
7.965927600860596 -6.302900314331055 -1.6623327732086182 0.6147839426994324 0 4
7.893564224243164 -6.303134441375732 -1.6530877351760864 0.6182226538658142 0 4
7.822021484375 -6.303359031677246 -1.6439754962921143 0.6216490864753723 0 4
7.751220703125 -6.30358362197876 -1.634995698928833 0.6250637769699097 0 4
7.681240081787109 -6.303798675537109 -1.626145601272583 0.6284647583961487 0 4
7.611982345581055 -6.304013729095459 -1.617423415184021 0.6318540573120117 0 4
7.543447017669678 -6.304238319396973 -1.6088265180587769 0.6352312564849854 0 4
7.475673675537109 -6.304452896118164 -1.6003504991531372 0.6385946273803711 0 4
7.40856409072876 -6.304657936096191 -1.5919960737228394 0.6419464945793152 0 4
7.342177391052246 -6.304862976074219 -1.5837597846984863 0.6452847123146057 0 4
7.276494026184082 -6.305078029632568 -1.5756397247314453 0.6486098170280457 0 4
7.211435317993164 -6.305283069610596 -1.5676324367523193 0.651922881603241 0 4
7.147060394287109 -6.305488109588623 -1.5597375631332397 0.6552225351333618 0 4
7.083310604095459 -6.305683612823486 -1.5519521236419678 0.6585087776184082 0 4
7.020224571228027 -6.305888652801514 -1.5442765951156616 0.6617819666862488 0 4
6.957724571228027 -6.306083679199219 -1.5367035865783691 0.6650431752204895 0 4
6.895849227905273 -6.306279182434082 -1.5292397737503052 0.6682888865470886 0 4
6.834560394287109 -6.306474685668945 -1.5218753814697266 0.6715235710144043 0 4
6.773876667022705 -6.306660175323486 -1.5146111249923706 0.6747434735298157 0 4
6.713759422302246 -6.306855201721191 -1.5074468851089478 0.6779510378837585 0 4
6.654189109802246 -6.307050704956055 -1.5003799200057983 0.6811444163322449 0 4
6.595204830169678 -6.307226657867432 -1.4934076070785522 0.6843233704566956 0 4
6.536747932434082 -6.307412147521973 -1.4865294694900513 0.6874901652336121 0 4
6.478837966918945 -6.307597637176514 -1.4797435998916626 0.6906421184539795 0 4
6.421435356140137 -6.307773113250732 -1.4730494022369385 0.6937815546989441 0 4
6.364541053771973 -6.307949066162109 -1.466444492340088 0.6969062685966492 0 4
7.063310623168945 7.063300609588623 -1.676856517791748 0.16786348819732666 0 2
7.094326019287109 7.031269550323486 -1.6767535209655762 0.16787387430667877 0 2
7.125185489654541 6.999120712280273 -1.676651120185852 0.16788417100906372 0 2
7.155927658081055 6.96682596206665 -1.6765490770339966 0.16789425909519196 0 2
7.186493873596191 6.934404373168945 -1.6764477491378784 0.16790460050106049 0 2
7.216943264007568 6.901845455169678 -1.6763465404510498 0.16791464388370514 0 2
7.247236251831055 6.869160175323486 -1.6762460470199585 0.1679246872663498 0 2
7.27737283706665 6.836337566375732 -1.6761459112167358 0.16793489456176758 0 2
7.307373046875 6.803398132324219 -1.676046371459961 0.1679447740316391 0 2
7.337235927581787 6.770322322845459 -1.6759471893310547 0.16795459389686584 0 2
7.366923809051514 6.737119197845459 -1.6758486032485962 0.16796477138996124 0 2
7.396493911743164 6.703788757324219 -1.675750732421875 0.16797438263893127 0 2
7.425908088684082 6.670321941375732 -1.6756529808044434 0.16798415780067444 0 2
7.455165863037109 6.636728286743164 -1.675555944442749 0.16799397766590118 0 2
7.484286785125732 6.603017330169678 -1.6754592657089233 0.16800346970558167 0 2
7.513232231140137 6.569169998168945 -1.6753630638122559 0.16801336407661438 0 2
7.542040824890137 6.535204887390137 -1.6752675771713257 0.16802306473255157 0 2
7.570693016052246 6.501112937927246 -1.6751723289489746 0.1680324226617813 0 2
7.599189281463623 6.466904163360596 -1.6750777959823608 0.16804200410842896 0 2
7.627548694610596 6.432558536529541 -1.6749836206436157 0.16805143654346466 0 2
7.655751705169678 6.398115158081055 -1.6748900413513184 0.168060764670372 0 2
7.683818340301514 6.363525390625 -1.6747968196868896 0.16806994378566742 0 2
7.711689472198486 6.328818321228027 -1.6747041940689087 0.16807934641838074 0 2
7.739423751831055 6.293993949890137 -1.674612283706665 0.1680886596441269 0 2
7.767021179199219 6.25906229019165 -1.67452073097229 0.16809767484664917 0 2
7.794443130493164 6.22399377822876 -1.6744295358657837 0.16810698807239532 0 2
