ply
format ascii 1.0
element vertex 613
property float32 x
property float32 y
property float32 z
property float32 CosAngle
property uint32 ObjIdx
property uint32 ObjTag
end_header
16.91158103942871 10.732421875 3.189453601837158 0.7961075305938721 0 9
15.824101448059082 9.9429292678833 2.975919723510742 0.9721471667289734 0 9
15.861034393310547 9.867109298706055 2.974510431289673 0.9726084470748901 0 9
15.897968292236328 9.791386604309082 2.973158597946167 0.9730499386787415 0 9
15.934823989868164 9.71572208404541 2.9718713760375977 0.9734718203544617 0 9
15.9716796875 9.64013671875 2.9706437587738037 0.9738739728927612 0 9
16.008535385131836 9.564648628234863 2.969480514526367 0.9742559790611267 0 9
16.045331954956055 9.48915958404541 2.968374013900757 0.9746183753013611 0 9
16.082109451293945 9.413749694824219 2.967332601547241 0.97496098279953 0 9
16.11882781982422 9.338358879089355 2.9663500785827637 0.9752838015556335 0 9
16.15558624267578 9.263066291809082 2.9654266834259033 0.9755868315696716 0 9
16.192285537719727 9.187792778015137 2.964569091796875 0.9758700728416443 0 9
16.988475799560547 9.539003372192383 3.1024725437164307 0.6930938959121704 0 9
16.95539093017578 9.420624732971191 3.088679075241089 0.6961891651153564 0 9
16.922576904296875 9.30322265625 3.0750694274902344 0.6992706060409546 0 9
16.890117645263672 9.186933517456055 3.061641216278076 0.7023372650146484 0 9
16.857891082763672 9.071581840515137 3.0483903884887695 0.7053901553153992 0 9
16.82597541809082 8.957265853881836 3.035318613052368 0.7084283828735352 0 9
16.794336318969727 8.843925476074219 3.022416830062866 0.711452066898346 0 9
16.762929916381836 8.7315034866333 3.0096874237060547 0.7144612073898315 0 9
20.280330657958984 10.4482421875 3.632758140563965 0.8977260589599609 0 9
20.357011795043945 10.372382164001465 3.6381139755249023 0.8964046835899353 0 9
20.433866500854492 10.296308517456055 3.6435582637786865 0.8950645327568054 0 9
20.511014938354492 10.220019340515137 3.6490960121154785 0.8937060236930847 0 9
20.588417053222656 10.143495559692383 3.6547324657440186 0.8923286199569702 0 9
20.666072845458984 10.06673812866211 3.6604583263397217 0.8909327983856201 0 9
20.74396514892578 9.989726066589355 3.666276216506958 0.8895183801651001 0 9
20.822128295898438 9.91249942779541 3.672194719314575 0.888085663318634 0 9
20.90054702758789 9.835039138793945 3.678203582763672 0.8866344094276428 0 9
20.979257583618164 9.757304191589355 3.6843109130859375 0.8851647973060608 0 9
21.05828094482422 9.679316520690918 3.69051194190979 0.8836764693260193 0 9
21.13749885559082 9.60107421875 3.696812152862549 0.8821703195571899 0 9
21.217069625854492 9.522578239440918 3.7032182216644287 0.8806453347206116 0 9
21.296894073486328 9.443808555603027 3.709719657897949 0.8791021108627319 0 9
21.377031326293945 9.364765167236328 3.7163212299346924 0.877540647983551 0 9
42.835838317871094 18.536718368530273 7.4323015213012695 0.8234893083572388 0 9
41.87464904785156 17.89810562133789 7.251527786254883 0.9780470728874207 0 9
40.04621124267578 16.90443229675293 6.921674728393555 0.869108259677887 0 9
29.900897979736328 12.463984489440918 5.158420085906982 0.8483929634094238 0 9
26.18568229675293 10.777655601501465 4.509088516235352 0.719911515712738 0 9
26.2882022857666 10.682108879089355 4.518449783325195 0.7184208631515503 0 9
26.39111328125 10.586191177368164 4.527919769287109 0.7169178128242493 0 9
26.1474609375 10.352460861206055 4.478099346160889 0.477704793214798 0 9
26.40787124633789 10.318710327148438 4.5147271156311035 0.4738296568393707 0 9
26.672616958618164 10.284394264221191 4.552050590515137 0.46994444727897644 0 9
26.141464233398438 9.945058822631836 4.453738212585449 0.5819514393806458 0 9
26.308300018310547 9.873613357543945 4.474564075469971 0.5792428255081177 0 9
26.476581573486328 9.80142593383789 4.495664596557617 0.5765241980552673 0 9
26.628026962280273 9.721816062927246 4.513916492462158 0.7370068430900574 0 9
26.585468292236328 9.571308135986328 4.499377250671387 0.7393890619277954 0 9
26.543182373046875 9.42171859741211 4.485020160675049 0.7417555451393127 0 9
26.501211166381836 9.273124694824219 4.470851421356201 0.7441064119338989 0 9
26.3922061920166 9.102246284484863 4.445532321929932 0.2708382308483124 0 9
26.03304672241211 8.847851753234863 4.378298759460449 0.2749970257282257 0 9
27.698455810546875 9.275390625 4.651343822479248 0.5572280287742615 0 9
27.879608154296875 9.19710922241211 4.674785137176514 0.5544341206550598 0 9
28.04523468017578 9.112401962280273 4.695647239685059 0.6243342161178589 0 9
28.20134735107422 9.023378372192383 4.714960098266602 0.621776819229126 0 9
28.35869026184082 8.933671951293945 4.734514236450195 0.6192089915275574 0 9
28.39306640625 8.80458927154541 4.733611106872559 0.9865957498550415 0 9
30.511775970458984 9.311718940734863 5.079812526702881 0.3154813051223755 0 9
30.892929077148438 9.276659965515137 5.136290073394775 0.3120126724243164 0 9
31.282480239868164 9.240800857543945 5.1941070556640625 0.3085393011569977 0 9
31.471113204956055 9.143144607543945 5.218560695648193 0.6307021975517273 0 9
31.345897674560547 8.95443344116211 5.1910810470581055 0.6340405344963074 0 9
31.222030639648438 8.767675399780273 5.163999080657959 0.6373658180236816 0 9
31.09945297241211 8.58285140991211 5.137306213378906 0.6406781077384949 0 9
30.9781436920166 8.399980545043945 5.110981464385986 0.6439772844314575 0 9
30.85806655883789 8.218886375427246 5.08503532409668 0.6472631692886353 0 9
30.739179611206055 8.039648056030273 5.059456825256348 0.6505357623100281 0 9
32.717247009277344 8.400312423706055 5.37876558303833 0.4042132794857025 0 9
24.530956268310547 6.181308269500732 4.028321266174316 0.9849992394447327 0 6
32.43279266357422 8.017675399780273 5.319950580596924 0.408681720495224 0 9
32.29310607910156 7.829531192779541 5.291228294372559 0.4109002947807312 0 9
42.13663864135742 10.016230583190918 6.8966546058654785 0.5945380330085754 0 9
41.93595504760742 9.76986312866211 6.856557846069336 0.5980145335197449 0 9
47.68532943725586 10.883925437927246 7.788520336151123 0.7402992844581604 0 9
47.85044860839844 10.695878982543945 7.807568073272705 0.5716769099235535 0 9
48.15218734741211 10.536640167236328 7.849006175994873 0.649402916431427 0 9
48.2487678527832 10.331093788146973 7.857120037078857 0.6487329006195068 0 9
48.35392379760742 -6.3291015625 7.7653961181640625 0.31365957856178284 0 3
47.64488220214844 -6.453906059265137 7.656100749969482 0.29325592517852783 0 3
46.94074249267578 -6.573203086853027 7.547610282897949 0.29746031761169434 0 3
46.22919845581055 -6.685214519500732 7.437952041625977 0.33031854033470154 0 3
45.62566375732422 -6.807148456573486 7.345682621002197 0.33446744084358215 0 3
45.0759162902832 -6.932089805603027 7.262118816375732 0.35214880108833313 0 3
44.550994873046875 -7.056171894073486 7.182571887969971 0.3560485243797302 0 3
43.9601936340332 -7.164960861206055 7.092432022094727 0.3058312237262726 0 3
43.33894348144531 -7.263515472412109 6.997405052185059 0.30998513102531433 0 3
42.81560516357422 -7.37353515625 6.918169021606445 0.33389994502067566 0 3
42.2546272277832 -7.472362995147705 6.832878112792969 0.3380679488182068 0 3
41.63232421875 -7.555117130279541 6.737661361694336 0.9266552329063416 0 3
41.17316436767578 -7.662831783294678 6.668859004974365 0.3463829755783081 0 3
40.37165832519531 -7.70128870010376 6.5445709228515625 0.3596009612083435 0 3
40.17302703857422 -7.850390434265137 6.518003463745117 0.35467010736465454 0 3
39.37214660644531 -7.877500057220459 6.393742084503174 0.35077130794525146 0 3
39.15847396850586 -8.017695426940918 6.364823341369629 0.36292892694473267 0 3
38.42066192626953 -8.046483993530273 6.250705242156982 0.36707034707069397 0 3
38.07435607910156 -8.152480125427246 6.200250625610352 0.81273353099823 0 3
38.11646270751953 -8.340585708618164 6.213141441345215 0.9137750864028931 0 3
38.149314880371094 -8.527382850646973 6.224676609039307 0.9120818972587585 0 3
38.182342529296875 -8.714823722839355 6.236382961273193 0.9103702902793884 0 3
38.21542739868164 -8.903027534484863 6.248249530792236 0.9086406230926514 0 3
38.24869155883789 -9.09195327758789 6.260294437408447 0.9068924784660339 0 3
38.28205108642578 -9.281600952148438 6.2725138664245605 0.9051260948181152 0 3
38.31554412841797 -9.471991539001465 6.284903049468994 0.9033414721488953 0 3
38.349178314208984 -9.6631441116333 6.297473430633545 0.901538610458374 0 3
38.38298797607422 -9.855058670043945 6.310213565826416 0.8997176289558411 0 3
38.416873931884766 -10.047773361206055 6.323142051696777 0.8978785276412964 0 3
38.45093536376953 -10.241230010986328 6.336251735687256 0.8960214257240295 0 3
38.48511505126953 -10.435546875 6.349535942077637 0.894146203994751 0 3
38.51945114135742 -10.630682945251465 6.363007068634033 0.892253041267395 0 3
38.553924560546875 -10.826640129089355 6.376672267913818 0.8903418183326721 0 3
38.588592529296875 -11.023417472839355 6.390516757965088 0.8884127736091614 0 3
38.62334060668945 -11.221113204956055 6.404550552368164 0.8864656686782837 0 3
38.65829849243164 -11.419629096984863 6.418778419494629 0.8845009207725525 0 3
38.693416595458984 -11.619062423706055 6.433201313018799 0.8825181722640991 0 3
38.72861099243164 -11.8193941116333 6.447813510894775 0.8805179595947266 0 3
38.764060974121094 -12.020625114440918 6.4626312255859375 0.8784995675086975 0 3
38.79961013793945 -12.222851753234863 6.477638244628906 0.8764638900756836 0 3
38.83538818359375 -12.425956726074219 6.49284553527832 0.8744103908538818 0 3
38.87125015258789 -12.630058288574219 6.50826358795166 0.872339129447937 0 3
38.90736389160156 -12.835078239440918 6.523880481719971 0.8702507019042969 0 3
38.94361114501953 -13.041152000427246 6.5397162437438965 0.8681443333625793 0 3
38.98005676269531 -13.248164176940918 6.555746078491211 0.866020679473877 0 3
39.016658782958984 -13.456269264221191 6.571998119354248 0.8638796210289001 0 3
39.05347442626953 -13.665350914001465 6.58845853805542 0.8617212176322937 0 3
39.09042739868164 -13.8755464553833 6.605136394500732 0.8595452904701233 0 3
39.12763595581055 -14.08675765991211 6.6220383644104 0.8573521971702576 0 3
39.16497802734375 -14.299100875854492 6.639152526855469 0.855141818523407 0 3
39.20249938964844 -14.51253890991211 6.656489849090576 0.8529141545295715 0 3
39.24025344848633 -14.727089881896973 6.674057960510254 0.8506693243980408 0 3
39.27818298339844 -14.942811965942383 6.691855430603027 0.8484073281288147 0 3
39.31638717651367 -15.159628868103027 6.709872245788574 0.8461284637451172 0 3
39.3547248840332 -15.377616882324219 6.728126049041748 0.8438327312469482 0 3
39.39331817626953 -15.596894264221191 6.746631145477295 0.8415192365646362 0 3
39.43210983276367 -15.817323684692383 6.765353679656982 0.8391894102096558 0 3
39.471092224121094 -16.038984298706055 6.784331321716309 0.8368426561355591 0 3
39.51033020019531 -16.26187515258789 6.803548336029053 0.8344786763191223 0 3
39.549766540527344 -16.486074447631836 6.823015213012695 0.8320981860160828 0 3
39.58943176269531 -16.71156120300293 6.842724323272705 0.8297009468078613 0 3
39.629356384277344 -16.938339233398438 6.862692832946777 0.8272867202758789 0 3
39.66943359375 -17.166484832763672 6.882917404174805 0.8248560428619385 0 3
39.709842681884766 -17.395936965942383 6.903395175933838 0.8224089741706848 0 3
39.75046920776367 -17.62677764892578 6.924139976501465 0.8199450969696045 0 3
39.79128646850586 -17.85904312133789 6.945146560668945 0.8174648880958557 0 3
39.832420349121094 -18.092695236206055 6.96642541885376 0.8149681687355042 0 3
39.87380599975586 -18.32779312133789 6.987976551055908 0.8124547600746155 0 3
39.91539001464844 -18.564355850219727 7.009800910949707 0.8099253177642822 0 3
39.9572639465332 -18.802440643310547 7.031906604766846 0.8073792457580566 0 3
39.99945068359375 -19.041973114013672 7.054292678833008 0.8048173189163208 0 3
40.04183578491211 -19.283105850219727 7.076962947845459 0.8022387027740479 0 3
40.084510803222656 -19.525781631469727 7.099923610687256 0.7996442317962646 0 3
40.127498626708984 -19.770000457763672 7.12318229675293 0.7970337271690369 0 3
40.170780181884766 -20.015838623046875 7.146737098693848 0.7944069504737854 0 3
40.21429443359375 -20.26331901550293 7.170582294464111 0.7917646765708923 0 3
40.25814437866211 -20.51249885559082 7.1947479248046875 0.7891057133674622 0 3
40.30226516723633 -20.76333999633789 7.219212532043457 0.7864314317703247 0 3
40.346717834472656 -21.015897750854492 7.243990421295166 0.7837409377098083 0 3
40.39144515991211 -21.27017593383789 7.269091606140137 0.7810350656509399 0 3
40.43646240234375 -21.526288986206055 7.2945146560668945 0.778313159942627 0 3
40.481834411621094 -21.7841796875 7.320258617401123 0.775575578212738 0 3
40.52751922607422 -22.04390525817871 7.346337795257568 0.7728224992752075 0 3
40.57349395751953 -22.30546760559082 7.372748374938965 0.7700538039207458 0 3
40.61989974975586 -22.568944931030273 7.399503231048584 0.767269492149353 0 3
40.66658020019531 -22.834354400634766 7.426606178283691 0.7644698619842529 0 3
40.71363067626953 -23.101640701293945 7.454049587249756 0.7616550922393799 0 3
40.76101303100586 -23.371015548706055 7.481855392456055 0.7588245868682861 0 3
40.80873107910156 -23.64240264892578 7.510017395019531 0.7559787631034851 0 3
40.856834411621094 -23.915800094604492 7.53854513168335 0.7531179785728455 0 3
40.90529251098633 -24.191287994384766 7.567453384399414 0.7502419948577881 0 3
40.95412063598633 -24.46892547607422 7.596718788146973 0.7473509311676025 0 3
41.003318786621094 -24.748729705810547 7.626371383666992 0.7444448471069336 0 3
41.052947998046875 -25.03074073791504 7.656420707702637 0.7415235042572021 0 3
41.10294723510742 -25.31494140625 7.686850547790527 0.7385876178741455 0 3
41.15333938598633 -25.601463317871094 7.717692852020264 0.7356364130973816 0 3
41.204139709472656 -25.89027214050293 7.748934268951416 0.732670783996582 0 3
41.25537109375 -26.18144416809082 7.780582904815674 0.7296901345252991 0 3
41.307010650634766 -26.475019454956055 7.812654972076416 0.7266948819160461 0 3
41.35908126831055 -26.77099609375 7.845147609710693 0.7236851453781128 0 3
13.501640319824219 13.501640319824219 2.715897798538208 0.9253146052360535 0 9
13.585371017456055 13.463984489440918 2.7205560207366943 0.9237303137779236 0 9
13.669374465942383 13.426132202148438 2.725283145904541 0.9221284985542297 0 9
13.75365161895752 13.38818359375 2.730076789855957 0.9205086827278137 0 9
13.83822250366211 13.350077629089355 2.734942674636841 0.9188709259033203 0 9
13.923066139221191 13.311816215515137 2.739879608154297 0.9172157645225525 0 9
14.008222579956055 13.273417472839355 2.744887590408325 0.9155426025390625 0 9
13.492987632751465 12.67074203491211 2.6327550411224365 0.1407977044582367 0 9
13.98656177520752 13.016620635986328 2.717639684677124 0.1364000290632248 0 9
14.44570255279541 13.323456764221191 2.7952044010162354 0.7657595276832581 0 9
14.533827781677246 13.284491539001465 2.800689697265625 0.7642607092857361 0 9
14.622264862060547 13.245389938354492 2.8062498569488525 0.7627455592155457 0 9
14.711112976074219 13.206171989440918 2.811899423599243 0.761213481426239 0 9
14.8003511428833 13.166796684265137 2.8176281452178955 0.7596652507781982 0 9
14.889960289001465 13.127264976501465 2.82344651222229 0.758100152015686 0 9
14.97998046875 13.087616920471191 2.8293473720550537 0.756518542766571 0 9
15.070409774780273 13.047812461853027 2.8353374004364014 0.7549203038215637 0 9
15.161230087280273 13.0078706741333 2.841416597366333 0.7533060908317566 0 9
15.247675895690918 12.963671684265137 2.8466832637786865 0.8116171956062317 0 9
15.327167510986328 12.913203239440918 2.8506712913513184 0.8104807734489441 0 9
15.406913757324219 12.862577438354492 2.854736804962158 0.8093265295028687 0 9
15.486894607543945 12.81185531616211 2.8588781356811523 0.8081549406051636 0 9
15.567148208618164 12.761014938354492 2.8630895614624023 0.8069658279418945 0 9
15.647655487060547 12.710000038146973 2.867377281188965 0.805759608745575 0 9
15.728398323059082 12.658866882324219 2.871737003326416 0.8045357465744019 0 9
15.80947208404541 12.607597351074219 2.8761730194091797 0.8032946586608887 0 9
15.890761375427246 12.556171417236328 2.880687713623047 0.8020361661911011 0 9
16.376678466796875 12.821151733398438 2.958303213119507 0.7411321997642517 0 9
19.792245864868164 15.352421760559082 3.5628154277801514 0.9738364815711975 0 9
19.877460479736328 15.27611255645752 3.5657763481140137 0.9730281829833984 0 9
19.878612518310547 15.13558578491211 3.553766965866089 0.5344220995903015 0 9
19.981639862060547 15.072832107543945 3.5600547790527344 0.5334781408309937 0 9
20.08492088317871 15.009804725646973 3.566418409347534 0.532525897026062 0 9
20.1884765625 14.946444511413574 3.5728635787963867 0.5315656065940857 0 9
15.35546875 11.262011528015137 2.708566904067993 0.6805256605148315 0 9
15.43880844116211 11.216914176940918 2.714365243911743 0.7415036559104919 0 9
15.547831535339355 11.189863204956055 2.724670886993408 0.7386981844902039 0 9
15.657675743103027 11.162616729736328 2.7351160049438477 0.7358773946762085 0 9
15.768417358398438 11.13515567779541 2.745692014694214 0.7330418825149536 0 9
15.879961013793945 11.107460975646973 2.7564141750335693 0.7301907539367676 0 9
15.992441177368164 11.079569816589355 2.7672784328460693 0.727324903011322 0 9
16.10578155517578 11.051484107971191 2.7782835960388184 0.7244440913200378 0 9
16.22003936767578 11.02310562133789 2.7894322872161865 0.7215481996536255 0 9
16.33525276184082 10.994589805603027 2.800729274749756 0.7186375260353088 0 9
16.451406478881836 10.965800285339355 2.8121776580810547 0.7157120108604431 0 9
16.56851577758789 10.936777114868164 2.823777914047241 0.7127715349197388 0 9
16.686620712280273 10.907538414001465 2.83553409576416 0.7098163962364197 0 9
16.805702209472656 10.878026962280273 2.8474485874176025 0.7068467140197754 0 9
16.925859451293945 10.848320007324219 2.85952091217041 0.7038620114326477 0 9
17.046972274780273 10.818339347839355 2.8717570304870605 0.700863242149353 0 9
17.169198989868164 10.788105010986328 2.8841588497161865 0.6978499889373779 0 9
17.29244041442871 10.757616996765137 2.8967254161834717 0.6948221921920776 0 9
17.27392578125 10.638867378234863 2.8855950832366943 0.6672985553741455 0 9
17.23810577392578 10.510390281677246 2.8717052936553955 0.6705272197723389 0 9
17.202617645263672 10.383124351501465 2.8580005168914795 0.6737421751022339 0 9
17.16748046875 10.257108688354492 2.844484806060791 0.6769434213638306 0 9
17.13265609741211 10.13222599029541 2.8311541080474854 0.680130660533905 0 9
17.098163604736328 10.008515357971191 2.8180041313171387 0.683304488658905 0 9
17.064002990722656 9.885976791381836 2.8050334453582764 0.6864640116691589 0 9
17.030195236206055 9.764570236206055 2.792240619659424 0.6896094679832458 0 9
16.996660232543945 9.644238471984863 2.779616117477417 0.6927409768104553 0 9
16.963438034057617 9.524980545043945 2.7671642303466797 0.6958587765693665 0 9
16.93050765991211 9.406777381896973 2.754880428314209 0.6989614367485046 0 9
16.897890090942383 9.289668083190918 2.7427568435668945 0.7020509839057922 0 9
16.86552619934082 9.173535346984863 2.7307982444763184 0.7051255106925964 0 9
16.83349609375 9.058456420898438 2.718998908996582 0.7081857919692993 0 9
16.801698684692383 8.944355010986328 2.707354784011841 0.7112314105033875 0 9
18.73974609375 9.868378639221191 3.0124785900115967 0.7547791600227356 0 9
18.83365249633789 9.8101167678833 3.0204577445983887 0.7527846693992615 0 9
26.7735538482666 13.793437004089355 4.283852577209473 0.8966277241706848 0 9
20.2882022857666 10.337343215942383 3.2387237548828125 0.9017000794410706 0 9
20.36474609375 10.261484146118164 3.2435553073883057 0.9003568291664124 0 9
20.44154167175293 10.18539047241211 3.2484710216522217 0.8989945650100708 0 9
27.227733612060547 13.414511680603027 4.317291736602783 0.8896830081939697 0 9
27.342323303222656 13.318808555603027 4.325936794281006 0.8879043459892273 0 9
27.45734405517578 13.222695350646973 4.3347063064575195 0.8861088752746582 0 9
27.572792053222656 13.126171112060547 4.343586444854736 0.8842964768409729 0 9
27.688730239868164 13.029257774353027 4.352592468261719 0.8824673295021057 0 9
27.805057525634766 12.931894302368164 4.3617167472839355 0.8806212544441223 0 9
27.921894073486328 12.834120750427246 4.370964050292969 0.878758430480957 0 9
28.0391788482666 12.735937118530273 4.380330562591553 0.8768790364265442 0 9
35.353084564208984 15.867050170898438 5.511740684509277 0.7049392461776733 0 9
35.519161224365234 15.750429153442383 5.52655553817749 0.7030494213104248 0 9
41.731815338134766 18.281776428222656 6.480368614196777 0.9800423383712769 0 9
40.65789031982422 17.594257354736328 6.301279544830322 0.5335667133331299 0 9
26.315292358398438 11.2476167678833 4.070559024810791 0.714117705821991 0 9
26.41939353942871 11.152167320251465 4.078883171081543 0.7126602530479431 0 9
26.52390480041504 11.05630874633789 4.087317943572998 0.711190402507782 0 9
25.61796760559082 10.543964385986328 3.940375328063965 0.5890195965766907 0 9
25.781288146972656 10.476113319396973 3.958226203918457 0.5863635540008545 0 9
25.946035385131836 10.407636642456055 3.976304292678833 0.5836971998214722 0 9
26.112167358398438 10.338496208190918 3.994621515274048 0.581021249294281 0 9
26.279842376708984 10.268691062927246 4.013167858123779 0.5783351063728333 0 9
26.44890594482422 10.198163986206055 4.0319671630859375 0.5756392478942871 0 9
26.582460403442383 10.112871170043945 4.045364856719971 0.7364171743392944 0 9
26.539804458618164 9.960488319396973 4.0320258140563965 0.7388526201248169 0 9
26.497421264648438 9.8091402053833 4.018867015838623 0.7412724494934082 0 9
26.45539093017578 9.658827781677246 4.005873203277588 0.7436765432357788 0 9
26.413631439208984 9.509452819824219 3.9930522441864014 0.7460647225379944 0 9
26.37222671508789 9.361054420471191 3.9803898334503174 0.7484372854232788 0 9
26.3310546875 9.213574409484863 3.9679009914398193 0.7507939338684082 0 9
26.12255859375 9.009238243103027 3.930347204208374 0.2743206322193146 0 9
26.249589920043945 8.9214448928833 3.943394184112549 0.7554592490196228 0 9
26.209238052368164 8.77669906616211 3.931382417678833 0.7577678561210632 0 9
27.17316436767578 8.964081764221191 4.069892406463623 0.5659533739089966 0 9
27.132694244384766 8.815897941589355 4.057867527008057 0.5676300525665283 0 9
28.330097198486328 9.06460952758789 4.230820178985596 0.28447073698043823 0 9
28.209394454956055 8.886601448059082 4.206789970397949 0.28609561920166016 0 9
28.090272903442383 8.710683822631836 4.1831560134887695 0.2877119183540344 0 9
27.972753524780273 8.536835670471191 4.159904479980469 0.28932005167007446 0 9
27.856698989868164 8.364921569824219 4.137024402618408 0.2909201383590698 0 9
27.74214744567871 8.19498062133789 4.1145124435424805 0.292511910200119 0 9
29.67318344116211 8.620820045471191 4.395122528076172 0.5973073244094849 0 9
29.843299865722656 8.525195121765137 4.414608478546143 0.5946704149246216 0 9
31.156932830810547 8.749394416809082 4.6030731201171875 0.640299379825592 0 9
31.03497886657715 8.565058708190918 4.579326152801514 0.6436200141906738 0 9
30.91421890258789 8.382597923278809 4.555912971496582 0.646927535533905 0 9
30.794687271118164 8.202011108398438 4.532829284667969 0.650221586227417 0 9
31.943359375 8.354609489440918 4.6963396072387695 0.41456183791160583 0 9
31.807518005371094 8.166738510131836 4.670929431915283 0.41681739687919617 0 9
24.53072166442871 6.181230545043945 3.5982232093811035 0.9874792098999023 0 6
32.396854400634766 8.008769035339355 4.746729850769043 0.7623255252838135 0 9
32.43644332885742 7.864277362823486 4.747305870056152 0.7622326612472534 0 9
46.89870834350586 11.14818286895752 6.856574535369873 0.531843364238739 0 9
47.130096435546875 10.979960441589355 6.883126735687256 0.38481569290161133 0 9
47.19923782348633 10.77294921875 6.8860979080200195 0.38464972376823425 0 9
47.268123626708984 10.565722465515137 6.889157772064209 0.3844786584377289 0 9
47.10662078857422 10.307870864868164 6.8588128089904785 0.5827383399009705 0 9
46.92011642456055 10.046582221984863 6.825023174285889 0.5856234431266785 0 9
47.47316360473633 9.942421913146973 6.898902893066406 0.383935809135437 0 9
48.579139709472656 -6.358593463897705 6.968660354614258 0.2968345880508423 0 3
47.86703109741211 -6.484023094177246 6.870613098144531 0.3010704815387726 0 3
47.17472457885742 -6.60595703125 6.775429725646973 0.30530020594596863 0 3
46.50128936767578 -6.724589824676514 6.682972431182861 0.3095237612724304 0 3
45.53279113769531 -6.793320178985596 6.548098087310791 0.31541526317596436 0 3
44.89984130859375 -6.905019283294678 6.461472034454346 0.3180153965950012 0 3
44.561405181884766 -7.057812213897705 6.417262554168701 0.17785844206809998 0 3
43.90757751464844 -7.156405925750732 6.327663421630859 0.32909852266311646 0 3
43.09308624267578 -7.222323894500732 6.214879035949707 0.3396786153316498 0 3
42.84904098510742 -7.379277229309082 6.18440580368042 0.3347346782684326 0 3
42.28761672973633 -7.478163719177246 6.108161926269531 0.3389085829257965 0 3
41.633670806884766 -7.555351257324219 6.018533706665039 0.9289513826370239 0 3
41.173789978027344 -7.662949085235596 5.956974983215332 0.3472467064857483 0 3
40.37591552734375 -7.702109336853027 5.846498489379883 0.35087335109710693 0 3
40.17361068725586 -7.850546836853027 5.8222246170043945 0.3555544316768646 0 3
39.3759765625 -7.878281116485596 5.711696147918701 0.36029648780822754 0 3
39.15904235839844 -8.017812728881836 5.685390472412109 0.3638341426849365 0 3
38.421443939208984 -8.046640396118164 5.58348274230957 0.36798372864723206 0 3
38.07560348510742 -8.152753829956055 5.538491725921631 0.8144097328186035 0 3
38.11769485473633 -8.3408203125 5.549997329711914 0.9160379767417908 0 3
38.15056610107422 -8.527617454528809 5.560305595397949 0.914340615272522 0 3
38.183555603027344 -8.715117454528809 5.570761203765869 0.912624716758728 0 3
38.21665954589844 -8.903300285339355 5.58136510848999 0.9108906388282776 0 3
38.24991989135742 -9.092246055603027 5.5921244621276855 0.9091379046440125 0 3
38.28327941894531 -9.28189468383789 5.603033542633057 0.9073672890663147 0 3
38.316795349121094 -9.472285270690918 5.614102840423584 0.9055781364440918 0 3
38.35044860839844 -9.663456916809082 5.625329494476318 0.9037706851959229 0 3
38.38419723510742 -9.85537052154541 5.636716842651367 0.9019452929496765 0 3
38.41814422607422 -10.048086166381836 5.648265838623047 0.9001016020774841 0 3
38.452205657958984 -10.241581916809082 5.659968852996826 0.8982396125793457 0 3
38.486385345458984 -10.43587875366211 5.67183780670166 0.896359920501709 0 3
38.5207405090332 -10.63101577758789 5.68388032913208 0.8944619297981262 0 3
38.55519485473633 -10.827011108398438 5.696076393127441 0.8925458788871765 0 3
38.58986282348633 -11.02376937866211 5.70844841003418 0.890612006187439 0 3
38.62462615966797 -11.221484184265137 5.720982551574707 0.8886600732803345 0 3
38.659549713134766 -11.420000076293945 5.733694553375244 0.8866903185844421 0 3
38.69468688964844 -11.619433403015137 5.746575832366943 0.8847026824951172 0 3
38.72991943359375 -11.819804191589355 5.75963020324707 0.882697343826294 0 3
38.76533126831055 -12.021035194396973 5.772862911224365 0.8806740045547485 0 3
38.80091857910156 -12.223241806030273 5.7862725257873535 0.8786332011222839 0 3
38.8366584777832 -12.426366806030273 5.799863815307617 0.8765744566917419 0 3
38.87255859375 -12.630488395690918 5.813633918762207 0.8744982481002808 0 3
38.90869140625 -12.835527420043945 5.827584743499756 0.8724043369293213 0 3
38.94493865966797 -13.0415620803833 5.841723442077637 0.8702929019927979 0 3
38.98136520385742 -13.248613357543945 5.856053352355957 0.8681639432907104 0 3
39.01798629760742 -13.456718444824219 5.870569229125977 0.86601722240448 0 3
39.05478286743164 -13.66585922241211 5.885270118713379 0.8638534545898438 0 3
39.091796875 -13.8760347366333 5.900172710418701 0.8616721034049988 0 3
39.12892532348633 -14.087285041809082 5.915260314941406 0.8594735264778137 0 3
39.16632843017578 -14.299589157104492 5.93055534362793 0.8572575449943542 0 3
39.20386505126953 -14.513066291809082 5.946045875549316 0.8550242781639099 0 3
39.24163818359375 -14.727578163146973 5.961735725402832 0.8527739644050598 0 3
39.27956771850586 -14.943300247192383 5.977625370025635 0.8505064249038696 0 3
39.317752838134766 -15.160136222839355 5.993727207183838 0.8482217788696289 0 3
39.35607147216797 -15.378202438354492 6.010041236877441 0.845919668674469 0 3
39.39468765258789 -15.597421646118164 6.026561260223389 0.8436009883880615 0 3
39.433475494384766 -15.817890167236328 6.043290138244629 0.8412651419639587 0 3
39.47249984741211 -16.039531707763672 6.060242652893066 0.8389124274253845 0 3
39.51169967651367 -16.262460708618164 6.077409744262695 0.8365426063537598 0 3
39.55113220214844 -16.486679077148438 6.094799518585205 0.8341561555862427 0 3
39.59083938598633 -16.712148666381836 6.112409591674805 0.8317528367042542 0 3
39.63070297241211 -16.93896484375 6.130247592926025 0.8293326497077942 0 3
39.67087936401367 -17.167051315307617 6.1483073234558105 0.8268961310386658 0 3
39.71123123168945 -17.396562576293945 6.166602611541748 0.8244425654411316 0 3
39.75189208984375 -17.62740135192871 6.185129642486572 0.8219727277755737 0 3
39.79275131225586 -17.85968780517578 6.203901290893555 0.8194859027862549 0 3
39.833866119384766 -18.093339920043945 6.222912311553955 0.8169830441474915 0 3
39.875213623046875 -18.32845687866211 6.242162227630615 0.8144634962081909 0 3
39.91683578491211 -18.565038681030273 6.261656284332275 0.8119275569915771 0 3
39.9587287902832 -18.803104400634766 6.281401634216309 0.8093752861022949 0 3
40.00089645385742 -19.042675018310547 6.301401615142822 0.806806743144989 0 3
40.04330062866211 -19.2838077545166 6.321656227111816 0.8042219281196594 0 3
40.08603286743164 -19.526464462280273 6.342162132263184 0.8016209602355957 0 3
40.12898254394531 -19.770721435546875 6.362940311431885 0.7990037202835083 0 3
40.17222595214844 -20.0166015625 6.383973121643066 0.7963706254959106 0 3
40.2158203125 -20.264062881469727 6.405284404754639 0.7937213778495789 0 3
40.25960922241211 -20.513280868530273 6.426869869232178 0.7910559773445129 0 3
40.303768157958984 -20.76412010192871 6.448724269866943 0.7883749604225159 0 3
40.348201751708984 -21.016698837280273 6.470861434936523 0.7856778502464294 0 3
40.392948150634766 -21.271015167236328 6.493282794952393 0.7829649448394775 0 3
40.43798828125 -21.527109146118164 6.515991687774658 0.7802362442016602 0 3
40.48337936401367 -21.78499984741211 6.5389933586120605 0.7774917483329773 0 3
40.52907943725586 -22.04472541809082 6.562284469604492 0.7747316956520081 0 3
40.57511520385742 -22.30632781982422 6.585882186889648 0.7719559073448181 0 3
40.62144470214844 -22.569765090942383 6.609780311584473 0.7691650390625 0 3
40.66816329956055 -22.835233688354492 6.633990287780762 0.7663581371307373 0 3
40.71515655517578 -23.102577209472656 6.658505916595459 0.7635361552238464 0 3
40.762596130371094 -23.37189483642578 6.683343410491943 0.7606989145278931 0 3
40.81032943725586 -23.643280029296875 6.7085113525390625 0.7578458786010742 0 3
40.858436584472656 -23.916717529296875 6.733985900878906 0.754977822303772 0 3
40.90689468383789 -24.192245483398438 6.759803295135498 0.7520946860313416 0 3
40.95572280883789 -24.46990203857422 6.785960674285889 0.7491962313652039 0 3
41.00499725341797 -24.74968719482422 6.8124518394470215 0.746282696723938 0 3
41.05460739135742 -25.031679153442383 6.839284420013428 0.7433544397354126 0 3
41.10458755493164 -25.315975189208984 6.866481781005859 0.7404106259346008 0 3
41.154998779296875 -25.60249900817871 6.89402437210083 0.7374524474143982 0 3
41.2057991027832 -25.891307830810547 6.921928405761719 0.7344791889190674 0 3
41.257049560546875 -26.182498931884766 6.95020055770874 0.731491208076477 0 3
41.30868911743164 -26.47607421875 6.978847980499268 0.7284885048866272 0 3
41.360740661621094 -26.7720890045166 7.007881164550781 0.7254710793495178 0 3
41.41326141357422 -27.070585250854492 7.037289142608643 0.722439169883728 0 3
19.263397216796875 19.263397216796875 3.4139397144317627 0.9023711085319519 0 9
18.506542205810547 18.34115219116211 3.265186071395874 0.9169978499412537 0 9
18.604745864868164 18.273672103881836 3.26800537109375 0.9162068367004395 0 9
18.703046798706055 18.20601463317871 3.270888090133667 0.9153985381126404 0 9
13.879648208618164 13.39003849029541 2.4168174266815186 0.7820333242416382 0 9
13.964921951293945 13.351835250854492 2.421205759048462 0.7806150317192078 0 9
14.050565719604492 13.313495635986328 2.4256675243377686 0.7791799306869507 0 9
13.578144073486328 12.750702857971191 2.3342111110687256 0.14022664725780487 0 9
14.222773551940918 13.236445426940918 2.4347915649414062 0.7762598395347595 0 9
14.30941390991211 13.197733879089355 2.4394607543945312 0.7747743129730225 0 9
14.396406173706055 13.158905982971191 2.4441962242126465 0.7732724547386169 0 9
14.483749389648438 13.119921684265137 2.4490067958831787 0.7717539668083191 0 9
14.571483612060547 13.080820083618164 2.453890800476074 0.770218551158905 0 9
14.659608840942383 13.041582107543945 2.458843469619751 0.768666684627533 0 9
14.748065948486328 13.002167701721191 2.463872194290161 0.7670978903770447 0 9
14.8369140625 12.96263599395752 2.468971014022827 0.7655129432678223 0 9
14.926210403442383 12.922968864440918 2.4741501808166504 0.7639113664627075 0 9
15.015839576721191 12.883124351501465 2.479400157928467 0.7622933387756348 0 9
15.105897903442383 12.843144416809082 2.484729051589966 0.760658860206604 0 9
15.196367263793945 12.803007125854492 2.490131378173828 0.7590080499649048 0 9
15.278300285339355 12.755233764648438 2.494152545928955 0.8179548978805542 0 9
15.357440948486328 12.704765319824219 2.497741222381592 0.8167805671691895 0 9
15.436835289001465 12.65419864654541 2.501394033432007 0.8155889511108398 0 9
15.516484260559082 12.603456497192383 2.5051028728485107 0.8143801093101501 0 9
15.596366882324219 12.552597045898438 2.508882522583008 0.8131534457206726 0 9
15.676523208618164 12.501601219177246 2.5127272605895996 0.8119094967842102 0 9
15.756972312927246 12.450468063354492 2.516634941101074 0.8106483221054077 0 9
19.673046112060547 15.401874542236328 3.131021738052368 0.48439326882362366 0 9
19.792030334472656 15.352245330810547 3.138962984085083 0.9760138988494873 0 9
19.87724494934082 15.275957107543945 3.141569137573242 0.9752038717269897 0 9
19.96253776550293 15.199491500854492 3.1442503929138184 0.9743741750717163 0 9
20.048105239868164 15.122987747192383 3.146991014480591 0.973524808883667 0 9
20.13374900817871 15.04628849029541 3.14980149269104 0.9726559519767761 0 9
20.21953010559082 14.969452857971191 3.1526811122894287 0.9717673659324646 0 9
20.305448532104492 14.892460823059082 3.155629873275757 0.9708593487739563 0 9
20.391620635986328 14.815351486206055 3.1586499214172363 0.9699316024780273 0 9
21.092695236206055 15.18056583404541 3.2566654682159424 0.5149468779563904 0 9
21.201581954956055 15.114940643310547 3.262974739074707 0.5139515995979309 0 9
15.817733764648438 11.1699800491333 2.4266462326049805 0.670718789100647 0 9
15.834550857543945 11.07568359375 2.421574592590332 0.733915388584137 0 9
15.946503639221191 11.047773361206055 2.43109130859375 0.7310429215431213 0 9
16.05937385559082 11.019628524780273 2.440730094909668 0.7281555533409119 0 9
16.173065185546875 10.9912109375 2.4504988193511963 0.7252534627914429 0 9
16.287832260131836 10.962636947631836 2.4603958129882812 0.7223357558250427 0 9
16.403417587280273 10.933808326721191 2.470423936843872 0.7194039821624756 0 9
16.520000457763672 10.904746055603027 2.4805831909179688 0.7164567112922668 0 9
16.63753890991211 10.875449180603027 2.4908807277679443 0.7134952545166016 0 9
16.756113052368164 10.845937728881836 2.501314401626587 0.7105187773704529 0 9
16.8756046295166 10.816132545471191 2.5118887424468994 0.7075278162956238 0 9
16.996191024780273 10.786112785339355 2.52260160446167 0.7045224905014038 0 9
17.11783218383789 10.755859375 2.5334632396698 0.7015023231506348 0 9
17.240488052368164 10.725273132324219 2.5444705486297607 0.6984676122665405 0 9
17.24751853942871 10.622597694396973 2.538451671600342 0.6698074340820312 0 9
17.21187400817871 10.494413375854492 2.5262489318847656 0.6730431914329529 0 9
17.17656135559082 10.367402076721191 2.5142107009887695 0.6762656569480896 0 9
17.141620635986328 10.241660118103027 2.50233793258667 0.6794736385345459 0 9
17.106971740722656 10.117011070251465 2.490628242492676 0.6826685070991516 0 9
17.072656631469727 9.993593215942383 2.4790778160095215 0.6858490705490112 0 9
17.038671493530273 9.871289253234863 2.467683792114258 0.6890156269073486 0 9
17.004980087280273 9.750097274780273 2.4564456939697266 0.692168116569519 0 9
16.971620559692383 9.630000114440918 2.445356845855713 0.6953068375587463 0 9
16.9385929107666 9.511014938354492 2.434417247772217 0.6984314322471619 0 9
16.905780792236328 9.39306640625 2.423624277114868 0.7015411257743835 0 9
21.81267547607422 11.991621017456055 3.119326114654541 0.9745774865150452 0 9
21.88787078857422 11.9053316116333 3.1224095821380615 0.9736149311065674 0 9
21.963241577148438 11.8189058303833 3.1255602836608887 0.9726330041885376 0 9
22.03874969482422 11.732284545898438 3.128784656524658 0.9716315865516663 0 9
22.11443328857422 11.6455078125 3.132072687149048 0.9706108570098877 0 9
22.19023323059082 11.558515548706055 3.1354331970214844 0.9695706963539124 0 9
22.266191482543945 11.47134780883789 3.138861656188965 0.9685110449790955 0 9
26.295780181884766 13.398300170898438 3.698397159576416 0.1447567641735077 0 9
26.663475036621094 13.435273170471191 3.741594076156616 0.3695749044418335 0 9
26.581621170043945 13.244746208190918 3.721719980239868 0.3715481162071228 0 9
26.500429153442383 13.056171417236328 3.7021141052246094 0.3735164403915405 0 9
26.419921875 12.869491577148438 3.6827616691589355 0.3754788041114807 0 9
26.340116500854492 12.684667587280273 3.663663148880005 0.3774358928203583 0 9
27.754783630371094 13.212812423706055 3.852145195007324 0.8804541826248169 0 9
27.871854782104492 13.115448951721191 3.860183000564575 0.8786208629608154 0 9
27.989336013793945 13.017597198486328 3.868328094482422 0.8767708539962769 0 9
28.107343673706055 12.919374465942383 3.876579523086548 0.8749038577079773 0 9
28.225839614868164 12.82070255279541 3.884946823120117 0.8730201721191406 0 9
28.344764709472656 12.721601486206055 3.893423318862915 0.8711197972297668 0 9
28.46419906616211 12.622011184692383 3.9020073413848877 0.8692029118537903 0 9
33.32839584350586 14.600312232971191 4.559786796569824 0.9909605979919434 0 9
26.656776428222656 11.535351753234863 3.6398937702178955 0.7051766514778137 0 9
26.763221740722656 11.439101219177246 3.64738392829895 0.703728199005127 0 9
26.87007713317871 11.342421531677246 3.6549737453460693 0.7022674679756165 0 9
26.977304458618164 11.245312690734863 3.662654399871826 0.7007941603660583 0 9
27.0849609375 11.147753715515137 3.6704375743865967 0.6993086934089661 0 9
26.19839859008789 10.645625114440918 3.5437841415405273 0.5535849332809448 0 9
26.418046951293945 10.596972465515137 3.567028760910034 0.5745447874069214 0 9
26.112051010131836 10.3384370803833 3.5194127559661865 0.48062002658843994 0 9
26.37187385559082 10.304648399353027 3.548159599304199 0.4767259955406189 0 9
26.45248031616211 10.199511528015137 3.5528154373168945 0.7404085993766785 0 9
26.410390853881836 10.047382354736328 3.5410661697387695 0.742865264415741 0 9
26.368553161621094 9.896230697631836 3.529470682144165 0.7453062534332275 0 9
26.327030181884766 9.746073722839355 3.518016815185547 0.7477314472198486 0 9
26.28582000732422 9.596894264221191 3.5067217350006104 0.7501408457756042 0 9
26.244863510131836 9.448691368103027 3.4955668449401855 0.7525345087051392 0 9
26.2042179107666 9.30142593383789 3.484553813934326 0.7549123167991638 0 9
26.163827896118164 9.155077934265137 3.4736900329589844 0.7572742700576782 0 9
26.123729705810547 9.009648323059082 3.462963104248047 0.759619951248169 0 9
26.083925247192383 8.865156173706055 3.4523706436157227 0.7619500160217285 0 9
26.044355392456055 8.721484184265137 3.44191837310791 0.7642638087272644 0 9
27.219276428222656 8.979296684265137 3.5918359756469727 0.29587507247924805 0 9
27.108652114868164 8.808085441589355 3.5719828605651855 0.2975195050239563 0 9
26.999412536621094 8.638808250427246 3.552441358566284 0.29915595054626465 0 9
27.70652198791504 8.728222846984863 3.640287399291992 0.5587141513824463 0 9
27.663593292236328 8.578398704528809 3.629549503326416 0.5603669881820679 0 9
27.62076187133789 8.429413795471191 3.618936777114868 0.5620108842849731 0 9
28.50814437866211 8.560565948486328 3.730128049850464 0.9899804592132568 0 9
31.464433670043945 9.294569969177246 4.111445903778076 0.6329934597015381 0 9
31.339061737060547 9.104784965515137 4.0896897315979 0.6363607048988342 0 9
31.215097427368164 8.917070388793945 4.068246841430664 0.6397148966789246 0 9
31.09242057800293 8.73128890991211 4.0471062660217285 0.6430561542510986 0 9
30.97099494934082 8.547382354736328 4.026273727416992 0.6463841199874878 0 9
30.850839614868164 8.365429878234863 4.0057244300842285 0.6496989130973816 0 9
33.00406265258789 8.790468215942383 4.280134201049805 0.9585246443748474 0 9
33.076698303222656 8.651015281677246 4.284488201141357 0.9575520753860474 0 9
33.14957046508789 8.511327743530273 4.288928031921387 0.956559956073761 0 9
24.530508041381836 6.181171894073486 3.1701598167419434 0.9896864295005798 0 6
33.29570388793945 8.230996131896973 4.298104763031006 0.9545176029205322 0 9
33.369041442871094 8.090410232543945 4.302834987640381 0.9534673690795898 0 9
33.44253921508789 7.94949197769165 4.3076701164245605 0.9523976445198059 0 9
41.54121017456055 9.67789077758789 5.345187664031982 0.7590266466140747 0 9
41.4719123840332 9.46572208404541 5.330760955810547 0.7610814571380615 0 9
41.40310287475586 9.25472640991211 5.3165178298950195 0.7631202340126038 0 9
41.33464813232422 9.044843673706055 5.302467346191406 0.7651422023773193 0 9
41.26662063598633 8.836054801940918 5.288600444793701 0.7671483755111694 0 9
42.77124786376953 8.957715034484863 5.47621488571167 0.9885988831520081 0 9
42.78962707519531 8.761269569396973 5.473487377166748 0.9890933036804199 0 9
42.80796813964844 8.5649995803833 5.470858097076416 0.989567756652832 0 9
45.00140380859375 8.794023513793945 5.746078968048096 0.7784918546676636 0 9
45.027732849121094 8.589530944824219 5.744453430175781 0.77871173620224 0 9
47.36195373535156 8.814706802368164 6.037146091461182 0.9493259191513062 0 9
47.45427703857422 8.611738204956055 6.043919086456299 0.948261022567749 0 9
47.546756744384766 8.408242225646973 6.05084228515625 0.9471767544746399 0 9
47.63956832885742 8.204355239868164 6.057901859283447 0.9460732340812683 0 9
48.10017395019531 4.111581802368164 6.049719333648682 0.9791978597640991 0 6
48.00132751464844 3.452812433242798 6.030884742736816 0.40986138582229614 0 6
47.939510345458984 3.232187509536743 6.021246910095215 0.9158300757408142 0 6
47.90999984741211 3.014238119125366 6.015775203704834 0.8777270317077637 0 6
47.943260192871094 2.800370931625366 6.018309116363525 0.884845495223999 0 6
48.36638641357422 -6.330741882324219 6.112818241119385 0.9468206763267517 0 3
47.9045295715332 -6.489062309265137 6.058032035827637 0.30173516273498535 0 3
47.17546844482422 -6.606093406677246 5.969533443450928 0.3059748411178589 0 3
46.50206756591797 -6.724668025970459 5.888088703155518 0.3102074861526489 0 3
45.85972595214844 -6.84207010269165 5.8105974197387695 0.941328227519989 0 3
44.901405334472656 -6.905214786529541 5.69302225112915 0.31871241331100464 0 3
44.58740234375 -7.061933517456055 5.657174587249756 0.3228692412376404 0 3
43.95347595214844 -7.163886547088623 5.580777645111084 0.32948651909828186 0 3
43.09767532348633 -7.223085880279541 5.476158142089844 0.3307352662086487 0 3
42.84968566894531 -7.37939453125 5.448812007904053 0.3354746103286743 0 3
42.28824234008789 -7.478261470794678 5.3816375732421875 0.33965808153152466 0 3
41.634979248046875 -7.555624961853027 5.3027544021606445 0.9309898018836975 0 3
41.17439270019531 -7.6630859375 5.248415470123291 0.3480145037174225 0 3
40.37720489501953 -7.702343463897705 5.151169300079346 0.35164329409599304 0 3
39.632694244384766 -7.744804382324219 5.060560703277588 0.3563384413719177 0 3
39.25029373168945 -7.85314416885376 5.016188621520996 0.5070761442184448 0 3
38.9123420715332 -7.967304706573486 4.977517127990723 0.12261830270290375 0 3
38.42978286743164 -8.0483980178833 4.920362949371338 0.3745962083339691 0 3
38.07685470581055 -8.153046607971191 4.879810810089111 0.8161826133728027 0 3
38.1188850402832 -8.341113090515137 4.889941215515137 0.9180477857589722 0 3
38.15177536010742 -8.5278902053833 4.899022579193115 0.9163464903831482 0 3
38.18476486206055 -8.7153902053833 4.908231258392334 0.9146270155906677 0 3
38.21786880493164 -8.903613090515137 4.917579650878906 0.9128889441490173 0 3
38.25115203857422 -9.092519760131836 4.927059173583984 0.9111325144767761 0 3
38.28453063964844 -9.282167434692383 4.936676025390625 0.9093577861785889 0 3
38.31802749633789 -9.472617149353027 4.9464263916015625 0.9075645804405212 0 3
38.35171890258789 -9.66373062133789 4.956314563751221 0.9057533740997314 0 3
38.385467529296875 -9.855683326721191 4.96635103225708 0.9039235711097717 0 3
38.419395446777344 -10.0483980178833 4.976521015167236 0.9020758867263794 0 3
38.45345687866211 -10.241913795471191 4.986842155456543 0.900209903717041 0 3
38.48765563964844 -10.436210632324219 4.99730110168457 0.8983258008956909 0 3
38.52199172973633 -10.631366729736328 5.007905006408691 0.8964235782623291 0 3
38.55646514892578 -10.827343940734863 5.018655776977539 0.8945033550262451 0 3
38.59115219116211 -11.024140357971191 5.029551982879639 0.8925650119781494 0 3
38.625938415527344 -11.221855163574219 5.0405988693237305 0.8906087875366211 0 3
38.6608772277832 -11.420390129089355 5.051796913146973 0.8886347413063049 0 3
38.69595718383789 -11.619824409484863 5.063147068023682 0.8866426348686218 0 3
38.73120880126953 -11.820195198059082 5.074648857116699 0.8846327662467957 0 3
38.766639709472656 -12.021425247192383 5.086309909820557 0.8826050758361816 0 3
38.802207946777344 -12.223651885986328 5.098123550415039 0.8805596828460693 0 3
38.837947845458984 -12.426776885986328 5.110103607177734 0.8784964680671692 0 3
38.873905181884766 -12.630898475646973 5.1222333908081055 0.8764153718948364 0 3
38.90996170043945 -12.8359375 5.134523868560791 0.8743169903755188 0 3
38.946250915527344 -13.042011260986328 5.146981239318848 0.8722006678581238 0 3
38.98267364501953 -13.249101638793945 5.159607410430908 0.8700671792030334 0 3
39.01931381225586 -13.457167625427246 5.17239236831665 0.8679158091545105 0 3
39.05613327026367 -13.666269302368164 5.1853485107421875 0.8657472133636475 0 3
39.09312438964844 -13.876503944396973 5.198482990264893 0.8635608553886414 0 3
39.13029098510742 -14.08773422241211 5.2117767333984375 0.8613575100898743 0 3
39.16763687133789 -14.300116539001465 5.225252628326416 0.8591364622116089 0 3
39.20521545410156 -14.513534545898438 5.238899230957031 0.856898307800293 0 3
39.24298858642578 -14.728105545043945 5.25272274017334 0.8546428084373474 0 3
39.28093719482422 -14.943808555603027 5.266731262207031 0.8523702621459961 0 3
39.31911849975586 -15.160683631896973 5.280912399291992 0.8500803709030151 0 3
39.357460021972656 -15.378710746765137 5.295286178588867 0.8477734923362732 0 3
39.39607238769531 -15.597949028015137 5.309841632843018 0.8454493284225464 0 3
39.43486404418945 -15.818398475646973 5.324586868286133 0.8431084752082825 0 3
39.473846435546875 -16.040098190307617 5.33951473236084 0.8407504558563232 0 3
33.851524353027344 -13.932753562927246 4.587399005889893 0.21231363713741302 0 3
