ply
format ascii 1.0
element vertex 1416
property float32 x
property float32 y
property float32 z
property float32 CosAngle
property uint32 ObjIdx
property uint32 ObjTag
end_header
26.7858 10.5358 7.1429 0.2458 0 3
26.7626 10.5960 7.1430 0.2457 0 3
26.6782 10.6320 7.1269 0.3639 0 3
26.5073 10.6328 7.0875 0.3659 0 3
26.3382 10.6337 7.0487 0.3680 0 3
26.1710 10.6346 7.0103 0.3700 0 3
26.1267 10.6850 7.0049 0.2825 0 3
26.0841 10.7359 6.9999 0.2827 0 3
26.0415 10.7867 6.9949 0.2832 0 3
25.5201 10.6379 6.8613 0.3797 0 3
25.4043 10.6566 6.8366 0.8917 0 3
25.4047 10.7239 6.8431 0.8908 0 3
6.2835 2.6691 1.6942 0.5418 0 6
6.2631 2.6770 1.6903 0.8242 0 6
6.2509 2.6884 1.6886 0.9506 0 6
6.2425 2.7014 1.6880 0.9401 0 6
6.2399 2.7169 1.6889 0.9396 0 6
6.2420 2.7345 1.6911 0.7977 0 6
6.2545 2.7567 1.6962 0.4954 0 6
25.4079 11.2668 6.8973 0.8838 0 3
25.4082 11.3353 6.9043 0.8829 0 3
25.4087 11.4039 6.9114 0.8820 0 3
25.4091 11.4726 6.9185 0.8811 0 3
25.4095 11.5415 6.9256 0.8802 0 3
25.4098 11.6106 6.9328 0.8793 0 3
25.4103 11.6797 6.9401 0.8784 0 3
25.4107 11.7491 6.9474 0.8775 0 3
25.4111 11.8185 6.9547 0.8765 0 3
25.4115 11.8881 6.9621 0.8756 0 3
25.4119 11.9579 6.9695 0.8747 0 3
25.4123 12.0278 6.9770 0.8737 0 3
25.4127 12.0979 6.9846 0.8728 0 3
25.4131 12.1681 6.9922 0.8718 0 3
25.4135 12.2385 6.9998 0.8709 0 3
25.4139 12.3090 7.0075 0.8699 0 3
25.4143 12.3797 7.0153 0.8690 0 3
25.4147 12.4506 7.0231 0.8680 0 3
25.4152 12.5215 7.0310 0.8670 0 3
24.5509 12.4400 6.8301 0.1203 0 3
24.2572 12.3597 6.7560 0.1216 0 3
23.9699 12.2811 6.6837 0.1229 0 3
23.6890 12.2044 6.6130 0.1242 0 3
23.4140 12.1293 6.5438 0.1256 0 3
20.4740 10.6646 5.7288 0.4522 0 3
20.4187 10.6941 5.7200 0.8835 0 3
20.4153 10.7507 5.7258 0.8837 0 3
20.4118 10.8074 5.7316 0.8828 0 3
20.3333 10.8245 5.7164 0.4608 0 3
20.2245 10.8248 5.6926 0.4600 0 3
20.1163 10.8251 5.6690 0.4619 0 3
20.0091 10.8253 5.6456 0.4638 0 3
19.9027 10.8256 5.6224 0.4658 0 3
19.7976 10.8260 5.5996 0.4700 0 3
19.6935 10.8266 5.5770 0.4719 0 3
19.3049 10.6694 5.4737 0.4737 0 3
19.2039 10.6700 5.4518 0.4756 0 3
19.1562 10.6998 5.4451 0.9341 0 3
19.1203 10.7361 5.4417 0.9347 0 3
19.0844 10.7723 5.4384 0.9353 0 3
19.0636 10.8171 5.4393 0.8402 0 3
19.0639 10.8739 5.4464 0.8391 0 3
19.2242 11.0225 5.4992 0.8378 0 3
19.2246 11.0802 5.5064 0.8368 0 3
19.2250 11.1379 5.5137 0.8357 0 3
19.2253 11.1958 5.5210 0.8345 0 3
19.2257 11.2539 5.5283 0.8334 0 3
19.2260 11.3121 5.5357 0.8323 0 3
19.2264 11.3705 5.5432 0.8312 0 3
19.2268 11.4290 5.5507 0.8301 0 3
19.2272 11.4877 5.5582 0.8290 0 3
19.2275 11.5465 5.5658 0.8278 0 3
19.2279 11.6056 5.5734 0.8267 0 3
19.2283 11.6647 5.5811 0.8256 0 3
19.2287 11.7241 5.5888 0.8244 0 3
19.2291 11.7836 5.5966 0.8233 0 3
19.2294 11.8432 5.6044 0.8221 0 3
19.2298 11.9031 5.6123 0.8210 0 3
19.2302 11.9631 5.6203 0.8198 0 3
19.2306 12.0233 5.6282 0.8186 0 3
19.2310 12.0836 5.6363 0.8175 0 3
19.2313 12.1441 5.6443 0.8166 0 3
19.2317 12.2048 5.6525 0.8154 0 3
19.2320 12.2657 5.6607 0.8142 0 3
19.2324 12.3268 5.6689 0.8131 0 3
19.1542 12.3373 5.6540 0.5965 0 3
19.0732 12.3458 5.6383 0.8105 0 3
19.0736 12.4068 5.6466 0.8094 0 3
19.0739 12.4681 5.6549 0.8083 0 3
20.3575 13.3724 6.0444 0.5948 0 3
20.3637 13.4420 6.0552 0.5937 0 3
20.3700 13.5119 6.0660 0.5926 0 3
20.3763 13.5820 6.0770 0.5916 0 3
20.3827 13.6524 6.0880 0.5905 0 3
20.3891 13.7231 6.0991 0.5894 0 3
20.3956 13.7940 6.1103 0.5884 0 3
20.4021 13.8653 6.1215 0.5873 0 3
20.4086 13.9368 6.1328 0.5862 0 3
20.4152 14.0086 6.1443 0.5851 0 3
20.4219 14.0806 6.1558 0.5840 0 3
20.4285 14.1529 6.1673 0.5829 0 3
20.4353 14.2256 6.1790 0.5818 0 3
20.4420 14.2985 6.1907 0.5807 0 3
20.4488 14.3717 6.2025 0.5796 0 3
20.4557 14.4452 6.2144 0.5785 0 3
20.4626 14.5190 6.2264 0.5774 0 3
20.4696 14.5931 6.2385 0.5763 0 3
20.4766 14.6675 6.2506 0.5751 0 3
20.4836 14.7422 6.2629 0.5740 0 3
20.4907 14.8172 6.2752 0.5729 0 3
20.4979 14.8926 6.2876 0.5718 0 3
20.5051 14.9682 6.3001 0.5706 0 3
20.5123 15.0442 6.3127 0.5695 0 3
20.5196 15.1204 6.3253 0.5684 0 3
20.5270 15.1971 6.3381 0.5672 0 3
20.5344 15.2740 6.3510 0.5661 0 3
20.5418 15.3513 6.3639 0.5649 0 3
20.5493 15.4288 6.3769 0.5638 0 3
20.5569 15.5068 6.3901 0.5626 0 3
20.5645 15.5851 6.4033 0.5614 0 3
20.5721 15.6636 6.4166 0.5603 0 3
20.5799 15.7426 6.4300 0.5591 0 3
20.5876 15.8219 6.4435 0.5579 0 3
20.5954 15.9016 6.4571 0.5568 0 3
20.6033 15.9816 6.4708 0.5556 0 3
20.6112 16.0620 6.4846 0.5544 0 3
20.6192 16.1427 6.4985 0.5532 0 3
20.6273 16.2237 6.5125 0.5520 0 3
20.6354 16.3052 6.5266 0.5508 0 3
20.6435 16.3870 6.5408 0.5496 0 3
20.6518 16.4692 6.5551 0.5484 0 3
20.6600 16.5518 6.5695 0.5472 0 3
20.6684 16.6348 6.5840 0.5460 0 3
20.6767 16.7181 6.5986 0.5448 0 3
20.6852 16.8018 6.6133 0.5436 0 3
20.6937 16.8860 6.6281 0.5424 0 3
21.2884 17.4510 6.8311 0.5929 0 3
21.2952 17.5365 6.8459 0.5917 0 3
21.3020 17.6225 6.8608 0.5904 0 3
20.5070 17.5945 6.7054 0.6359 0 3
20.4624 17.6361 6.7037 0.7305 0 3
20.4629 17.7166 6.7169 0.7291 0 3
20.4134 17.7541 6.7137 0.6408 0 3
20.3217 17.7545 6.6966 0.6424 0 3
20.2305 17.7551 6.6797 0.6440 0 3
20.1396 17.7555 6.6628 0.6457 0 3
20.0493 17.7560 6.6461 0.6473 0 3
19.9595 17.7565 6.6295 0.6489 0 3
19.8700 17.7569 6.6130 0.6505 0 3
19.7810 17.7574 6.5967 0.6522 0 3
19.6925 17.7579 6.5804 0.6538 0 3
19.6043 17.7583 6.5643 0.6554 0 3
19.3428 17.6006 6.4899 0.6570 0 3
19.2563 17.6011 6.4741 0.6586 0 3
19.2004 17.6292 6.4686 0.9690 0 3
19.1593 17.6708 6.4681 0.9690 0 3
19.1180 17.7124 6.4676 0.9691 0 3
19.1064 17.7814 6.4771 0.7059 0 3
19.2671 18.0118 6.5453 0.7042 0 3
19.2676 18.0935 6.5592 0.7027 0 3
19.2681 18.1755 6.5732 0.7012 0 3
19.2686 18.2579 6.5874 0.6997 0 3
19.2691 18.3406 6.6016 0.6981 0 3
19.2696 18.4237 6.6159 0.6966 0 3
19.2702 18.5071 6.6304 0.6951 0 3
19.2707 18.5909 6.6449 0.6936 0 3
19.2712 18.6751 6.6595 0.6921 0 3
19.2717 18.7597 6.6742 0.6906 0 3
19.2722 18.8446 6.6890 0.6890 0 3
19.2728 18.9299 6.7039 0.6875 0 3
19.2733 19.0156 6.7189 0.6861 0 3
19.2738 19.1016 6.7340 0.6846 0 3
19.2743 19.1880 6.7492 0.6831 0 3
9.3948 -9.3948 3.1811 0.6900 0 3
9.3950 -9.3529 3.1740 0.6915 0 3
9.3951 -9.3112 3.1670 0.6931 0 3
9.3953 -9.2697 3.1600 0.6946 0 3
9.3955 -9.2283 3.1531 0.6961 0 3
9.3957 -9.1872 3.1463 0.6976 0 3
9.3959 -9.1462 3.1394 0.6991 0 3
9.3963 -9.1056 3.1327 0.9321 0 3
9.4106 -9.0786 3.1307 0.9327 0 3
9.4247 -9.0515 3.1287 0.9334 0 3
9.4390 -9.0246 3.1266 0.9340 0 3
9.4532 -8.9976 3.1246 0.9346 0 3
9.4673 -8.9707 3.1227 0.9351 0 3
9.4814 -8.9438 3.1207 0.9357 0 3
9.4956 -8.9170 3.1188 0.9363 0 3
9.5097 -8.8901 3.1168 0.9369 0 3
9.5238 -8.8633 3.1149 0.9375 0 3
9.5379 -8.8366 3.1130 0.9380 0 3
9.5520 -8.8098 3.1111 0.9386 0 3
9.5697 -8.7865 3.1105 0.9598 0 3
9.5928 -8.7682 3.1116 0.9594 0 3
9.6159 -8.7498 3.1128 0.9591 0 3
9.6391 -8.7314 3.1139 0.9587 0 3
9.6623 -8.7130 3.1151 0.9584 0 3
9.6854 -8.6946 3.1162 0.9580 0 3
9.7087 -8.6761 3.1174 0.9576 0 3
9.7319 -8.6578 3.1186 0.9573 0 3
9.7551 -8.6392 3.1199 0.9569 0 3
9.7784 -8.6208 3.1211 0.9565 0 3
9.8017 -8.6023 3.1224 0.9561 0 3
9.8250 -8.5838 3.1237 0.9557 0 3
9.8680 -8.5824 3.1311 0.5905 0 3
9.9163 -8.5855 3.1403 0.5888 0 3
9.9650 -8.5885 3.1497 0.5871 0 3
10.0140 -8.5916 3.1591 0.5853 0 3
10.0632 -8.5948 3.1685 0.5836 0 3
10.1127 -8.5979 3.1781 0.5818 0 3
10.1656 -8.6037 3.1886 0.7443 0 3
10.1658 -8.5647 3.1826 0.7457 0 3
10.1660 -8.5259 3.1767 0.7471 0 3
10.1831 -8.5014 3.1760 0.6193 0 3
10.2299 -8.5017 3.1847 0.6176 0 3
10.2771 -8.5019 3.1934 0.6159 0 3
10.6636 -8.7815 3.3074 0.6143 0 3
10.7129 -8.7818 3.3166 0.6126 0 3
10.7623 -8.7820 3.3258 0.6109 0 3
10.8121 -8.7823 3.3351 0.6092 0 3
10.8622 -8.7825 3.3444 0.6075 0 3
10.9125 -8.7828 3.3538 0.6058 0 3
10.9631 -8.7831 3.3633 0.6040 0 3
11.0140 -8.7833 3.3729 0.6023 0 3
11.0588 -8.7785 3.3805 0.7636 0 3
11.0590 -8.7383 3.3746 0.7649 0 3
11.0591 -8.6982 3.3687 0.7663 0 3
11.0593 -8.6582 3.3628 0.7676 0 3
11.0595 -8.6184 3.3570 0.7689 0 3
11.0597 -8.5787 3.3512 0.7703 0 3
11.0599 -8.5392 3.3454 0.7716 0 3
11.0682 -8.5061 3.3422 0.5885 0 3
11.1201 -8.5064 3.3521 0.5868 0 3
11.1724 -8.5066 3.3621 0.5850 0 3
11.3917 -8.6333 3.4222 0.5833 0 3
11.4453 -8.6336 3.4325 0.5816 0 3
11.4993 -8.6339 3.4429 0.5798 0 3
11.5536 -8.6341 3.4533 0.5781 0 3
11.6082 -8.6344 3.4638 0.5763 0 3
11.6631 -8.6347 3.4744 0.5745 0 3
11.7184 -8.6350 3.4851 0.5728 0 3
11.7740 -8.6353 3.4959 0.5710 0 3
11.8300 -8.6356 3.5068 0.5692 0 3
11.8863 -8.6360 3.5177 0.5675 0 3
11.9430 -8.6362 3.5287 0.5657 0 3
12.0001 -8.6365 3.5398 0.5639 0 3
12.0574 -8.6368 3.5511 0.5621 0 3
12.1152 -8.6371 3.5623 0.5604 0 3
12.1733 -8.6374 3.5737 0.5586 0 3
12.2318 -8.6377 3.5852 0.5568 0 3
12.2907 -8.6380 3.5968 0.5550 0 3
12.3500 -8.6383 3.6084 0.5532 0 3
12.4096 -8.6386 3.6202 0.5514 0 3
12.4697 -8.6390 3.6320 0.5496 0 3
12.5002 -8.6187 3.6353 0.2373 0 3
12.5191 -8.5904 3.6352 0.2373 0 3
12.5380 -8.5620 3.6351 0.2373 0 3
12.5569 -8.5336 3.6350 0.2373 0 3
12.5888 -8.5141 3.6387 0.5406 0 3
12.6503 -8.5144 3.6509 0.5388 0 3
12.7123 -8.5147 3.6633 0.5369 0 3
12.7747 -8.5151 3.6758 0.5351 0 3
12.8376 -8.5154 3.6883 0.5333 0 3
12.9008 -8.5157 3.7010 0.5315 0 3
12.9645 -8.5161 3.7138 0.5296 0 3
13.0286 -8.5164 3.7267 0.5278 0 3
13.0932 -8.5168 3.7397 0.5260 0 3
13.1583 -8.5171 3.7528 0.5241 0 3
13.1637 -8.4788 3.7489 0.8191 0 3
13.1639 -8.4371 3.7436 0.8203 0 3
13.1641 -8.3957 3.7383 0.8214 0 3
13.1643 -8.3543 3.7330 0.8226 0 3
13.1645 -8.3130 3.7277 0.8237 0 3
13.1646 -8.2719 3.7225 0.8248 0 3
13.1649 -8.2309 3.7173 0.8260 0 3
13.1650 -8.1900 3.7122 0.8271 0 3
13.1652 -8.1491 3.7071 0.8283 0 3
13.1654 -8.1085 3.7020 0.8294 0 3
13.1656 -8.0679 3.6969 0.8306 0 3
13.1658 -8.0274 3.6919 0.8317 0 3
13.1660 -7.9871 3.6869 0.8328 0 3
13.1662 -7.9468 3.6820 0.8339 0 3
13.1663 -7.9066 3.6771 0.8350 0 3
13.1665 -7.8666 3.6722 0.8362 0 3
13.1667 -7.8267 3.6673 0.8373 0 3
13.1669 -7.7868 3.6625 0.8384 0 3
13.1671 -7.7471 3.6577 0.8395 0 3
13.1672 -7.7075 3.6529 0.8406 0 3
13.1674 -7.6680 3.6482 0.8417 0 3
13.1676 -7.6286 3.6435 0.8428 0 3
13.1678 -7.5892 3.6388 0.8438 0 3
13.1679 -7.5500 3.6342 0.8449 0 3
13.1681 -7.5109 3.6296 0.8460 0 3
13.1683 -7.4719 3.6250 0.8471 0 3
13.1685 -7.4330 3.6205 0.8481 0 3
13.1687 -7.3942 3.6159 0.8492 0 3
13.1688 -7.3555 3.6114 0.8502 0 3
13.1690 -7.3169 3.6070 0.8513 0 3
13.1692 -7.2783 3.6025 0.8523 0 3
13.1694 -7.2399 3.5981 0.8534 0 3
13.1696 -7.2015 3.5938 0.8544 0 3
13.1750 -7.1662 3.5909 0.4618 0 3
13.2629 -7.1754 3.6104 0.2376 0 3
13.3183 -7.1669 3.6211 0.4563 0 3
13.3910 -7.1673 3.6365 0.4544 0 3
13.4643 -7.1677 3.6520 0.4525 0 3
13.5381 -7.1681 3.6677 0.4505 0 3
13.6127 -7.1685 3.6835 0.4486 0 3
13.6879 -7.1689 3.6995 0.4467 0 3
13.7637 -7.1692 3.7156 0.4447 0 3
13.8402 -7.1696 3.7319 0.4428 0 3
13.9173 -7.1701 3.7484 0.4408 0 3
13.9952 -7.1704 3.7650 0.4389 0 3
14.0737 -7.1709 3.7818 0.4369 0 3
14.1529 -7.1713 3.7987 0.4350 0 3
14.2329 -7.1717 3.8159 0.4330 0 3
14.3136 -7.1721 3.8332 0.4311 0 3
14.3950 -7.1726 3.8507 0.4291 0 3
14.4772 -7.1730 3.8683 0.4272 0 3
14.5601 -7.1735 3.8862 0.4252 0 3
14.6438 -7.1739 3.9042 0.4232 0 3
14.7282 -7.1744 3.9224 0.4213 0 3
14.8135 -7.1748 3.9408 0.4193 0 3
14.8996 -7.1752 3.9594 0.4173 0 3
14.9865 -7.1757 3.9782 0.4154 0 3
15.0742 -7.1761 3.9972 0.4134 0 3
15.1627 -7.1766 4.0164 0.4114 0 3
15.2521 -7.1771 4.0358 0.4094 0 3
15.3424 -7.1776 4.0555 0.4074 0 3
15.4336 -7.1780 4.0753 0.4055 0 3
15.5256 -7.1785 4.0953 0.4035 0 3
15.6186 -7.1790 4.1156 0.4015 0 3
15.7125 -7.1795 4.1361 0.3995 0 3
15.8074 -7.1800 4.1568 0.3975 0 3
15.9031 -7.1805 4.1777 0.3955 0 3
15.9999 -7.1810 4.1989 0.3935 0 3
16.0977 -7.1816 4.2203 0.3915 0 3
16.1964 -7.1821 4.2420 0.3895 0 3
16.2961 -7.1826 4.2639 0.3875 0 3
16.3970 -7.1831 4.2860 0.3855 0 3
16.4988 -7.1837 4.3084 0.3835 0 3
16.6018 -7.1842 4.3311 0.3815 0 3
16.7058 -7.1848 4.3540 0.3795 0 3
16.8109 -7.1853 4.3772 0.3775 0 3
16.9171 -7.1858 4.4006 0.3755 0 3
17.0246 -7.1864 4.4244 0.3735 0 3
17.1331 -7.1870 4.4484 0.3715 0 3
17.2429 -7.1876 4.4727 0.3694 0 3
17.3538 -7.1881 4.4973 0.3674 0 3
17.4660 -7.1888 4.5221 0.3654 0 3
17.5794 -7.1894 4.5473 0.3634 0 3
17.6941 -7.1900 4.5728 0.3614 0 3
17.8101 -7.1906 4.5986 0.3593 0 3
17.9274 -7.1912 4.6247 0.3573 0 3
18.0461 -7.1918 4.6511 0.3553 0 3
18.1661 -7.1925 4.6779 0.3532 0 3
18.2875 -7.1931 4.7050 0.3512 0 3
45.0711 3.7508 10.8284 0.5175 0 3
44.9541 3.8427 10.8024 0.9353 0 3
44.9173 3.9410 10.7956 0.9359 0 3
41.9771 3.7780 10.0910 0.4823 0 3
41.8692 3.8630 10.0671 0.9380 0 3
41.8353 3.9546 10.0611 0.9386 0 3
41.8236 4.0482 10.0604 0.9662 0 3
41.8241 4.1430 10.0627 0.9660 0 3
41.8246 4.2379 10.0651 0.9657 0 3
41.8251 4.3328 10.0675 0.9655 0 3
41.8256 4.4277 10.0700 0.9653 0 3
41.8261 4.5227 10.0726 0.9650 0 3
41.8266 4.6177 10.0752 0.9648 0 3
41.8271 4.7128 10.0778 0.9645 0 3
41.8277 4.8079 10.0805 0.9643 0 3
41.8282 4.9031 10.0833 0.9640 0 3
41.8287 4.9984 10.0861 0.9637 0 3
41.8292 5.0937 10.0889 0.9635 0 3
41.8297 5.1890 10.0918 0.9632 0 3
41.8303 5.2844 10.0948 0.9629 0 3
41.8308 5.3799 10.0978 0.9626 0 3
41.8313 5.4754 10.1009 0.9623 0 3
41.8318 5.5710 10.1040 0.9620 0 3
41.8323 5.6666 10.1072 0.9617 0 3
41.8328 5.7623 10.1104 0.9614 0 3
41.2561 5.7772 9.9741 0.1419 0 3
40.6249 5.7818 9.8246 0.1440 0 3
40.0124 5.7863 9.6796 0.1462 0 3
39.4176 5.7906 9.5388 0.1483 0 3
39.3867 5.8763 9.5345 0.9598 0 3
39.3872 5.9668 9.5379 0.9595 0 3
39.3877 6.0574 9.5413 0.9591 0 3
39.3882 6.1479 9.5447 0.9588 0 3
39.3887 6.2386 9.5482 0.9584 0 3
39.3892 6.3293 9.5517 0.9581 0 3
39.3897 6.4200 9.5553 0.9577 0 3
39.3902 6.5109 9.5589 0.9574 0 3
39.3907 6.6019 9.5626 0.9570 0 3
39.3912 6.6929 9.5664 0.9566 0 3
39.3917 6.7839 9.5702 0.9562 0 3
39.3922 6.8750 9.5740 0.9559 0 3
39.3927 6.9663 9.5779 0.9555 0 3
39.3932 7.0576 9.5819 0.9551 0 3
39.3937 7.1489 9.5859 0.9547 0 3
39.3942 7.2404 9.5899 0.9543 0 3
39.3947 7.3319 9.5940 0.9539 0 3
39.3952 7.4235 9.5982 0.9534 0 3
39.3957 7.5152 9.6024 0.9530 0 3
39.3962 7.6069 9.6066 0.9526 0 3
39.3967 7.6987 9.6110 0.9522 0 3
39.3972 7.7907 9.6153 0.9517 0 3
39.3977 7.8827 9.6197 0.9513 0 3
39.3982 7.9747 9.6242 0.9509 0 3
39.3988 8.0670 9.6287 0.9504 0 3
39.3993 8.1592 9.6333 0.9500 0 3
39.3997 8.2516 9.6379 0.9495 0 3
39.4003 8.3440 9.6426 0.9491 0 3
39.4008 8.4366 9.6474 0.9486 0 3
39.4013 8.5292 9.6521 0.9481 0 3
39.4018 8.6219 9.6570 0.9476 0 3
39.4023 8.7147 9.6619 0.9472 0 3
39.4028 8.8076 9.6668 0.9467 0 3
39.4033 8.9006 9.6718 0.9462 0 3
39.4038 8.9937 9.6769 0.9457 0 3
39.4044 9.0869 9.6820 0.9452 0 3
39.4049 9.1802 9.6872 0.9447 0 3
39.4054 9.2736 9.6924 0.9442 0 3
39.4059 9.3671 9.6976 0.9437 0 3
39.4065 9.4607 9.7030 0.9431 0 3
39.4070 9.5544 9.7084 0.9426 0 3
39.4075 9.6482 9.7138 0.9421 0 3
39.4080 9.7421 9.7193 0.9416 0 3
39.4085 9.8361 9.7248 0.9410 0 3
39.4091 9.9302 9.7304 0.9405 0 3
39.4096 10.0245 9.7361 0.9399 0 3
39.4101 10.1188 9.7418 0.9394 0 3
39.4107 10.2133 9.7476 0.9388 0 3
39.4112 10.3078 9.7534 0.9383 0 3
39.4117 10.4026 9.7593 0.9377 0 3
39.4122 10.4974 9.7652 0.9371 0 3
39.4128 10.5922 9.7712 0.9366 0 3
39.4133 10.6872 9.7773 0.9360 0 3
39.4138 10.7824 9.7834 0.9354 0 3
39.4144 10.8777 9.7896 0.9348 0 3
39.4149 10.9731 9.7958 0.9342 0 3
39.4154 11.0686 9.8021 0.9336 0 3
39.4160 11.1643 9.8084 0.9330 0 3
39.4165 11.2600 9.8148 0.9324 0 3
39.4170 11.3559 9.8213 0.9318 0 3
39.4176 11.4519 9.8278 0.9312 0 3
39.4181 11.5480 9.8343 0.9306 0 3
39.4187 11.6443 9.8410 0.9299 0 3
39.4192 11.7407 9.8477 0.9293 0 3
39.4198 11.8372 9.8544 0.9287 0 3
39.4203 11.9339 9.8612 0.9280 0 3
39.4209 12.0307 9.8681 0.9274 0 3
39.4214 12.1277 9.8750 0.9267 0 3
39.4220 12.2247 9.8820 0.9261 0 3
39.4225 12.3219 9.8890 0.9254 0 3
39.4231 12.4193 9.8961 0.9247 0 3
39.4236 12.5167 9.9033 0.9241 0 3
39.4242 12.6144 9.9105 0.9234 0 3
39.4247 12.7122 9.9178 0.9227 0 3
39.4253 12.8100 9.9252 0.9220 0 3
39.4258 12.9082 9.9326 0.9213 0 3
39.4264 13.0063 9.9400 0.9207 0 3
39.4270 13.1047 9.9476 0.9200 0 3
39.4275 13.2032 9.9552 0.9193 0 3
39.4281 13.3019 9.9628 0.9186 0 3
39.4286 13.4007 9.9705 0.9178 0 3
39.4292 13.4996 9.9783 0.9171 0 3
39.4298 13.5988 9.9861 0.9164 0 3
39.4303 13.6980 9.9940 0.9157 0 3
39.4309 13.7975 10.0020 0.9150 0 3
26.6778 10.6317 6.8759 0.3646 0 3
26.6342 10.6837 6.8708 0.9217 0 3
26.6301 10.7515 6.8759 0.9210 0 3
26.5574 10.7915 6.8634 0.3707 0 3
26.3895 10.7924 6.8263 0.3727 0 3
26.2235 10.7933 6.7896 0.3747 0 3
26.0594 10.7941 6.7533 0.3791 0 3
25.5202 10.6379 6.6197 0.3804 0 3
25.4030 10.6561 6.5956 0.8935 0 3
25.4034 10.7233 6.6019 0.8927 0 3
6.2829 2.6688 1.6344 0.5429 0 6
6.2626 2.6768 1.6306 0.8259 0 6
6.2504 2.6881 1.6290 0.9526 0 6
6.2420 2.7012 1.6284 0.9421 0 6
6.2394 2.7166 1.6293 0.9416 0 6
6.2414 2.7342 1.6314 0.7994 0 6
6.2534 2.7563 1.6362 0.4964 0 6
25.4065 11.2662 6.6542 0.8857 0 3
25.4069 11.3347 6.6609 0.8848 0 3
25.4073 11.4033 6.6677 0.8839 0 3
25.4077 11.4720 6.6746 0.8830 0 3
25.4081 11.5409 6.6815 0.8820 0 3
25.4085 11.6099 6.6884 0.8811 0 3
25.4089 11.6791 6.6954 0.8802 0 3
25.4093 11.7485 6.7024 0.8793 0 3
25.4097 11.8179 6.7095 0.8784 0 3
25.4101 11.8875 6.7167 0.8774 0 3
25.4105 11.9573 6.7238 0.8765 0 3
25.4110 12.0272 6.7311 0.8755 0 3
25.4113 12.0972 6.7383 0.8746 0 3
25.4117 12.1675 6.7457 0.8736 0 3
25.4122 12.2378 6.7531 0.8727 0 3
25.4126 12.3084 6.7605 0.8717 0 3
25.4130 12.3790 6.7680 0.8708 0 3
25.4134 12.4499 6.7755 0.8698 0 3
24.7676 12.2025 6.6106 0.1201 0 3
24.4698 12.1241 6.5384 0.1215 0 3
24.1785 12.0475 6.4678 0.1228 0 3
23.8936 11.9726 6.3988 0.1241 0 3
23.6150 11.8992 6.3312 0.1255 0 3
23.3422 11.8276 6.2652 0.1268 0 3
23.0753 11.7574 6.2006 0.1281 0 3
22.8139 11.6888 6.1374 0.1294 0 3
22.5580 11.6217 6.0756 0.1307 0 3
22.3073 11.5560 6.0150 0.1320 0 3
20.4741 10.6646 5.5271 0.4531 0 3
20.4176 10.6935 5.5184 0.8865 0 3
20.4141 10.7502 5.5239 0.8856 0 3
20.4106 10.8069 5.5295 0.8847 0 3
20.3332 10.8244 5.5151 0.4590 0 3
20.2242 10.8246 5.4921 0.4609 0 3
20.1160 10.8249 5.4693 0.4629 0 3
20.0088 10.8251 5.4468 0.4648 0 3
19.9024 10.8254 5.4244 0.4667 0 3
19.5090 10.6683 5.3237 0.4710 0 3
19.4064 10.6688 5.3022 0.4728 0 3
19.3046 10.6693 5.2809 0.4747 0 3
19.2036 10.6698 5.2598 0.4766 0 3
19.1553 10.6993 5.2532 0.9360 0 3
19.1195 10.7356 5.2499 0.9366 0 3
19.0836 10.7719 5.2467 0.9372 0 3
19.0625 10.8165 5.2476 0.8419 0 3
19.0628 10.8733 5.2544 0.8408 0 3
19.0632 10.9302 5.2612 0.8397 0 3
19.0636 10.9874 5.2681 0.8386 0 3
19.0639 11.0446 5.2750 0.8375 0 3
19.0643 11.1020 5.2820 0.8364 0 3
19.0646 11.1597 5.2891 0.8353 0 3
19.0650 11.2173 5.2961 0.8341 0 3
19.0653 11.2753 5.3032 0.8330 0 3
19.0657 11.3333 5.3104 0.8318 0 3
19.0661 11.3915 5.3176 0.8307 0 3
19.0664 11.4498 5.3249 0.8295 0 3
19.0668 11.5084 5.3322 0.8284 0 3
19.2271 11.6640 5.3843 0.8273 0 3
19.2275 11.7234 5.3918 0.8261 0 3
19.2279 11.7829 5.3993 0.8250 0 3
19.2283 11.8426 5.4068 0.8238 0 3
19.2287 11.9024 5.4144 0.8227 0 3
19.2290 11.9624 5.4221 0.8215 0 3
19.2294 12.0226 5.4298 0.8203 0 3
19.2298 12.0829 5.4375 0.8192 0 3
19.2302 12.1435 5.4453 0.8180 0 3
19.2306 12.2041 5.4532 0.8168 0 3
19.2309 12.2650 5.4611 0.8159 0 3
19.2313 12.3260 5.4690 0.8147 0 3
19.1540 12.3372 5.4549 0.5977 0 3
19.0721 12.3451 5.4395 0.8122 0 3
19.0725 12.4061 5.4475 0.8111 0 3
19.0729 12.4674 5.4556 0.8099 0 3
20.2196 13.2818 5.7921 0.6000 0 3
20.2256 13.3508 5.8024 0.5990 0 3
20.2316 13.4200 5.8127 0.5979 0 3
20.2376 13.4895 5.8231 0.5968 0 3
20.2437 13.5593 5.8336 0.5958 0 3
20.2498 13.6293 5.8442 0.5947 0 3
20.2559 13.6996 5.8548 0.5936 0 3
20.2621 13.7702 5.8655 0.5925 0 3
20.2684 13.8410 5.8763 0.5914 0 3
20.2747 13.9121 5.8872 0.5903 0 3
20.2810 13.9835 5.8981 0.5892 0 3
20.2874 14.0552 5.9091 0.5882 0 3
20.2938 14.1271 5.9202 0.5871 0 3
20.3003 14.1994 5.9314 0.5859 0 3
20.3068 14.2719 5.9426 0.5848 0 3
20.3133 14.3447 5.9539 0.5837 0 3
20.3199 14.4177 5.9653 0.5826 0 3
20.3265 14.4912 5.9768 0.5815 0 3
20.3332 14.5648 5.9884 0.5804 0 3
20.3400 14.6388 6.0000 0.5792 0 3
20.3467 14.7131 6.0117 0.5781 0 3
20.3535 14.7878 6.0235 0.5770 0 3
20.3604 14.8626 6.0354 0.5758 0 3
20.3673 14.9379 6.0474 0.5747 0 3
20.3743 15.0134 6.0594 0.5736 0 3
20.3813 15.0892 6.0716 0.5724 0 3
20.3883 15.1654 6.0838 0.5713 0 3
20.3954 15.2419 6.0961 0.5701 0 3
20.4026 15.3187 6.1085 0.5690 0 3
20.4097 15.3958 6.1210 0.5678 0 3
20.4170 15.4733 6.1336 0.5666 0 3
20.4243 15.5511 6.1462 0.5655 0 3
20.4317 15.6293 6.1590 0.5643 0 3
20.4391 15.7078 6.1718 0.5631 0 3
20.4465 15.7866 6.1848 0.5619 0 3
20.4540 15.8657 6.1978 0.5608 0 3
20.4616 15.9453 6.2109 0.5596 0 3
20.4692 16.0252 6.2241 0.5584 0 3
20.4769 16.1055 6.2374 0.5572 0 3
20.4846 16.1861 6.2508 0.5560 0 3
20.4923 16.2670 6.2643 0.5548 0 3
20.5002 16.3484 6.2779 0.5536 0 3
20.5081 16.4301 6.2916 0.5524 0 3
20.5160 16.5122 6.3054 0.5512 0 3
20.5240 16.5946 6.3192 0.5500 0 3
20.5320 16.6774 6.3332 0.5488 0 3
20.5401 16.7606 6.3473 0.5475 0 3
20.5483 16.8443 6.3615 0.5463 0 3
20.5565 16.9283 6.3758 0.5451 0 3
20.5648 17.0127 6.3902 0.5439 0 3
21.1891 17.6095 6.5964 0.5936 0 3
21.1958 17.6955 6.6108 0.5923 0 3
21.2024 17.7819 6.6253 0.5910 0 3
21.2090 17.8687 6.6399 0.5897 0 3
20.5071 17.5944 6.4694 0.6371 0 3
20.4611 17.6349 6.4673 0.7320 0 3
20.4616 17.7155 6.4800 0.7306 0 3
20.4135 17.7541 6.4774 0.6421 0 3
20.3217 17.7546 6.4609 0.6437 0 3
20.2305 17.7551 6.4445 0.6453 0 3
20.1397 17.7555 6.4283 0.6470 0 3
20.0494 17.7560 6.4122 0.6486 0 3
19.9595 17.7565 6.3961 0.6502 0 3
19.8700 17.7570 6.3802 0.6518 0 3
19.7810 17.7575 6.3644 0.6535 0 3
19.6925 17.7579 6.3488 0.6551 0 3
19.6044 17.7583 6.3332 0.6567 0 3
19.3428 17.6006 6.2614 0.6583 0 3
19.2563 17.6011 6.2462 0.6599 0 3
19.1998 17.6286 6.2407 0.9709 0 3
19.1586 17.6702 6.2402 0.9710 0 3
19.1174 17.7119 6.2397 0.9711 0 3
19.1051 17.7802 6.2487 0.7071 0 3
19.1056 17.8608 6.2619 0.7059 0 3
19.2663 18.0923 6.3279 0.7041 0 3
19.2668 18.1743 6.3414 0.7026 0 3
19.2674 18.2567 6.3551 0.7011 0 3
19.2679 18.3394 6.3688 0.6996 0 3
19.2684 18.4224 6.3826 0.6981 0 3
19.2689 18.5059 6.3965 0.6966 0 3
19.2694 18.5897 6.4105 0.6950 0 3
19.2699 18.6738 6.4246 0.6935 0 3
19.2704 18.7584 6.4388 0.6920 0 3
19.2709 18.8433 6.4531 0.6906 0 3
19.2714 18.9286 6.4675 0.6891 0 3
19.2719 19.0142 6.4819 0.6876 0 3
19.2724 19.1002 6.4965 0.6860 0 3
19.2729 19.1867 6.5112 0.6845 0 3
9.3942 -9.3942 3.0652 0.6914 0 3
9.3943 -9.3522 3.0584 0.6929 0 3
9.3946 -9.3106 3.0517 0.6944 0 3
9.3947 -9.2691 3.0450 0.6960 0 3
9.3949 -9.2277 3.0383 0.6975 0 3
9.3951 -9.1866 3.0317 0.6990 0 3
9.3952 -9.1456 3.0251 0.7005 0 3
9.3959 -9.1052 3.0188 0.9340 0 3
9.4101 -9.0781 3.0168 0.9346 0 3
9.4243 -9.0512 3.0148 0.9352 0 3
9.4386 -9.0241 3.0129 0.9358 0 3
9.4528 -8.9972 3.0109 0.9364 0 3
9.4669 -8.9702 3.0090 0.9370 0 3
9.4810 -8.9434 3.0072 0.9376 0 3
9.4952 -8.9165 3.0053 0.9382 0 3
9.5093 -8.8897 3.0034 0.9388 0 3
9.5234 -8.8629 3.0016 0.9393 0 3
9.5375 -8.8362 2.9998 0.9399 0 3
9.5515 -8.8095 2.9980 0.9405 0 3
9.5694 -8.7863 2.9974 0.9617 0 3
9.5925 -8.7679 2.9984 0.9613 0 3
9.6156 -8.7495 2.9995 0.9610 0 3
9.6388 -8.7311 3.0006 0.9606 0 3
9.6620 -8.7127 3.0018 0.9603 0 3
9.6852 -8.6944 3.0029 0.9599 0 3
9.7084 -8.6759 3.0040 0.9595 0 3
9.7316 -8.6575 3.0052 0.9591 0 3
9.7548 -8.6390 3.0064 0.9588 0 3
9.7781 -8.6205 3.0076 0.9584 0 3
9.8014 -8.6020 3.0088 0.9580 0 3
9.8247 -8.5836 3.0100 0.9576 0 3
9.8680 -8.5824 3.0174 0.5917 0 3
9.9164 -8.5855 3.0263 0.5899 0 3
9.9650 -8.5886 3.0352 0.5882 0 3
10.0140 -8.5917 3.0442 0.5864 0 3
10.0632 -8.5948 3.0533 0.5847 0 3
10.1128 -8.5979 3.0625 0.5830 0 3
10.1650 -8.6031 3.0725 0.7458 0 3
10.1652 -8.5642 3.0668 0.7472 0 3
10.1654 -8.5254 3.0610 0.7486 0 3
10.1831 -8.5014 3.0606 0.6205 0 3
10.2299 -8.5017 3.0690 0.6188 0 3
10.2771 -8.5019 3.0774 0.6171 0 3
10.6637 -8.7814 3.1872 0.6154 0 3
10.7128 -8.7817 3.1960 0.6137 0 3
10.7623 -8.7820 3.2049 0.6120 0 3
10.8121 -8.7823 3.2138 0.6103 0 3
10.8621 -8.7825 3.2229 0.6086 0 3
10.9125 -8.7828 3.2319 0.6069 0 3
10.9631 -8.7830 3.2411 0.6052 0 3
11.0140 -8.7833 3.2503 0.6035 0 3
11.0581 -8.7780 3.2575 0.7651 0 3
11.0583 -8.7378 3.2518 0.7665 0 3
11.0585 -8.6976 3.2461 0.7678 0 3
11.0587 -8.6577 3.2404 0.7691 0 3
11.0588 -8.6179 3.2348 0.7705 0 3
11.0590 -8.5782 3.2292 0.7718 0 3
11.0592 -8.5387 3.2236 0.7731 0 3
11.0682 -8.5061 3.2207 0.5897 0 3
11.1201 -8.5064 3.2302 0.5879 0 3
11.1724 -8.5066 3.2399 0.5862 0 3
11.3917 -8.6333 3.2978 0.5844 0 3
11.4453 -8.6336 3.3078 0.5827 0 3
11.4993 -8.6339 3.3177 0.5809 0 3
11.5536 -8.6342 3.3278 0.5792 0 3
11.6082 -8.6344 3.3379 0.5774 0 3
11.6631 -8.6347 3.3482 0.5757 0 3
11.7184 -8.6350 3.3585 0.5739 0 3
11.7740 -8.6353 3.3689 0.5721 0 3
11.8300 -8.6356 3.3793 0.5703 0 3
11.8863 -8.6359 3.3899 0.5686 0 3
11.9430 -8.6362 3.4005 0.5668 0 3
12.0001 -8.6365 3.4112 0.5650 0 3
12.0574 -8.6368 3.4220 0.5632 0 3
12.1152 -8.6371 3.4329 0.5614 0 3
12.1733 -8.6375 3.4438 0.5597 0 3
12.2318 -8.6377 3.4549 0.5579 0 3
12.2907 -8.6380 3.4661 0.5561 0 3
12.3500 -8.6384 3.4773 0.5543 0 3
12.4096 -8.6387 3.4886 0.5525 0 3
12.4696 -8.6390 3.5000 0.5507 0 3
12.5301 -8.6393 3.5115 0.5489 0 3
12.5909 -8.6396 3.5232 0.5471 0 3
12.6522 -8.6399 3.5349 0.5453 0 3
12.7138 -8.6403 3.5466 0.5434 0 3
12.7758 -8.6406 3.5585 0.5416 0 3
12.8383 -8.6409 3.5705 0.5398 0 3
12.9012 -8.6413 3.5826 0.5380 0 3
12.9645 -8.6416 3.5948 0.5362 0 3
13.0283 -8.6419 3.6071 0.5343 0 3
13.0925 -8.6423 3.6195 0.5325 0 3
13.1560 -8.6419 3.6317 0.2293 0 3
13.1624 -8.6038 3.6281 0.8172 0 3
13.1626 -8.5619 3.6229 0.8183 0 3
13.1628 -8.5200 3.6176 0.8195 0 3
13.1630 -8.4783 3.6125 0.8207 0 3
13.1632 -8.4367 3.6073 0.8218 0 3
13.1633 -8.3952 3.6022 0.8230 0 3
13.1636 -8.3538 3.5971 0.8242 0 3
13.1637 -8.3126 3.5921 0.8253 0 3
13.1639 -8.2714 3.5870 0.8265 0 3
13.1641 -8.2304 3.5820 0.8276 0 3
13.1643 -8.1895 3.5771 0.8288 0 3
13.1645 -8.1487 3.5721 0.8299 0 3
13.1647 -8.1080 3.5673 0.8311 0 3
13.1649 -8.0674 3.5624 0.8322 0 3
13.1651 -8.0270 3.5576 0.8333 0 3
13.1653 -7.9866 3.5528 0.8345 0 3
13.1654 -7.9464 3.5480 0.8356 0 3
13.1656 -7.9062 3.5432 0.8367 0 3
13.1658 -7.8662 3.5385 0.8378 0 3
13.1660 -7.8262 3.5339 0.8390 0 3
13.1661 -7.7864 3.5292 0.8401 0 3
13.1663 -7.7467 3.5246 0.8412 0 3
13.1665 -7.7071 3.5200 0.8423 0 3
13.1667 -7.6675 3.5154 0.8433 0 3
13.1669 -7.6282 3.5109 0.8444 0 3
13.1671 -7.5888 3.5064 0.8455 0 3
13.1672 -7.5496 3.5019 0.8466 0 3
13.1674 -7.5106 3.4975 0.8477 0 3
13.1676 -7.4715 3.4931 0.8487 0 3
13.1677 -7.4326 3.4887 0.8498 0 3
13.1679 -7.3938 3.4843 0.8509 0 3
13.1681 -7.3551 3.4800 0.8519 0 3
13.1683 -7.3165 3.4757 0.8530 0 3
13.1685 -7.2779 3.4714 0.8540 0 3
13.1687 -7.2396 3.4672 0.8551 0 3
13.1688 -7.2012 3.4630 0.8561 0 3
13.1750 -7.1662 3.4603 0.4627 0 3
13.3656 -7.2310 3.5061 0.4596 0 3
13.4381 -7.2313 3.5209 0.4576 0 3
13.5114 -7.2317 3.5358 0.4557 0 3
13.5852 -7.2320 3.5509 0.4538 0 3
13.6597 -7.2324 3.5661 0.4518 0 3
13.7348 -7.2328 3.5815 0.4499 0 3
13.8105 -7.2331 3.5970 0.4480 0 3
13.8655 -7.2223 3.6070 0.2296 0 3
13.8813 -7.1909 3.6070 0.2296 0 3
13.9173 -7.1701 3.6121 0.4417 0 3
13.9951 -7.1705 3.6281 0.4397 0 3
14.0737 -7.1708 3.6443 0.4378 0 3
14.1529 -7.1713 3.6607 0.4358 0 3
14.2329 -7.1717 3.6772 0.4339 0 3
14.3136 -7.1721 3.6939 0.4319 0 3
14.3950 -7.1726 3.7107 0.4300 0 3
14.4771 -7.1730 3.7277 0.4280 0 3
14.5601 -7.1735 3.7449 0.4260 0 3
14.6438 -7.1739 3.7623 0.4241 0 3
14.7282 -7.1744 3.7799 0.4221 0 3
14.8135 -7.1748 3.7976 0.4201 0 3
14.8996 -7.1753 3.8155 0.4181 0 3
14.9864 -7.1757 3.8336 0.4162 0 3
15.0742 -7.1761 3.8519 0.4142 0 3
15.1627 -7.1766 3.8705 0.4122 0 3
15.2521 -7.1771 3.8892 0.4102 0 3
15.3424 -7.1775 3.9081 0.4082 0 3
15.4335 -7.1780 3.9272 0.4063 0 3
15.5256 -7.1785 3.9465 0.4043 0 3
15.6186 -7.1790 3.9660 0.4023 0 3
15.7125 -7.1795 3.9858 0.4003 0 3
15.8073 -7.1800 4.0057 0.3983 0 3
15.9031 -7.1805 4.0259 0.3963 0 3
15.9999 -7.1810 4.0463 0.3943 0 3
16.0976 -7.1815 4.0669 0.3923 0 3
16.1964 -7.1821 4.0878 0.3903 0 3
16.2961 -7.1826 4.1089 0.3883 0 3
16.3970 -7.1831 4.1303 0.3863 0 3
16.4988 -7.1836 4.1518 0.3843 0 3
16.6017 -7.1842 4.1737 0.3823 0 3
16.7057 -7.1847 4.1958 0.3802 0 3
16.8109 -7.1854 4.2181 0.3782 0 3
16.9171 -7.1858 4.2407 0.3762 0 3
17.0245 -7.1864 4.2636 0.3742 0 3
17.1331 -7.1870 4.2867 0.3722 0 3
17.2428 -7.1876 4.3101 0.3702 0 3
17.3538 -7.1882 4.3338 0.3681 0 3
17.4660 -7.1887 4.3578 0.3661 0 3
17.5794 -7.1894 4.3820 0.3641 0 3
17.6941 -7.1899 4.4066 0.3621 0 3
17.8101 -7.1905 4.4315 0.3600 0 3
17.9274 -7.1912 4.4566 0.3580 0 3
18.0461 -7.1918 4.4821 0.3560 0 3
18.1660 -7.1924 4.5079 0.3539 0 3
18.2875 -7.1930 4.5340 0.3519 0 3
45.0694 3.7506 10.4345 0.5186 0 3
44.9521 3.8425 10.4093 0.9372 0 3
44.9152 3.9408 10.4028 0.9377 0 3
41.9755 3.7779 9.7239 0.4832 0 3
41.8673 3.8629 9.7008 0.9399 0 3
41.8334 3.9544 9.6950 0.9405 0 3
41.8215 4.0480 9.6943 0.9681 0 3
41.8221 4.1428 9.6966 0.9679 0 3
41.8226 4.2377 9.6989 0.9677 0 3
41.8231 4.3326 9.7012 0.9674 0 3
41.8236 4.4275 9.7036 0.9672 0 3
41.8241 4.5225 9.7061 0.9669 0 3
39.3765 4.3472 9.1403 0.9667 0 3
39.3770 4.4368 9.1427 0.9664 0 3
39.3775 4.5263 9.1451 0.9662 0 3
39.3780 4.6159 9.1476 0.9659 0 3
39.3784 4.7056 9.1502 0.9657 0 3
39.3789 4.7953 9.1528 0.9654 0 3
39.3794 4.8850 9.1554 0.9651 0 3
39.3799 4.9748 9.1581 0.9648 0 3
39.3804 5.0647 9.1608 0.9645 0 3
39.3809 5.1546 9.1636 0.9642 0 3
39.3814 5.2446 9.1664 0.9639 0 3
39.3819 5.3346 9.1693 0.9636 0 3
39.3824 5.4247 9.1722 0.9633 0 3
39.3829 5.5149 9.1752 0.9630 0 3
39.3833 5.6051 9.1782 0.9627 0 3
39.3838 5.6954 9.1813 0.9624 0 3
39.3843 5.7857 9.1844 0.9621 0 3
39.3848 5.8761 9.1876 0.9617 0 3
39.3853 5.9665 9.1908 0.9614 0 3
39.3858 6.0571 9.1941 0.9610 0 3
39.3863 6.1476 9.1974 0.9607 0 3
39.3868 6.2383 9.2007 0.9603 0 3
39.3873 6.3289 9.2041 0.9600 0 3
39.3878 6.4198 9.2076 0.9596 0 3
39.3883 6.5106 9.2111 0.9593 0 3
39.3887 6.6016 9.2147 0.9589 0 3
39.3893 6.6925 9.2183 0.9585 0 3
39.3898 6.7836 9.2219 0.9581 0 3
39.3903 6.8747 9.2256 0.9578 0 3
39.3907 6.9660 9.2294 0.9574 0 3
39.3913 7.0573 9.2332 0.9570 0 3
39.3918 7.1486 9.2370 0.9566 0 3
39.3923 7.2400 9.2410 0.9562 0 3
39.3928 7.3315 9.2449 0.9558 0 3
39.3933 7.4232 9.2489 0.9553 0 3
39.3938 7.5148 9.2530 0.9549 0 3
39.3943 7.6065 9.2571 0.9545 0 3
39.3948 7.6983 9.2612 0.9541 0 3
39.3953 7.7903 9.2654 0.9536 0 3
39.3958 7.8823 9.2697 0.9532 0 3
39.3963 7.9744 9.2740 0.9528 0 3
39.3968 8.0665 9.2783 0.9523 0 3
39.3973 8.1588 9.2828 0.9519 0 3
39.3978 8.2512 9.2872 0.9514 0 3
39.3984 8.3436 9.2917 0.9509 0 3
39.3989 8.4361 9.2963 0.9505 0 3
39.3994 8.5288 9.3009 0.9500 0 3
39.3999 8.6214 9.3056 0.9495 0 3
39.4004 8.7143 9.3103 0.9490 0 3
39.4009 8.8072 9.3151 0.9486 0 3
39.4014 8.9001 9.3199 0.9481 0 3
39.4019 8.9933 9.3247 0.9476 0 3
39.4025 9.0864 9.3297 0.9471 0 3
39.4030 9.1797 9.3346 0.9466 0 3
39.4035 9.2731 9.3397 0.9461 0 3
39.4040 9.3666 9.3448 0.9455 0 3
39.4045 9.4602 9.3499 0.9450 0 3
39.4050 9.5539 9.3551 0.9445 0 3
39.4056 9.6477 9.3603 0.9440 0 3
39.4061 9.7416 9.3656 0.9434 0 3
39.4066 9.8356 9.3709 0.9429 0 3
39.4071 9.9298 9.3763 0.9424 0 3
39.4077 10.0240 9.3818 0.9418 0 3
39.4082 10.1183 9.3873 0.9413 0 3
39.4087 10.2128 9.3929 0.9407 0 3
39.4093 10.3073 9.3985 0.9401 0 3
39.4098 10.4020 9.4042 0.9396 0 3
39.4103 10.4968 9.4099 0.9390 0 3
39.4108 10.5917 9.4157 0.9384 0 3
39.4114 10.6868 9.4215 0.9378 0 3
39.4119 10.7819 9.4274 0.9373 0 3
39.4124 10.8772 9.4333 0.9367 0 3
39.4130 10.9725 9.4393 0.9361 0 3
39.4135 11.0681 9.4454 0.9355 0 3
39.4140 11.1637 9.4515 0.9349 0 3
39.4146 11.2594 9.4576 0.9343 0 3
39.4151 11.3553 9.4639 0.9336 0 3
39.4156 11.4513 9.4701 0.9330 0 3
39.4162 11.5475 9.4765 0.9324 0 3
39.4167 11.6437 9.4829 0.9318 0 3
39.4173 11.7401 9.4893 0.9311 0 3
39.4178 11.8367 9.4958 0.9305 0 3
39.4183 11.9333 9.5024 0.9299 0 3
39.4189 12.0300 9.5090 0.9292 0 3
39.4195 12.1270 9.5156 0.9286 0 3
39.4200 12.2241 9.5224 0.9279 0 3
39.4205 12.3213 9.5292 0.9272 0 3
39.4211 12.4187 9.5360 0.9266 0 3
39.4216 12.5161 9.5429 0.9259 0 3
39.4222 12.6138 9.5499 0.9252 0 3
39.4227 12.7115 9.5569 0.9246 0 3
39.4233 12.8094 9.5640 0.9239 0 3
39.4238 12.9075 9.5711 0.9232 0 3
39.4244 13.0057 9.5783 0.9225 0 3
39.4250 13.1040 9.5856 0.9218 0 3
39.4255 13.2026 9.5929 0.9211 0 3
39.4261 13.3012 9.6002 0.9204 0 3
39.4266 13.4000 9.6077 0.9197 0 3
39.4272 13.4989 9.6152 0.9190 0 3
39.4278 13.5981 9.6227 0.9182 0 3
39.4283 13.6973 9.6303 0.9175 0 3
39.4289 13.7968 9.6380 0.9168 0 3
26.6773 10.6316 6.6259 0.3653 0 3
26.6329 10.6832 6.6208 0.9235 0 3
26.6288 10.7510 6.6257 0.9228 0 3
26.5569 10.7914 6.6139 0.3713 0 3
26.3891 10.7922 6.5781 0.3734 0 3
26.2230 10.7931 6.5427 0.3755 0 3
26.0589 10.7940 6.5078 0.3798 0 3
25.5202 10.6379 6.3792 0.3812 0 3
25.4017 10.6555 6.3555 0.8953 0 3
25.4021 10.7228 6.3616 0.8945 0 3
6.2824 2.6686 1.5748 0.5440 0 6
6.2621 2.6766 1.5713 0.8276 0 6
6.2499 2.6880 1.5697 0.9545 0 6
6.2414 2.7009 1.5691 0.9440 0 6
6.2387 2.7164 1.5700 0.9435 0 6
6.2407 2.7339 1.5720 0.8011 0 6
6.2524 2.7558 1.5765 0.4975 0 6
25.4052 11.2656 6.4120 0.8874 0 3
25.4056 11.3341 6.4185 0.8865 0 3
25.4060 11.4027 6.4251 0.8856 0 3
25.4064 11.4714 6.4317 0.8847 0 3
25.4068 11.5403 6.4383 0.8838 0 3
25.4072 11.6094 6.4450 0.8829 0 3
25.4076 11.6785 6.4517 0.8820 0 3
25.4080 11.7478 6.4585 0.8810 0 3
25.4084 11.8173 6.4653 0.8801 0 3
25.4088 11.8869 6.4722 0.8792 0 3
25.4092 11.9566 6.4791 0.8782 0 3
25.4096 12.0266 6.4861 0.8773 0 3
25.4100 12.0966 6.4931 0.8763 0 3
25.4104 12.1668 6.5002 0.8754 0 3
24.6932 11.8916 6.3235 0.1213 0 3
24.3976 11.8168 6.2546 0.1226 0 3
24.1085 11.7437 6.1872 0.1239 0 3
23.8258 11.6721 6.1214 0.1253 0 3
23.5492 11.6022 6.0570 0.1266 0 3
23.2785 11.5339 5.9940 0.1279 0 3
23.0135 11.4670 5.9324 0.1293 0 3
22.7540 11.4015 5.8721 0.1306 0 3
22.5000 11.3374 5.8131 0.1319 0 3
22.2511 11.2747 5.7553 0.1332 0 3
22.0072 11.2132 5.6987 0.1346 0 3
21.7682 11.1531 5.6433 0.1359 0 3
21.5339 11.0941 5.5890 0.1372 0 3
21.3043 11.0364 5.5358 0.1385 0 3
20.4741 10.6646 5.3262 0.4540 0 3
20.3632 10.6650 5.3036 0.4542 0 3
20.2530 10.6653 5.2812 0.4561 0 3
20.1437 10.6655 5.2589 0.4580 0 3
19.8601 10.5725 5.1910 0.4721 0 3
19.7562 10.5742 5.1701 0.4740 0 3
19.6532 10.5758 5.1493 0.4759 0 3
19.5511 10.5775 5.1287 0.4778 0 3
19.4497 10.5791 5.1084 0.4797 0 3
19.3491 10.5808 5.0882 0.4816 0 3
19.2493 10.5824 5.0682 0.4835 0 3
19.1504 10.5840 5.0483 0.4854 0 3
19.1125 10.6192 5.0446 0.9387 0 3
19.0767 10.6554 5.0415 0.9393 0 3
19.0410 10.6916 5.0384 0.9400 0 3
19.0052 10.7276 5.0353 0.9406 0 3
18.9745 10.7665 5.0335 0.8440 0 3
18.9748 10.8231 5.0400 0.8429 0 3
18.9752 10.8797 5.0466 0.8418 0 3
18.9755 10.9366 5.0532 0.8407 0 3
18.9758 10.9936 5.0599 0.8396 0 3
18.9762 11.0508 5.0666 0.8385 0 3
18.9766 11.1081 5.0733 0.8374 0 3
18.9769 11.1655 5.0801 0.8362 0 3
18.9772 11.2231 5.0869 0.8351 0 3
18.9776 11.2809 5.0938 0.8340 0 3
18.9779 11.3388 5.1007 0.8329 0 3
18.9783 11.3969 5.1076 0.8317 0 3
18.9786 11.4552 5.1146 0.8306 0 3
18.9790 11.5135 5.1217 0.8294 0 3
18.9794 11.5721 5.1287 0.8283 0 3
18.9797 11.6308 5.1359 0.8272 0 3
18.9801 11.6897 5.1431 0.8260 0 3
18.9804 11.7487 5.1503 0.8248 0 3
18.9808 11.8079 5.1576 0.8237 0 3
18.9811 11.8674 5.1649 0.8225 0 3
18.9815 11.9269 5.1723 0.8213 0 3
18.9818 11.9866 5.1797 0.8202 0 3
18.9822 12.0465 5.1871 0.8190 0 3
18.9825 12.1065 5.1946 0.8178 0 3
19.0702 12.2228 5.2261 0.8161 0 3
19.0706 12.2835 5.2338 0.8149 0 3
19.0710 12.3444 5.2415 0.8137 0 3
19.0714 12.4054 5.2492 0.8125 0 3
19.0718 12.4667 5.2570 0.8115 0 3
20.0842 13.1929 5.5442 0.6053 0 3
20.0899 13.2612 5.5540 0.6042 0 3
20.0956 13.3298 5.5638 0.6031 0 3
20.1013 13.3987 5.5737 0.6020 0 3
20.1071 13.4678 5.5837 0.6010 0 3
20.1129 13.5372 5.5937 0.5999 0 3
20.1188 13.6068 5.6038 0.5988 0 3
20.1247 13.6768 5.6140 0.5977 0 3
20.1306 13.7470 5.6243 0.5966 0 3
20.1367 13.8174 5.6346 0.5955 0 3
20.1427 13.8881 5.6450 0.5944 0 3
20.1488 13.9591 5.6555 0.5933 0 3
20.1549 14.0304 5.6660 0.5922 0 3
20.1610 14.1020 5.6766 0.5911 0 3
20.1672 14.1738 5.6873 0.5900 0 3
20.1735 14.2459 5.6980 0.5889 0 3
20.1797 14.3183 5.7089 0.5878 0 3
20.1860 14.3910 5.7198 0.5867 0 3
20.1924 14.4640 5.7308 0.5855 0 3
20.1988 14.5372 5.7418 0.5844 0 3
20.2053 14.6108 5.7530 0.5833 0 3
20.2118 14.6847 5.7642 0.5822 0 3
20.2183 14.7589 5.7755 0.5810 0 3
20.2249 14.8334 5.7869 0.5799 0 3
20.2315 14.9082 5.7983 0.5787 0 3
20.2382 14.9833 5.8098 0.5776 0 3
20.2449 15.0587 5.8215 0.5764 0 3
20.2517 15.1344 5.8332 0.5753 0 3
20.2585 15.2105 5.8449 0.5741 0 3
20.2653 15.2869 5.8568 0.5729 0 3
20.2722 15.3636 5.8687 0.5718 0 3
20.2792 15.4406 5.8808 0.5706 0 3
20.2862 15.5180 5.8929 0.5694 0 3
20.2932 15.5957 5.9051 0.5683 0 3
20.3003 15.6737 5.9174 0.5671 0 3
20.3075 15.7521 5.9297 0.5659 0 3
20.3147 15.8308 5.9422 0.5647 0 3
20.3219 15.9099 5.9547 0.5635 0 3
20.3292 15.9893 5.9674 0.5623 0 3
20.3366 16.0691 5.9801 0.5611 0 3
20.3439 16.1492 5.9929 0.5599 0 3
20.3514 16.2297 6.0058 0.5587 0 3
20.3589 16.3106 6.0188 0.5575 0 3
20.3665 16.3918 6.0319 0.5563 0 3
20.3741 16.4734 6.0451 0.5551 0 3
20.3817 16.5554 6.0584 0.5539 0 3
20.3895 16.6377 6.0718 0.5527 0 3
20.3972 16.7204 6.0852 0.5514 0 3
20.4050 16.8036 6.0988 0.5502 0 3
20.4129 16.8870 6.1125 0.5490 0 3
20.4209 16.9709 6.1262 0.5478 0 3
20.4288 17.0552 6.1401 0.5465 0 3
20.4369 17.1399 6.1541 0.5453 0 3
21.0903 17.7687 6.3628 0.5942 0 3
21.0968 17.8552 6.3768 0.5929 0 3
21.1032 17.9421 6.3909 0.5916 0 3
21.1097 18.0294 6.4051 0.5903 0 3
20.5071 17.5945 6.2343 0.6384 0 3
20.4598 17.6338 6.2319 0.7335 0 3
20.4603 17.7144 6.2441 0.7321 0 3
20.4135 17.7541 6.2420 0.6433 0 3
20.3217 17.7546 6.2261 0.6450 0 3
20.2305 17.7551 6.2103 0.6466 0 3
20.1397 17.7556 6.1947 0.6482 0 3
20.0494 17.7561 6.1791 0.6499 0 3
19.9595 17.7565 6.1637 0.6515 0 3
19.8701 17.7570 6.1484 0.6531 0 3
19.7810 17.7574 6.1331 0.6547 0 3
19.6925 17.7579 6.1180 0.6564 0 3
19.6043 17.7584 6.1030 0.6580 0 3
19.3428 17.6006 6.0339 0.6596 0 3
19.2563 17.6011 6.0192 0.6612 0 3
19.1991 17.6281 6.0137 0.9728 0 3
19.1579 17.6696 6.0132 0.9729 0 3
19.1168 17.7112 6.0127 0.9730 0 3
19.1038 17.7791 6.0212 0.7086 0 3
19.1043 17.8597 6.0340 0.7073 0 3
19.2650 18.0911 6.0975 0.7055 0 3
19.2656 18.1731 6.1106 0.7040 0 3
19.2661 18.2554 6.1237 0.7025 0 3
19.2666 18.3381 6.1369 0.7010 0 3
19.2671 18.4212 6.1502 0.6995 0 3
19.2676 18.5047 6.1636 0.6980 0 3
19.2681 18.5884 6.1771 0.6966 0 3
19.2686 18.6725 6.1907 0.6951 0 3
19.2691 18.7571 6.2044 0.6936 0 3
19.2696 18.8420 6.2181 0.6920 0 3
19.2701 18.9272 6.2320 0.6905 0 3
19.2706 19.0128 6.2459 0.6890 0 3
19.2711 19.0988 6.2600 0.6874 0 3
19.2716 19.1854 6.2741 0.6859 0 3
9.3935 -9.3935 2.9499 0.6927 0 3
9.3937 -9.3516 2.9433 0.6943 0 3
9.3939 -9.3099 2.9368 0.6958 0 3
9.3941 -9.2684 2.9304 0.6973 0 3
9.3943 -9.2271 2.9240 0.6988 0 3
9.3945 -9.1860 2.9176 0.7004 0 3
9.3946 -9.1450 2.9113 0.7019 0 3
9.3954 -9.1048 2.9052 0.9358 0 3
9.4097 -9.0778 2.9033 0.9364 0 3
9.4239 -9.0507 2.9014 0.9370 0 3
9.4381 -9.0237 2.8996 0.9376 0 3
9.4523 -8.9968 2.8977 0.9382 0 3
9.4665 -8.9699 2.8959 0.9388 0 3
9.4806 -8.9430 2.8940 0.9394 0 3
9.4948 -8.9162 2.8922 0.9400 0 3
9.5089 -8.8894 2.8905 0.9405 0 3
9.5229 -8.8625 2.8887 0.9411 0 3
9.5371 -8.8358 2.8869 0.9417 0 3
9.5511 -8.8090 2.8852 0.9423 0 3
9.5691 -8.7860 2.8847 0.9635 0 3
9.5922 -8.7677 2.8857 0.9631 0 3
9.6153 -8.7493 2.8868 0.9628 0 3
9.6385 -8.7309 2.8878 0.9624 0 3
9.6617 -8.7125 2.8889 0.9621 0 3
9.6849 -8.6941 2.8900 0.9617 0 3
9.7081 -8.6756 2.8911 0.9613 0 3
9.7313 -8.6572 2.8922 0.9610 0 3
9.7546 -8.6388 2.8934 0.9606 0 3
9.7778 -8.6203 2.8945 0.9602 0 3
9.8011 -8.6018 2.8957 0.9598 0 3
9.8244 -8.5833 2.8969 0.9594 0 3
9.8680 -8.5824 2.9040 0.5928 0 3
9.9164 -8.5855 2.9126 0.5910 0 3
9.9651 -8.5886 2.9212 0.5893 0 3
10.0140 -8.5917 2.9299 0.5875 0 3
10.0633 -8.5948 2.9385 0.5858 0 3
10.1128 -8.5979 2.9474 0.5840 0 3
10.1644 -8.6026 2.9569 0.7473 0 3
10.1645 -8.5637 2.9514 0.7487 0 3
10.1647 -8.5248 2.9458 0.7501 0 3
10.1830 -8.5014 2.9456 0.6217 0 3
10.2299 -8.5016 2.9537 0.6200 0 3
10.2771 -8.5019 2.9617 0.6183 0 3
10.6636 -8.7815 3.0675 0.6166 0 3
10.7129 -8.7817 3.0760 0.6149 0 3
10.7624 -8.7820 3.0845 0.6132 0 3
10.8121 -8.7823 3.0931 0.6115 0 3
10.8621 -8.7825 3.1018 0.6098 0 3
10.9124 -8.7828 3.1105 0.6081 0 3
10.9630 -8.7831 3.1193 0.6063 0 3
11.0140 -8.7833 3.1282 0.6046 0 3
11.0574 -8.7774 3.1349 0.7666 0 3
11.0576 -8.7372 3.1294 0.7679 0 3
11.0578 -8.6971 3.1239 0.7693 0 3
11.0580 -8.6572 3.1185 0.7706 0 3
11.0582 -8.6173 3.1131 0.7720 0 3
11.0583 -8.5777 3.1077 0.7733 0 3
11.0585 -8.5381 3.1023 0.7746 0 3
11.0682 -8.5061 3.0997 0.5908 0 3
11.1201 -8.5063 3.1089 0.5890 0 3
11.1723 -8.5066 3.1181 0.5873 0 3
11.3917 -8.6333 3.1739 0.5855 0 3
11.4453 -8.6336 3.1835 0.5838 0 3
11.4993 -8.6338 3.1931 0.5820 0 3
11.5536 -8.6341 3.2028 0.5803 0 3
11.6082 -8.6344 3.2125 0.5785 0 3
11.6631 -8.6347 3.2224 0.5767 0 3
11.7184 -8.6350 3.2323 0.5750 0 3
11.7741 -8.6353 3.2423 0.5732 0 3
11.8300 -8.6356 3.2523 0.5714 0 3
11.8863 -8.6359 3.2625 0.5696 0 3
11.9430 -8.6362 3.2727 0.5679 0 3
12.0000 -8.6365 3.2830 0.5661 0 3
12.0574 -8.6368 3.2934 0.5643 0 3
12.1152 -8.6371 3.3039 0.5625 0 3
12.1733 -8.6374 3.3145 0.5607 0 3
12.2318 -8.6377 3.3251 0.5589 0 3
12.2907 -8.6380 3.3358 0.5571 0 3
12.3499 -8.6383 3.3466 0.5553 0 3
12.4096 -8.6387 3.3575 0.5535 0 3
12.4696 -8.6390 3.3685 0.5517 0 3
12.5300 -8.6393 3.3796 0.5499 0 3
12.5909 -8.6396 3.3908 0.5481 0 3
12.6521 -8.6399 3.4020 0.5463 0 3
12.7138 -8.6402 3.4134 0.5445 0 3
12.7758 -8.6406 3.4248 0.5426 0 3
12.8383 -8.6409 3.4364 0.5408 0 3
12.9012 -8.6412 3.4480 0.5390 0 3
12.9645 -8.6416 3.4597 0.5372 0 3
13.0283 -8.6419 3.4716 0.5353 0 3
13.0925 -8.6423 3.4835 0.5335 0 3
13.1571 -8.6426 3.4955 0.5317 0 3
13.1617 -8.6033 3.4916 0.8187 0 3
13.1619 -8.5614 3.4866 0.8199 0 3
13.1621 -8.5195 3.4815 0.8211 0 3
13.1623 -8.4779 3.4765 0.8223 0 3
13.1624 -8.4362 3.4716 0.8234 0 3
13.1626 -8.3947 3.4667 0.8246 0 3
13.1628 -8.3534 3.4618 0.8258 0 3
13.1630 -8.3121 3.4569 0.8269 0 3
13.1632 -8.2710 3.4521 0.8281 0 3
13.1634 -8.2300 3.4473 0.8292 0 3
13.1636 -8.1890 3.4425 0.8304 0 3
13.1638 -8.1483 3.4378 0.8315 0 3
13.1640 -8.1075 3.4330 0.8327 0 3
13.1641 -8.0670 3.4284 0.8338 0 3
13.1643 -8.0265 3.4237 0.8349 0 3
13.1645 -7.9862 3.4191 0.8361 0 3
13.1647 -7.9459 3.4145 0.8372 0 3
13.1649 -7.9058 3.4099 0.8383 0 3
13.1650 -7.8657 3.4054 0.8395 0 3
13.1652 -7.8258 3.4009 0.8406 0 3
13.1654 -7.7860 3.3964 0.8417 0 3
13.1656 -7.7463 3.3920 0.8428 0 3
13.1658 -7.7067 3.3876 0.8439 0 3
13.1660 -7.6672 3.3832 0.8450 0 3
13.1662 -7.6277 3.3788 0.8461 0 3
13.1663 -7.5884 3.3745 0.8471 0 3
13.1665 -7.5492 3.3702 0.8482 0 3
13.1667 -7.5101 3.3659 0.8493 0 3
13.1669 -7.4712 3.3617 0.8504 0 3
13.1670 -7.4322 3.3574 0.8514 0 3
13.1672 -7.3934 3.3532 0.8525 0 3
13.1674 -7.3547 3.3491 0.8536 0 3
13.1676 -7.3161 3.3449 0.8546 0 3
13.1678 -7.2775 3.3408 0.8557 0 3
13.1679 -7.2391 3.3367 0.8567 0 3
13.1681 -7.2008 3.3327 0.8578 0 3
13.1750 -7.1662 3.3304 0.4636 0 3
13.3655 -7.2310 3.3744 0.4604 0 3
13.4381 -7.2313 3.3886 0.4585 0 3
13.5113 -7.2317 3.4030 0.4566 0 3
13.5852 -7.2321 3.4175 0.4546 0 3
13.6597 -7.2324 3.4321 0.4527 0 3
13.7348 -7.2328 3.4469 0.4507 0 3
13.8105 -7.2331 3.4619 0.4488 0 3
13.8870 -7.2335 3.4769 0.4469 0 3
13.9641 -7.2338 3.4922 0.4449 0 3
14.0419 -7.2342 3.5075 0.4430 0 3
14.1204 -7.2346 3.5231 0.4410 0 3
14.1995 -7.2350 3.5388 0.4390 0 3
14.2793 -7.2354 3.5546 0.4371 0 3
14.3600 -7.2357 3.5706 0.4351 0 3
14.4413 -7.2361 3.5868 0.4332 0 3
14.5233 -7.2365 3.6031 0.4312 0 3
14.5404 -7.2043 3.6033 0.2216 0 3
14.5600 -7.1734 3.6042 0.4268 0 3
14.6437 -7.1739 3.6209 0.4249 0 3
14.7282 -7.1743 3.6378 0.4229 0 3
14.8134 -7.1748 3.6549 0.4209 0 3
14.8995 -7.1752 3.6722 0.4189 0 3
14.9864 -7.1757 3.6896 0.4169 0 3
15.0742 -7.1761 3.7072 0.4150 0 3
15.1627 -7.1766 3.7250 0.4130 0 3
15.2521 -7.1771 3.7430 0.4110 0 3
15.3424 -7.1776 3.7612 0.4090 0 3
15.4335 -7.1780 3.7796 0.4070 0 3
15.5256 -7.1785 3.7982 0.4050 0 3
15.6186 -7.1790 3.8170 0.4030 0 3
15.7125 -7.1795 3.8360 0.4010 0 3
15.8073 -7.1800 3.8552 0.3990 0 3
15.9031 -7.1805 3.8746 0.3970 0 3
15.9998 -7.1810 3.8943 0.3950 0 3
16.0976 -7.1816 3.9141 0.3930 0 3
16.1963 -7.1821 3.9342 0.3910 0 3
16.2961 -7.1826 3.9545 0.3890 0 3
16.3969 -7.1831 3.9751 0.3870 0 3
16.4988 -7.1837 3.9958 0.3850 0 3
16.6017 -7.1842 4.0169 0.3830 0 3
16.7058 -7.1847 4.0381 0.3810 0 3
16.8109 -7.1853 4.0596 0.3789 0 3
16.9171 -7.1859 4.0814 0.3769 0 3
17.0245 -7.1864 4.1034 0.3749 0 3
17.1331 -7.1870 4.1257 0.3729 0 3
17.2428 -7.1876 4.1482 0.3709 0 3
17.3538 -7.1882 4.1710 0.3688 0 3
17.4660 -7.1887 4.1941 0.3668 0 3
17.5794 -7.1893 4.2174 0.3648 0 3
17.6941 -7.1899 4.2410 0.3627 0 3
17.8101 -7.1906 4.2650 0.3607 0 3
17.9274 -7.1912 4.2892 0.3587 0 3
18.0460 -7.1918 4.3137 0.3566 0 3
18.1660 -7.1924 4.3385 0.3546 0 3
18.2874 -7.1931 4.3637 0.3525 0 3
45.0675 3.7505 10.0421 0.5195 0 3
44.9500 3.8423 10.0178 0.9389 0 3
44.9131 3.9407 10.0115 0.9395 0 3
41.9739 3.7778 9.3582 0.4841 0 3
41.8653 3.8626 9.3359 0.9417 0 3
41.8314 3.9542 9.3303 0.9423 0 3
41.8195 4.0478 9.3296 0.9700 0 3
41.8201 4.1426 9.3318 0.9697 0 3
41.8206 4.2375 9.3340 0.9695 0 3
41.8211 4.3324 9.3363 0.9693 0 3
40.8400 4.3234 9.1194 0.1079 0 3
40.0226 4.3276 8.9390 0.1101 0 3
39.3746 4.3471 8.7965 0.9685 0 3
39.3751 4.4365 8.7988 0.9683 0 3
39.3756 4.5261 8.8011 0.9680 0 3
39.3761 4.6157 8.8035 0.9678 0 3
39.3766 4.7054 8.8060 0.9675 0 3
39.3771 4.7950 8.8085 0.9672 0 3
39.3775 4.8848 8.8110 0.9670 0 3
39.3780 4.9746 8.8136 0.9667 0 3
39.3785 5.0645 8.8162 0.9664 0 3
39.3790 5.1544 8.8189 0.9661 0 3
39.3795 5.2444 8.8216 0.9658 0 3
39.3800 5.3344 8.8244 0.9655 0 3
39.3805 5.4245 8.8272 0.9652 0 3
39.3810 5.5146 8.8301 0.9649 0 3
39.3815 5.6048 8.8330 0.9645 0 3
39.3819 5.6951 8.8359 0.9642 0 3
39.3825 5.7854 8.8389 0.9639 0 3
39.3829 5.8758 8.8420 0.9636 0 3
39.3834 5.9662 8.8451 0.9632 0 3
39.3839 6.0568 8.8482 0.9629 0 3
39.3844 6.1473 8.8514 0.9625 0 3
39.3849 6.2380 8.8546 0.9622 0 3
39.3854 6.3287 8.8579 0.9618 0 3
39.3859 6.4194 8.8612 0.9615 0 3
39.3864 6.5103 8.8646 0.9611 0 3
39.3869 6.6012 8.8680 0.9607 0 3
39.3874 6.6922 8.8715 0.9604 0 3
39.3879 6.7832 8.8750 0.9600 0 3
39.3884 6.8744 8.8786 0.9596 0 3
39.3889 6.9656 8.8822 0.9592 0 3
39.3894 7.0569 8.8859 0.9588 0 3
39.3899 7.1482 8.8896 0.9584 0 3
39.3904 7.2396 8.8933 0.9580 0 3
39.3909 7.3312 8.8971 0.9576 0 3
39.3914 7.4228 8.9010 0.9572 0 3
39.3919 7.5144 8.9049 0.9568 0 3
39.3924 7.6062 8.9088 0.9563 0 3
39.3929 7.6980 8.9128 0.9559 0 3
39.3934 7.7899 8.9169 0.9555 0 3
39.3939 7.8819 8.9210 0.9550 0 3
39.3944 7.9740 8.9251 0.9546 0 3
39.3949 8.0661 8.9293 0.9541 0 3
39.3954 8.1584 8.9336 0.9537 0 3
39.3959 8.2508 8.9379 0.9532 0 3
39.3964 8.3432 8.9422 0.9528 0 3
39.3969 8.4357 8.9466 0.9523 0 3
39.3974 8.5283 8.9510 0.9518 0 3
39.3979 8.6210 8.9555 0.9513 0 3
39.3985 8.7139 8.9601 0.9509 0 3
39.3990 8.8068 8.9646 0.9504 0 3
39.3995 8.8997 8.9693 0.9499 0 3
39.4000 8.9928 8.9740 0.9494 0 3
39.4005 9.0860 8.9787 0.9489 0 3
39.4010 9.1793 8.9835 0.9484 0 3
39.4016 9.2727 8.9883 0.9479 0 3
39.4021 9.3661 8.9932 0.9474 0 3
39.4026 9.4597 8.9982 0.9468 0 3
39.4031 9.5535 9.0032 0.9463 0 3
39.4036 9.6473 9.0082 0.9458 0 3
39.4042 9.7411 9.0133 0.9452 0 3
39.4047 9.8351 9.0184 0.9447 0 3
39.4052 9.9293 9.0236 0.9442 0 3
39.4057 10.0235 9.0289 0.9436 0 3
39.4062 10.1178 9.0342 0.9431 0 3
39.4068 10.2123 9.0395 0.9425 0 3
39.4073 10.3069 9.0449 0.9419 0 3
39.4078 10.4015 9.0504 0.9414 0 3
39.4084 10.4963 9.0559 0.9408 0 3
39.4089 10.5912 9.0615 0.9402 0 3
39.4094 10.6862 9.0671 0.9396 0 3
39.4100 10.7814 9.0727 0.9391 0 3
39.4105 10.8766 9.0785 0.9385 0 3
39.4110 10.9720 9.0842 0.9379 0 3
39.4116 11.0675 9.0901 0.9373 0 3
39.4121 11.1632 9.0959 0.9367 0 3
39.4126 11.2589 9.1019 0.9361 0 3
39.4131 11.3547 9.1079 0.9354 0 3
39.4137 11.4508 9.1139 0.9348 0 3
39.4142 11.5469 9.1200 0.9342 0 3
39.4148 11.6431 9.1261 0.9336 0 3
39.4153 11.7396 9.1323 0.9329 0 3
39.4159 11.8361 9.1386 0.9323 0 3
39.4164 11.9327 9.1449 0.9316 0 3
39.4170 12.0295 9.1513 0.9310 0 3
39.4175 12.1265 9.1577 0.9303 0 3
39.4180 12.2235 9.1642 0.9297 0 3
39.4186 12.3206 9.1707 0.9290 0 3
39.4191 12.4180 9.1773 0.9284 0 3
39.4197 12.5155 9.1839 0.9277 0 3
39.4202 12.6131 9.1906 0.9270 0 3
39.4208 12.7109 9.1974 0.9263 0 3
39.4213 12.8088 9.2042 0.9256 0 3
39.4219 12.9068 9.2111 0.9250 0 3
