ply
format ascii 1.0
element vertex 579
property float32 x
property float32 y
property float32 z
property float32 CosAngle
property uint32 ObjIdx
property uint32 ObjTag
end_header
0.7094921469688416 0.47410154342651367 -0.43809691071510315 0.3473849296569824 2915 14
0.7113476395606995 0.47078123688697815 -0.43794310092926025 0.3475070595741272 2915 14
0.7131445407867432 0.46742185950279236 -0.4377844035625458 0.34762904047966003 2915 14
0.71498042345047 0.46406248211860657 -0.4376257359981537 0.34776222705841064 2915 14
0.7167577743530273 0.4606640636920929 -0.4374645948410034 0.3478870093822479 2915 14
0.718554675579071 0.4573046863079071 -0.43729856610298157 0.34802085161209106 2915 14
0.7203124761581421 0.45390623807907104 -0.4371325671672821 0.34814804792404175 2915 14
0.7220702767372131 0.45054686069488525 -0.43696165084838867 0.34828516840934753 2915 14
0.7237499952316284 0.4471093714237213 -0.4367907643318176 0.34842315316200256 2915 14
0.7254492044448853 0.44371092319488525 -0.4366162121295929 0.3485623300075531 2915 14
0.7271288633346558 0.44029295444488525 -0.43643918633461 0.34870263934135437 2915 14
0.7287890315055847 0.43687498569488525 -0.4362585246562958 0.3488443195819855 2915 14
0.7304296493530273 0.4334374964237213 -0.43607664108276367 0.34899571537971497 2915 14
0.73207026720047 0.4299609363079071 -0.4358923137187958 0.3491402268409729 2915 14
0.7336328029632568 0.4265234172344208 -0.43570676445961 0.34929439425468445 2915 14
0.7352538704872131 0.42304685711860657 -0.435516357421875 0.34944042563438416 2915 14
0.7367773056030273 0.4196093678474426 -0.4353259205818176 0.3495972454547882 2915 14
0.7383007407188416 0.41609373688697815 -0.43513059616088867 0.34975484013557434 2915 14
0.7398046851158142 0.4126562476158142 -0.4349340796470642 0.3499143719673157 2915 14
0.7413281202316284 0.4091210961341858 -0.43473631143569946 0.3500751852989197 2915 14
0.7427734136581421 0.4056445360183716 -0.4345336854457855 0.3502371311187744 2915 14
0.74427729845047 0.4021289050579071 -0.4343322515487671 0.35040074586868286 2915 14
0.7457031011581421 0.3985937535762787 -0.43412595987319946 0.35056576132774353 2915 14
0.7471289038658142 0.39509764313697815 -0.43391722440719604 0.3507315218448639 2915 14
0.7484765648841858 0.39156249165534973 -0.43370604515075684 0.35089924931526184 2915 14
0.7498437166213989 0.38804686069488525 -0.43349242210388184 0.3510773777961731 2915 14
0.7511913776397705 0.3844921886920929 -0.43327757716178894 0.35124802589416504 2915 14
0.7525390386581421 0.38093748688697815 -0.43306028842926025 0.35142916440963745 2915 14
0.7538476586341858 0.37742185592651367 -0.4328405559062958 0.3516028821468353 2915 14
0.7551953196525574 0.37382811307907104 -0.4326184093952179 0.3517875075340271 2915 14
0.7564257383346558 0.37025389075279236 -0.4323962330818176 0.35196438431739807 2915 14
0.7576562166213989 0.36669921875 -0.4321679472923279 0.35215190052986145 2915 14
0.7588866949081421 0.363105446100235 -0.4319396913051605 0.3523412346839905 2915 14
0.7600976228713989 0.3595312535762787 -0.4317077398300171 0.3525231182575226 2915 14
0.7612499594688416 0.35593748092651367 -0.43147581815719604 0.3527156710624695 2915 14
0.7624413967132568 0.35234373807907104 -0.4312402307987213 0.35291004180908203 2915 14
0.7635937333106995 0.3487499952316284 -0.4310021996498108 0.3531064987182617 2915 14
0.7647265195846558 0.3451562523841858 -0.43076291680336 0.35329529643058777 2915 14
0.7658007740974426 0.3415234386920929 -0.4305212199687958 0.3534948527812958 2915 14
0.766894519329071 0.3379492163658142 -0.4302770793437958 0.3536967635154724 2915 14
0.7679492235183716 0.3342968821525574 -0.43003049492836 0.35390031337738037 2915 14
0.7689648270606995 0.33070310950279236 -0.4297827184200287 0.3541055917739868 2915 14
0.7699804306030273 0.32707029581069946 -0.4295312464237213 0.35431337356567383 2915 14
0.7710351347923279 0.3233984410762787 -0.42927977442741394 0.3545225262641907 2915 14
0.7720116972923279 0.3197656273841858 -0.4290258586406708 0.35473406314849854 2915 14
0.7729296684265137 0.3161328136920929 -0.4287683069705963 0.3549477458000183 2915 14
0.7738671898841858 0.31251952052116394 -0.42850950360298157 0.3551541268825531 2915 14
0.7748046517372131 0.3088671863079071 -0.4282495081424713 0.3553718030452728 2915 14
0.7757031321525574 0.3052343726158142 -0.4279870390892029 0.35559171438217163 2915 14
0.7765820026397705 0.30156248807907104 -0.42772093415260315 0.3558138608932495 2915 14
0.7774023413658142 0.2979101538658142 -0.4274548292160034 0.35603755712509155 2915 14
0.7782617211341858 0.2942578196525574 -0.42718505859375 0.3562552034854889 2915 14
0.7790429592132568 0.2906250059604645 -0.4269152879714966 0.35648393630981445 2915 14
0.7798437476158142 0.2869531214237213 -0.4266418218612671 0.3567153811454773 2915 14
0.7806640267372131 0.28328123688697815 -0.42636838555336 0.3569394648075104 2915 14
0.78138667345047 0.2796093821525574 -0.4260913133621216 0.35717570781707764 2915 14
0.7821093797683716 0.2759374976158142 -0.4258129894733429 0.3574044704437256 2915 14
0.7828124761581421 0.27226561307907104 -0.4255322217941284 0.357645720243454 2915 14
0.783496081829071 0.26859375834465027 -0.42525023221969604 0.3578794598579407 2915 14
0.7841210961341858 0.26494139432907104 -0.42496457695961 0.35811647772789 2915 14
0.7847851514816284 0.26123046875 -0.4246789515018463 0.3583645224571228 2915 14
0.7853710651397705 0.2575781047344208 -0.42439207434654236 0.3586069941520691 2915 14
0.7860546708106995 0.25386717915534973 -0.424102783203125 0.3588508367538452 2915 14
0.7866405844688416 0.25019529461860657 -0.42381101846694946 0.35909852385520935 2915 14
0.7871874570846558 0.2465234249830246 -0.4235168397426605 0.3593486249446869 2915 14
0.7877538800239563 0.24285155534744263 -0.4232214391231537 0.4306228458881378 2915 14
0.7877148389816284 0.23900389671325684 -0.42264524102211 0.4312097132205963 2915 14
0.7877148389816284 0.23511718213558197 -0.42207029461860657 0.4318017363548279 2915 14
0.7876952886581421 0.23130859434604645 -0.42149534821510315 0.43238890171051025 2915 14
0.7875781059265137 0.22749999165534973 -0.4209216237068176 0.4329806864261627 2915 14
0.78759765625 0.22365233302116394 -0.4203527867794037 0.43356820940971375 2915 14
0.7874999642372131 0.21982420980930328 -0.41978025436401367 0.43416059017181396 2915 14
0.7873632907867432 0.21601562201976776 -0.41921141743659973 0.4347481429576874 2915 14
0.7872655987739563 0.2122460901737213 -0.4186425805091858 0.4353314936161041 2915 14
0.7873632907867432 0.20847655832767487 -0.41816526651382446 0.45532748103141785 2915 14
0.7876952886581421 0.20478515326976776 -0.41786864399909973 0.4556537866592407 2915 14
0.7880077958106995 0.201171875 -0.417572021484375 0.45597338676452637 2915 14
0.7883203029632568 0.19749999046325684 -0.4172765910625458 0.45630571246147156 2915 14
0.7886718511581421 0.19382812082767487 -0.41698119044303894 0.45662274956703186 2915 14
0.7889257669448853 0.19019530713558197 -0.4166857898235321 0.45695140957832336 2915 14
0.7892773151397705 0.18654295802116394 -0.4163903594017029 0.4572656750679016 2915 14
0.7895702719688416 0.1828906238079071 -0.41609740257263184 0.45759251713752747 2915 14
0.7898046970367432 0.17923827469348907 -0.4158044457435608 0.4579133093357086 2915 14
0.7899999618530273 0.17558594048023224 -0.41551023721694946 0.4582376778125763 2915 14
0.7902148365974426 0.1719335913658142 -0.4152185022830963 0.4585648477077484 2915 14
0.7903906106948853 0.16832031309604645 -0.4149267375469208 0.45888686180114746 2915 14
0.7906054258346558 0.16464842855930328 -0.4146350026130676 0.45921146869659424 2915 14
0.7908007502555847 0.1610156148672104 -0.4143432378768921 0.45953091979026794 2915 14
0.7909374833106995 0.15734374523162842 -0.41405272483825684 0.4598532021045685 2915 14
0.7910546660423279 0.15371093153953552 -0.4137634038925171 0.4601793885231018 2915 14
0.7911913990974426 0.15007811784744263 -0.41347289085388184 0.46050044894218445 2915 14
0.7912890315055847 0.14644530415534973 -0.4131835699081421 0.4608244001865387 2915 14
0.7914062142372131 0.14281249046325684 -0.4128955006599426 0.46114200353622437 2915 14
0.79150390625 0.13917969167232513 -0.4126074016094208 0.46146371960639954 2915 14
0.7915429472923279 0.13554687798023224 -0.4123205542564392 0.46178945899009705 2915 14
0.7915819883346558 0.13195312023162842 -0.41203245520591736 0.4621089696884155 2915 14
0.7916210889816284 0.12828125059604645 -0.4117456078529358 0.4624311029911041 2915 14
0.7916210889816284 0.12468750029802322 -0.41145873069763184 0.462750107049942 2915 14
0.7916796803474426 0.12105468660593033 -0.41117551922798157 0.4630703330039978 2915 14
3.426581859588623 0.5082812309265137 -1.7785112857818604 0.46203455328941345 0 1
3.429824113845825 0.49318358302116394 -1.7790392637252808 0.46189820766448975 0 1
3.432988166809082 0.47800779342651367 -1.779567837715149 0.4617610573768616 0 1
3.4361326694488525 0.46285155415534973 -1.780096411705017 0.46162307262420654 0 1
3.439218759536743 0.44761717319488525 -1.7806273698806763 0.46148622035980225 0 1
3.4421873092651367 0.4323827922344208 -1.7811578512191772 0.4613494873046875 0 1
3.4450976848602295 0.4171484410762787 -1.781690001487732 0.4612109959125519 0 1
3.447949171066284 0.40185546875 -1.7822222709655762 0.46107450127601624 0 1
3.450761556625366 0.38664060831069946 -1.782753825187683 0.4609353840351105 0 1
3.4534568786621094 0.3713476359844208 -1.7832884788513184 0.46079811453819275 0 1
3.4561522006988525 0.35603514313697815 -1.783821940422058 0.4606601893901825 0 1
3.458730459213257 0.34068357944488525 -1.7843573093414307 0.46052220463752747 0 1
3.4612302780151367 0.3253515660762787 -1.7848925590515137 0.46038442850112915 0 1
3.4637303352355957 0.3099609315395355 -1.78542959690094 0.460244745016098 0 1
3.466074228286743 0.2946093678474426 -1.7859655618667603 0.46010705828666687 0 1
3.468398332595825 0.27925780415534973 -1.7865025997161865 0.45996779203414917 0 1
3.4706835746765137 0.2638281285762787 -1.7870415449142456 0.4598301649093628 0 1
3.472851514816284 0.24843749403953552 -1.7875792980194092 0.4596909284591675 0 1
3.474980354309082 0.23300780355930328 -1.788118839263916 0.459553599357605 0 1
3.4770116806030273 0.21751952171325684 -1.7886595726013184 0.45941442251205444 0 1
3.47900390625 0.20207031071186066 -1.7891992330551147 0.45927533507347107 0 1
3.4809374809265137 0.18664062023162842 -1.7897381782531738 0.4591364860534668 0 1
3.4827733039855957 0.17113280296325684 -1.7902806997299194 0.45899736881256104 0 1
3.4845898151397705 0.1556445211172104 -1.7908227443695068 0.4588584005832672 0 1
3.4862890243530273 0.14011718332767487 -1.7913646697998047 0.4587196111679077 0 1
3.487929582595825 0.12460937350988388 -1.7919079065322876 0.4585816264152527 0 1
3.489492177963257 0.1091015636920929 -1.792449951171875 0.458442747592926 0 1
3.4910154342651367 0.09351561963558197 -1.792995572090149 0.45830395817756653 0 1
3.4924609661102295 0.07792968302965164 -1.7935400009155273 0.458164244890213 0 1
3.493847608566284 0.06240234151482582 -1.7940832376480103 0.4580247104167938 0 1
3.4951562881469727 0.04681640490889549 -1.794629454612732 0.4578859210014343 0 1
3.4963865280151367 0.03125 -1.795174479484558 0.45774561166763306 0 1
3.49755859375 0.015664061531424522 -1.7957208156585693 0.45760706067085266 0 1
3.498652219772339 1.9531249563442543e-05 -1.7962676286697388 0.4574681222438812 0 1
3.4997265338897705 -0.015585937537252903 -1.79681396484375 0.45732879638671875 0 1
3.500624895095825 -0.03121093660593033 -1.7973613739013672 0.4571901261806488 0 1
3.501542806625366 -0.046855468302965164 -1.7979100942611694 0.4570504426956177 0 1
3.5023436546325684 -0.0625 -1.7984570264816284 0.4569120705127716 0 1
3.5030858516693115 -0.078125 -1.7990050315856934 0.45677271485328674 0 1
3.5038280487060547 -0.09378906339406967 -1.7995543479919434 0.45663225650787354 0 1
3.5044140815734863 -0.10945311933755875 -1.8001036643981934 0.4564935564994812 0 1
3.504960775375366 -0.1251562535762787 -1.8006542921066284 0.45635339617729187 0 1
3.5054101943969727 -0.14082030951976776 -1.8012030124664307 0.4562149941921234 0 1
3.5058398246765137 -0.1565234363079071 -1.8017535209655762 0.4560754895210266 0 1
3.5062108039855957 -0.17218749225139618 -1.802303433418274 0.45593613386154175 0 1
3.5064451694488525 -0.18791015446186066 -1.8028545379638672 0.45579567551612854 0 1
3.506659984588623 -0.20363280177116394 -1.8034051656723022 0.45565810799598694 0 1
3.5067968368530273 -0.21933592855930328 -1.8039568662643433 0.45551785826683044 0 1
3.5068163871765137 -0.23505859076976776 -1.8045092821121216 0.45537930727005005 0 1
3.5067968368530273 -0.2508007884025574 -1.8050609827041626 0.45523956418037415 0 1
3.506718635559082 -0.2665039002895355 -1.8056128025054932 0.45510122179985046 0 1
3.5065624713897705 -0.28226563334465027 -1.8061656951904297 0.4549616873264313 0 1
3.50634765625 -0.2980078160762787 -1.8067175149917603 0.45482221245765686 0 1
3.506054639816284 -0.31371092796325684 -1.807269811630249 0.4546828866004944 0 1
3.5057225227355957 -0.3294921815395355 -1.8078240156173706 0.4545436501502991 0 1
3.505253791809082 -0.34521484375 -1.808376431465149 0.45440444350242615 0 1
3.504765510559082 -0.3609570264816284 -1.808929443359375 0.45426687598228455 0 1
3.5041797161102295 -0.3766796886920929 -1.8094823360443115 0.4541265666484833 0 1
3.503535032272339 -0.3924609422683716 -1.810036540031433 0.45398902893066406 0 1
3.502812385559082 -0.40822264552116394 -1.8105907440185547 0.45384883880615234 0 1
3.502031087875366 -0.4239843785762787 -1.8111449480056763 0.45371013879776 0 1
3.5011913776397705 -0.4397265613079071 -1.8116979598999023 0.4535713493824005 0 1
3.5002927780151367 -0.4555078148841858 -1.8122527599334717 0.45343267917633057 0 1
3.499257802963257 -0.4712890386581421 -1.812807559967041 0.45329412817955017 0 1
3.498222589492798 -0.4870312511920929 -1.8133611679077148 0.4531554579734802 0 1
3.4970898628234863 -0.5027734041213989 -1.8139159679412842 0.45301690697669983 0 1
3.495859384536743 -0.5185546875 -1.8144701719284058 0.45287832617759705 0 1
3.494570255279541 -0.5343359112739563 -1.8150243759155273 0.4527411460876465 0 1
3.49322247505188 -0.5500390529632568 -1.815578579902649 0.4526025056838989 0 1
3.491777181625366 -0.5658007860183716 -1.816133975982666 0.45246395468711853 0 1
3.490312337875366 -0.5815624594688416 -1.8166881799697876 0.4523252844810486 0 1
3.4887304306030273 -0.5973047018051147 -1.8172423839569092 0.45218804478645325 0 1
3.4871091842651367 -0.613085925579071 -1.8177977800369263 0.45205074548721313 0 1
3.48540997505188 -0.6287890672683716 -1.8183513879776 0.4519120156764984 0 1
3.4836132526397705 -0.6445702910423279 -1.818907380104065 0.4517746567726135 0 1
3.4817967414855957 -0.6603124737739563 -1.8194615840911865 0.45163577795028687 0 1
3.4798436164855957 -0.6760546565055847 -1.820015788078308 0.4514983296394348 0 1
3.477851390838623 -0.6917577981948853 -1.8205699920654297 0.4513607621192932 0 1
3.475820302963257 -0.7074999809265137 -1.8211241960525513 0.45122313499450684 0 1
3.47369122505188 -0.7232031226158142 -1.8216784000396729 0.4510854184627533 0 1
3.471445322036743 -0.73890620470047 -1.8222326040267944 0.4509490430355072 0 1
3.469179630279541 -0.7546288967132568 -1.8227874040603638 0.45081251859664917 0 1
3.4667773246765137 -0.7703515291213989 -1.8233416080474854 0.450675904750824 0 1
3.4643945693969727 -0.7860546708106995 -1.8238946199417114 0.4505378305912018 0 1
3.4618945121765137 -0.8017773032188416 -1.824448823928833 0.4504024088382721 0 1
3.4593358039855957 -0.8174218535423279 -1.8250024318695068 0.4502655267715454 0 1
3.456718683242798 -0.8331249952316284 -1.8255553245544434 0.4501284658908844 0 1
3.4540233612060547 -0.8488085865974426 -1.8261089324951172 0.44999268651008606 0 1
3.451249837875366 -0.8644530773162842 -1.8266613483428955 0.4498555064201355 0 1
3.448378801345825 -0.8801562190055847 -1.8272149562835693 0.44972091913223267 0 1
3.445507764816284 -0.8957812190055847 -1.827767252922058 0.44958335161209106 0 1
3.4424803256988525 -0.911425769329071 -1.8283190727233887 0.44944849610328674 0 1
3.439394474029541 -0.9270312190055847 -1.8288720846176147 0.4493119716644287 0 1
3.436269521713257 -0.942675769329071 -1.8294237852096558 0.4491782784461975 0 1
3.4330663681030273 -0.9582616686820984 -1.8299754858016968 0.44904154539108276 0 1
3.4297850131988525 -0.9739062190055847 -1.8305273056030273 0.4489060640335083 0 1
3.426464796066284 -0.9894726276397705 -1.831077218055725 0.4487718939781189 0 1
3.423027276992798 -1.005039095878601 -1.8316283226013184 0.44863617420196533 0 1
3.419511556625366 -1.0206249952316284 -1.8321789503097534 0.4485014081001282 0 1
3.415956974029541 -1.0361913442611694 -1.832729458808899 0.4483667016029358 0 1
3.4123241901397705 -1.0517578125 -1.833278775215149 0.4482332170009613 0 1
3.4086132049560547 -1.067285180091858 -1.833828091621399 0.44809821248054504 0 1
3.4048242568969727 -1.0828124284744263 -1.8343780040740967 0.4479644298553467 0 1
3.400995969772339 -1.0983202457427979 -1.8349261283874512 0.44783031940460205 0 1
3.3970701694488525 -1.1138280630111694 -1.8354748487472534 0.4476962387561798 0 1
3.3931055068969727 -1.1293163299560547 -1.8360228538513184 0.4475618004798889 0 1
3.3890233039855957 -1.1448047161102295 -1.8365709781646729 0.44742855429649353 0 1
3.384882688522339 -1.1602343320846558 -1.8371179103851318 0.44729530811309814 0 1
3.3806638717651367 -1.1756640672683716 -1.8376641273498535 0.4471617341041565 0 1
3.376406192779541 -1.1911327838897705 -1.8382116556167603 0.4470292627811432 0 1
3.3720507621765137 -1.2065234184265137 -1.8387566804885864 0.44689685106277466 0 1
3.3676562309265137 -1.2219140529632568 -1.8393023014068604 0.4467639923095703 0 1
3.3631443977355957 -1.2373046875 -1.8398473262786865 0.44663119316101074 0 1
3.358593702316284 -1.2526562213897705 -1.840391755104065 0.4464994966983795 0 1
3.353945255279541 -1.268007755279541 -1.8409361839294434 0.44636890292167664 0 1
3.349238157272339 -1.2833592891693115 -1.8414794206619263 0.4462367594242096 0 1
3.344472646713257 -1.298671841621399 -1.8420226573944092 0.44610461592674255 0 1
3.3396289348602295 -1.31396484375 -1.8425647020339966 0.44597363471984863 0 1
3.334707021713257 -1.3292577266693115 -1.8431066274642944 0.44584205746650696 0 1
3.329706907272339 -1.3445311784744263 -1.843648076057434 0.4457121193408966 0 1
3.3246679306030273 -1.3597265481948853 -1.8441882133483887 0.4455806314945221 0 1
3.319511651992798 -1.3749804496765137 -1.844728946685791 0.4454501271247864 0 1
3.3143162727355957 -1.3901562690734863 -1.84526789188385 0.4453207552433014 0 1
3.3090429306030273 -1.4053906202316284 -1.8458080291748047 0.4451897144317627 0 1
3.30376935005188 -1.4205468893051147 -1.8463457822799683 0.4450603127479553 0 1
3.29833984375 -1.4356640577316284 -1.8468835353851318 0.4449302852153778 0 1
3.2928123474121094 -1.4508007764816284 -1.847420573234558 0.4448018968105316 0 1
3.287304639816284 -1.4659374952316284 -1.8479565382003784 0.4446718692779541 0 1
3.2816600799560547 -1.4810155630111694 -1.848492980003357 0.44454285502433777 0 1
3.2759764194488525 -1.4960546493530273 -1.8490289449691772 0.44441479444503784 0 1
3.270214796066284 -1.5110937356948853 -1.8495635986328125 0.4442867040634155 0 1
3.264335870742798 -1.5261328220367432 -1.850096344947815 0.4441585838794708 0 1
3.2584569454193115 -1.5410937070846558 -1.8506298065185547 0.44403043389320374 0 1
3.2524609565734863 -1.556093692779541 -1.851162075996399 0.44390326738357544 0 1
3.2464256286621094 -1.5710546970367432 -1.8516936302185059 0.44377440214157104 0 1
3.2403318881988525 -1.585976481437683 -1.8522247076034546 0.4436471462249756 0 1
3.2341015338897705 -1.6008788347244263 -1.852755069732666 0.44352078437805176 0 1
3.2278709411621094 -1.6157422065734863 -1.8532836437225342 0.44339439272880554 0 1
3.2215819358825684 -1.6306054592132568 -1.8538134098052979 0.44326791167259216 0 1
3.2151756286621094 -1.6454296112060547 -1.854339599609375 0.44314146041870117 0 1
3.208691358566284 -1.6602343320846558 -1.854866862297058 0.44301578402519226 0 1
3.2021875381469727 -1.6750390529632568 -1.855393648147583 0.44289007782936096 0 1
3.195566415786743 -1.6897655725479126 -1.8559191226959229 0.4427643120288849 0 1
3.1889257431030273 -1.7044920921325684 -1.8564428091049194 0.4426402151584625 0 1
3.1821680068969727 -1.719179630279541 -1.856966495513916 0.44251513481140137 0 1
3.1753320693969727 -1.7338671684265137 -1.857488989830017 0.4423908293247223 0 1
3.1684765815734863 -1.7485156059265137 -1.8580107688903809 0.4422656297683716 0 1
3.1615428924560547 -1.763124942779541 -1.8585326671600342 0.4421420097351074 0 1
3.1545116901397705 -1.7776952981948853 -1.859052062034607 0.4420183002948761 0 1
3.1474218368530273 -1.79226553440094 -1.8595714569091797 0.4418944716453552 0 1
3.140253782272339 -1.8067773580551147 -1.8600890636444092 0.4417722821235657 0 1
3.1330273151397705 -1.8212890625 -1.8606066703796387 0.44164904952049255 0 1
3.1257617473602295 -1.8357421159744263 -1.861122965812683 0.4415265917778015 0 1
3.118398427963257 -1.8502148389816284 -1.8616381883621216 0.4414041042327881 0 1
3.110976457595825 -1.8646093606948853 -1.862152099609375 0.4412821829319 0 1
1.5815038681030273 -0.9575585722923279 -0.9492327570915222 0.43307995796203613 2915 14
1.583828091621399 -0.9686328172683716 -0.9531713724136353 0.4312918186187744 2915 14
1.5860742330551147 -0.979785144329071 -0.9571746587753296 0.42948925495147705 2915 14
1.5884374380111694 -0.9910546541213989 -0.9612402319908142 0.4276694655418396 2915 14
1.5907812118530273 -1.0024023056030273 -0.9653710722923279 0.425840824842453 2915 14
1.593203067779541 -1.0139062404632568 -0.9695660471916199 0.42399632930755615 2915 14
1.595644474029541 -1.0254687070846558 -0.9738280773162842 0.42214205861091614 2915 14
1.59814453125 -1.037148356437683 -0.9781573414802551 0.42027348279953003 2915 14
1.600624918937683 -1.048984408378601 -0.9825555086135864 0.41839101910591125 2915 14
1.6032226085662842 -1.060937523841858 -0.9870238900184631 0.41649848222732544 2915 14
1.605800747871399 -1.0729687213897705 -0.9915636777877808 0.41459232568740845 2915 14
1.6084569692611694 -1.0851562023162842 -0.9961779713630676 0.4126729369163513 2915 14
1.6111327409744263 -1.0974608659744263 -1.000864863395691 0.41073963046073914 2915 14
1.6138476133346558 -1.1098828315734863 -1.0056273937225342 0.4087931513786316 2915 14
1.616640567779541 -1.1224218606948853 -1.010467529296875 0.4068341851234436 2915 14
1.6194921731948853 -1.135156273841858 -1.0153851509094238 0.4048677682876587 2915 14
1.6223242282867432 -1.1480077505111694 -1.0203826427459717 0.40288448333740234 2915 14
1.6252343654632568 -1.1609960794448853 -1.0254632234573364 0.40088748931884766 2915 14
1.6282225847244263 -1.1741210222244263 -1.0306249856948853 0.3988807499408722 2915 14
1.631191372871399 -1.1873828172683716 -1.0358740091323853 0.3968561291694641 2915 14
1.63427734375 -1.2008203268051147 -1.041207194328308 0.3948259949684143 2915 14
1.6373437643051147 -1.2143359184265137 -1.0466296672821045 0.39277979731559753 2915 14
1.6405467987060547 -1.2280858755111694 -1.0521422624588013 0.3907241225242615 2915 14
1.6437304019927979 -1.2419531345367432 -1.057745337486267 0.38865137100219727 2915 14
1.647011637687683 -1.2560350894927979 -1.0634448528289795 0.3865702152252197 2915 14
1.650331974029541 -1.2702734470367432 -1.0692389011383057 0.3844739496707916 2915 14
1.6537303924560547 -1.2846484184265137 -1.0751287937164307 0.3823687434196472 2915 14
1.657167911529541 -1.299218773841858 -1.0811212062835693 0.38025012612342834 2915 14
2.8663671016693115 -2.2679295539855957 -1.8765869140625 0.4378884434700012 0 1
2.8569531440734863 -2.2812891006469727 -1.8770660161972046 0.4377764165401459 0 1
2.847460985183716 -2.2946484088897705 -1.8775451183319092 0.4376651346683502 0 1
2.837890625 -2.3078906536102295 -1.878021240234375 0.4375535547733307 0 1
2.8282811641693115 -2.3211326599121094 -1.8784972429275513 0.4374432861804962 0 1
2.818593740463257 -2.3343358039855957 -1.8789714574813843 0.4373321235179901 0 1
2.808906078338623 -2.347460985183716 -1.8794432878494263 0.4372217655181885 0 1
2.799062490463257 -2.3605663776397705 -1.8799145221710205 0.43711283802986145 0 1
2.789199113845825 -2.3736326694488525 -1.880383849143982 0.43700289726257324 0 1
2.7792773246765137 -2.3866405487060547 -1.8808519840240479 0.43689435720443726 0 1
2.769277334213257 -2.3996288776397705 -1.8813183307647705 0.43678709864616394 0 1
2.7592577934265137 -2.412539005279541 -1.8817846775054932 0.436678409576416 0 1
2.7491209506988525 -2.425429582595825 -1.8822485208511353 0.43657106161117554 0 1
2.7389256954193115 -2.438281297683716 -1.882710576057434 0.43646323680877686 0 1
2.728710889816284 -2.4510741233825684 -1.8831713199615479 0.4363580048084259 0 1
2.718398332595825 -2.4638280868530273 -1.8836309909820557 0.4362500011920929 0 1
2.7080273628234863 -2.4765429496765137 -1.8840880393981934 0.4361450672149658 0 1
2.6975975036621094 -2.4892187118530273 -1.8845452070236206 0.43603917956352234 0 1
1.403417944908142 -1.306679606437683 -0.9845001101493835 0.01803150773048401 2915 14
1.3432421684265137 -1.261816382408142 -0.9462035894393921 0.32146328687667847 2915 14
1.335351586341858 -1.2657421827316284 -0.9446429014205933 0.3219935894012451 2915 14
1.327480435371399 -1.269570231437683 -0.9430785775184631 0.3225284218788147 2915 14
1.3196094036102295 -1.2733592987060547 -0.941512405872345 0.323066771030426 2915 14
1.3117187023162842 -1.2771093845367432 -0.9399438500404358 0.32360395789146423 2915 14
1.3038281202316284 -1.2807812690734863 -0.938372790813446 0.32414600253105164 2915 14
1.2959569692611694 -1.2844531536102295 -0.9368017315864563 0.3246915340423584 2915 14
2.338984251022339 2.339062452316284 -1.7155028581619263 0.48283156752586365 0 1
2.3498241901397705 2.3290624618530273 -1.7158422470092773 0.48273757100105286 0 1
2.360722541809082 2.319023370742798 -1.7161822319030762 0.4826407730579376 0 1
2.371523380279541 2.308906316757202 -1.716524600982666 0.48254549503326416 0 1
2.3822460174560547 2.298769474029541 -1.716868281364441 0.48244932293891907 0 1
2.393007755279541 2.2885937690734863 -1.7172143459320068 0.4823506474494934 0 1
2.4036521911621094 2.2783594131469727 -1.7175610065460205 0.48225319385528564 0 1
2.414296865463257 2.2680468559265137 -1.7179101705551147 0.48215508460998535 0 1
2.4248437881469727 2.257695198059082 -1.718260407447815 0.4820585250854492 0 1
2.435429573059082 2.247304677963257 -1.7186126708984375 0.48195916414260864 0 1
2.4459569454193115 2.2369139194488525 -1.718966007232666 0.48185884952545166 0 1
2.456367015838623 2.2264060974121094 -1.7193230390548706 0.48176032304763794 0 1
2.466796875 2.215898275375366 -1.7196801900863647 0.4816608726978302 0 1
2.4772069454193115 2.205312490463257 -1.7200396060943604 0.48155853152275085 0 1
2.487539052963257 2.1946873664855957 -1.7203997373580933 0.4814574420452118 0 1
2.497851610183716 2.1840624809265137 -1.7207616567611694 0.4813559949398041 0 1
2.508066415786743 2.1733202934265137 -1.7211272716522217 0.48125576972961426 0 1
2.5183398723602295 2.1625781059265137 -1.7214922904968262 0.48115262389183044 0 1
2.528456926345825 2.1517772674560547 -1.7218596935272217 0.4810507595539093 0 1
2.5385937690734863 2.140937566757202 -1.72222900390625 0.48094597458839417 0 1
2.548652172088623 2.130058526992798 -1.7225995063781738 0.4808426797389984 0 1
2.5586912631988525 2.1191015243530273 -1.7229723930358887 0.48074084520339966 0 1
2.568671703338623 2.108144521713257 -1.7233452796936035 0.4806358814239502 0 1
2.5786523818969727 2.0970702171325684 -1.7237218618392944 0.48053017258644104 0 1
2.588515520095825 2.0860350131988525 -1.724099040031433 0.48042574524879456 0 1
2.598378896713257 2.0749218463897705 -1.7244781255722046 0.4803205132484436 0 1
2.6081836223602295 2.063710927963257 -1.724859595298767 0.48021459579467773 0 1
2.6179492473602295 2.052539110183716 -1.7252404689788818 0.48010772466659546 0 1
2.6276562213897705 2.0412890911102295 -1.7256237268447876 0.4800000488758087 0 1
2.637343645095825 2.029980421066284 -1.7260100841522217 0.47989383339881897 0 1
2.64697265625 2.018671751022339 -1.726395845413208 0.47978654503822327 0 1
2.6565234661102295 2.007265567779541 -1.726784586906433 0.47967857122421265 0 1
2.666074275970459 1.9958398342132568 -1.7271746397018433 0.479569673538208 0 1
2.675546884536743 1.984375 -1.7275664806365967 0.47946205735206604 0 1
2.6849608421325684 1.9728906154632568 -1.7279589176177979 0.4793514013290405 0 1
2.694413900375366 1.9613475799560547 -1.7283544540405273 0.47924211621284485 0 1
2.703749895095825 1.9497264623641968 -1.7287499904632568 0.47913190722465515 0 1
2.713027238845825 1.9381250143051147 -1.7291479110717773 0.4790229797363281 0 1
2.7223241329193115 1.9264256954193115 -1.7295477390289307 0.47891101241111755 0 1
2.7314648628234863 1.9147069454193115 -1.72994863986969 0.4788002371788025 0 1
2.740664005279541 1.9029101133346558 -1.7303502559661865 0.47868868708610535 0 1
2.7497265338897705 1.89111328125 -1.7307543754577637 0.4785783588886261 0 1
2.7588086128234863 1.8792577981948853 -1.7311608791351318 0.47846487164497375 0 1
2.767773389816284 1.8673827648162842 -1.7315673828125 0.47835272550582886 0 1
2.776796817779541 1.8554296493530273 -1.7319756746292114 0.47823968529701233 0 1
2.7856640815734863 1.8434374332427979 -1.7323864698410034 0.47812777757644653 0 1
2.7945311069488525 1.8314452171325684 -1.7327978610992432 0.47801291942596436 0 1
2.803359270095825 1.8194140195846558 -1.7332110404968262 0.4778991937637329 0 1
2.812148332595825 1.8073241710662842 -1.7336242198944092 0.47778457403182983 0 1
2.8208398818969727 1.7951562404632568 -1.7340410947799683 0.47767117619514465 0 1
2.8295116424560547 1.7830077409744263 -1.7344579696655273 0.47755688428878784 0 1
2.838124990463257 1.7708007097244263 -1.7348772287368774 0.4774415194988251 0 1
0.7143359184265137 0.4412890672683716 -0.43547728657722473 0.35227033495903015 2915 14
0.7160546779632568 0.4379296898841858 -0.4353051781654358 0.3524053692817688 2915 14
0.7176757454872131 0.4345703125 -0.43513059616088867 0.3525504469871521 2915 14
0.7193554639816284 0.43117186427116394 -0.43495482206344604 0.35268837213516235 2915 14
0.7209765315055847 0.4277734160423279 -0.43477538228034973 0.35283640027046204 2915 14
0.7225390672683716 0.4244140386581421 -0.4345934987068176 0.35298487544059753 2915 14
0.7241015434265137 0.4210156202316284 -0.43440917134284973 0.3531355857849121 2915 14
0.7256835699081421 0.4175781011581421 -0.43422240018844604 0.3532875180244446 2915 14
0.7272655963897705 0.41414061188697815 -0.43403440713882446 0.35344061255455017 2915 14
0.7287695407867432 0.4107421636581421 -0.4338427782058716 0.3535955548286438 2915 14
0.7302538752555847 0.4072656035423279 -0.4336511194705963 0.3537522256374359 2915 14
0.7317187190055847 0.40382811427116394 -0.43345457315444946 0.3539097011089325 2915 14
0.7331835627555847 0.400390625 -0.4332556128501892 0.35406893491744995 2915 14
0.7346093654632568 0.3969140648841858 -0.43305540084838867 0.35423901677131653 2915 14
0.736035168170929 0.3934570252895355 -0.43285277485847473 0.3544010818004608 2915 14
0.7374218702316284 0.38999998569488525 -0.4326489269733429 0.35457414388656616 2915 14
0.7388671636581421 0.38652342557907104 -0.432441383600235 0.3547394275665283 2915 14
0.740234375 0.38304686546325684 -0.43223142623901367 0.3549158573150635 2915 14
0.7415429353713989 0.37953123450279236 -0.43202024698257446 0.3550845980644226 2915 14
0.7428515553474426 0.3760351538658142 -0.43180662393569946 0.355264276266098 2915 14
0.744140625 0.37253904342651367 -0.43159055709838867 0.3554360866546631 2915 14
0.7453905940055847 0.3690234422683716 -0.4313708543777466 0.3556188941001892 2915 14
0.7466601133346558 0.3655078113079071 -0.4311498999595642 0.35580363869667053 2915 14
0.7479101419448853 0.3619726598262787 -0.43092772364616394 0.3559901714324951 2915 14
0.7491406202316284 0.35847654938697815 -0.43070188164711 0.3561689555644989 2915 14
0.7503515481948853 0.3548828065395355 -0.4304748475551605 0.3563590943813324 2915 14
0.7514843344688416 0.351386696100235 -0.430244117975235 0.356550931930542 2915 14
0.7526171803474426 0.34785154461860657 -0.43001341819763184 0.35674476623535156 2915 14
0.7537499666213989 0.3442773222923279 -0.4297802746295929 0.35694050788879395 2915 14
0.7549414038658142 0.3407226502895355 -0.4295434355735779 0.3571287989616394 2915 14
0.75599604845047 0.33714842796325684 -0.42930540442466736 0.35732829570770264 2915 14
0.757128894329071 0.3335937559604645 -0.42906615138053894 0.35752978920936584 2915 14
0.7581250071525574 0.33003905415534973 -0.42882445454597473 0.35773372650146484 2915 14
0.7591406106948853 0.3264453113079071 -0.42857909202575684 0.35793930292129517 2915 14
0.7601757645606995 0.32289060950279236 -0.42833250761032104 0.3581470847129822 2915 14
0.7611523270606995 0.31929686665534973 -0.42808347940444946 0.3583475351333618 2915 14
0.7621484398841858 0.3157031238079071 -0.42783322930336 0.35855937004089355 2915 14
0.7630664110183716 0.3121093809604645 -0.427581787109375 0.35877352952957153 2915 14
0.7640038728713989 0.3084765672683716 -0.42732542753219604 0.3589898645877838 2915 14
0.7649218440055847 0.30492186546325684 -0.4270690679550171 0.3591993451118469 2915 14
0.765820324420929 0.3013085722923279 -0.42681029438972473 0.3594202697277069 2915 14
0.7666601538658142 0.2977343797683716 -0.4265490770339966 0.3596435487270355 2915 14
0.7675195336341858 0.29414060711860657 -0.42628782987594604 0.3598598837852478 2915 14
0.7683203220367432 0.29052734375 -0.4260229468345642 0.3600878119468689 2915 14
0.76917964220047 0.28691405057907104 -0.4257556200027466 0.36030906438827515 2915 14
0.7699804306030273 0.28328123688697815 -0.42548948526382446 0.36054161190986633 2915 14
0.7707226276397705 0.27964842319488525 -0.42521849274635315 0.36076757311820984 2915 14
0.7715038657188416 0.27607420086860657 -0.42494505643844604 0.36099642515182495 2915 14
0.772167980670929 0.2724609375 -0.42466917634010315 0.3612273931503296 2915 14
0.7728515267372131 0.2688281238079071 -0.42439329624176025 0.36147040128707886 2915 14
0.7735351324081421 0.26521483063697815 -0.42411619424819946 0.3617069125175476 2915 14
0.774218738079071 0.2615624964237213 -0.4238378703594208 0.36194589734077454 2915 14
0.77490234375 0.2579296827316284 -0.4235546886920929 0.36218735575675964 2915 14
0.77552729845047 0.2542968690395355 -0.4232714772224426 0.3624221682548523 2915 14
0.7761132717132568 0.2506640553474426 -0.42298582196235657 0.3626694083213806 2915 14
0.7766796946525574 0.24703124165534973 -0.422698974609375 0.36292004585266113 2915 14
0.7772460579872131 0.24339842796325684 -0.42240965366363525 0.3631635308265686 2915 14
0.7778124809265137 0.23972655832767487 -0.422119140625 0.3634188175201416 2915 14
0.7783398032188416 0.2361132800579071 -0.42182737588882446 0.3636685311794281 2915 14
0.7788280844688416 0.2324804663658142 -0.4215319752693176 0.363921195268631 2915 14
0.779296875 0.22886718809604645 -0.4212365746498108 0.36417636275291443 2915 14
0.7793749570846558 0.22511717677116394 -0.4207409620285034 0.4366230070590973 2915 14
0.7793554663658142 0.22128905355930328 -0.42017698287963867 0.43721604347229004 2915 14
0.7792577743530273 0.21753905713558197 -0.4196118116378784 0.437804639339447 2915 14
0.7792187333106995 0.21378906071186066 -0.41904905438423157 0.4383876919746399 2915 14
0.7790820002555847 0.21003906428813934 -0.418487548828125 0.4389771819114685 2915 14
0.77943354845047 0.2063867151737213 -0.41816526651382446 0.4589642882347107 2915 14
0.77978515625 0.20275390148162842 -0.4178723096847534 0.459291011095047 2915 14
0.7801757454872131 0.19914062321186066 -0.4175781011581421 0.4596119225025177 2915 14
0.780468761920929 0.19554686546325684 -0.41728636622428894 0.4599354863166809 2915 14
0.7807812094688416 0.19191405177116394 -0.4169934093952179 0.46026185154914856 2915 14
0.781054675579071 0.18830077350139618 -0.41670164465904236 0.46058422327041626 2915 14
0.78138667345047 0.18464843928813934 -0.4164099097251892 0.4608987867832184 2915 14
0.7816210985183716 0.1810351461172104 -0.41611936688423157 0.4612264633178711 2915 14
0.781933605670929 0.1774609386920929 -0.4158300757408142 0.46154874563217163 2915 14
0.7821484208106995 0.173828125 -0.41553831100463867 0.4618736505508423 2915 14
0.78236323595047 0.17021484673023224 -0.4152477979660034 0.4621935486793518 2915 14
0.7825390696525574 0.16664062440395355 -0.41495969891548157 0.462516188621521 2915 14
0.7827734351158142 0.16298827528953552 -0.4146716296672821 0.46283361315727234 2915 14
0.7829687595367432 0.1593945324420929 -0.41438230872154236 0.4631539285182953 2915 14
0.7831054329872131 0.15578123927116394 -0.4140954613685608 0.46347808837890625 2915 14
0.7832226157188416 0.1521874964237213 -0.41380736231803894 0.46380510926246643 2915 14
3.36083984375 0.6374413967132568 -1.7740551233291626 0.46689558029174805 0 1
3.3646092414855957 0.6226171851158142 -1.7745709419250488 0.4667612910270691 0 1
3.368359327316284 0.6077343821525574 -1.7750884294509888 0.46662548184394836 0 1
3.372011661529541 0.5928906202316284 -1.7756054401397705 0.46648985147476196 0 1
3.3755857944488525 0.5780273079872131 -1.776123046875 0.466352641582489 0 1
3.379140615463257 0.5631250143051147 -1.7766424417495728 0.46621668338775635 0 1
3.3826169967651367 0.5481640696525574 -1.777163028717041 0.466079980134964 0 1
3.3860156536102295 0.5332421660423279 -1.7776830196380615 0.4659435451030731 0 1
3.389355421066284 0.5182812213897705 -1.778204321861267 0.46580737829208374 0 1
3.3926172256469727 0.5032812356948853 -1.7787268161773682 0.46567046642303467 0 1
3.395820140838623 0.48826169967651367 -1.7792497873306274 0.4655337929725647 0 1
3.3989648818969727 0.4732421636581421 -1.779773473739624 0.46539735794067383 0 1
3.4020702838897705 0.45820310711860657 -1.7802971601486206 0.46525928378105164 0 1
3.405097484588623 0.4432031214237213 -1.780821442604065 0.4651223421096802 0 1
3.4080467224121094 0.42808592319488525 -1.781347632408142 0.46498557925224304 0 1
3.4109373092651367 0.41300779581069946 -1.7818737030029297 0.4648471772670746 0 1
3.413769483566284 0.39791014790534973 -1.7824004888534546 0.46471086144447327 0 1
3.41650390625 0.38277342915534973 -1.782928466796875 0.46457281708717346 0 1
3.4191601276397705 0.3676171898841858 -1.783457636833191 0.4644358456134796 0 1
3.421757698059082 0.35246092081069946 -1.7839856147766113 0.46429911255836487 0 1
3.42437481880188 0.3372851610183716 -1.7845159769058228 0.4641587734222412 0 1
3.4268553256988525 0.3221093714237213 -1.7850457429885864 0.4640233516693115 0 1
3.4292383193969727 0.3069140613079071 -1.7855761051177979 0.4638843238353729 0 1
3.4316210746765137 0.2916796803474426 -1.786108374595642 0.4637463092803955 0 1
3.4338865280151367 0.27644529938697815 -1.786639928817749 0.4636085331439972 0 1
3.436113119125366 0.26119139790534973 -1.787172794342041 0.4634699523448944 0 1
3.4382810592651367 0.2459765523672104 -1.7877050638198853 0.46333158016204834 0 1
3.4403905868530273 0.23066405951976776 -1.7882397174835205 0.46319320797920227 0 1
3.4424023628234863 0.2153906226158142 -1.788773775100708 0.4630550146102905 0 1
3.4443359375 0.20011718571186066 -1.7893084287643433 0.4629170894622803 0 1
3.4462499618530273 0.1847851574420929 -1.7898436784744263 0.4627772569656372 0 1
3.4480857849121094 0.16941405832767487 -1.790380835533142 0.4626394510269165 0 1
3.449824094772339 0.1540820300579071 -1.7909166812896729 0.4625018239021301 0 1
3.4514646530151367 0.1387304663658142 -1.791453242301941 0.4623633921146393 0 1
3.453125 0.12333983927965164 -1.7919915914535522 0.4622240662574768 0 1
3.4546873569488525 0.10800781100988388 -1.7925292253494263 0.46208497881889343 0 1
3.4561522006988525 0.09261718392372131 -1.7930669784545898 0.4619467854499817 0 1
3.4575586318969727 0.07718750089406967 -1.7936065196990967 0.46180763840675354 0 1
3.458925724029541 0.06175781041383743 -1.7941454648971558 0.461669921875 0 1
3.460195302963257 0.046367187052965164 -1.7946850061416626 0.4615301191806793 0 1
3.46142578125 0.030937498435378075 -1.7952251434326172 0.46139058470726013 0 1
3.462578058242798 0.015488280914723873 -1.7957665920257568 0.46125292778015137 0 1
3.4636523723602295 3.9062499126885086e-05 -1.7963073253631592 0.4611126780509949 0 1
3.4646482467651367 -0.015390624292194843 -1.7968480587005615 0.46097439527511597 0 1
3.4656054973602295 -0.030898436903953552 -1.7973906993865967 0.4608350694179535 0 1
3.466484308242798 -0.046367187052965164 -1.7979321479797363 0.4606960415840149 0 1
3.4672656059265137 -0.06187499687075615 -1.7984758615493774 0.4605576694011688 0 1
3.468007802963257 -0.07734374701976776 -1.7990179061889648 0.46041783690452576 0 1
3.4686522483825684 -0.09289062023162842 -1.7995623350143433 0.4602799117565155 0 1
3.469316244125366 -0.1083984375 -1.8001055717468262 0.46013930439949036 0 1
3.4698240756988525 -0.12390624731779099 -1.8006494045257568 0.46000057458877563 0 1
3.47027325630188 -0.13941405713558197 -1.8011932373046875 0.4598620533943176 0 1
3.4706640243530273 -0.15492187440395355 -1.8017382621765137 0.45972251892089844 0 1
3.470957040786743 -0.1704687476158142 -1.802282691001892 0.4595847427845001 0 1
3.4712305068969727 -0.18601562082767487 -1.802828311920166 0.4594455659389496 0 1
3.4714062213897705 -0.20156249403953552 -1.80337393283844 0.45930537581443787 0 1
3.4715428352355957 -0.21710936725139618 -1.8039190769195557 0.4591682255268097 0 1
3.4716014862060547 -0.23265624046325684 -1.8044652938842773 0.45902836322784424 0 1
3.4715232849121094 -0.24828124046325684 -1.805012822151184 0.458888977766037 0 1
3.4714841842651367 -0.2638281285762787 -1.8055590391159058 0.4587510824203491 0 1
3.471328020095825 -0.2794531285762787 -1.8061059713363647 0.4586120843887329 0 1
3.4710936546325684 -0.2949804663658142 -1.8066527843475342 0.4584716260433197 0 1
3.4707422256469727 -0.310546875 -1.8071997165679932 0.45833292603492737 0 1
3.470449209213257 -0.32613280415534973 -1.8077465295791626 0.45819440484046936 0 1
3.469960927963257 -0.34171873331069946 -1.808294653892517 0.4580560028553009 0 1
3.469492197036743 -0.3573242127895355 -1.8088421821594238 0.4579164385795593 0 1
3.468867063522339 -0.3729296922683716 -1.8093907833099365 0.45777982473373413 0 1
3.468203067779541 -0.3885156214237213 -1.809938907623291 0.45764052867889404 0 1
3.467519521713257 -0.404121071100235 -1.8104870319366455 0.45750269293785095 0 1
3.4667186737060547 -0.41972655057907104 -1.81103515625 0.4573636054992676 0 1
3.4658594131469727 -0.4353124797344208 -1.811583161354065 0.45722466707229614 0 1
3.464960813522339 -0.4508984386920929 -1.8121318817138672 0.45708584785461426 0 1
3.463984251022339 -0.4664843678474426 -1.8126806020736694 0.45694708824157715 0 1
3.4628710746765137 -0.4820898473262787 -1.813228726387024 0.45680978894233704 0 1
3.4617185592651367 -0.49769529700279236 -1.8137774467468262 0.456672728061676 0 1
3.4605467319488525 -0.5132812261581421 -1.8143261671066284 0.456532746553421 0 1
3.4592578411102295 -0.5288671851158142 -1.8148748874664307 0.45639440417289734 0 1
3.4579100608825684 -0.5444530844688416 -1.8154234886169434 0.4562574028968811 0 1
3.4565038681030273 -0.5600976347923279 -1.8159735202789307 0.456119179725647 0 1
3.4549999237060547 -0.5757030844688416 -1.8165221214294434 0.45598089694976807 0 1
3.4534177780151367 -0.5912890434265137 -1.8170708417892456 0.45584413409233093 0 1
3.451796770095825 -0.6068750023841858 -1.8176201581954956 0.4557074010372162 0 1
3.4501171112060547 -0.6224218606948853 -1.8181688785552979 0.455567866563797 0 1
3.4483397006988525 -0.6380273103713989 -1.8187181949615479 0.45543113350868225 0 1
3.4465038776397705 -0.6535937190055847 -1.8192663192749023 0.45529302954673767 0 1
3.444570302963257 -0.6691601276397705 -1.8198156356811523 0.4551578164100647 0 1
3.442578077316284 -0.6847265362739563 -1.8203643560409546 0.45501968264579773 0 1
3.4405272006988525 -0.70033198595047 -1.8209130764007568 0.45488300919532776 0 1
3.4383788108825684 -0.7158983945846558 -1.8214610815048218 0.4547463059425354 0 1
3.436210870742798 -0.7314453125 -1.822009801864624 0.4546082615852356 0 1
3.4339451789855957 -0.7469921708106995 -1.8225585222244263 0.4544714689254761 0 1
3.4316210746765137 -0.7625195384025574 -1.823106050491333 0.4543347954750061 0 1
3.4292187690734863 -0.7780859470367432 -1.8236547708511353 0.4541994035243988 0 1
3.4267382621765137 -0.7936132550239563 -1.8242028951644897 0.4540625810623169 0 1
3.424199104309082 -0.8091210722923279 -1.8247509002685547 0.4539256989955902 0 1
3.421581983566284 -0.8246484398841858 -1.8252984285354614 0.4537888765335083 0 1
3.418886661529541 -0.8401562571525574 -1.8258459568023682 0.45365333557128906 0 1
3.416093587875366 -0.8556640148162842 -1.8263933658599854 0.4535178244113922 0 1
3.4133007526397705 -0.8711327910423279 -1.8269402980804443 0.4533807039260864 0 1
3.410390615463257 -0.8866601586341858 -1.827486515045166 0.45324644446372986 0 1
3.407421827316284 -0.902148425579071 -1.8280340433120728 0.45311054587364197 0 1
3.40435528755188 -0.91761714220047 -1.8285802602767944 0.45297476649284363 0 1
3.4012694358825684 -0.9330859184265137 -1.8291271924972534 0.45283880829811096 0 1
3.3981053829193115 -0.9485155940055847 -1.8296722173690796 0.45270422101020813 0 1
3.3948240280151367 -0.9639452695846558 -1.8302178382873535 0.45256975293159485 0 1
3.3914647102355957 -0.9794140458106995 -1.8307641744613647 0.4524347484111786 0 1
3.3880858421325684 -0.9948437213897705 -1.831309199333191 0.45229989290237427 0 1
3.384648323059082 -1.01025390625 -1.8318536281585693 0.4521650969982147 0 1
3.3811328411102295 -1.0256054401397705 -1.8323974609375 0.45203009247779846 0 1
3.377519369125366 -1.041015625 -1.8329418897628784 0.45189645886421204 0 1
3.3738279342651367 -1.0564062595367432 -1.8334863185882568 0.45176252722740173 0 1
3.370058536529541 -1.0717382431030273 -1.8340288400650024 0.451628714799881 0 1
3.3662500381469727 -1.087070345878601 -1.8345720767974854 0.45149460434913635 0 1
3.3623437881469727 -1.1024218797683716 -1.8351153135299683 0.45136183500289917 0 1
3.3583984375 -1.1177538633346558 -1.8356566429138184 0.45122912526130676 0 1
3.3543357849121094 -1.1330859661102295 -1.8361998796463013 0.45109614729881287 0 1
3.350234270095825 -1.148378849029541 -1.836741328239441 0.4509616494178772 0 1
3.346074104309082 -1.1636327505111694 -1.8372808694839478 0.4508300721645355 0 1
3.3418359756469727 -1.1789257526397705 -1.8378221988677979 0.4506980776786804 0 1
3.337519407272339 -1.1941601037979126 -1.8383636474609375 0.4505646228790283 0 1
3.333144426345825 -1.209414005279541 -1.8389025926589966 0.450431227684021 0 1
3.328691244125366 -1.224648356437683 -1.8394421339035034 0.45029911398887634 0 1
3.324160099029541 -1.239843726158142 -1.8399810791015625 0.4501681625843048 0 1
3.319589853286743 -1.2550195455551147 -1.8405187129974365 0.4500357508659363 0 1
3.31494140625 -1.2702147960662842 -1.8410570621490479 0.44990450143814087 0 1
3.310175657272339 -1.2853515148162842 -1.8415942192077637 0.4497734010219574 0 1
3.305371046066284 -1.3004686832427979 -1.8421300649642944 0.44964346289634705 0 1
3.300488233566284 -1.3155858516693115 -1.8426666259765625 0.44951191544532776 0 1
3.295527219772339 -1.330664038658142 -1.8432018756866455 0.44938164949417114 0 1
3.29052734375 -1.3457812070846558 -1.8437377214431763 0.44925135374069214 0 1
3.2854297161102295 -1.3608593940734863 -1.8442723751068115 0.4491206109523773 0 1
3.2803125381469727 -1.3758983612060547 -1.8448070287704468 0.44898995757102966 0 1
3.2750585079193115 -1.3909374475479126 -1.845339298248291 0.4488610327243805 0 1
3.269765615463257 -1.4059374332427979 -1.8458727598190308 0.44873154163360596 0 1
3.264414072036743 -1.420937418937683 -1.8464044332504272 0.4486021399497986 0 1
3.258964776992798 -1.4358984231948853 -1.846936583518982 0.44847217202186584 0 1
3.25347638130188 -1.4508203268051147 -1.8474663496017456 0.4483439326286316 0 1
