ply
format ascii 1.0
element vertex 1391
property float32 x
property float32 y
property float32 z
property float32 CosAngle
property uint32 ObjIdx
property uint32 ObjTag
end_header
11.4799 -6.0125 -1.6654 0.1302 0 2
11.4932 -5.9866 -1.6653 0.1302 0 2
11.5064 -5.9607 -1.6653 0.1302 0 2
11.5196 -5.9348 -1.6653 0.1302 0 2
11.5327 -5.9088 -1.6652 0.1302 0 2
11.5457 -5.8828 -1.6652 0.1302 0 2
11.5587 -5.8568 -1.6652 0.1302 0 2
11.5716 -5.8308 -1.6652 0.1302 0 2
11.5845 -5.8046 -1.6651 0.1302 0 2
11.5972 -5.7786 -1.6651 0.1302 0 2
11.6100 -5.7524 -1.6651 0.1302 0 2
11.6227 -5.7262 -1.6650 0.1302 0 2
11.6353 -5.7000 -1.6650 0.1302 0 2
11.6478 -5.6738 -1.6650 0.1302 0 2
11.6604 -5.6476 -1.6650 0.1302 0 2
11.6728 -5.6213 -1.6649 0.1302 0 2
11.6856 -5.5952 -1.6650 0.4596 0 2
11.7478 -5.5926 -1.6720 0.4576 0 2
11.8104 -5.5900 -1.6792 0.4557 0 2
11.8737 -5.5873 -1.6864 0.4538 0 2
11.9375 -5.5846 -1.6936 0.4518 0 2
12.0018 -5.5820 -1.7010 0.4499 0 2
12.0667 -5.5792 -1.7084 0.4479 0 2
12.1331 -5.5769 -1.7160 0.4308 0 2
12.2025 -5.5757 -1.7241 0.4288 0 2
12.2725 -5.5744 -1.7322 0.4268 0 2
12.3432 -5.5731 -1.7404 0.4248 0 2
12.4145 -5.5719 -1.7487 0.4227 0 2
12.4866 -5.5706 -1.7571 0.4207 0 2
12.5588 -5.5690 -1.7655 0.1302 0 1
12.5711 -5.5407 -1.7654 0.1302 0 1
12.5833 -5.5124 -1.7654 0.1302 0 1
12.5954 -5.4841 -1.7654 0.1302 0 1
12.6075 -5.4557 -1.7654 0.1302 0 1
12.6196 -5.4274 -1.7653 0.1302 0 1
12.6315 -5.3990 -1.7653 0.1302 0 1
12.6434 -5.3705 -1.7653 0.1302 0 1
12.6552 -5.3421 -1.7653 0.1302 0 1
12.6670 -5.3136 -1.7652 0.1302 0 1
12.6787 -5.2851 -1.7652 0.1302 0 1
12.6904 -5.2565 -1.7652 0.1302 0 1
12.7020 -5.2280 -1.7652 0.1302 0 1
12.7135 -5.1994 -1.7651 0.1302 0 1
12.7250 -5.1707 -1.7651 0.1302 0 1
12.7364 -5.1421 -1.7651 0.1302 0 1
12.7477 -5.1134 -1.7651 0.1302 0 1
12.7589 -5.0848 -1.7650 0.1302 0 1
12.7701 -5.0561 -1.7650 0.1302 0 1
12.7813 -5.0273 -1.7650 0.1302 0 1
12.7924 -4.9986 -1.7650 0.1302 0 1
12.8034 -4.9698 -1.7649 0.1302 0 1
12.8143 -4.9410 -1.7649 0.1303 0 1
12.8252 -4.9121 -1.7649 0.1303 0 1
12.8361 -4.8833 -1.7649 0.1303 0 1
12.8468 -4.8544 -1.7649 0.1303 0 1
12.8575 -4.8255 -1.7648 0.1303 0 1
12.8682 -4.7965 -1.7648 0.1303 0 1
12.8787 -4.7676 -1.7648 0.1303 0 1
12.8893 -4.7387 -1.7648 0.1303 0 1
12.8996 -4.7096 -1.7647 0.1303 0 1
12.9101 -4.6806 -1.7647 0.1303 0 1
12.9204 -4.6516 -1.7647 0.1303 0 1
12.9306 -4.6226 -1.7647 0.1303 0 1
12.9408 -4.5935 -1.7647 0.1303 0 1
12.9510 -4.5644 -1.7646 0.1303 0 1
12.9610 -4.5352 -1.7646 0.1303 0 1
12.9710 -4.5061 -1.7646 0.1303 0 1
12.9809 -4.4769 -1.7646 0.1303 0 1
12.9908 -4.4477 -1.7646 0.1303 0 1
13.0006 -4.4185 -1.7645 0.1303 0 1
13.0104 -4.3893 -1.7645 0.1303 0 1
13.0201 -4.3601 -1.7645 0.1303 0 1
13.0296 -4.3308 -1.7645 0.1303 0 1
13.0392 -4.3015 -1.7645 0.1303 0 1
13.0487 -4.2722 -1.7644 0.1303 0 1
13.0581 -4.2428 -1.7644 0.1303 0 1
13.0675 -4.2135 -1.7644 0.1303 0 1
13.0767 -4.1841 -1.7644 0.1303 0 1
13.0860 -4.1547 -1.7644 0.1303 0 1
13.0951 -4.1253 -1.7644 0.1303 0 1
13.1042 -4.0958 -1.7643 0.1303 0 1
13.1133 -4.0664 -1.7643 0.1303 0 1
13.1222 -4.0369 -1.7643 0.1303 0 1
13.1311 -4.0074 -1.7643 0.1303 0 1
13.1400 -3.9779 -1.7643 0.1303 0 1
13.1487 -3.9484 -1.7643 0.1303 0 1
13.1575 -3.9188 -1.7642 0.1303 0 1
13.1661 -3.8892 -1.7642 0.1303 0 1
13.1747 -3.8597 -1.7642 0.1303 0 1
13.1832 -3.8301 -1.7642 0.1303 0 1
13.1916 -3.8004 -1.7642 0.1303 0 1
13.2000 -3.7708 -1.7642 0.1303 0 1
13.2083 -3.7412 -1.7641 0.1303 0 1
13.2166 -3.7114 -1.7641 0.1303 0 1
13.2247 -3.6817 -1.7641 0.1303 0 1
13.2329 -3.6520 -1.7641 0.1303 0 1
13.2409 -3.6223 -1.7641 0.1303 0 1
13.2489 -3.5926 -1.7641 0.1303 0 1
13.2569 -3.5628 -1.7641 0.1303 0 1
13.2647 -3.5330 -1.7640 0.1303 0 1
13.2725 -3.5032 -1.7640 0.1303 0 1
13.2802 -3.4734 -1.7640 0.1303 0 1
13.2879 -3.4435 -1.7640 0.1303 0 1
13.2955 -3.4137 -1.7640 0.1303 0 1
13.3030 -3.3838 -1.7640 0.1303 0 1
13.3105 -3.3539 -1.7640 0.1303 0 1
13.3179 -3.3240 -1.7640 0.1303 0 1
13.3252 -3.2941 -1.7639 0.1303 0 1
13.3325 -3.2642 -1.7639 0.1303 0 1
13.3397 -3.2343 -1.7639 0.1303 0 1
13.3468 -3.2043 -1.7639 0.1303 0 1
13.3539 -3.1743 -1.7639 0.1303 0 1
13.3609 -3.1443 -1.7639 0.1303 0 1
13.3678 -3.1143 -1.7639 0.1303 0 1
13.3747 -3.0843 -1.7639 0.1303 0 1
13.3815 -3.0542 -1.7639 0.1303 0 1
13.3883 -3.0242 -1.7638 0.1303 0 1
13.3950 -2.9941 -1.7638 0.1303 0 1
13.4016 -2.9640 -1.7638 0.1303 0 1
13.4081 -2.9339 -1.7638 0.1303 0 1
13.4146 -2.9038 -1.7638 0.1303 0 1
13.4210 -2.8737 -1.7638 0.1303 0 1
13.4273 -2.8436 -1.7638 0.1303 0 1
13.4336 -2.8134 -1.7638 0.1303 0 1
13.4398 -2.7833 -1.7638 0.1303 0 1
13.4460 -2.7530 -1.7638 0.1303 0 1
13.4521 -2.7229 -1.7638 0.1303 0 1
13.4581 -2.6927 -1.7637 0.1303 0 1
13.4640 -2.6625 -1.7637 0.1303 0 1
13.4699 -2.6322 -1.7637 0.1303 0 1
13.4757 -2.6020 -1.7637 0.1303 0 1
13.4815 -2.5717 -1.7637 0.1303 0 1
13.4871 -2.5414 -1.7637 0.1303 0 1
13.4928 -2.5112 -1.7637 0.1303 0 1
13.4983 -2.4809 -1.7637 0.1303 0 1
13.5038 -2.4505 -1.7637 0.1303 0 1
13.5092 -2.4203 -1.7637 0.1303 0 1
13.5145 -2.3899 -1.7637 0.1303 0 1
13.5198 -2.3596 -1.7637 0.1303 0 1
13.5250 -2.3292 -1.7637 0.1303 0 1
13.5302 -2.2989 -1.7637 0.1303 0 1
13.5353 -2.2685 -1.7637 0.1303 0 1
13.5403 -2.2381 -1.7636 0.1303 0 1
13.5453 -2.2077 -1.7636 0.1303 0 1
13.5501 -2.1773 -1.7636 0.1303 0 1
13.5550 -2.1469 -1.7636 0.1303 0 1
13.5597 -2.1165 -1.7636 0.1303 0 1
13.5644 -2.0860 -1.7636 0.1303 0 1
13.5690 -2.0556 -1.7636 0.1303 0 1
13.5736 -2.0251 -1.7636 0.1303 0 1
13.5780 -1.9946 -1.7636 0.1303 0 1
13.5824 -1.9642 -1.7636 0.1303 0 1
13.5868 -1.9337 -1.7636 0.1303 0 1
13.5911 -1.9032 -1.7636 0.1303 0 1
13.5953 -1.8727 -1.7636 0.1303 0 1
13.5994 -1.8421 -1.7636 0.1303 0 1
13.6035 -1.8116 -1.7636 0.1303 0 1
13.6075 -1.7811 -1.7636 0.1303 0 1
13.6115 -1.7506 -1.7636 0.1303 0 1
13.6154 -1.7200 -1.7636 0.1303 0 1
13.6192 -1.6895 -1.7636 0.1303 0 1
13.6229 -1.6589 -1.7636 0.1303 0 1
13.6266 -1.6283 -1.7636 0.1303 0 1
13.6302 -1.5977 -1.7636 0.1303 0 1
13.6337 -1.5671 -1.7636 0.1303 0 1
13.6372 -1.5365 -1.7636 0.1303 0 1
13.6406 -1.5059 -1.7636 0.1303 0 1
13.6440 -1.4753 -1.7636 0.1303 0 1
13.6473 -1.4447 -1.7636 0.1303 0 1
13.6505 -1.4140 -1.7636 0.1303 0 1
13.6536 -1.3835 -1.7636 0.1303 0 1
13.6567 -1.3528 -1.7636 0.1303 0 1
13.6597 -1.3221 -1.7636 0.1303 0 1
13.6626 -1.2915 -1.7636 0.1303 0 1
13.6655 -1.2608 -1.7636 0.1303 0 1
13.6683 -1.2302 -1.7636 0.1303 0 1
13.6711 -1.1995 -1.7636 0.1303 0 1
13.6737 -1.1688 -1.7636 0.1303 0 1
13.6763 -1.1381 -1.7636 0.1303 0 1
13.6789 -1.1074 -1.7636 0.1303 0 1
13.6813 -1.0767 -1.7636 0.1303 0 1
13.6837 -1.0460 -1.7636 0.1303 0 1
13.6861 -1.0153 -1.7636 0.1303 0 1
13.6883 -0.9846 -1.7636 0.1303 0 1
13.6905 -0.9539 -1.7636 0.1303 0 1
13.6927 -0.9232 -1.7636 0.1303 0 1
13.6947 -0.8925 -1.7636 0.1303 0 1
13.6967 -0.8617 -1.7636 0.1303 0 1
13.6986 -0.8310 -1.7636 0.1303 0 1
13.7005 -0.8002 -1.7636 0.1303 0 1
13.7023 -0.7695 -1.7636 0.1303 0 1
13.7040 -0.7387 -1.7636 0.1303 0 1
13.7057 -0.7080 -1.7636 0.1303 0 1
13.7073 -0.6772 -1.7636 0.1303 0 1
13.7088 -0.6465 -1.7637 0.1303 0 1
13.7102 -0.6157 -1.7637 0.1303 0 1
13.7117 -0.5850 -1.7637 0.1303 0 1
13.7130 -0.5542 -1.7637 0.1303 0 1
13.7142 -0.5234 -1.7637 0.1303 0 1
13.7154 -0.4926 -1.7637 0.1303 0 1
13.7166 -0.4619 -1.7637 0.1303 0 1
13.7176 -0.4311 -1.7637 0.1303 0 1
13.7186 -0.4003 -1.7637 0.1303 0 1
13.7195 -0.3695 -1.7637 0.1303 0 1
13.7204 -0.3388 -1.7637 0.1303 0 1
13.7211 -0.3079 -1.7637 0.1303 0 1
13.7218 -0.2772 -1.7637 0.1303 0 1
13.7225 -0.2464 -1.7637 0.1303 0 1
13.7230 -0.2156 -1.7637 0.1303 0 1
13.7236 -0.1848 -1.7637 0.1303 0 1
13.7240 -0.1540 -1.7638 0.1303 0 1
13.7244 -0.1232 -1.7638 0.1303 0 1
13.7247 -0.0924 -1.7638 0.1303 0 1
13.7249 -0.0616 -1.7638 0.1303 0 1
13.7251 -0.0308 -1.7638 0.1303 0 1
13.7252 0.0000 -1.7638 0.1303 0 1
13.7252 0.0308 -1.7638 0.1303 0 1
13.7252 0.0616 -1.7638 0.1303 0 1
13.7251 0.0924 -1.7638 0.1303 0 1
13.7250 0.1232 -1.7638 0.1303 0 1
13.7247 0.1540 -1.7639 0.1303 0 1
13.7244 0.1848 -1.7639 0.1303 0 1
13.7241 0.2156 -1.7639 0.1303 0 1
13.7236 0.2464 -1.7639 0.1303 0 1
13.7231 0.2772 -1.7639 0.1303 0 1
13.7225 0.3080 -1.7639 0.1303 0 1
13.7219 0.3388 -1.7639 0.1303 0 1
13.7212 0.3696 -1.7639 0.1303 0 1
13.7205 0.4004 -1.7639 0.1303 0 1
13.7196 0.4312 -1.7640 0.1303 0 1
13.7187 0.4620 -1.7640 0.1303 0 1
13.7177 0.4927 -1.7640 0.1303 0 1
13.7167 0.5235 -1.7640 0.1303 0 1
13.7156 0.5543 -1.7640 0.1303 0 1
13.7144 0.5851 -1.7640 0.1303 0 1
13.7131 0.6159 -1.7640 0.1303 0 1
13.7119 0.6466 -1.7640 0.1303 0 1
13.7104 0.6774 -1.7641 0.1303 0 1
13.7090 0.7082 -1.7641 0.1303 0 1
13.7075 0.7390 -1.7641 0.1303 0 1
13.7059 0.7697 -1.7641 0.1303 0 1
13.7043 0.8004 -1.7641 0.1303 0 1
13.7025 0.8312 -1.7641 0.1303 0 1
13.7007 0.8620 -1.7641 0.1303 0 1
13.6989 0.8927 -1.7642 0.1303 0 1
13.6970 0.9235 -1.7642 0.1303 0 1
13.6950 0.9542 -1.7642 0.1303 0 1
13.6929 0.9849 -1.7642 0.1303 0 1
13.6908 1.0157 -1.7642 0.1303 0 1
13.6886 1.0464 -1.7642 0.1303 0 1
13.6864 1.0772 -1.7642 0.1303 0 1
13.6840 1.1079 -1.7643 0.1303 0 1
13.6816 1.1386 -1.7643 0.1303 0 1
13.6792 1.1693 -1.7643 0.1303 0 1
13.6766 1.2000 -1.7643 0.1303 0 1
13.6740 1.2307 -1.7643 0.1303 0 1
13.6714 1.2614 -1.7643 0.1303 0 1
13.6687 1.2921 -1.7644 0.1303 0 1
13.6659 1.3228 -1.7644 0.1303 0 1
13.6630 1.3534 -1.7644 0.1303 0 1
13.6600 1.3841 -1.7644 0.1303 0 1
13.6571 1.4148 -1.7644 0.1303 0 1
13.6540 1.4454 -1.7645 0.1303 0 1
13.6509 1.4761 -1.7645 0.1303 0 1
13.6477 1.5067 -1.7645 0.1303 0 1
13.6444 1.5374 -1.7645 0.1303 0 1
13.6411 1.5680 -1.7645 0.1303 0 1
13.6377 1.5986 -1.7645 0.1303 0 1
13.6342 1.6293 -1.7646 0.1303 0 1
13.6306 1.6599 -1.7646 0.1303 0 1
13.6271 1.6905 -1.7646 0.1303 0 1
13.6234 1.7211 -1.7646 0.1303 0 1
13.6196 1.7517 -1.7646 0.1303 0 1
13.6158 1.7822 -1.7647 0.1303 0 1
13.6120 1.8128 -1.7647 0.1303 0 1
13.6080 1.8433 -1.7647 0.1303 0 1
13.6040 1.8739 -1.7647 0.1303 0 1
13.5999 1.9044 -1.7648 0.1303 0 1
13.5958 1.9350 -1.7648 0.1303 0 1
13.5916 1.9655 -1.7648 0.1303 0 1
13.5873 1.9960 -1.7648 0.1303 0 1
13.5829 2.0265 -1.7648 0.1303 0 1
13.5785 2.0571 -1.7649 0.1303 0 1
13.5741 2.0875 -1.7649 0.1303 0 1
13.5695 2.1180 -1.7649 0.1303 0 1
13.5649 2.1485 -1.7649 0.1302 0 1
13.5602 2.1790 -1.7650 0.1302 0 1
13.5555 2.2094 -1.7650 0.1302 0 1
13.5507 2.2399 -1.7650 0.1302 0 1
13.5458 2.2703 -1.7650 0.1302 0 1
13.5408 2.3007 -1.7650 0.1302 0 1
13.5358 2.3311 -1.7651 0.1302 0 1
13.5307 2.3615 -1.7651 0.1302 0 1
13.5256 2.3919 -1.7651 0.1302 0 1
13.5204 2.4223 -1.7651 0.1302 0 1
13.5151 2.4527 -1.7652 0.1302 0 1
13.5098 2.4830 -1.7652 0.1302 0 1
13.3839 2.4909 -1.7495 0.1705 0 2
13.2085 2.4890 -1.7273 0.1727 0 2
13.0455 2.4886 -1.7067 0.1972 0 2
12.9010 2.4910 -1.6885 0.1993 0 2
12.7595 2.4934 -1.6707 0.2015 0 2
12.7048 2.5123 -1.6643 0.1302 0 2
12.6993 2.5409 -1.6643 0.1302 0 2
12.6937 2.5694 -1.6643 0.1302 0 2
12.6881 2.5979 -1.6644 0.1302 0 2
12.6825 2.6264 -1.6644 0.1302 0 2
12.6767 2.6549 -1.6644 0.1302 0 2
12.7189 2.6936 -1.6707 0.2169 0 2
12.6651 2.7119 -1.6645 0.1302 0 2
12.6591 2.7403 -1.6645 0.1302 0 2
12.6532 2.7688 -1.6645 0.1302 0 2
12.6471 2.7972 -1.6645 0.1302 0 2
12.6410 2.8256 -1.6646 0.1302 0 2
12.6348 2.8540 -1.6646 0.1302 0 2
12.6286 2.8825 -1.6646 0.1302 0 2
12.6223 2.9108 -1.6646 0.1302 0 2
12.6159 2.9392 -1.6647 0.1302 0 2
12.6096 2.9675 -1.6647 0.1302 0 2
12.6031 2.9959 -1.6647 0.1302 0 2
12.5965 3.0242 -1.6648 0.1302 0 2
12.5899 3.0525 -1.6648 0.1302 0 2
12.5832 3.0808 -1.6648 0.1302 0 2
12.5765 3.1090 -1.6648 0.1302 0 2
12.5697 3.1373 -1.6649 0.1302 0 2
12.5629 3.1656 -1.6649 0.1302 0 2
12.5559 3.1938 -1.6649 0.1302 0 2
12.5489 3.2221 -1.6650 0.1302 0 2
12.5419 3.2503 -1.6650 0.1302 0 2
12.5348 3.2784 -1.6650 0.1302 0 2
12.5277 3.3066 -1.6650 0.1302 0 2
12.5204 3.3348 -1.6651 0.1302 0 2
12.5131 3.3629 -1.6651 0.1302 0 2
12.5058 3.3911 -1.6651 0.1302 0 2
12.4984 3.4192 -1.6652 0.1302 0 2
12.4909 3.4473 -1.6652 0.1301 0 2
12.4833 3.4754 -1.6652 0.1301 0 2
12.4757 3.5035 -1.6652 0.1301 0 2
12.4681 3.5315 -1.6653 0.1301 0 2
12.4604 3.5595 -1.6653 0.1301 0 2
12.4526 3.5875 -1.6653 0.1301 0 2
12.4447 3.6155 -1.6654 0.1301 0 2
12.4368 3.6435 -1.6654 0.1301 0 2
12.4288 3.6715 -1.6654 0.1301 0 2
12.4208 3.6995 -1.6655 0.1301 0 2
12.4127 3.7274 -1.6655 0.1301 0 2
12.4046 3.7553 -1.6655 0.1301 0 2
12.3964 3.7832 -1.6656 0.1301 0 2
12.3880 3.8111 -1.6656 0.1301 0 2
12.3797 3.8389 -1.6656 0.1301 0 2
12.3713 3.8668 -1.6657 0.1301 0 2
12.3629 3.8946 -1.6657 0.1301 0 2
12.3543 3.9224 -1.6657 0.1301 0 2
12.3457 3.9502 -1.6658 0.1301 0 2
12.3371 3.9780 -1.6658 0.1301 0 2
12.3284 4.0058 -1.6658 0.1301 0 2
12.3196 4.0335 -1.6659 0.1301 0 2
12.3108 4.0612 -1.6659 0.1301 0 2
12.3019 4.0889 -1.6659 0.1301 0 2
12.2930 4.1166 -1.6660 0.1301 0 2
12.2839 4.1443 -1.6660 0.1301 0 2
12.2749 4.1719 -1.6660 0.1301 0 2
12.2657 4.1995 -1.6661 0.1301 0 2
12.2566 4.2271 -1.6661 0.1301 0 2
12.2473 4.2547 -1.6661 0.1301 0 2
12.2380 4.2823 -1.6662 0.1301 0 2
12.2286 4.3098 -1.6662 0.1301 0 2
12.2191 4.3373 -1.6662 0.1301 0 2
12.2096 4.3648 -1.6663 0.1301 0 2
12.2001 4.3923 -1.6663 0.1301 0 2
12.1904 4.4197 -1.6664 0.1301 0 2
12.1808 4.4472 -1.6664 0.1301 0 2
12.1711 4.4746 -1.6664 0.1301 0 2
12.1612 4.5020 -1.6665 0.1300 0 2
12.1514 4.5294 -1.6665 0.1300 0 2
12.1414 4.5568 -1.6665 0.1300 0 2
12.1315 4.5841 -1.6666 0.1300 0 2
12.1214 4.6114 -1.6666 0.1300 0 2
12.1113 4.6387 -1.6667 0.1300 0 2
12.1012 4.6660 -1.6667 0.1300 0 2
12.0909 4.6932 -1.6667 0.1300 0 2
12.0807 4.7205 -1.6668 0.1300 0 2
12.0703 4.7477 -1.6668 0.1300 0 2
12.0599 4.7749 -1.6668 0.1300 0 2
12.0494 4.8020 -1.6669 0.1300 0 2
12.0389 4.8292 -1.6669 0.1300 0 2
12.0283 4.8563 -1.6670 0.1300 0 2
12.0177 4.8834 -1.6670 0.1300 0 2
12.0070 4.9104 -1.6670 0.1300 0 2
11.9962 4.9375 -1.6671 0.1300 0 2
11.9854 4.9645 -1.6671 0.1300 0 2
11.9745 4.9915 -1.6672 0.1300 0 2
11.9636 5.0185 -1.6672 0.1300 0 2
11.9526 5.0454 -1.6672 0.1300 0 2
11.9415 5.0724 -1.6673 0.1300 0 2
11.9304 5.0993 -1.6673 0.1300 0 2
11.9192 5.1262 -1.6674 0.1300 0 2
11.9079 5.1530 -1.6674 0.1300 0 2
11.8966 5.1799 -1.6674 0.1300 0 2
11.8853 5.2067 -1.6675 0.1300 0 2
11.8738 5.2335 -1.6675 0.1300 0 2
11.8624 5.2602 -1.6676 0.1300 0 2
11.8508 5.2870 -1.6676 0.1300 0 2
11.8393 5.3137 -1.6677 0.1300 0 2
11.8276 5.3404 -1.6677 0.1300 0 2
11.8158 5.3670 -1.6677 0.1299 0 2
11.8041 5.3937 -1.6678 0.1299 0 2
11.7923 5.4203 -1.6678 0.1299 0 2
11.7804 5.4469 -1.6679 0.1299 0 2
11.7684 5.4734 -1.6679 0.1299 0 2
11.7564 5.5000 -1.6679 0.1299 0 2
11.7443 5.5265 -1.6680 0.1299 0 2
11.7322 5.5529 -1.6680 0.1299 0 2
11.7200 5.5794 -1.6681 0.1299 0 2
11.7078 5.6059 -1.6681 0.1299 0 2
11.6955 5.6322 -1.6682 0.1299 0 2
11.6831 5.6587 -1.6682 0.1299 0 2
11.6707 5.6850 -1.6683 0.1299 0 2
11.6582 5.7113 -1.6683 0.1299 0 2
11.6457 5.7376 -1.6683 0.1299 0 2
11.6331 5.7639 -1.6684 0.1299 0 2
11.6205 5.7902 -1.6684 0.1299 0 2
11.6077 5.8163 -1.6685 0.1299 0 2
11.5950 5.8425 -1.6685 0.1299 0 2
11.5821 5.8687 -1.6686 0.1299 0 2
11.5693 5.8948 -1.6686 0.1299 0 2
11.5563 5.9209 -1.6687 0.1299 0 2
11.5433 5.9470 -1.6687 0.1299 0 2
11.5303 5.9731 -1.6687 0.1299 0 2
11.5171 5.9991 -1.6688 0.1299 0 2
11.5039 6.0251 -1.6688 0.1299 0 2
11.4907 6.0511 -1.6689 0.1299 0 2
11.4775 6.0770 -1.6689 0.1299 0 2
11.4641 6.1029 -1.6690 0.1299 0 2
11.4507 6.1288 -1.6690 0.1298 0 2
11.4372 6.1546 -1.6691 0.1298 0 2
11.4237 6.1805 -1.6691 0.1298 0 2
11.4102 6.2062 -1.6692 0.1298 0 2
11.3965 6.2321 -1.6692 0.1298 0 2
11.3828 6.2578 -1.6693 0.1298 0 2
11.3691 6.2835 -1.6693 0.1298 0 2
11.3553 6.3091 -1.6694 0.1298 0 2
11.3414 6.3348 -1.6694 0.1298 0 2
11.3275 6.3604 -1.6695 0.1298 0 2
11.3135 6.3860 -1.6695 0.1298 0 2
11.2995 6.4116 -1.6696 0.1298 0 2
11.2854 6.4371 -1.6696 0.1298 0 2
11.2713 6.4626 -1.6697 0.1298 0 2
11.2786 6.5005 -1.6729 0.1298 0 25
11.2643 6.5260 -1.6729 0.1298 0 25
11.2500 6.5514 -1.6730 0.1298 0 25
11.2356 6.5768 -1.6730 0.1298 0 25
11.2211 6.6022 -1.6731 0.1298 0 25
11.2066 6.6276 -1.6731 0.1298 0 25
11.1920 6.6529 -1.6732 0.1298 0 25
11.1774 6.6782 -1.6732 0.1298 0 25
11.1627 6.7035 -1.6733 0.1298 0 25
11.1480 6.7287 -1.6733 0.1298 0 25
11.1332 6.7539 -1.6734 0.1298 0 25
11.1184 6.7791 -1.6734 0.1298 0 25
11.1035 6.8042 -1.6735 0.1298 0 25
11.0885 6.8293 -1.6735 0.1297 0 25
11.0735 6.8544 -1.6736 0.1297 0 25
11.0584 6.8795 -1.6736 0.1297 0 25
11.0433 6.9045 -1.6737 0.1297 0 25
11.0281 6.9295 -1.6737 0.1297 0 25
10.0342 6.3364 -1.5251 0.7983 0 5
10.0035 6.3484 -1.5225 0.7996 0 5
9.9877 6.3699 -1.5223 0.9797 0 5
9.9769 6.3945 -1.5228 0.9794 0 5
9.9921 6.4360 -1.5274 0.5650 0 5
10.9359 7.0786 -1.6741 0.1297 0 25
10.9203 7.1034 -1.6741 0.1297 0 25
10.9047 7.1281 -1.6742 0.1297 0 25
9.7314 6.3923 -1.4962 0.1680 0 5
9.6609 6.3771 -1.4876 0.1690 0 5
9.5911 6.3620 -1.4790 0.1700 0 5
9.5222 6.3471 -1.4706 0.1710 0 5
9.4736 6.3454 -1.4653 0.5278 0 5
9.4262 6.3444 -1.4602 0.5296 0 5
9.3792 6.3434 -1.4551 0.5315 0 5
9.3325 6.3424 -1.4500 0.5333 0 5
9.2862 6.3414 -1.4450 0.5352 0 5
9.2411 6.3411 -1.4402 0.5627 0 5
9.1968 6.3411 -1.4356 0.5645 0 5
9.1528 6.3411 -1.4309 0.5663 0 5
9.1091 6.3411 -1.4263 0.5682 0 5
9.0657 6.3411 -1.4217 0.5700 0 5
9.0225 6.3411 -1.4172 0.5718 0 5
8.9865 6.3460 -1.4138 0.4040 0 5
8.9512 6.3512 -1.4104 0.4049 0 5
8.9161 6.3564 -1.4071 0.4059 0 5
8.8811 6.3616 -1.4039 0.4068 0 5
8.8462 6.3667 -1.4006 0.4077 0 5
8.8116 6.3718 -1.3974 0.4087 0 5
8.7771 6.3769 -1.3942 0.4096 0 5
8.7427 6.3819 -1.3910 0.4106 0 5
10.5134 7.7108 -1.6755 0.1296 0 25
10.4964 7.7346 -1.6755 0.1296 0 25
10.4794 7.7584 -1.6756 0.1296 0 25
10.4623 7.7822 -1.6757 0.1296 0 25
10.4452 7.8059 -1.6757 0.1296 0 25
10.4280 7.8296 -1.6758 0.1296 0 25
10.4108 7.8532 -1.6758 0.1296 0 25
10.3935 7.8768 -1.6759 0.1296 0 25
10.3761 7.9004 -1.6759 0.1296 0 25
10.3587 7.9239 -1.6760 0.1296 0 25
10.3413 7.9474 -1.6761 0.1296 0 25
10.3237 7.9709 -1.6761 0.1295 0 25
10.3062 7.9943 -1.6762 0.1295 0 25
10.2886 8.0177 -1.6762 0.1295 0 25
10.2709 8.0410 -1.6763 0.1295 0 25
10.2532 8.0644 -1.6763 0.1295 0 25
10.2355 8.0877 -1.6764 0.1295 0 25
10.2177 8.1109 -1.6765 0.1295 0 25
10.1998 8.1341 -1.6765 0.1295 0 25
10.1819 8.1572 -1.6766 0.1295 0 25
10.1639 8.1803 -1.6766 0.1295 0 25
10.1459 8.2034 -1.6767 0.1295 0 25
10.1278 8.2265 -1.6768 0.1295 0 25
10.1097 8.2494 -1.6768 0.1295 0 25
10.0915 8.2724 -1.6769 0.1295 0 25
10.0733 8.2953 -1.6769 0.1295 0 25
10.0550 8.3182 -1.6770 0.1295 0 25
10.0367 8.3411 -1.6771 0.1295 0 25
10.0183 8.3639 -1.6771 0.1295 0 25
9.9998 8.3866 -1.6772 0.1295 0 25
9.9814 8.4094 -1.6772 0.1295 0 25
9.9628 8.4320 -1.6773 0.1295 0 25
9.9442 8.4547 -1.6774 0.1295 0 25
9.9256 8.4773 -1.6774 0.1294 0 25
9.9069 8.4998 -1.6775 0.1294 0 25
9.8882 8.5223 -1.6775 0.1294 0 25
9.8694 8.5448 -1.6776 0.1294 0 25
9.8506 8.5673 -1.6777 0.1294 0 25
7.2147 6.3033 -1.2311 0.3164 0 5
7.1921 6.3120 -1.2297 0.8805 0 5
7.1696 6.3208 -1.2283 0.8816 0 5
7.1593 6.3404 -1.2290 0.9438 0 5
7.1502 6.3610 -1.2298 0.9431 0 5
7.1612 6.3996 -1.2342 0.4306 0 5
9.7173 8.7232 -1.6781 0.1294 0 25
9.6980 8.7453 -1.6782 0.1294 0 25
9.6788 8.7674 -1.6782 0.1294 0 25
9.6594 8.7894 -1.6783 0.1294 0 25
9.6400 8.8114 -1.6784 0.1294 0 25
9.6206 8.8333 -1.6784 0.1294 0 25
9.6011 8.8552 -1.6785 0.1294 0 25
9.5816 8.8771 -1.6785 0.1294 0 25
9.5620 8.8989 -1.6786 0.1294 0 25
9.5423 8.9207 -1.6787 0.1294 0 25
9.5227 8.9424 -1.6787 0.1293 0 25
9.5029 8.9641 -1.6788 0.1293 0 25
9.4832 8.9857 -1.6789 0.1293 0 25
9.4634 9.0073 -1.6789 0.1293 0 25
9.4435 9.0289 -1.6790 0.1293 0 25
9.4236 9.0504 -1.6791 0.1293 0 25
9.4036 9.0719 -1.6791 0.1293 0 25
9.3836 9.0933 -1.6792 0.1293 0 25
9.3635 9.1147 -1.6792 0.1293 0 25
9.3434 9.1361 -1.6793 0.1293 0 25
9.3232 9.1573 -1.6794 0.1293 0 25
9.3030 9.1786 -1.6794 0.1293 0 25
9.2827 9.1998 -1.6795 0.1293 0 25
9.2624 9.2209 -1.6796 0.1293 0 25
8.6396 -8.6396 -1.6727 0.1379 0 2
8.6587 -8.6199 -1.6726 0.1379 0 2
8.6778 -8.6003 -1.6726 0.1379 0 2
8.6968 -8.5805 -1.6725 0.1379 0 2
8.7158 -8.5607 -1.6725 0.1379 0 2
8.7348 -8.5409 -1.6724 0.1379 0 2
8.7536 -8.5211 -1.6724 0.1379 0 2
8.7725 -8.5011 -1.6723 0.1379 0 2
8.7913 -8.4812 -1.6723 0.1379 0 2
8.8101 -8.4612 -1.6722 0.1379 0 2
8.8288 -8.4412 -1.6722 0.1379 0 2
8.8475 -8.4211 -1.6721 0.1380 0 2
8.8661 -8.4010 -1.6721 0.1380 0 2
8.8846 -8.3808 -1.6720 0.1380 0 2
8.9032 -8.3607 -1.6720 0.1380 0 2
8.9217 -8.3404 -1.6720 0.1380 0 2
8.9401 -8.3202 -1.6719 0.1380 0 2
8.9585 -8.2998 -1.6719 0.1380 0 2
8.9769 -8.2795 -1.6718 0.1380 0 2
8.9952 -8.2591 -1.6718 0.1380 0 2
9.0134 -8.2387 -1.6717 0.1380 0 2
9.0317 -8.2182 -1.6717 0.1380 0 2
9.0498 -8.1977 -1.6716 0.1380 0 2
9.0679 -8.1771 -1.6716 0.1380 0 2
9.0861 -8.1565 -1.6715 0.1380 0 2
9.1041 -8.1359 -1.6715 0.1380 0 2
9.1221 -8.1152 -1.6715 0.1380 0 2
9.1400 -8.0945 -1.6714 0.1380 0 2
9.1579 -8.0738 -1.6714 0.1380 0 2
9.1757 -8.0530 -1.6713 0.1380 0 2
9.1936 -8.0322 -1.6713 0.1380 0 2
9.2113 -8.0113 -1.6712 0.1380 0 2
9.2290 -7.9904 -1.6712 0.1380 0 2
9.2467 -7.9695 -1.6711 0.1380 0 2
9.2643 -7.9485 -1.6711 0.1380 0 2
9.2819 -7.9275 -1.6711 0.1380 0 2
9.2994 -7.9064 -1.6710 0.1380 0 2
9.3169 -7.8853 -1.6710 0.1380 0 2
9.3343 -7.8642 -1.6709 0.1381 0 2
9.3517 -7.8430 -1.6709 0.1381 0 2
9.3691 -7.8218 -1.6708 0.1381 0 2
9.3863 -7.8006 -1.6708 0.1381 0 2
9.4036 -7.7793 -1.6708 0.1381 0 2
9.4207 -7.7580 -1.6707 0.1381 0 2
9.4379 -7.7366 -1.6707 0.1381 0 2
9.4550 -7.7153 -1.6706 0.1381 0 2
9.4720 -7.6938 -1.6706 0.1381 0 2
9.4891 -7.6724 -1.6705 0.1381 0 2
9.5060 -7.6508 -1.6705 0.1381 0 2
9.5229 -7.6293 -1.6705 0.1381 0 2
9.5398 -7.6077 -1.6704 0.1381 0 2
9.5566 -7.5861 -1.6704 0.1381 0 2
9.5734 -7.5645 -1.6703 0.1381 0 2
9.5901 -7.5428 -1.6703 0.1381 0 2
9.6068 -7.5211 -1.6703 0.1381 0 2
9.6234 -7.4993 -1.6702 0.1381 0 2
9.6399 -7.4775 -1.6702 0.1381 0 2
9.6565 -7.4557 -1.6701 0.1381 0 2
9.6729 -7.4338 -1.6701 0.1381 0 2
9.6893 -7.4119 -1.6701 0.1381 0 2
9.7057 -7.3900 -1.6700 0.1381 0 2
9.7221 -7.3680 -1.6700 0.1381 0 2
9.7383 -7.3460 -1.6699 0.1381 0 2
9.7546 -7.3239 -1.6699 0.1381 0 2
9.7708 -7.3019 -1.6699 0.1381 0 2
9.7869 -7.2797 -1.6698 0.1381 0 2
9.8030 -7.2576 -1.6698 0.1381 0 2
9.8190 -7.2354 -1.6697 0.1382 0 2
9.8350 -7.2132 -1.6697 0.1382 0 2
9.8509 -7.1909 -1.6697 0.1382 0 2
9.8668 -7.1686 -1.6696 0.1382 0 2
9.8826 -7.1463 -1.6696 0.1382 0 2
9.8984 -7.1240 -1.6696 0.1382 0 2
9.9142 -7.1016 -1.6695 0.1382 0 2
9.9298 -7.0792 -1.6695 0.1382 0 2
9.9455 -7.0567 -1.6694 0.1382 0 2
9.9611 -7.0342 -1.6694 0.1382 0 2
9.9766 -7.0117 -1.6694 0.1382 0 2
9.9921 -6.9891 -1.6693 0.1382 0 2
10.0075 -6.9665 -1.6693 0.1382 0 2
10.0229 -6.9439 -1.6693 0.1382 0 2
10.0383 -6.9212 -1.6692 0.1382 0 2
10.0536 -6.8986 -1.6692 0.1382 0 2
10.0688 -6.8758 -1.6691 0.1382 0 2
10.0840 -6.8531 -1.6691 0.1382 0 2
10.0991 -6.8303 -1.6691 0.1382 0 2
10.1142 -6.8075 -1.6690 0.1382 0 2
10.1292 -6.7846 -1.6690 0.1382 0 2
10.1442 -6.7617 -1.6690 0.1382 0 2
10.1591 -6.7388 -1.6689 0.1382 0 2
10.1740 -6.7158 -1.6689 0.1382 0 2
10.1889 -6.6928 -1.6689 0.1382 0 2
10.2036 -6.6698 -1.6688 0.1382 0 2
10.2184 -6.6468 -1.6688 0.1382 0 2
10.2330 -6.6237 -1.6688 0.1382 0 2
10.2477 -6.6005 -1.6687 0.1382 0 2
10.2623 -6.5774 -1.6687 0.1382 0 2
10.2768 -6.5543 -1.6687 0.1382 0 2
10.2913 -6.5311 -1.6686 0.1382 0 2
10.3057 -6.5078 -1.6686 0.1382 0 2
10.3200 -6.4845 -1.6686 0.1382 0 2
10.3344 -6.4612 -1.6685 0.1383 0 2
10.3486 -6.4379 -1.6685 0.1383 0 2
10.3629 -6.4145 -1.6685 0.1383 0 2
10.3770 -6.3911 -1.6684 0.1383 0 2
10.3911 -6.3677 -1.6684 0.1383 0 2
10.4052 -6.3442 -1.6684 0.1383 0 2
10.4192 -6.3207 -1.6683 0.1383 0 2
10.4331 -6.2972 -1.6683 0.1383 0 2
10.4470 -6.2737 -1.6683 0.1383 0 2
10.4609 -6.2501 -1.6682 0.1383 0 2
10.4747 -6.2265 -1.6682 0.1383 0 2
10.4885 -6.2029 -1.6682 0.1383 0 2
10.5021 -6.1792 -1.6681 0.1383 0 2
10.5158 -6.1555 -1.6681 0.1383 0 2
10.5294 -6.1318 -1.6681 0.1383 0 2
10.5429 -6.1080 -1.6680 0.1383 0 2
10.5564 -6.0842 -1.6680 0.1383 0 2
10.5698 -6.0604 -1.6680 0.1383 0 2
10.5832 -6.0366 -1.6679 0.1383 0 2
10.5965 -6.0127 -1.6679 0.1383 0 2
10.6098 -5.9888 -1.6679 0.1383 0 2
10.6230 -5.9649 -1.6679 0.1383 0 2
10.6362 -5.9409 -1.6678 0.1383 0 2
10.6493 -5.9169 -1.6678 0.1383 0 2
10.6624 -5.8929 -1.6678 0.1383 0 2
10.6754 -5.8688 -1.6677 0.1383 0 2
10.6884 -5.8448 -1.6677 0.1383 0 2
10.7012 -5.8207 -1.6677 0.1383 0 2
10.7141 -5.7965 -1.6677 0.1383 0 2
10.7583 -5.7893 -1.6725 0.5014 0 2
10.7396 -5.7482 -1.6676 0.1383 0 2
10.7523 -5.7240 -1.6676 0.1383 0 2
10.7649 -5.6997 -1.6675 0.1383 0 2
10.7775 -5.6755 -1.6675 0.1383 0 2
10.7900 -5.6512 -1.6675 0.1383 0 2
10.8025 -5.6268 -1.6674 0.1383 0 2
10.8250 -5.6077 -1.6690 0.4879 0 2
10.8801 -5.6053 -1.6755 0.4860 0 2
10.9357 -5.6030 -1.6821 0.4841 0 2
10.9917 -5.6005 -1.6888 0.4822 0 2
11.0481 -5.5981 -1.6956 0.4802 0 2
11.1050 -5.5956 -1.7024 0.4783 0 2
11.1623 -5.5932 -1.7092 0.4764 0 2
11.2201 -5.5906 -1.7161 0.4745 0 2
11.2812 -5.5896 -1.7236 0.4564 0 2
11.3429 -5.5884 -1.7311 0.4544 0 2
11.4051 -5.5873 -1.7386 0.4525 0 2
11.4678 -5.5862 -1.7463 0.4505 0 2
11.5311 -5.5850 -1.7540 0.4485 0 2
11.5950 -5.5838 -1.7618 0.4465 0 2
11.6489 -5.5776 -1.7681 0.1384 0 1
11.6612 -5.5514 -1.7681 0.1384 0 1
11.6734 -5.5251 -1.7680 0.1384 0 1
11.6856 -5.4988 -1.7680 0.1384 0 1
11.6978 -5.4725 -1.7680 0.1384 0 1
11.7098 -5.4462 -1.7680 0.1384 0 1
11.7218 -5.4198 -1.7679 0.1384 0 1
11.7338 -5.3934 -1.7679 0.1384 0 1
11.7457 -5.3670 -1.7679 0.1384 0 1
11.7575 -5.3405 -1.7679 0.1384 0 1
11.7693 -5.3140 -1.7678 0.1384 0 1
11.7811 -5.2876 -1.7678 0.1384 0 1
11.7927 -5.2610 -1.7678 0.1384 0 1
11.8043 -5.2345 -1.7678 0.1384 0 1
11.8159 -5.2079 -1.7677 0.1384 0 1
11.8273 -5.1813 -1.7677 0.1384 0 1
11.8388 -5.1546 -1.7677 0.1384 0 1
11.8502 -5.1280 -1.7677 0.1384 0 1
11.8615 -5.1013 -1.7676 0.1384 0 1
11.8727 -5.0746 -1.7676 0.1384 0 1
11.8839 -5.0479 -1.7676 0.1384 0 1
11.8951 -5.0211 -1.7676 0.1384 0 1
11.9061 -4.9944 -1.7675 0.1384 0 1
11.9171 -4.9676 -1.7675 0.1384 0 1
11.9281 -4.9408 -1.7675 0.1384 0 1
11.9390 -4.9139 -1.7675 0.1384 0 1
11.9498 -4.8870 -1.7674 0.1384 0 1
11.9606 -4.8602 -1.7674 0.1384 0 1
11.9713 -4.8332 -1.7674 0.1384 0 1
11.9820 -4.8063 -1.7674 0.1384 0 1
11.9926 -4.7793 -1.7674 0.1384 0 1
12.0032 -4.7524 -1.7673 0.1384 0 1
12.0136 -4.7254 -1.7673 0.1384 0 1
12.0241 -4.6983 -1.7673 0.1384 0 1
12.0344 -4.6713 -1.7673 0.1384 0 1
12.0447 -4.6442 -1.7672 0.1384 0 1
12.0550 -4.6171 -1.7672 0.1384 0 1
12.0652 -4.5900 -1.7672 0.1384 0 1
12.0753 -4.5629 -1.7672 0.1384 0 1
12.0854 -4.5357 -1.7672 0.1384 0 1
12.0954 -4.5085 -1.7671 0.1384 0 1
12.1053 -4.4813 -1.7671 0.1384 0 1
12.1152 -4.4540 -1.7671 0.1384 0 1
12.1250 -4.4268 -1.7671 0.1384 0 1
12.1348 -4.3996 -1.7671 0.1384 0 1
12.1445 -4.3723 -1.7670 0.1384 0 1
12.1541 -4.3450 -1.7670 0.1384 0 1
12.1637 -4.3176 -1.7670 0.1384 0 1
12.1733 -4.2903 -1.7670 0.1384 0 1
12.1827 -4.2629 -1.7670 0.1384 0 1
12.1921 -4.2355 -1.7669 0.1384 0 1
12.2015 -4.2081 -1.7669 0.1384 0 1
12.2108 -4.1807 -1.7669 0.1384 0 1
12.2200 -4.1532 -1.7669 0.1384 0 1
12.2292 -4.1257 -1.7669 0.1385 0 1
12.2382 -4.0982 -1.7668 0.1385 0 1
12.2473 -4.0707 -1.7668 0.1385 0 1
12.2563 -4.0432 -1.7668 0.1385 0 1
12.2652 -4.0157 -1.7668 0.1385 0 1
12.2741 -3.9881 -1.7668 0.1385 0 1
12.2829 -3.9605 -1.7668 0.1385 0 1
12.2916 -3.9329 -1.7667 0.1385 0 1
12.3003 -3.9053 -1.7667 0.1385 0 1
12.3089 -3.8776 -1.7667 0.1385 0 1
12.3175 -3.8499 -1.7667 0.1385 0 1
12.3259 -3.8222 -1.7667 0.1385 0 1
12.3344 -3.7945 -1.7667 0.1385 0 1
12.3428 -3.7669 -1.7666 0.1385 0 1
12.3511 -3.7391 -1.7666 0.1385 0 1
12.3593 -3.7113 -1.7666 0.1385 0 1
12.3675 -3.6836 -1.7666 0.1385 0 1
12.3756 -3.6557 -1.7666 0.1385 0 1
12.3837 -3.6279 -1.7666 0.1385 0 1
12.3917 -3.6001 -1.7666 0.1385 0 1
12.3997 -3.5723 -1.7665 0.1385 0 1
12.4075 -3.5444 -1.7665 0.1385 0 1
12.4154 -3.5165 -1.7665 0.1385 0 1
12.4231 -3.4886 -1.7665 0.1385 0 1
12.4309 -3.4607 -1.7665 0.1385 0 1
12.4385 -3.4328 -1.7665 0.1385 0 1
12.4460 -3.4049 -1.7665 0.1385 0 1
12.4536 -3.3769 -1.7664 0.1385 0 1
12.4610 -3.3489 -1.7664 0.1385 0 1
12.4684 -3.3209 -1.7664 0.1385 0 1
12.4757 -3.2929 -1.7664 0.1385 0 1
12.4830 -3.2649 -1.7664 0.1385 0 1
12.4902 -3.2368 -1.7664 0.1385 0 1
12.4974 -3.2088 -1.7664 0.1385 0 1
12.5045 -3.1807 -1.7664 0.1385 0 1
12.5115 -3.1526 -1.7663 0.1385 0 1
12.5185 -3.1245 -1.7663 0.1385 0 1
12.5254 -3.0964 -1.7663 0.1385 0 1
12.5322 -3.0683 -1.7663 0.1385 0 1
12.5390 -3.0401 -1.7663 0.1385 0 1
12.5457 -3.0120 -1.7663 0.1385 0 1
12.5523 -2.9837 -1.7663 0.1385 0 1
12.5589 -2.9556 -1.7663 0.1385 0 1
12.5654 -2.9273 -1.7663 0.1385 0 1
12.5719 -2.8992 -1.7663 0.1385 0 1
12.5783 -2.8709 -1.7662 0.1385 0 1
12.5846 -2.8427 -1.7662 0.1385 0 1
12.5909 -2.8144 -1.7662 0.1385 0 1
12.5971 -2.7861 -1.7662 0.1385 0 1
12.6033 -2.7578 -1.7662 0.1385 0 1
12.6094 -2.7296 -1.7662 0.1385 0 1
12.6154 -2.7012 -1.7662 0.1385 0 1
12.6214 -2.6729 -1.7662 0.1385 0 1
12.6273 -2.6446 -1.7662 0.1385 0 1
12.6331 -2.6162 -1.7662 0.1385 0 1
12.6389 -2.5879 -1.7662 0.1385 0 1
12.6446 -2.5594 -1.7661 0.1385 0 1
12.6503 -2.5311 -1.7661 0.1385 0 1
12.6559 -2.5026 -1.7661 0.1385 0 1
12.6614 -2.4742 -1.7661 0.1385 0 1
12.6669 -2.4458 -1.7661 0.1385 0 1
12.6723 -2.4174 -1.7661 0.1385 0 1
12.6777 -2.3889 -1.7661 0.1385 0 1
12.6829 -2.3604 -1.7661 0.1385 0 1
12.6882 -2.3320 -1.7661 0.1385 0 1
12.6933 -2.3035 -1.7661 0.1385 0 1
12.6984 -2.2750 -1.7661 0.1385 0 1
12.7034 -2.2465 -1.7661 0.1385 0 1
12.7084 -2.2179 -1.7661 0.1385 0 1
12.7133 -2.1894 -1.7661 0.1385 0 1
12.7182 -2.1609 -1.7661 0.1385 0 1
12.7229 -2.1323 -1.7660 0.1385 0 1
12.7277 -2.1038 -1.7660 0.1385 0 1
12.7323 -2.0752 -1.7660 0.1385 0 1
12.7369 -2.0466 -1.7660 0.1385 0 1
12.7414 -2.0180 -1.7660 0.1385 0 1
12.7459 -1.9894 -1.7660 0.1385 0 1
12.7503 -1.9608 -1.7660 0.1385 0 1
12.7546 -1.9322 -1.7660 0.1385 0 1
12.7589 -1.9036 -1.7660 0.1385 0 1
12.7631 -1.8749 -1.7660 0.1385 0 1
12.7673 -1.8463 -1.7660 0.1385 0 1
12.7714 -1.8176 -1.7660 0.1385 0 1
12.7754 -1.7890 -1.7660 0.1385 0 1
12.7794 -1.7603 -1.7660 0.1385 0 1
12.7833 -1.7316 -1.7660 0.1385 0 1
12.7871 -1.7029 -1.7660 0.1385 0 1
12.7909 -1.6742 -1.7660 0.1385 0 1
12.7946 -1.6455 -1.7660 0.1385 0 1
12.7982 -1.6168 -1.7660 0.1385 0 1
12.8018 -1.5880 -1.7660 0.1385 0 1
12.8053 -1.5593 -1.7660 0.1385 0 1
12.8088 -1.5306 -1.7660 0.1385 0 1
12.8122 -1.5018 -1.7660 0.1385 0 1
12.8155 -1.4731 -1.7660 0.1385 0 1
12.8188 -1.4443 -1.7660 0.1385 0 1
12.8220 -1.4155 -1.7660 0.1385 0 1
12.8251 -1.3868 -1.7660 0.1385 0 1
12.8282 -1.3580 -1.7660 0.1385 0 1
12.8312 -1.3292 -1.7660 0.1385 0 1
12.8342 -1.3004 -1.7660 0.1385 0 1
12.8371 -1.2716 -1.7660 0.1385 0 1
12.8399 -1.2428 -1.7660 0.1385 0 1
12.8427 -1.2140 -1.7660 0.1385 0 1
12.8454 -1.1851 -1.7660 0.1385 0 1
12.8480 -1.1563 -1.7660 0.1385 0 1
12.8506 -1.1275 -1.7660 0.1385 0 1
12.8531 -1.0987 -1.7660 0.1385 0 1
12.8555 -1.0698 -1.7660 0.1385 0 1
12.8579 -1.0410 -1.7660 0.1385 0 1
12.8602 -1.0121 -1.7660 0.1385 0 1
12.8625 -0.9833 -1.7660 0.1385 0 1
12.8647 -0.9544 -1.7660 0.1385 0 1
12.8668 -0.9255 -1.7660 0.1385 0 1
12.8689 -0.8967 -1.7660 0.1385 0 1
12.8709 -0.8678 -1.7660 0.1385 0 1
12.8728 -0.8389 -1.7660 0.1385 0 1
12.8747 -0.8100 -1.7660 0.1385 0 1
12.8765 -0.7811 -1.7660 0.1385 0 1
12.8782 -0.7522 -1.7660 0.1385 0 1
12.8799 -0.7233 -1.7660 0.1385 0 1
12.8816 -0.6944 -1.7660 0.1385 0 1
12.8831 -0.6655 -1.7660 0.1385 0 1
12.8846 -0.6366 -1.7660 0.1385 0 1
12.8860 -0.6077 -1.7660 0.1385 0 1
12.8874 -0.5788 -1.7661 0.1385 0 1
12.8887 -0.5499 -1.7661 0.1385 0 1
12.8900 -0.5209 -1.7661 0.1385 0 1
12.8911 -0.4920 -1.7661 0.1385 0 1
12.8922 -0.4631 -1.7661 0.1385 0 1
12.8933 -0.4341 -1.7661 0.1385 0 1
12.8943 -0.4052 -1.7661 0.1385 0 1
12.8952 -0.3763 -1.7661 0.1385 0 1
12.8961 -0.3474 -1.7661 0.1385 0 1
12.8968 -0.3184 -1.7661 0.1385 0 1
12.8976 -0.2895 -1.7661 0.1385 0 1
12.8982 -0.2605 -1.7661 0.1385 0 1
12.8988 -0.2316 -1.7661 0.1385 0 1
12.8994 -0.2026 -1.7661 0.1385 0 1
12.8999 -0.1737 -1.7661 0.1385 0 1
12.9003 -0.1447 -1.7661 0.1385 0 1
12.9007 -0.1158 -1.7662 0.1385 0 1
12.9009 -0.0869 -1.7662 0.1385 0 1
12.9011 -0.0579 -1.7662 0.1385 0 1
12.9013 -0.0289 -1.7662 0.1385 0 1
12.9014 0.0000 -1.7662 0.1385 0 1
12.9014 0.0290 -1.7662 0.1385 0 1
12.9014 0.0579 -1.7662 0.1385 0 1
12.9013 0.0869 -1.7662 0.1385 0 1
12.9011 0.1158 -1.7662 0.1385 0 1
12.9009 0.1447 -1.7662 0.1385 0 1
12.9006 0.1737 -1.7662 0.1385 0 1
12.9003 0.2027 -1.7663 0.1385 0 1
12.8999 0.2316 -1.7663 0.1385 0 1
12.8994 0.2606 -1.7663 0.1385 0 1
12.8988 0.2895 -1.7663 0.1385 0 1
12.8982 0.3184 -1.7663 0.1385 0 1
12.8976 0.3474 -1.7663 0.1385 0 1
12.8969 0.3763 -1.7663 0.1385 0 1
12.8961 0.4053 -1.7663 0.1385 0 1
12.8952 0.4342 -1.7663 0.1385 0 1
12.8943 0.4632 -1.7664 0.1385 0 1
12.8933 0.4921 -1.7664 0.1385 0 1
12.8923 0.5211 -1.7664 0.1385 0 1
12.8911 0.5500 -1.7664 0.1385 0 1
12.8900 0.5789 -1.7664 0.1385 0 1
12.8887 0.6078 -1.7664 0.1385 0 1
12.8874 0.6368 -1.7664 0.1385 0 1
12.8860 0.6657 -1.7664 0.1385 0 1
12.8846 0.6946 -1.7665 0.1385 0 1
12.8831 0.7235 -1.7665 0.1385 0 1
12.8815 0.7524 -1.7665 0.1385 0 1
12.8799 0.7813 -1.7665 0.1385 0 1
12.8782 0.8102 -1.7665 0.1385 0 1
12.8765 0.8391 -1.7665 0.1385 0 1
12.8747 0.8680 -1.7665 0.1385 0 1
12.8728 0.8969 -1.7665 0.1385 0 1
12.8709 0.9258 -1.7666 0.1385 0 1
12.8689 0.9547 -1.7666 0.1385 0 1
12.8668 0.9836 -1.7666 0.1385 0 1
12.8647 1.0125 -1.7666 0.1385 0 1
12.8625 1.0413 -1.7666 0.1385 0 1
12.8602 1.0702 -1.7666 0.1385 0 1
12.8579 1.0991 -1.7667 0.1385 0 1
12.8555 1.1280 -1.7667 0.1385 0 1
12.8531 1.1568 -1.7667 0.1385 0 1
12.8506 1.1857 -1.7667 0.1385 0 1
12.8480 1.2145 -1.7667 0.1385 0 1
12.8454 1.2433 -1.7667 0.1385 0 1
12.8427 1.2722 -1.7668 0.1385 0 1
12.8399 1.3010 -1.7668 0.1385 0 1
12.8371 1.3298 -1.7668 0.1385 0 1
12.8341 1.3587 -1.7668 0.1385 0 1
12.8312 1.3875 -1.7668 0.1385 0 1
12.8282 1.4163 -1.7668 0.1385 0 1
12.8251 1.4451 -1.7669 0.1385 0 1
12.8220 1.4739 -1.7669 0.1385 0 1
12.8187 1.5026 -1.7669 0.1384 0 1
12.8155 1.5314 -1.7669 0.1384 0 1
12.8121 1.5602 -1.7669 0.1384 0 1
12.8088 1.5889 -1.7669 0.1384 0 1
12.8053 1.6177 -1.7670 0.1384 0 1
12.8018 1.6464 -1.7670 0.1384 0 1
12.7982 1.6752 -1.7670 0.1384 0 1
12.7945 1.7039 -1.7670 0.1384 0 1
12.7908 1.7326 -1.7670 0.1384 0 1
12.7870 1.7613 -1.7671 0.1384 0 1
12.7832 1.7901 -1.7671 0.1384 0 1
12.7793 1.8187 -1.7671 0.1384 0 1
12.7754 1.8475 -1.7671 0.1384 0 1
12.7713 1.8761 -1.7671 0.1384 0 1
12.7672 1.9048 -1.7672 0.1384 0 1
12.7630 1.9335 -1.7672 0.1384 0 1
12.7588 1.9621 -1.7672 0.1384 0 1
12.7546 1.9908 -1.7672 0.1384 0 1
12.7502 2.0195 -1.7672 0.1384 0 1
12.7458 2.0481 -1.7673 0.1384 0 1
12.7413 2.0767 -1.7673 0.1384 0 1
12.7368 2.1053 -1.7673 0.1384 0 1
12.7322 2.1339 -1.7673 0.1384 0 1
12.7275 2.1625 -1.7674 0.1384 0 1
12.7228 2.1911 -1.7674 0.1384 0 1
12.7180 2.2196 -1.7674 0.1384 0 1
12.7132 2.2483 -1.7674 0.1384 0 1
12.7082 2.2768 -1.7674 0.1384 0 1
12.7033 2.3054 -1.7675 0.1384 0 1
12.6983 2.3339 -1.7675 0.1384 0 1
12.6932 2.3624 -1.7675 0.1384 0 1
12.6880 2.3909 -1.7675 0.1384 0 1
12.6828 2.4194 -1.7676 0.1384 0 1
12.6775 2.4479 -1.7676 0.1384 0 1
12.6721 2.4763 -1.7676 0.1384 0 1
12.5277 2.4773 -1.7482 0.1816 0 2
12.3732 2.4756 -1.7274 0.1838 0 2
12.2307 2.4757 -1.7083 0.2097 0 2
12.1029 2.4781 -1.6912 0.2118 0 2
11.9776 2.4805 -1.6745 0.2139 0 2
11.9152 2.4954 -1.6666 0.1384 0 2
11.9097 2.5222 -1.6666 0.1384 0 2
11.9042 2.5489 -1.6666 0.1384 0 2
11.8986 2.5757 -1.6666 0.1384 0 2
11.8930 2.6024 -1.6667 0.1384 0 2
11.8873 2.6291 -1.6667 0.1384 0 2
11.8815 2.6559 -1.6667 0.1384 0 2
11.8757 2.6825 -1.6667 0.1384 0 2
11.8699 2.7092 -1.6668 0.1384 0 2
11.8639 2.7359 -1.6668 0.1384 0 2
11.8579 2.7626 -1.6668 0.1384 0 2
11.8519 2.7892 -1.6668 0.1384 0 2
11.8458 2.8158 -1.6669 0.1384 0 2
11.8396 2.8424 -1.6669 0.1384 0 2
11.8334 2.8690 -1.6669 0.1384 0 2
11.8271 2.8957 -1.6669 0.1383 0 2
11.8208 2.9222 -1.6670 0.1383 0 2
11.8144 2.9488 -1.6670 0.1383 0 2
11.8079 2.9754 -1.6670 0.1383 0 2
11.8014 3.0019 -1.6670 0.1383 0 2
11.7948 3.0284 -1.6671 0.1383 0 2
11.7882 3.0549 -1.6671 0.1383 0 2
11.7815 3.0814 -1.6671 0.1383 0 2
11.7748 3.1079 -1.6672 0.1383 0 2
11.7679 3.1344 -1.6672 0.1383 0 2
11.7611 3.1608 -1.6672 0.1383 0 2
11.7542 3.1872 -1.6672 0.1383 0 2
11.7472 3.2137 -1.6673 0.1383 0 2
11.7402 3.2401 -1.6673 0.1383 0 2
11.7331 3.2665 -1.6673 0.1383 0 2
11.7259 3.2928 -1.6674 0.1383 0 2
11.7187 3.3192 -1.6674 0.1383 0 2
11.7114 3.3455 -1.6674 0.1383 0 2
11.7041 3.3719 -1.6674 0.1383 0 2
11.6967 3.3982 -1.6675 0.1383 0 2
11.6892 3.4245 -1.6675 0.1383 0 2
11.6817 3.4508 -1.6675 0.1383 0 2
11.6742 3.4771 -1.6676 0.1383 0 2
11.6666 3.5033 -1.6676 0.1383 0 2
11.6589 3.5295 -1.6676 0.1383 0 2
11.6511 3.5558 -1.6677 0.1383 0 2
11.6433 3.5820 -1.6677 0.1383 0 2
11.6355 3.6082 -1.6677 0.1383 0 2
11.6276 3.6343 -1.6677 0.1383 0 2
11.6196 3.6605 -1.6678 0.1383 0 2
11.6116 3.6866 -1.6678 0.1383 0 2
11.6035 3.7127 -1.6678 0.1383 0 2
11.5954 3.7388 -1.6679 0.1383 0 2
11.5871 3.7649 -1.6679 0.1383 0 2
11.5789 3.7910 -1.6679 0.1383 0 2
11.5706 3.8170 -1.6680 0.1383 0 2
11.5622 3.8431 -1.6680 0.1383 0 2
11.5538 3.8690 -1.6680 0.1383 0 2
11.5453 3.8951 -1.6681 0.1383 0 2
11.5368 3.9210 -1.6681 0.1383 0 2
11.5282 3.9470 -1.6681 0.1383 0 2
11.5195 3.9729 -1.6682 0.1382 0 2
11.5108 3.9988 -1.6682 0.1382 0 2
11.5020 4.0248 -1.6682 0.1382 0 2
11.4932 4.0506 -1.6683 0.1382 0 2
11.4843 4.0765 -1.6683 0.1382 0 2
11.4754 4.1023 -1.6683 0.1382 0 2
11.4664 4.1282 -1.6684 0.1382 0 2
11.4573 4.1539 -1.6684 0.1382 0 2
11.4482 4.1797 -1.6684 0.1382 0 2
11.4390 4.2055 -1.6685 0.1382 0 2
11.4298 4.2313 -1.6685 0.1382 0 2
11.4205 4.2570 -1.6685 0.1382 0 2
11.4112 4.2827 -1.6686 0.1382 0 2
11.4018 4.3084 -1.6686 0.1382 0 2
11.3923 4.3340 -1.6686 0.1382 0 2
11.3828 4.3597 -1.6687 0.1382 0 2
11.3732 4.3854 -1.6687 0.1382 0 2
11.3636 4.4109 -1.6688 0.1382 0 2
11.3539 4.4365 -1.6688 0.1382 0 2
11.3442 4.4621 -1.6688 0.1382 0 2
11.3344 4.4876 -1.6689 0.1382 0 2
11.3245 4.5131 -1.6689 0.1382 0 2
11.3146 4.5386 -1.6689 0.1382 0 2
11.3046 4.5641 -1.6690 0.1382 0 2
11.2946 4.5896 -1.6690 0.1382 0 2
11.2846 4.6150 -1.6690 0.1382 0 2
11.2744 4.6404 -1.6691 0.1382 0 2
11.2642 4.6658 -1.6691 0.1382 0 2
11.2540 4.6912 -1.6692 0.1382 0 2
11.2437 4.7165 -1.6692 0.1382 0 2
11.2334 4.7419 -1.6692 0.1382 0 2
11.2229 4.7672 -1.6693 0.1382 0 2
11.2125 4.7925 -1.6693 0.1382 0 2
11.2019 4.8177 -1.6693 0.1381 0 2
11.1913 4.8429 -1.6694 0.1381 0 2
11.1807 4.8682 -1.6694 0.1381 0 2
11.1700 4.8934 -1.6695 0.1381 0 2
11.1593 4.9185 -1.6695 0.1381 0 2
11.1485 4.9437 -1.6695 0.1381 0 2
11.1376 4.9688 -1.6696 0.1381 0 2
11.1267 4.9939 -1.6696 0.1381 0 2
11.1157 5.0190 -1.6697 0.1381 0 2
11.1047 5.0440 -1.6697 0.1381 0 2
11.0936 5.0690 -1.6697 0.1381 0 2
11.0824 5.0940 -1.6698 0.1381 0 2
11.0712 5.1190 -1.6698 0.1381 0 2
11.0600 5.1440 -1.6699 0.1381 0 2
11.0487 5.1689 -1.6699 0.1381 0 2
11.0373 5.1938 -1.6699 0.1381 0 2
11.0259 5.2187 -1.6700 0.1381 0 2
11.0145 5.2435 -1.6700 0.1381 0 2
11.0029 5.2683 -1.6701 0.1381 0 2
10.9914 5.2932 -1.6701 0.1381 0 2
10.9797 5.3180 -1.6701 0.1381 0 2
10.9680 5.3427 -1.6702 0.1381 0 2
10.9563 5.3675 -1.6702 0.1381 0 2
10.9445 5.3922 -1.6703 0.1381 0 2
10.9327 5.4169 -1.6703 0.1381 0 2
10.9208 5.4415 -1.6704 0.1381 0 2
10.9088 5.4661 -1.6704 0.1381 0 2
10.8968 5.4907 -1.6704 0.1381 0 2
10.8847 5.5153 -1.6705 0.1381 0 2
10.8726 5.5399 -1.6705 0.1381 0 2
10.8604 5.5644 -1.6706 0.1380 0 2
10.8481 5.5889 -1.6706 0.1380 0 2
10.8359 5.6134 -1.6707 0.1380 0 2
10.8235 5.6378 -1.6707 0.1380 0 2
10.8111 5.6622 -1.6707 0.1380 0 2
10.7987 5.6866 -1.6708 0.1380 0 2
10.7862 5.7110 -1.6708 0.1380 0 2
10.7736 5.7354 -1.6709 0.1380 0 2
10.7610 5.7596 -1.6709 0.1380 0 2
10.7483 5.7839 -1.6710 0.1380 0 2
10.7356 5.8082 -1.6710 0.1380 0 2
10.7229 5.8324 -1.6710 0.1380 0 2
10.7100 5.8566 -1.6711 0.1380 0 2
10.6971 5.8808 -1.6711 0.1380 0 2
10.6842 5.9050 -1.6712 0.1380 0 2
10.6712 5.9291 -1.6712 0.1380 0 2
10.6581 5.9532 -1.6713 0.1380 0 2
10.6450 5.9773 -1.6713 0.1380 0 2
10.6319 6.0013 -1.6714 0.1380 0 2
10.6187 6.0253 -1.6714 0.1380 0 2
10.6054 6.0493 -1.6715 0.1380 0 2
10.5921 6.0732 -1.6715 0.1380 0 2
10.5788 6.0971 -1.6715 0.1380 0 2
10.5654 6.1210 -1.6716 0.1380 0 2
10.5519 6.1449 -1.6716 0.1380 0 2
10.5384 6.1687 -1.6717 0.1380 0 2
10.5248 6.1925 -1.6717 0.1380 0 2
10.5112 6.2163 -1.6718 0.1379 0 2
10.4975 6.2401 -1.6718 0.1379 0 2
10.4837 6.2638 -1.6719 0.1379 0 2
10.4700 6.2875 -1.6719 0.1379 0 2
10.4561 6.3111 -1.6720 0.1379 0 2
10.4422 6.3347 -1.6720 0.1379 0 2
10.4283 6.3583 -1.6721 0.1379 0 2
10.4143 6.3819 -1.6721 0.1379 0 2
10.4002 6.4054 -1.6722 0.1379 0 2
10.3861 6.4289 -1.6722 0.1379 0 2
10.3918 6.4648 -1.6755 0.1379 0 25
10.3776 6.4883 -1.6755 0.1379 0 25
10.3633 6.5117 -1.6755 0.1379 0 25
10.0357 6.3373 -1.6249 0.6597 0 5
10.0035 6.3485 -1.6220 0.7988 0 5
9.9879 6.3700 -1.6217 0.9786 0 5
9.9771 6.3947 -1.6223 0.9783 0 5
9.9965 6.4388 -1.6278 0.4466 0 5
10.2765 6.6518 -1.6758 0.1379 0 25
10.2618 6.6751 -1.6759 0.1379 0 25
10.2471 6.6982 -1.6759 0.1379 0 25
10.2324 6.7214 -1.6760 0.1379 0 25
10.2176 6.7446 -1.6760 0.1379 0 25
10.2027 6.7677 -1.6761 0.1379 0 25
10.1878 6.7908 -1.6761 0.1379 0 25
10.1729 6.8139 -1.6762 0.1378 0 25
10.1579 6.8369 -1.6762 0.1378 0 25
10.1428 6.8598 -1.6763 0.1378 0 25
10.1277 6.8828 -1.6763 0.1378 0 25
10.1125 6.9057 -1.6764 0.1378 0 25
10.0973 6.9286 -1.6764 0.1378 0 25
10.0820 6.9514 -1.6765 0.1378 0 25
10.0667 6.9743 -1.6765 0.1378 0 25
10.0514 6.9971 -1.6766 0.1378 0 25
10.0360 7.0198 -1.6767 0.1378 0 25
10.0205 7.0425 -1.6767 0.1378 0 25
10.0050 7.0652 -1.6768 0.1378 0 25
9.9894 7.0879 -1.6768 0.1378 0 25
9.9738 7.1105 -1.6769 0.1378 0 25
9.9581 7.1330 -1.6769 0.1378 0 25
8.8585 6.3755 -1.4942 0.1791 0 5
8.7976 6.3617 -1.4863 0.1800 0 5
8.7373 6.3480 -1.4785 0.1810 0 5
8.6817 6.3374 -1.4715 0.5592 0 5
8.6396 6.3365 -1.4668 0.5610 0 5
8.5979 6.3356 -1.4621 0.5628 0 5
8.5563 6.3346 -1.4574 0.5646 0 5
8.5151 6.3338 -1.4528 0.5664 0 5
8.4741 6.3329 -1.4483 0.5682 0 5
8.4340 6.3324 -1.4438 0.5973 0 5
8.3947 6.3324 -1.4395 0.5990 0 5
8.3556 6.3324 -1.4353 0.6008 0 5
8.3169 6.3325 -1.4310 0.6026 0 5
8.2783 6.3325 -1.4268 0.6044 0 5
8.2399 6.3325 -1.4227 0.6061 0 5
8.2028 6.3333 -1.4187 0.4284 0 5
8.1710 6.3381 -1.4157 0.4293 0 5
8.1394 6.3429 -1.4127 0.4302 0 5
8.1079 6.3476 -1.4097 0.4311 0 5
8.0765 6.3523 -1.4067 0.4320 0 5
8.0452 6.3570 -1.4037 0.4329 0 5
8.0141 6.3616 -1.4008 0.4339 0 5
7.9831 6.3663 -1.3978 0.4348 0 5
7.9522 6.3709 -1.3949 0.4357 0 5
9.5502 7.6864 -1.6783 0.1377 0 25
9.5332 7.7080 -1.6783 0.1377 0 25
9.5162 7.7297 -1.6784 0.1377 0 25
9.4992 7.7513 -1.6784 0.1377 0 25
9.4821 7.7728 -1.6785 0.1377 0 25
9.4649 7.7944 -1.6785 0.1377 0 25
9.4477 7.8158 -1.6786 0.1377 0 25
9.4305 7.8373 -1.6787 0.1376 0 25
9.4132 7.8587 -1.6787 0.1376 0 25
9.3958 7.8801 -1.6788 0.1376 0 25
9.3784 7.9014 -1.6788 0.1376 0 25
9.3610 7.9227 -1.6789 0.1376 0 25
9.3436 7.9439 -1.6789 0.1376 0 25
9.3260 7.9652 -1.6790 0.1376 0 25
9.3084 7.9863 -1.6791 0.1376 0 25
9.2908 8.0075 -1.6791 0.1376 0 25
9.2731 8.0286 -1.6792 0.1376 0 25
9.2554 8.0497 -1.6792 0.1376 0 25
7.2147 6.3033 -1.3115 0.8785 0 5
7.1921 6.3121 -1.3100 0.8795 0 5
7.1696 6.3208 -1.3085 0.8806 0 5
7.1595 6.3405 -1.3092 0.9427 0 5
7.1504 6.3612 -1.3102 0.9420 0 5
7.1616 6.4000 -1.3149 0.4301 0 5
9.1300 8.1961 -1.6796 0.1376 0 25
9.1120 8.2168 -1.6797 0.1376 0 25
9.0938 8.2375 -1.6798 0.1376 0 25
9.0756 8.2582 -1.6798 0.1376 0 25
9.0574 8.2788 -1.6799 0.1375 0 25
9.0391 8.2994 -1.6799 0.1375 0 25
9.0208 8.3200 -1.6800 0.1375 0 25
9.0024 8.3405 -1.6801 0.1375 0 25
8.9840 8.3610 -1.6801 0.1375 0 25
8.9655 8.3814 -1.6802 0.1375 0 25
8.9470 8.4018 -1.6802 0.1375 0 25
8.9284 8.4221 -1.6803 0.1375 0 25
8.9098 8.4425 -1.6804 0.1375 0 25
8.8912 8.4628 -1.6804 0.1375 0 25
8.8725 8.4830 -1.6805 0.1375 0 25
8.8538 8.5032 -1.6805 0.1375 0 25
8.8350 8.5234 -1.6806 0.1375 0 25
8.8162 8.5435 -1.6807 0.1375 0 25
8.7973 8.5635 -1.6807 0.1375 0 25
8.7784 8.5836 -1.6808 0.1375 0 25
8.7594 8.6035 -1.6808 0.1375 0 25
8.7404 8.6235 -1.6809 0.1375 0 25
8.7213 8.6434 -1.6810 0.1375 0 25
8.7022 8.6633 -1.6810 0.1375 0 25
8.1474 -8.1474 -1.6743 0.1461 0 2
8.1654 -8.1288 -1.6742 0.1461 0 2
8.1834 -8.1103 -1.6742 0.1461 0 2
8.2013 -8.0917 -1.6741 0.1461 0 2
8.2193 -8.0730 -1.6741 0.1461 0 2
8.2371 -8.0544 -1.6740 0.1461 0 2
8.2550 -8.0356 -1.6740 0.1461 0 2
8.2728 -8.0169 -1.6739 0.1461 0 2
8.2905 -7.9981 -1.6739 0.1461 0 2
8.3082 -7.9793 -1.6739 0.1461 0 2
8.3259 -7.9604 -1.6738 0.1461 0 2
8.3435 -7.9414 -1.6738 0.1461 0 2
8.3611 -7.9225 -1.6737 0.1461 0 2
8.3786 -7.9035 -1.6737 0.1461 0 2
8.3961 -7.8845 -1.6736 0.1461 0 2
8.4136 -7.8654 -1.6736 0.1461 0 2
8.4310 -7.8463 -1.6736 0.1461 0 2
8.4483 -7.8271 -1.6735 0.1461 0 2
8.4656 -7.8080 -1.6735 0.1461 0 2
8.4829 -7.7888 -1.6734 0.1461 0 2
8.5002 -7.7695 -1.6734 0.1461 0 2
8.5173 -7.7502 -1.6733 0.1462 0 2
8.5345 -7.7309 -1.6733 0.1462 0 2
8.5516 -7.7115 -1.6732 0.1462 0 2
8.5687 -7.6921 -1.6732 0.1462 0 2
8.5857 -7.6726 -1.6732 0.1462 0 2
8.6027 -7.6532 -1.6731 0.1462 0 2
8.6196 -7.6337 -1.6731 0.1462 0 2
8.6365 -7.6141 -1.6730 0.1462 0 2
8.6534 -7.5945 -1.6730 0.1462 0 2
8.6702 -7.5749 -1.6730 0.1462 0 2
8.6869 -7.5552 -1.6729 0.1462 0 2
8.7036 -7.5355 -1.6729 0.1462 0 2
8.7203 -7.5158 -1.6728 0.1462 0 2
8.7369 -7.4960 -1.6728 0.1462 0 2
8.7535 -7.4762 -1.6727 0.1462 0 2
8.7700 -7.4564 -1.6727 0.1462 0 2
8.7865 -7.4365 -1.6727 0.1462 0 2
8.8030 -7.4166 -1.6726 0.1462 0 2
8.8194 -7.3966 -1.6726 0.1462 0 2
8.8358 -7.3766 -1.6725 0.1462 0 2
8.8521 -7.3566 -1.6725 0.1462 0 2
8.8684 -7.3366 -1.6725 0.1462 0 2
8.8846 -7.3165 -1.6724 0.1462 0 2
8.9008 -7.2963 -1.6724 0.1462 0 2
8.9169 -7.2762 -1.6723 0.1462 0 2
8.9330 -7.2560 -1.6723 0.1462 0 2
8.9491 -7.2357 -1.6723 0.1462 0 2
8.9650 -7.2155 -1.6722 0.1462 0 2
8.9810 -7.1952 -1.6722 0.1463 0 2
8.9969 -7.1748 -1.6721 0.1463 0 2
9.0128 -7.1545 -1.6721 0.1463 0 2
9.0286 -7.1341 -1.6721 0.1463 0 2
9.0444 -7.1136 -1.6720 0.1463 0 2
9.0601 -7.0931 -1.6720 0.1463 0 2
9.0759 -7.0726 -1.6720 0.1463 0 2
9.0914 -7.0521 -1.6719 0.1463 0 2
9.1071 -7.0315 -1.6719 0.1463 0 2
9.1226 -7.0108 -1.6718 0.1463 0 2
9.1381 -6.9902 -1.6718 0.1463 0 2
9.1536 -6.9695 -1.6718 0.1463 0 2
9.1690 -6.9488 -1.6717 0.1463 0 2
9.1844 -6.9281 -1.6717 0.1463 0 2
9.1997 -6.9073 -1.6717 0.1463 0 2
9.2149 -6.8865 -1.6716 0.1463 0 2
9.2302 -6.8656 -1.6716 0.1463 0 2
9.2453 -6.8448 -1.6715 0.1463 0 2
9.2605 -6.8238 -1.6715 0.1463 0 2
9.2756 -6.8029 -1.6715 0.1463 0 2
9.2906 -6.7819 -1.6714 0.1463 0 2
9.3056 -6.7609 -1.6714 0.1463 0 2
9.3205 -6.7399 -1.6714 0.1463 0 2
9.3354 -6.7188 -1.6713 0.1463 0 2
9.3503 -6.6977 -1.6713 0.1463 0 2
9.3651 -6.6765 -1.6713 0.1463 0 2
9.3799 -6.6554 -1.6712 0.1463 0 2
9.3946 -6.6342 -1.6712 0.1463 0 2
9.4092 -6.6129 -1.6711 0.1463 0 2
9.4239 -6.5917 -1.6711 0.1463 0 2
9.4384 -6.5704 -1.6711 0.1463 0 2
9.4530 -6.5491 -1.6710 0.1464 0 2
9.4674 -6.5276 -1.6710 0.1464 0 2
9.4819 -6.5063 -1.6710 0.1464 0 2
9.4963 -6.4849 -1.6709 0.1464 0 2
9.5106 -6.4634 -1.6709 0.1464 0 2
9.5249 -6.4419 -1.6709 0.1464 0 2
9.5391 -6.4204 -1.6708 0.1464 0 2
9.5533 -6.3989 -1.6708 0.1464 0 2
9.5675 -6.3772 -1.6708 0.1464 0 2
9.5816 -6.3556 -1.6707 0.1464 0 2
9.5956 -6.3340 -1.6707 0.1464 0 2
9.6096 -6.3123 -1.6707 0.1464 0 2
9.6236 -6.2906 -1.6706 0.1464 0 2
9.6375 -6.2689 -1.6706 0.1464 0 2
9.6513 -6.2471 -1.6706 0.1464 0 2
9.6651 -6.2253 -1.6705 0.1464 0 2
9.6789 -6.2035 -1.6705 0.1464 0 2
9.6926 -6.1816 -1.6705 0.1464 0 2
9.7063 -6.1598 -1.6704 0.1464 0 2
9.7199 -6.1379 -1.6704 0.1464 0 2
9.7334 -6.1159 -1.6704 0.1464 0 2
9.7470 -6.0940 -1.6704 0.1464 0 2
9.7604 -6.0720 -1.6703 0.1464 0 2
9.7738 -6.0499 -1.6703 0.1464 0 2
9.7872 -6.0279 -1.6703 0.1464 0 2
9.8005 -6.0058 -1.6702 0.1464 0 2
9.8138 -5.9837 -1.6702 0.1464 0 2
9.8270 -5.9615 -1.6702 0.1464 0 2
9.8402 -5.9393 -1.6701 0.1464 0 2
9.8533 -5.9171 -1.6701 0.1464 0 2
9.8664 -5.8949 -1.6701 0.1464 0 2
9.8794 -5.8726 -1.6700 0.1464 0 2
9.8924 -5.8504 -1.6700 0.1464 0 2
9.9053 -5.8280 -1.6700 0.1464 0 2
9.9182 -5.8057 -1.6700 0.1464 0 2
9.9620 -5.8013 -1.6751 0.5317 0 2
9.9438 -5.7609 -1.6699 0.1464 0 2
9.9565 -5.7385 -1.6699 0.1464 0 2
9.9692 -5.7160 -1.6698 0.1464 0 2
9.9818 -5.6935 -1.6698 0.1464 0 2
9.9944 -5.6710 -1.6698 0.1464 0 2
10.0069 -5.6485 -1.6697 0.1464 0 2
10.0194 -5.6259 -1.6697 0.1464 0 2
10.0591 -5.6185 -1.6742 0.5166 0 2
10.1083 -5.6163 -1.6803 0.5147 0 2
10.1579 -5.6141 -1.6865 0.5119 0 2
