ply
format ascii 1.0
element vertex 611
property float32 x
property float32 y
property float32 z
property float32 CosAngle
property uint32 ObjIdx
property uint32 ObjTag
end_header
17.780702590942383 -6.58230447769165 3.343153238296509 0.49684929847717285 0 3
17.411035537719727 -6.53445291519165 3.2791268825531006 0.4932684898376465 0 3
17.283750534057617 -6.575370788574219 3.260685682296753 0.8455566167831421 0 3
17.27326202392578 -6.660234451293945 3.2643094062805176 0.5082517862319946 0 3
17.11587905883789 -6.687949180603027 3.2402098178863525 0.5120323896408081 0 3
16.960819244384766 -6.715253829956055 3.216524600982666 0.5158022046089172 0 3
16.808008193969727 -6.742148399353027 3.193250894546509 0.5195618867874146 0 3
16.65736198425293 -6.76867151260376 3.170372486114502 0.5233113765716553 0 3
16.508867263793945 -6.794824123382568 3.147881031036377 0.5270501971244812 0 3
16.36248016357422 -6.820605278015137 3.125772714614868 0.5307783484458923 0 3
16.048046112060547 -6.774218559265137 3.071476936340332 0.5426598787307739 0 3
15.907812118530273 -6.79931640625 3.050448179244995 0.537765383720398 0 3
15.859530448913574 -6.863046646118164 3.0470733642578125 0.8220686912536621 0 3
15.815351486206055 -6.92833948135376 3.044524669647217 0.5455852150917053 0 3
15.678495407104492 -6.952441215515137 3.024156332015991 0.5492573380470276 0 3
15.543535232543945 -6.976210594177246 3.0041275024414062 0.5529196858406067 0 3
15.410253524780273 -6.999667644500732 2.984416961669922 0.5565716624259949 0 3
15.278769493103027 -7.022792816162109 2.9650235176086426 0.5602123141288757 0 3
15.148944854736328 -7.045663833618164 2.9459362030029297 0.5638415813446045 0 3
14.846445083618164 -6.986210823059082 2.8931832313537598 0.5675223469734192 0 3
14.721405982971191 -7.008222579956055 2.8749172687530518 0.5711285471916199 0 3
14.663436889648438 -7.0615234375 2.8697543144226074 0.7995192408561707 0 3
14.628729820251465 -7.125859260559082 2.8691887855529785 0.5782439708709717 0 3
14.506991386413574 -7.147265434265137 2.8515706062316895 0.5818159580230713 0 3
14.377616882324219 -7.163886547088623 2.8324356079101562 0.5888429284095764 0 3
14.259394645690918 -7.185078144073486 2.8154714107513428 0.592390775680542 0 3
14.142597198486328 -7.205996036529541 2.798767328262329 0.5959259867668152 0 3
14.027167320251465 -7.22667932510376 2.782316207885742 0.5994499325752258 0 3
13.913105010986328 -7.2470703125 2.7661101818084717 0.6029612421989441 0 3
13.800312042236328 -7.267284870147705 2.7501485347747803 0.6064611077308655 0 3
13.68886661529541 -7.28722620010376 2.734424352645874 0.6099481582641602 0 3
13.5786714553833 -7.306952953338623 2.7189314365386963 0.6134235858917236 0 3
13.469667434692383 -7.326484203338623 2.7036702632904053 0.6168870329856873 0 3
13.3662691116333 -7.34814453125 2.6895060539245605 0.6168769001960754 0 3
13.12099552154541 -7.290214538574219 2.6466996669769287 0.6199153065681458 0 3
13.016191482543945 -7.30859375 2.632155418395996 0.6233431696891785 0 3
12.94667911529541 -7.346171855926514 2.6247289180755615 0.7590441703796387 0 3
12.960331916809082 -7.431015491485596 2.6342413425445557 0.6305595636367798 0 3
12.857733726501465 -7.449062347412109 2.6201653480529785 0.6339464783668518 0 3
12.75624942779541 -7.466952800750732 2.6062846183776855 0.6373217105865479 0 3
12.655800819396973 -7.484628677368164 2.592597246170044 0.6406850814819336 0 3
12.296366691589355 -7.346718788146973 2.5256905555725098 0.644029438495636 0 3
12.200018882751465 -7.363691329956055 2.5126700401306152 0.6473668217658997 0 3
12.10472583770752 -7.380429744720459 2.4998345375061035 0.6506905555725098 0 3
12.010351181030273 -7.397069931030273 2.487180233001709 0.6540014743804932 0 3
11.916933059692383 -7.413515567779541 2.474703550338745 0.6572994589805603 0 3
11.832773208618164 -7.435019493103027 2.4641287326812744 0.7711582183837891 0 3
11.757519721984863 -7.461523056030273 2.4554057121276855 0.7738975286483765 0 3
11.682792663574219 -7.487890243530273 2.446791410446167 0.7766219973564148 0 3
11.605878829956055 -7.512265682220459 2.437716007232666 0.6701645255088806 0 3
11.51650333404541 -7.527968406677246 2.426018714904785 0.6733953952789307 0 3
11.428027153015137 -7.54357385635376 2.414487838745117 0.6769068837165833 0 3
11.35953140258789 -7.571757793426514 2.4071686267852783 0.174835667014122 0 3
11.383339881896973 -7.661640644073486 2.419478178024292 0.6832041144371033 0 3
11.29628849029541 -7.676972389221191 2.40828275680542 0.6863806247711182 0 3
11.21011734008789 -7.692148208618164 2.3972392082214355 0.6895427703857422 0 3
11.12466812133789 -7.707187175750732 2.386345148086548 0.6926910877227783 0 3
11.039999961853027 -7.722089767456055 2.375593900680542 0.6958258152008057 0 3
10.9561128616333 -7.736855506896973 2.3649868965148926 0.6989463567733765 0 3
10.87294864654541 -7.751503944396973 2.354520797729492 0.7020529508590698 0 3
10.79052734375 -7.765995979309082 2.3441994190216064 0.7051448822021484 0 3
10.70882797241211 -7.78039026260376 2.334009885787964 0.7082232236862183 0 3
10.627812385559082 -7.794648170471191 2.3239550590515137 0.7112866640090942 0 3
10.54751968383789 -7.808808326721191 2.3140335083007812 0.714336097240448 0 3
10.467909812927246 -7.822812557220459 2.304244041442871 0.7173711061477661 0 3
10.388925552368164 -7.836718559265137 2.2945823669433594 0.7203917503356934 0 3
10.310625076293945 -7.850507736206055 2.2850472927093506 0.7233977317810059 0 3
10.2329683303833 -7.864179611206055 2.275636911392212 0.7263892292976379 0 3
10.155937194824219 -7.877734184265137 2.2663486003875732 0.7293663620948792 0 3
10.079569816589355 -7.891191005706787 2.2571825981140137 0.7323282361030579 0 3
10.003788948059082 -7.904531002044678 2.2481331825256348 0.7352762818336487 0 3
7.718144416809082 -6.154999732971191 1.740675926208496 0.7094293832778931 0 3
7.657441139221191 -6.162988185882568 1.7332067489624023 0.7124875783920288 0 3
7.597245693206787 -6.170957088470459 1.7258318662643433 0.7155311107635498 0 3
7.537558555603027 -6.17882776260376 1.7185559272766113 0.7185612916946411 0 3
7.478359222412109 -6.186621189117432 1.7113747596740723 0.7215763330459595 0 3
7.419687271118164 -6.194394588470459 1.7042880058288574 0.724576473236084 0 3
7.361484050750732 -6.202070236206055 1.6972951889038086 0.7275623679161072 0 3
7.304550647735596 -6.210371017456055 1.6905803680419922 0.7583186626434326 0 3
7.249726295471191 -6.21999979019165 1.6843328475952148 0.7611308693885803 0 3
7.195273399353027 -6.229628562927246 1.6781671047210693 0.7639275789260864 0 3
7.141269207000732 -6.239120960235596 1.672079086303711 0.7667089700698853 0 3
7.087616920471191 -6.248554706573486 1.6660690307617188 0.769474983215332 0 3
7.034355163574219 -6.257948875427246 1.6601347923278809 0.7722251415252686 0 3
6.981464862823486 -6.267265319824219 1.654274821281433 0.774959921836853 0 3
6.928964614868164 -6.27648401260376 1.6484915018081665 0.7776790857315063 0 3
6.876835823059082 -6.285664081573486 1.642781376838684 0.7803831696510315 0 3
6.825019359588623 -6.294804573059082 1.6371407508850098 0.7830710411071777 0 3
6.773612976074219 -6.303847312927246 1.631574034690857 0.7857423424720764 0 3
6.722519397735596 -6.312851428985596 1.626076340675354 0.7883993983268738 0 3
6.671796798706055 -6.32177734375 1.6206485033035278 0.791039228439331 0 3
6.621347427368164 -6.330664157867432 1.6152907609939575 0.7936643362045288 0 3
6.5712890625 -6.33947229385376 1.6099990606307983 0.7962722778320312 0 3
6.521543025970459 -6.348242282867432 1.6047738790512085 0.7988649010658264 0 3
6.472128868103027 -6.35693359375 1.5996166467666626 0.801440954208374 0 3
6.422987937927246 -6.365585803985596 1.5945227146148682 0.8040010929107666 0 3
13.657538414001465 13.657480239868164 3.075598955154419 0.9698498249053955 0 9
13.721288681030273 13.5986328125 3.0761806964874268 0.9696658849716187 0 9
13.785078048706055 13.539745330810547 3.0768237113952637 0.9694637060165405 0 9
13.796835899353027 13.430155754089355 3.065964698791504 0.18304766714572906 0 9
13.681288719177246 13.19863224029541 3.027095317840576 0.1853981614112854 0 9
13.568437576293945 12.9727144241333 2.9892184734344482 0.18774737417697906 0 9
13.458222389221191 12.752167701721191 2.9522902965545654 0.1900959312915802 0 9
13.35048770904541 12.536893844604492 2.9162890911102295 0.19244258105754852 0 9
14.167948722839355 13.185409545898438 3.0818984508514404 0.9678671360015869 0 9
14.231816291809082 13.126152038574219 3.0829501152038574 0.9675371050834656 0 9
14.29574203491211 13.066835403442383 3.0840606689453125 0.967188835144043 0 9
14.359686851501465 13.00748062133789 3.0852293968200684 0.9668222069740295 0 9
14.423651695251465 12.948065757751465 3.086455821990967 0.9664373993873596 0 9
14.487675666809082 12.88857364654541 3.087743043899536 0.9660343527793884 0 9
12.11587905883789 10.68154239654541 2.5720043182373047 0.82811039686203 0 9
12.199081420898438 10.657968521118164 2.57948637008667 0.8257083296775818 0 9
12.2827730178833 10.63427734375 2.587062358856201 0.8232899904251099 0 9
12.110273361206055 10.390175819396973 2.540879964828491 0.778242826461792 0 9
12.200057983398438 10.372538566589355 2.549928903579712 0.7754814624786377 0 9
12.216992378234863 10.292831420898438 2.5437862873077393 0.4727979004383087 0 9
12.17171859741211 10.16162109375 2.5248353481292725 0.47634658217430115 0 9
12.127128601074219 10.032362937927246 2.5062222480773926 0.47988513112068176 0 9
12.565780639648438 10.300643920898438 2.5873031616210938 0.7642802000045776 0 9
12.65892505645752 10.282323837280273 2.5969462394714355 0.761441171169281 0 9
12.752753257751465 10.263886451721191 2.606717109680176 0.7585873007774353 0 9
12.847285270690918 10.245312690734863 2.616612434387207 0.7557184100151062 0 9
12.942519187927246 10.2265625 2.626640796661377 0.752834141254425 0 9
13.038496017456055 10.207695007324219 2.636793375015259 0.749934732913971 0 9
13.135214805603027 10.188652038574219 2.647078275680542 0.7470206022262573 0 9
12.56273365020752 9.65462875366211 2.5229527950286865 0.09413880109786987 0 9
13.330937385559082 10.150156021118164 2.6680569648742676 0.741147518157959 0 9
13.429999351501465 10.130663871765137 2.6787493228912354 0.7381883263587952 0 9
13.529824256896973 10.111015319824219 2.689587116241455 0.7352145314216614 0 9
13.630449295043945 10.091230392456055 2.700559377670288 0.7322264313697815 0 9
13.73193359375 10.071249961853027 2.711682081222534 0.7292233109474182 0 9
13.834238052368164 10.05111312866211 2.722949504852295 0.7262061238288879 0 9
13.937382698059082 10.030800819396973 2.734365701675415 0.7231737375259399 0 9
14.16787052154541 10.10048770904541 2.770662784576416 0.7687339782714844 0 9
13.98828125 9.878046989440918 2.7268435955047607 0.2883787751197815 0 9
14.045233726501465 9.824101448059082 2.7293245792388916 0.2881166338920593 0 9
14.10244083404541 9.770155906677246 2.731893301010132 0.2878458499908447 0 9
14.15990161895752 9.716191291809082 2.734548330307007 0.2875664234161377 0 9
14.217577934265137 9.662226676940918 2.737290382385254 0.287278413772583 0 9
14.275566101074219 9.60824203491211 2.7401139736175537 0.28698188066482544 0 9
14.30019474029541 9.531835556030273 2.7366063594818115 0.8809990882873535 0 9
14.309042930603027 9.445292472839355 2.730161428451538 0.8830778002738953 0 9
14.31787109375 9.359121322631836 2.7238051891326904 0.8851393461227417 0 9
14.32666015625 9.273359298706055 2.717529773712158 0.8871833086013794 0 9
14.335371017456055 9.18798828125 2.7113380432128906 0.8892095685005188 0 9
14.344061851501465 9.102988243103027 2.705226182937622 0.8912184834480286 0 9
14.35269546508789 9.018359184265137 2.6991958618164062 0.8932093977928162 0 9
14.361289024353027 8.934101104736328 2.6932461261749268 0.8951827883720398 0 9
14.36986255645752 8.850234031677246 2.687373399734497 0.8971386551856995 0 9
14.378358840942383 8.766718864440918 2.681581735610962 0.899076521396637 0 9
14.386855125427246 8.683573722839355 2.6758651733398438 0.9009964466094971 0 9
14.395292282104492 8.600761413574219 2.67022967338562 0.9028987288475037 0 9
14.403691291809082 8.518301010131836 2.664666175842285 0.9047832489013672 0 9
14.412050247192383 8.436132431030273 2.6591832637786865 0.9066498875617981 0 9
14.420371055603027 8.35433578491211 2.6537718772888184 0.908498227596283 0 9
16.367069244384766 9.384296417236328 3.004241943359375 0.8040972948074341 0 9
16.42462921142578 9.319628715515137 3.0071001052856445 0.8033328652381897 0 9
16.48226547241211 9.254765510559082 3.010014295578003 0.8025544881820679 0 9
16.539960861206055 9.189764976501465 3.0129897594451904 0.801762044429779 0 9
16.597715377807617 9.124629020690918 3.016024112701416 0.8009558916091919 0 9
19.76982307434082 10.753241539001465 3.583629608154297 0.42025941610336304 0 9
20.00874900817871 10.767108917236328 3.6181421279907227 0.41625070571899414 0 9
20.195663452148438 10.751073837280273 3.643174409866333 0.9908358454704285 0 9
20.23255729675293 10.654472351074219 3.6411705017089844 0.9913815259933472 0 9
20.269412994384766 10.55794906616211 3.6392388343811035 0.9919078350067139 0 9
20.306209564208984 10.461523056030273 3.6373815536499023 0.9924148321151733 0 9
20.34294891357422 10.365195274353027 3.635593891143799 0.9929025173187256 0 9
20.379667282104492 10.26894474029541 3.633880615234375 0.9933708310127258 0 9
18.45667839050293 9.196367263793945 3.2836036682128906 0.9814315438270569 0 9
18.494550704956055 9.111855506896973 3.283032178878784 0.9816029667854309 0 9
18.53238296508789 9.02734375 3.2825233936309814 0.9817546606063843 0 9
18.570215225219727 8.942890167236328 3.2820820808410645 0.9818865060806274 0 9
18.6080265045166 8.858437538146973 3.281710147857666 0.9819985032081604 0 9
18.645898818969727 8.774023056030273 3.2814009189605713 0.9820906519889832 0 9
18.6837100982666 8.689628601074219 3.281158447265625 0.9821628332138062 0 9
18.72150421142578 8.605215072631836 3.2809858322143555 0.9822151064872742 0 9
29.880859375 13.572480201721191 5.22596549987793 0.6955177783966064 0 9
30.0440616607666 13.484296798706055 5.243873119354248 0.8686231374740601 0 9
29.342967987060547 13.01171875 5.111261367797852 0.18845675885677338 0 9
36.27581787109375 15.891581535339355 6.306405544281006 0.9842736721038818 0 9
36.33058547973633 15.721620559692383 6.303596496582031 0.9847123026847839 0 9
36.385292053222656 15.551776885986328 6.300909996032715 0.9851319789886475 0 9
29.443416595458984 12.428690910339355 5.0890679359436035 0.7309900522232056 0 9
29.6187686920166 12.346405982971191 5.109744071960449 0.7280320525169373 0 9
29.7955265045166 12.26341724395752 5.130687713623047 0.725059986114502 0 9
29.973651885986328 12.179706573486328 5.151902198791504 0.7220745086669922 0 9
34.57609176635742 13.869413375854492 5.932206153869629 0.6755726933479309 0 9
32.25447082519531 12.770429611206055 5.524001121520996 0.8181294202804565 0 9
31.85771369934082 12.448222160339355 5.446428298950195 0.7168688774108887 0 9
31.880271911621094 12.292421340942383 5.440803527832031 0.7176106572151184 0 9
31.90265464782715 12.136855125427246 5.435275554656982 0.7183403968811035 0 9
31.9249210357666 11.981581687927246 5.429847240447998 0.7190583944320679 0 9
31.947011947631836 11.826581954956055 5.424525737762451 0.719764232635498 0 9
31.968984603881836 11.671854972839355 5.419296741485596 0.720457911491394 0 9
31.476797103881836 11.332343101501465 5.327189922332764 0.5335274934768677 0 9
32.01238250732422 11.363104820251465 5.409151554107666 0.7218093872070312 0 9
29.886972427368164 10.457870483398438 5.0420427322387695 0.7507351636886597 0 9
29.89177703857422 10.309199333190918 5.0349955558776855 0.7517857551574707 0 9
29.12353515625 9.898241996765137 4.898056983947754 0.643068253993988 0 9
29.141836166381836 9.758769035339355 4.893718719482422 0.2117394357919693 0 9
29.42738151550293 9.707734107971191 4.934304237365723 0.6383441686630249 0 9
29.58085823059082 9.611367225646973 4.952759265899658 0.635965883731842 0 9
29.663164138793945 9.491151809692383 4.959352970123291 0.1323021948337555 0 9
28.99154281616211 9.133027076721191 4.8401665687561035 0.41475749015808105 0 9
29.265331268310547 9.07509708404541 4.879032611846924 0.41145384311676025 0 9
29.543476104736328 9.016210556030273 4.918597221374512 0.4081435203552246 0 9
29.77312469482422 8.940448760986328 4.950106143951416 0.8096613883972168 0 9
29.775312423706055 8.795605659484863 4.943850040435791 0.8106851577758789 0 9
29.77750015258789 8.651152610778809 4.937726974487305 0.8116910457611084 0 9
29.77978515625 8.507050514221191 4.931721210479736 0.8126794695854187 0 9
29.782089233398438 8.363359451293945 4.925839900970459 0.8136501312255859 0 9
29.64533042907715 8.181581497192383 4.897102355957031 0.5400036573410034 0 9
29.494394302368164 7.997636318206787 4.866184711456299 0.5434343218803406 0 9
29.34537124633789 7.815995693206787 4.835762023925781 0.5468533635139465 0 9
34.522911071777344 9.029315948486328 5.682223796844482 0.8001078963279724 0 9
42.942909240722656 11.025819778442383 7.059877395629883 0.6295577883720398 0 9
42.77113342285156 10.77734375 7.02361536026001 0.6328081488609314 0 9
42.60101318359375 10.531347274780273 6.987847328186035 0.6360471248626709 0 9
42.43255615234375 10.287870407104492 6.952571868896484 0.6392742991447449 0 9
48.03367233276367 11.417851448059082 7.861841678619385 0.8643129467964172 0 9
14.923534393310547 -2.6390819549560547 2.4132182598114014 0.8980486392974854 0 6
19.746932983398438 -6.123496055603027 3.292147397994995 0.4516448378562927 0 3
19.548866271972656 -6.158378601074219 3.263692617416382 0.4555814266204834 0 3
19.35416030883789 -6.192636489868164 3.2357962131500244 0.4595094323158264 0 3
19.329179763793945 -6.280429363250732 3.236325263977051 0.8718705177307129 0 3
19.1744327545166 -6.325429439544678 3.2151241302490234 0.4673130512237549 0 3
18.98744010925293 -6.358359336853027 3.188511848449707 0.4712125360965729 0 3
18.60511589050293 -6.323320388793945 3.1290500164031982 0.4836602509021759 0 3
18.42786979675293 -6.355488300323486 3.1040074825286865 0.4790371358394623 0 3
18.380918502807617 -6.43175745010376 3.100924253463745 0.8612513542175293 0 3
18.29066276550293 -6.492441177368164 3.0905816555023193 0.4867156744003296 0 3
18.117948532104492 -6.522851467132568 3.0663163661956787 0.4905671775341034 0 3
17.947948455810547 -6.552793025970459 3.042489767074585 0.4944089353084564 0 3
17.78056526184082 -6.582245826721191 3.0190932750701904 0.49824056029319763 0 3
17.41126823425293 -6.534531116485596 2.9613373279571533 0.5021188259124756 0 3
17.28335952758789 -6.575175762176514 2.944570779800415 0.8479389548301697 0 3
17.273143768310547 -6.660195350646973 2.9478988647460938 0.5096747279167175 0 3
17.115781784057617 -6.687890529632568 2.9261317253112793 0.5134655237197876 0 3
16.960721969604492 -6.715214729309082 2.9047458171844482 0.5172461867332458 0 3
16.807889938354492 -6.742109298706055 2.8837218284606934 0.521016538143158 0 3
16.657245635986328 -6.768632888793945 2.8630664348602295 0.5247763991355896 0 3
16.508769989013672 -6.794785022735596 2.842755079269409 0.5285255908966064 0 3
16.362363815307617 -6.820566177368164 2.8227856159210205 0.5322640538215637 0 3
16.048887252807617 -6.774609088897705 2.773909568786621 0.5355465412139893 0 3
15.907909393310547 -6.799355506896973 2.7547924518585205 0.5392645597457886 0 3
15.859159469604492 -6.862851619720459 2.7516653537750244 0.8243852853775024 0 3
15.81527328491211 -6.928281307220459 2.7494192123413086 0.5471121668815613 0 3
15.678417205810547 -6.952382564544678 2.7310259342193604 0.5507946610450745 0 3
15.543397903442383 -6.976152420043945 2.712933301925659 0.5544676184654236 0 3
15.410175323486328 -6.999608993530273 2.6951375007629395 0.558129608631134 0 3
15.278671264648438 -7.022773265838623 2.677619457244873 0.5617802143096924 0 3
15.148847579956055 -7.045624732971191 2.660383939743042 0.5654199719429016 0 3
14.846542358398438 -6.986230373382568 2.6127755641937256 0.5691043734550476 0 3
14.721464157104492 -7.008261680603027 2.5962767601013184 0.5727211236953735 0 3
14.663065910339355 -7.061347484588623 2.591535806655884 0.8017726540565491 0 3
14.628632545471191 -7.125800609588623 2.5910744667053223 0.5798625946044922 0 3
14.289023399353027 -7.039902210235596 2.5364902019500732 0.5834441781044006 0 3
14.170546531677246 -7.060741901397705 2.5210649967193604 0.5870145559310913 0 3
14.05355453491211 -7.081367015838623 2.50587797164917 0.5905728340148926 0 3
13.937910079956055 -7.101718425750732 2.490919828414917 0.5941187739372253 0 3
13.823691368103027 -7.121816158294678 2.476189613342285 0.5976529717445374 0 3
13.71078109741211 -7.141698837280273 2.4616827964782715 0.6011754274368286 0 3
13.5991792678833 -7.161347389221191 2.44739031791687 0.6046854257583618 0 3
13.488886833190918 -7.180761337280273 2.4333131313323975 0.6081835031509399 0 3
13.379823684692383 -7.19998025894165 2.4194483757019043 0.6116692423820496 0 3
13.272011756896973 -7.218964576721191 2.4057888984680176 0.6151424646377563 0 3
13.317070007324219 -7.321113109588623 2.419890880584717 0.6186036467552185 0 3
13.210429191589355 -7.339902400970459 2.406472682952881 0.6220518350601196 0 3
13.10498046875 -7.358437538146973 2.393251657485962 0.6254881620407104 0 3
13.000663757324219 -7.376816272735596 2.3802249431610107 0.6289116740226746 0 3
12.897500038146973 -7.394980430603027 2.3673858642578125 0.6323224306106567 0 3
12.79541015625 -7.412968635559082 2.3547310829162598 0.6357201933860779 0 3
12.694433212280273 -7.430741786956787 2.342258930206299 0.6391054391860962 0 3
12.59447193145752 -7.448339462280273 2.329965829849243 0.6424778699874878 0 3
12.495566368103027 -7.465761661529541 2.317843198776245 0.6458371877670288 0 3
12.397714614868164 -7.482987880706787 2.305896043777466 0.6491836309432983 0 3
12.3008394241333 -7.500039100646973 2.294118881225586 0.6525169610977173 0 3
12.20497989654541 -7.516913890838623 2.2825028896331787 0.6558369398117065 0 3
12.110038757324219 -7.533632755279541 2.2710530757904053 0.6591438055038452 0 3
12.016054153442383 -7.550175666809082 2.259761095046997 0.6624375581741333 0 3
11.92300796508789 -7.566562175750732 2.2486257553100586 0.6657178997993469 0 3
11.830859184265137 -7.58279275894165 2.237645149230957 0.66898512840271 0 3
11.73964786529541 -7.598847389221191 2.2268142700195312 0.6722380518913269 0 3
11.649276733398438 -7.614765644073486 2.216135263442993 0.6754779815673828 0 3
11.559745788574219 -7.630527019500732 2.205599308013916 0.6787043213844299 0 3
11.471113204956055 -7.646132469177246 2.195211172103882 0.6819167137145996 0 3
11.383241653442383 -7.661601543426514 2.1849582195281982 0.6851161122322083 0 3
11.296249389648438 -7.676913738250732 2.174848794937134 0.6883009076118469 0 3
11.210039138793945 -7.692089557647705 2.1648757457733154 0.6914718151092529 0 3
11.124629020690918 -7.70714807510376 2.1550352573394775 0.6946290731430054 0 3
11.039960861206055 -7.722050666809082 2.145326852798462 0.6977725028991699 0 3
10.9560546875 -7.73681640625 2.135748863220215 0.7009018063545227 0 3
10.87289047241211 -7.75146484375 2.126300096511841 0.7040168642997742 0 3
10.790488243103027 -7.765976428985596 2.116976022720337 0.7071176171302795 0 3
10.708788871765137 -7.780351161956787 2.1077733039855957 0.7102044820785522 0 3
10.627792358398438 -7.794628620147705 2.098696231842041 0.7132763862609863 0 3
10.547480583190918 -7.808749675750732 2.0897371768951416 0.716334342956543 0 3
10.4678316116333 -7.822773456573486 2.0808935165405273 0.7193784713745117 0 3
10.388886451721191 -7.836679458618164 2.0721707344055176 0.7224068641662598 0 3
10.310546875 -7.850468635559082 2.063558340072632 0.7254219055175781 0 3
10.23291015625 -7.864140510559082 2.055062770843506 0.728421688079834 0 3
10.155898094177246 -7.877695083618164 2.0466725826263428 0.731406569480896 0 3
10.079511642456055 -7.891152381896973 2.0383942127227783 0.7343772649765015 0 3
10.003729820251465 -7.904491901397705 2.0302224159240723 0.737332820892334 0 3
7.718124866485596 -6.154980182647705 1.5719552040100098 0.7114134430885315 0 3
7.657402038574219 -6.162988185882568 1.5652092695236206 0.7144801020622253 0 3
7.597226619720459 -6.170917987823486 1.55855131149292 0.7175322771072388 0 3
7.537558555603027 -6.178789138793945 1.5519781112670898 0.720569908618927 0 3
7.478359222412109 -6.186621189117432 1.5454943180084229 0.723593533039093 0 3
7.419667720794678 -6.194355487823486 1.539095163345337 0.7266028523445129 0 3
7.36144495010376 -6.202031135559082 1.5327794551849365 0.7295970916748047 0 3
7.304511547088623 -6.210331916809082 1.526713252067566 0.7604396343231201 0 3
7.249667644500732 -6.21999979019165 1.521071434020996 0.7632596492767334 0 3
7.195253849029541 -6.229570388793945 1.515503168106079 0.7660642266273499 0 3
7.14123010635376 -6.239081859588623 1.5100064277648926 0.7688534259796143 0 3
7.087577819824219 -6.24853515625 1.504577875137329 0.7716271877288818 0 3
7.034335613250732 -6.257910251617432 1.4992190599441528 0.7743849754333496 0 3
6.9814453125 -6.26720666885376 1.4939285516738892 0.7771282196044922 0 3
6.928964614868164 -6.276464939117432 1.488704800605774 0.7798540592193604 0 3
6.876757621765137 -6.285664081573486 1.4835455417633057 0.7825657725334167 0 3
6.825019359588623 -6.294765472412109 1.47845458984375 0.7852612137794495 0 3
6.773573875427246 -6.30382776260376 1.4734255075454712 0.7879408597946167 0 3
6.722480297088623 -6.312812328338623 1.4684630632400513 0.7906044125556946 0 3
6.578925609588623 -6.233808517456055 1.4432003498077393 0.7951231002807617 0 3
6.529257774353027 -6.242617130279541 1.4384405612945557 0.7977547645568848 0 3
6.479941368103027 -6.251347541809082 1.4337393045425415 0.8003700971603394 0 3
6.43093729019165 -6.260058403015137 1.4290984869003296 0.8029689192771912 0 3
6.382265567779541 -6.26867151260376 1.4245153665542603 0.8055525422096252 0 3
6.333847522735596 -6.277245998382568 1.4199901819229126 0.8081198334693909 0 3
13.750370979309082 13.75033187866211 2.765916347503662 0.9657183289527893 0 9
13.814589500427246 13.691093444824219 2.7664458751678467 0.9655341506004333 0 9
13.87880802154541 13.631815910339355 2.767026901245117 0.9653313755989075 0 9
13.943046569824219 13.572480201721191 2.7676596641540527 0.9651104807853699 0 9
14.007265090942383 13.513124465942383 2.7683467864990234 0.9648712277412415 0 9
14.071542739868164 13.453730583190918 2.7690889835357666 0.9646134972572327 0 9
14.135839462280273 13.394257545471191 2.769879102706909 0.9643375873565674 0 9
14.200117111206055 13.334765434265137 2.770724058151245 0.9640434384346008 0 9
14.264472007751465 13.275214195251465 2.7716217041015625 0.9637307524681091 0 9
14.162851333618164 13.062519073486328 2.740462064743042 0.18338489532470703 0 9
14.041444778442383 12.834413528442383 2.705798625946045 0.18573395907878876 0 9
13.9229097366333 12.611835479736328 2.672023057937622 0.18808194994926453 0 9
13.807089805603027 12.394570350646973 2.6390957832336426 0.1904284954071045 0 9
14.95433521270752 13.303730010986328 2.846938371658325 0.908889651298523 0 9
15.005898475646973 13.229433059692383 2.845424175262451 0.9093735814094543 0 9
15.057421684265137 13.155253410339355 2.84397029876709 0.9098384380340576 0 9
15.108905792236328 13.0811128616333 2.8425755500793457 0.9102842807769775 0 9
15.160350799560547 13.007089614868164 2.8412442207336426 0.9107110500335693 0 9
15.21181583404541 12.933124542236328 2.839972734451294 0.9111186265945435 0 9
15.263163566589355 12.859237670898438 2.838761568069458 0.9115070104598999 0 9
15.314531326293945 12.785409927368164 2.837614059448242 0.911876380443573 0 9
19.166717529296875 15.856035232543945 3.538158416748047 0.9774506688117981 0 9
19.255937576293945 15.784823417663574 3.541517972946167 0.9765235781669617 0 9
14.368144035339355 11.670663833618164 2.632899522781372 0.9222607612609863 0 9
14.426152229309082 11.610722541809082 2.633953809738159 0.9527721405029297 0 9
14.496522903442383 11.560546875 2.6373085975646973 0.9515610933303833 0 9
14.567109107971191 11.51025390625 2.6407229900360107 0.9503307342529297 0 9
14.637850761413574 11.459823608398438 2.6441993713378906 0.9490813612937927 0 9
13.322871208190918 10.334238052368164 2.3982577323913574 0.7952790260314941 0 9
13.413613319396973 10.308534622192383 2.4062390327453613 0.7926415801048279 0 9
13.504980087280273 10.282655715942383 2.414322853088379 0.7899876236915588 0 9
13.43994140625 10.13818359375 2.394538164138794 0.7394924163818359 0 9
13.539862632751465 10.11855411529541 2.4042294025421143 0.7365112900733948 0 9
13.640625 10.098750114440918 2.414048433303833 0.7335156202316284 0 9
13.742226600646973 10.078788757324219 2.4239954948425293 0.7305050492286682 0 9
13.844667434692383 10.058691024780273 2.4340789318084717 0.7274798154830933 0 9
13.947929382324219 10.038397789001465 2.4442906379699707 0.7244405150413513 0 9
14.262909889221191 10.168222427368164 2.491466522216797 0.8665396571159363 0 9
14.272089958190918 10.07845687866211 2.4851393699645996 0.8687456250190735 0 9
14.281190872192383 9.989140510559082 2.478896379470825 0.8709338307380676 0 9
14.290233612060547 9.900253295898438 2.4727306365966797 0.873104989528656 0 9
14.299277305603027 9.811816215515137 2.4666452407836914 0.8752589225769043 0 9
14.308202743530273 9.723828315734863 2.460639238357544 0.8773950934410095 0 9
14.317148208618164 9.636249542236328 2.454710006713867 0.879514217376709 0 9
14.326034545898438 9.549062728881836 2.4488611221313477 0.8816159963607788 0 9
14.334823608398438 9.46230411529541 2.4430859088897705 0.8837001323699951 0 9
14.343632698059082 9.375956535339355 2.4373843669891357 0.8857666850090027 0 9
14.352362632751465 9.289999961853027 2.4317615032196045 0.8878156542778015 0 9
14.361015319824219 9.204413414001465 2.426208019256592 0.8898471593856812 0 9
14.369668006896973 9.119237899780273 2.420729875564575 0.8918607831001282 0 9
14.378300666809082 9.034453392028809 2.4153225421905518 0.8938568830490112 0 9
14.38687515258789 8.950018882751465 2.4099888801574707 0.8958355188369751 0 9
14.39535140991211 8.865937232971191 2.40472674369812 0.8977959752082825 0 9
14.403827667236328 8.782245635986328 2.399533748626709 0.899738609790802 0 9
14.412284851074219 8.698905944824219 2.39441180229187 0.9016638398170471 0 9
16.372011184692383 9.781757354736328 2.712674140930176 0.7974464893341064 0 9
16.430370330810547 9.716875076293945 2.7150890827178955 0.7967362999916077 0 9
16.488807678222656 9.651777267456055 2.717562198638916 0.7960122227668762 0 9
16.54732322692871 9.58658218383789 2.720083475112915 0.7952739596366882 0 9
16.605878829956055 9.521230697631836 2.722660541534424 0.7945217490196228 0 9
16.66451072692871 9.45572280883789 2.7252867221832275 0.7937553524971008 0 9
16.723203659057617 9.390058517456055 2.727968454360962 0.7929750084877014 0 9
16.781991958618164 9.324257850646973 2.7307069301605225 0.7921809554100037 0 9
16.840858459472656 9.258280754089355 2.733494520187378 0.7913722991943359 0 9
16.899784088134766 9.192187309265137 2.736339569091797 0.7905501127243042 0 9
16.958847045898438 9.12587833404541 2.7392385005950928 0.7897137403488159 0 9
17.017929077148438 9.059432983398438 2.7421884536743164 0.7888635993003845 0 9
20.303260803222656 10.691718101501465 3.2638051509857178 0.9904071688652039 0 9
20.340194702148438 10.594823837280273 3.2620677947998047 0.9909349679946899 0 9
20.37708854675293 10.498065948486328 3.260394811630249 0.9914430975914001 0 9
20.413944244384766 10.4013671875 3.2587878704071045 0.9919321537017822 0 9
20.450740814208984 10.304765701293945 3.2572453022003174 0.9924015402793884 0 9
20.48748016357422 10.208242416381836 3.2557690143585205 0.992851734161377 0 9
20.524198532104492 10.11181640625 3.2543556690216064 0.9932823181152344 0 9
20.56087875366211 10.01546859741211 3.2530107498168945 0.9936936497688293 0 9
20.59748077392578 9.919159889221191 3.2517292499542236 0.9940855503082275 0 9
20.634061813354492 9.822949409484863 3.25051212310791 0.9944578409194946 0 9
20.670604705810547 9.726797103881836 3.2493579387664795 0.9948107600212097 0 9
20.707088470458984 9.63070297241211 3.2482643127441406 0.995144248008728 0 9
20.743555068969727 9.534647941589355 3.247241497039795 0.9954582452774048 0 9
20.779998779296875 9.438672065734863 3.246283769607544 0.9957528114318848 0 9
28.3585147857666 12.727792739868164 4.421242713928223 0.6132521629333496 0 9
28.92720603942871 12.827363014221191 4.50088357925415 0.7401294112205505 0 9
28.604393005371094 12.530898094177246 4.441860675811768 0.194191575050354 0 9
29.271873474121094 12.667011260986328 4.5366363525390625 0.7342965602874756 0 9
29.446229934692383 12.585878372192383 4.5548624992370605 0.7313585877418518 0 9
29.621952056884766 12.504042625427246 4.5733160972595215 0.7284074425697327 0 9
29.79911994934082 12.421582221984863 4.592013835906982 0.7254417538642883 0 9
29.9776554107666 12.33837890625 4.610952854156494 0.7224623560905457 0 9
30.15767478942871 12.254491806030273 4.630125522613525 0.7194693088531494 0 9
30.33917808532715 12.169901847839355 4.649564266204834 0.7164623737335205 0 9
33.853729248046875 13.403593063354492 5.178905487060547 0.2214910387992859 0 9
33.269256591796875 12.999765396118164 5.08051872253418 0.22578024864196777 0 9
32.706504821777344 12.611015319824219 4.9858880043029785 0.23006536066532135 0 9
32.15163803100586 12.231581687927246 4.892885208129883 0.8271164298057556 0 9
32.213417053222656 12.089862823486328 4.893980026245117 0.8269316554069519 0 9
32.038204193115234 11.860331535339355 4.859222412109375 0.31752729415893555 0 9
32.3371467590332 11.806269645690918 4.896484851837158 0.8265084028244019 0 9
29.01054573059082 10.444414138793945 4.38562536239624 0.6431392431259155 0 9
29.16224479675293 10.351445198059082 4.401491641998291 0.6408208608627319 0 9
29.314979553222656 10.257753372192383 4.417552947998047 0.6384913921356201 0 9
29.468788146972656 10.163320541381836 4.433808326721191 0.6361505389213562 0 9
29.623573303222656 10.068182945251465 4.450259685516357 0.6337990760803223 0 9
29.509042739868164 9.881757736206055 4.42634916305542 0.8108274936676025 0 9
28.8585147857666 9.520097732543945 4.322312355041504 0.4159049093723297 0 9
29.131561279296875 9.4653902053833 4.3568010330200195 0.4126127064228058 0 9
29.408885955810547 9.409804344177246 4.39191198348999 0.40931373834609985 0 9
29.518163681030273 9.298925399780273 4.40195894241333 0.8153192400932312 0 9
29.520526885986328 9.154237747192383 4.396139621734619 0.8163981437683105 0 9
29.52292823791504 9.009961128234863 4.390436172485352 0.8174594640731812 0 9
29.52536964416504 8.86605453491211 4.384833335876465 0.8185033202171326 0 9
29.52783203125 8.72249984741211 4.379344940185547 0.8195294737815857 0 9
29.530370712280273 8.579355239868164 4.373961925506592 0.8205381035804749 0 9
29.53289031982422 8.4365234375 4.368685722351074 0.821528971195221 0 9
29.535507202148438 8.29410171508789 4.363513469696045 0.8225021958351135 0 9
29.427146911621094 8.121367454528809 4.3420867919921875 0.5453726053237915 0 9
29.27863121032715 7.939120769500732 4.314875602722168 0.5488119125366211 0 9
29.54341697692871 7.86876916885376 4.348644733428955 0.8253152370452881 0 9
31.89726448059082 8.342558860778809 4.6895599365234375 0.26376599073410034 0 9
31.82013511657715 8.170019149780273 4.672778129577637 0.26471322774887085 0 9
31.74380874633789 7.998710632324219 4.65625524520874 0.26565253734588623 0 9
31.668338775634766 7.82873010635376 4.639983654022217 0.26658421754837036 0 9
31.59372901916504 7.659999847412109 4.623964309692383 0.26750779151916504 0 9
47.63447189331055 11.322968482971191 6.964142322540283 0.6362652778625488 0 9
47.46923828125 11.058847427368164 6.932656288146973 0.6391547918319702 0 9
47.30552673339844 10.797109603881836 6.901602745056152 0.6420305967330933 0 9
39.68661880493164 5.013613224029541 5.689741611480713 0.9941906332969666 0 6
39.69720458984375 4.472812175750732 5.68211030960083 0.5766888856887817 0 6
14.92259693145752 -2.638925790786743 2.1554617881774902 0.9003570675849915 0 6
19.74689483642578 -6.123456954956055 2.9406685829162598 0.45277878642082214 0 3
19.548809051513672 -6.158339500427246 2.915271759033203 0.45672547817230225 0 3
19.3541202545166 -6.192616939544678 2.890346050262451 0.46066299080848694 0 3
19.3287296295166 -6.2802734375 2.8907251358032227 0.8740785121917725 0 3
19.174335479736328 -6.325390338897705 2.8718459606170654 0.46848875284194946 0 3
18.9873046875 -6.358320236206055 2.8480782508850098 0.4723982512950897 0 3
18.606307983398438 -6.32373046875 2.795161485671997 0.4848426878452301 0 3
18.427947998046875 -6.355527400970459 2.7726354598999023 0.48023656010627747 0 3
18.380449295043945 -6.431581974029541 2.769784450531006 0.8634326457977295 0 3
18.290508270263672 -6.492382526397705 2.760606527328491 0.48794034123420715 0 3
18.11783218383789 -6.522792816162109 2.7389333248138428 0.4918014407157898 0 3
17.947813034057617 -6.552734375 2.717651605606079 0.4956529438495636 0 3
17.78042984008789 -6.582206726074219 2.6967520713806152 0.49949410557746887 0 3
17.411327362060547 -6.534570217132568 2.6451938152313232 0.5033762454986572 0 3
17.282949447631836 -6.575019359588623 2.6301424503326416 0.8500879406929016 0 3
17.273027420043945 -6.660136699676514 2.6331589221954346 0.5109568238258362 0 3
17.115644454956055 -6.687851428985596 2.6137185096740723 0.514757513999939 0 3
16.9605655670166 -6.715156078338623 2.5946125984191895 0.518547773361206 0 3
16.80779266357422 -6.742070198059082 2.575838804244995 0.5223270058631897 0 3
16.40691375732422 -6.666894435882568 2.518962860107422 0.5262019634246826 0 3
16.260683059692383 -6.692636489868164 2.5010974407196045 0.5299602746963501 0 3
16.11650276184082 -6.718066215515137 2.4835352897644043 0.5337079167366028 0 3
15.927870750427246 -6.723495960235596 2.459092617034912 0.386696457862854 0 3
15.780546188354492 -6.744941234588623 2.4410018920898438 0.510157585144043 0 3
15.661386489868164 -6.777265548706055 2.4272444248199463 0.5130486488342285 0 3
15.543476104736328 -6.809218406677246 2.4136836528778076 0.5159314274787903 0 3
15.438124656677246 -6.845839500427246 2.4020705223083496 0.14160993695259094 0 3
15.468046188354492 -6.942304611206055 2.411550283432007 0.555862307548523 0 3
15.335429191589355 -6.965683460235596 2.3957273960113525 0.5595335960388184 0 3
15.204550743103027 -6.988710880279541 2.380157470703125 0.5631934404373169 0 3
15.075370788574219 -7.011464595794678 2.3648366928100586 0.5668419599533081 0 3
14.947851181030273 -7.033925533294678 2.3497607707977295 0.5704794526100159 0 3
14.821932792663574 -7.056093692779541 2.3349227905273438 0.5741046071052551 0 3
14.69759750366211 -7.077949047088623 2.320314884185791 0.5777186155319214 0 3
14.574804306030273 -7.099589824676514 2.305934429168701 0.581321120262146 0 3
14.45351505279541 -7.120956897735596 2.2917802333831787 0.5849120020866394 0 3
14.333749771118164 -7.142050743103027 2.2778422832489014 0.58849036693573 0 3
14.215351104736328 -7.162890434265137 2.2641165256500244 0.5920579433441162 0 3
14.098417282104492 -7.183495998382568 2.250603199005127 0.5956127643585205 0 3
13.982831954956055 -7.203827857971191 2.2372920513153076 0.5991561412811279 0 3
13.868632316589355 -7.223945140838623 2.2241878509521484 0.6026870012283325 0 3
13.755781173706055 -7.243788719177246 2.211275815963745 0.6062057614326477 0 3
13.644179344177246 -7.26345682144165 2.198557138442993 0.6097127199172974 0 3
13.533905982971191 -7.282870769500732 2.1860299110412598 0.6132069230079651 0 3
13.424843788146973 -7.302070140838623 2.1736857891082764 0.6166892051696777 0 3
13.317011833190918 -7.321054458618164 2.1615235805511475 0.6201589107513428 0 3
13.21035099029541 -7.33984375 2.149545907974243 0.6236162185668945 0 3
13.104902267456055 -7.358417987823486 2.1377315521240234 0.627061128616333 0 3
13.000605583190918 -7.376777172088623 2.1260986328125 0.6304926872253418 0 3
12.897382736206055 -7.394941329956055 2.1146295070648193 0.6339125037193298 0 3
12.795331954956055 -7.412909984588623 2.1033260822296143 0.6373186111450195 0 3
12.6943359375 -7.430683612823486 2.09218430519104 0.6407123804092407 0 3
12.59439468383789 -7.448300838470459 2.0812041759490967 0.6440934538841248 0 3
12.495488166809082 -7.465703010559082 2.070380926132202 0.6474610567092896 0 3
12.397656440734863 -7.482949256896973 2.0597054958343506 0.6508159041404724 0 3
12.300761222839355 -7.499980449676514 2.0491838455200195 0.6541575193405151 0 3
12.204882621765137 -7.51687479019165 2.038810968399048 0.6574863791465759 0 3
12.109980583190918 -7.533593654632568 2.028581380844116 0.6608010530471802 0 3
12.01601505279541 -7.550136566162109 2.0184948444366455 0.6641031503677368 0 3
11.922929763793945 -7.566542625427246 2.0085508823394775 0.6673915386199951 0 3
11.830780982971191 -7.582753658294678 1.9987413883209229 0.6706668734550476 0 3
11.73958969116211 -7.598788738250732 1.9890694618225098 0.6739280223846436 0 3
11.649198532104492 -7.614726543426514 1.979527235031128 0.6771760582923889 0 3
11.559706687927246 -7.630468368530273 1.9701164960861206 0.680410623550415 0 3
11.47103500366211 -7.646093368530273 1.9608358144760132 0.6836314797401428 0 3
11.383222579956055 -7.661562442779541 1.9516808986663818 0.6868376135826111 0 3
11.296210289001465 -7.676894187927246 1.9426498413085938 0.6900309920310974 0 3
11.210000038146973 -7.692050457000732 1.9337401390075684 0.6932098865509033 0 3
11.1245698928833 -7.707089900970459 1.9249523878097534 0.6963748931884766 0 3
11.03988265991211 -7.721992015838623 1.9162795543670654 0.699526846408844 0 3
10.956015586853027 -7.736757755279541 1.907725214958191 0.7026634216308594 0 3
10.872831344604492 -7.751445293426514 1.8992849588394165 0.7057862877845764 0 3
10.79042911529541 -7.765937328338623 1.8909566402435303 0.7088947296142578 0 3
10.708710670471191 -7.780312538146973 1.8827362060546875 0.7119899988174438 0 3
10.627714157104492 -7.794589519500732 1.8746273517608643 0.715069591999054 0 3
10.547402381896973 -7.80871057510376 1.8666253089904785 0.7181352972984314 0 3
10.467792510986328 -7.822734355926514 1.8587292432785034 0.7211863994598389 0 3
10.38882827758789 -7.836640357971191 1.850932240486145 0.7242231369018555 0 3
10.310507774353027 -7.850449085235596 1.8432433605194092 0.7272449731826782 0 3
10.232871055603027 -7.864120960235596 1.8356505632400513 0.7302523255348206 0 3
10.155839920043945 -7.877655982971191 1.8281584978103638 0.733245313167572 0 3
10.079452514648438 -7.891132831573486 1.8207650184631348 0.7362233400344849 0 3
10.003690719604492 -7.904472351074219 1.813464879989624 0.7391863465309143 0 3
7.718085765838623 -6.154960632324219 1.4041271209716797 0.7132008671760559 0 3
7.657421588897705 -6.162949085235596 1.3981008529663086 0.7162744402885437 0 3
7.597187519073486 -6.1708984375 1.392153024673462 0.7193349003791809 0 3
7.537499904632568 -6.178789138793945 1.3862841129302979 0.7223811745643616 0 3
7.478339672088623 -6.186582088470459 1.380491018295288 0.725411593914032 0 3
7.419628620147705 -6.194316387176514 1.3747750520706177 0.728428065776825 0 3
7.361405849456787 -6.202011585235596 1.3691332340240479 0.7314300537109375 0 3
7.304491996765137 -6.210312366485596 1.3637133836746216 0.7623506188392639 0 3
7.249667644500732 -6.219960689544678 1.3586760759353638 0.7651777863502502 0 3
7.195214748382568 -6.229531288146973 1.3537014722824097 0.767989993095398 0 3
7.141191482543945 -6.239062309265137 1.3487905263900757 0.7707861661911011 0 3
7.087558269500732 -6.248515605926514 1.343941330909729 0.7735669016838074 0 3
7.03429651260376 -6.257871150970459 1.339155912399292 0.7763316035270691 0 3
6.981406211853027 -6.26720666885376 1.334430456161499 0.7790809869766235 0 3
6.928886413574219 -6.276425838470459 1.329763412475586 0.781814455986023 0 3
6.876757621765137 -6.285624980926514 1.3251571655273438 0.784532904624939 0 3
6.824960708618164 -6.294745922088623 1.320607304573059 0.7872351408004761 0 3
6.773534774780273 -6.303789138793945 1.316117525100708 0.7899215221405029 0 3
6.722460746765137 -6.31277322769165 1.3116824626922607 0.7925915718078613 0 3
6.578906059265137 -6.233788967132568 1.289117693901062 0.8019541501998901 0 3
6.529726505279541 -6.243027210235596 1.2849559783935547 0.8045512437820435 0 3
6.480859279632568 -6.252206802368164 1.2808486223220825 0.8071321845054626 0 3
6.432265281677246 -6.26134729385376 1.2767913341522217 0.8096967935562134 0 3
6.383867263793945 -6.270234107971191 1.272752046585083 0.8073709607124329 0 3
6.335468769073486 -6.278789043426514 1.2687069177627563 0.8099446892738342 0 3
13.844022750854492 13.84398365020752 2.4534921646118164 0.9613202214241028 0 9
13.908730506896973 13.784374237060547 2.4539620876312256 0.9611355066299438 0 9
13.97337818145752 13.724687576293945 2.454481363296509 0.9609323740005493 0 9
14.0380859375 13.664999961853027 2.455047607421875 0.9607109427452087 0 9
14.102792739868164 13.605273246765137 2.4556591510772705 0.9604710340499878 0 9
14.415976524353027 13.783007621765137 2.499396562576294 0.9057599902153015 0 9
14.476425170898438 13.716991424560547 2.4991841316223145 0.9058369994163513 0 9
14.536932945251465 13.65103530883789 2.499025821685791 0.9058952331542969 0 9
14.597421646118164 13.585058212280273 2.4989190101623535 0.9059342741966248 0 9
14.657909393310547 13.519121170043945 2.4988601207733154 0.9059541821479797 0 9
14.718437194824219 13.4531831741333 2.49885892868042 0.9059552550315857 0 9
14.777461051940918 13.385917663574219 2.4986588954925537 0.9144180417060852 0 9
14.828925132751465 13.31185531616211 2.4972307682037354 0.9149413704872131 0 9
14.880311965942383 13.237871170043945 2.495856285095215 0.9154454469680786 0 9
14.931659698486328 13.164003372192383 2.4945340156555176 0.915930449962616 0 9
14.982949256896973 13.090155601501465 2.4932663440704346 0.9163964986801147 0 9
15.034218788146973 13.01644515991211 2.492048978805542 0.9168432950973511 0 9
15.08544921875 12.942792892456055 2.4908876419067383 0.9172708988189697 0 9
15.136640548706055 12.869237899780273 2.489781379699707 0.9176793694496155 0 9
15.187811851501465 12.79574203491211 2.488724708557129 0.9180686473846436 0 9
15.238945007324219 12.72232437133789 2.4877188205718994 0.9184389114379883 0 9
15.949979782104492 13.194921493530273 2.5941030979156494 0.7225587368011475 0 9
15.909647941589355 13.041698455810547 2.5779941082000732 0.4994869828224182 0 9
14.375136375427246 11.676347732543945 2.320829391479492 0.9238637685775757 0 9
14.425468444824219 11.610156059265137 2.3205182552337646 0.9549378752708435 0 9
14.49583911895752 11.559999465942383 2.323472738265991 0.9537240266799927 0 9
14.566425323486328 11.509706497192383 2.32647967338562 0.9524909853935242 0 9
14.637167930603027 11.459277153015137 2.3295395374298096 0.9512386918067932 0 9
14.708086013793945 11.408710479736328 2.332660675048828 0.9499675035476685 0 9
14.779218673706055 11.358007431030273 2.335831880569458 0.9486770033836365 0 9
14.8505859375 11.307207107543945 2.339062452316284 0.9473671913146973 0 9
14.92210865020752 11.256230354309082 2.3423473834991455 0.9460384845733643 0 9
14.993827819824219 11.205097198486328 2.3456902503967285 0.9446907043457031 0 9
15.065741539001465 11.153827667236328 2.349087715148926 0.9433239698410034 0 9
15.137909889221191 11.102401733398438 2.352541446685791 0.941938042640686 0 9
15.210253715515137 11.0508394241333 2.3560585975646973 0.9405332803726196 0 9
14.279902458190918 10.277304649353027 2.2047789096832275 0.8646517395973206 0 9
14.2890625 10.186874389648438 2.1991119384765625 0.866879403591156 0 9
15.428651809692383 10.895195007324219 2.36694598197937 0.9362053871154785 0 9
15.501893997192383 10.842988014221191 2.370697259902954 0.9347248673439026 0 9
15.575409889221191 10.790624618530273 2.374506711959839 0.9332256317138672 0 9
15.649120330810547 10.738065719604492 2.378373861312866 0.931707501411438 0 9
15.723085403442383 10.685370445251465 2.382305145263672 0.9301708340644836 0 9
15.797324180603027 10.63248062133789 2.3862948417663574 0.928615152835846 0 9
15.871796607971191 10.579394340515137 2.390348196029663 0.9270409345626831 0 9
