ply
format ascii 1.0
element vertex 613
property float32 x
property float32 y
property float32 z
property float32 CosAngle
property uint32 ObjIdx
property uint32 ObjTag
end_header
19.487773895263672 -11.525077819824219 6.37010383605957 0.7310720086097717 0 3
19.51105499267578 -11.657343864440918 6.394749641418457 0.7282539010047913 0 3
19.534570693969727 -11.790624618530273 6.419726371765137 0.7254211902618408 0 3
19.558183670043945 -11.92503833770752 6.44502592086792 0.7225736379623413 0 3
19.582050323486328 -12.060429573059082 6.470651626586914 0.7197118997573853 0 3
19.6060733795166 -12.196952819824219 6.496617794036865 0.7168353199958801 0 3
19.630292892456055 -12.334550857543945 6.522921562194824 0.7139441967010498 0 3
19.65474510192871 -12.473280906677246 6.54957389831543 0.7110394835472107 0 3
19.67935562133789 -12.613163948059082 6.57658052444458 0.7081193327903748 0 3
19.7042179107666 -12.754199028015137 6.603944778442383 0.70518559217453 0 3
19.729238510131836 -12.896406173706055 6.631663799285889 0.702237606048584 0 3
19.7545108795166 -13.039823532104492 6.659759521484375 0.6992751359939575 0 3
19.77994155883789 -13.184492111206055 6.688224792480469 0.6962991952896118 0 3
19.805644989013672 -13.330389976501465 6.717070579528809 0.6933087110519409 0 3
19.83154296875 -13.4775390625 6.7463059425354 0.6903043389320374 0 3
19.857656478881836 -13.625956535339355 6.775928974151611 0.6872864961624146 0 3
19.884061813354492 -13.77572250366211 6.805952072143555 0.6842544078826904 0 3
19.910663604736328 -13.9268159866333 6.836384296417236 0.681208610534668 0 3
19.937519073486328 -14.079237937927246 6.867227554321289 0.6781492233276367 0 3
19.964609146118164 -14.233085632324219 6.8984880447387695 0.6750762462615967 0 3
19.991912841796875 -14.38833999633789 6.930173873901367 0.6719895601272583 0 3
20.01953125 -14.545019149780273 6.962303161621094 0.6688889265060425 0 3
20.047344207763672 -14.703164100646973 6.9948554039001465 0.6657755374908447 0 3
20.075448989868164 -14.86279296875 7.027871131896973 0.6626481413841248 0 3
20.10382843017578 -15.02392578125 7.06133508682251 0.6595078706741333 0 3
20.13245964050293 -15.186640739440918 7.095267295837402 0.6563539505004883 0 3
20.161386489868164 -15.35091781616211 7.129663467407227 0.6531873941421509 0 3
20.19060516357422 -15.516777038574219 7.164546966552734 0.6500068306922913 0 3
20.220077514648438 -15.684296607971191 7.199920654296875 0.6468132138252258 0 3
20.249902725219727 -15.853476524353027 7.235790252685547 0.6436071991920471 0 3
20.27996063232422 -16.02437400817871 7.272161483764648 0.6403875350952148 0 3
20.31035041809082 -16.19693374633789 7.309049606323242 0.6371557712554932 0 3
20.341054916381836 -16.371328353881836 7.346463680267334 0.6339110136032104 0 3
20.3720703125 -16.5474796295166 7.384413719177246 0.6306531429290771 0 3
20.403417587280273 -16.725467681884766 7.422916889190674 0.6273823976516724 0 3
20.43505859375 -16.905351638793945 7.4619574546813965 0.6240997314453125 0 3
20.467069625854492 -17.087148666381836 7.501580238342285 0.620803713798523 0 3
20.499414443969727 -17.270858764648438 7.541759014129639 0.6174958348274231 0 3
20.532108306884766 -17.456562042236328 7.582541465759277 0.6141748428344727 0 3
20.565155029296875 -17.644277572631836 7.623918056488037 0.6108415722846985 0 3
20.598613739013672 -17.834043502807617 7.665894985198975 0.6074967384338379 0 3
20.632381439208984 -18.025976181030273 7.708500862121582 0.6041386127471924 0 3
20.666542053222656 -18.219999313354492 7.751736164093018 0.60076904296875 0 3
20.70113182067871 -18.416229248046875 7.7956223487854 0.5973872542381287 0 3
20.736053466796875 -18.61470603942871 7.840165615081787 0.5939932465553284 0 3
20.771387100219727 -18.815507888793945 7.885377407073975 0.5905875563621521 0 3
20.807147979736328 -19.018573760986328 7.931273460388184 0.5871700048446655 0 3
20.843299865722656 -19.224042892456055 7.977870464324951 0.5837405323982239 0 3
20.879920959472656 -19.431991577148438 8.02518367767334 0.5802989602088928 0 3
20.91695213317871 -19.642343521118164 8.073217391967773 0.5768463611602783 0 3
20.954452514648438 -19.855253219604492 8.121997833251953 0.5733816623687744 0 3
20.992401123046875 -20.07076072692871 8.171533584594727 0.5699058771133423 0 3
21.030839920043945 -20.288944244384766 8.221845626831055 0.5664184093475342 0 3
8.969374656677246 8.969316482543945 3.3424088954925537 0.4358866214752197 0 9
9.2383394241333 9.155722618103027 3.427293539047241 0.8021405339241028 0 9
9.25033187866211 9.085683822631836 3.416579484939575 0.804655909538269 0 9
9.262246131896973 9.016074180603027 3.405999183654785 0.8071560263633728 0 9
9.27408218383789 8.946874618530273 3.3955485820770264 0.809639573097229 0 9
9.285840034484863 8.878105163574219 3.3852312564849854 0.8121077418327332 0 9
9.29751968383789 8.809745788574219 3.375039577484131 0.814559280872345 0 9
9.309121131896973 8.741796493530273 3.3649778366088867 0.8169950246810913 0 9
9.320624351501465 8.67421817779541 3.3550403118133545 0.8194150924682617 0 9
9.332109451293945 8.607050895690918 3.3452258110046387 0.8218190670013428 0 9
9.343515396118164 8.540273666381836 3.3355345726013184 0.8242068290710449 0 9
9.35482406616211 8.473867416381836 3.3259661197662354 0.82657790184021 0 9
10.338027000427246 9.280390739440918 3.660684823989868 0.8557993173599243 0 9
10.395976066589355 9.248476028442383 3.6664679050445557 0.8544495701789856 0 9
10.454042434692383 9.216425895690918 3.672327756881714 0.853085458278656 0 9
10.512285232543945 9.18423843383789 3.6782689094543457 0.8517075777053833 0 9
10.570663452148438 9.1519136428833 3.684291362762451 0.8503157496452332 0 9
10.629218101501465 9.11947250366211 3.690392255783081 0.8489097952842712 0 9
10.687929153442383 9.086894035339355 3.6965739727020264 0.8474903702735901 0 9
10.746777534484863 9.054140090942383 3.7028379440307617 0.8460565805435181 0 9
11.951952934265137 9.978163719177246 4.102624893188477 0.6449767351150513 0 9
12.047968864440918 9.9668550491333 4.1201701164245605 0.6422300934791565 0 9
12.14468765258789 9.955429077148438 4.137929439544678 0.6394736766815186 0 9
12.242206573486328 9.94384765625 4.155909538269043 0.6367073655128479 0 9
12.197577476501465 9.817030906677246 4.125750541687012 0.7461969256401062 0 9
12.285780906677246 9.79751968383789 4.140678405761719 0.7435073852539062 0 9
12.374589920043945 9.777812004089355 4.155783653259277 0.74080491065979 0 9
12.464042663574219 9.757948875427246 4.1710710525512695 0.7380895018577576 0 9
12.554121017456055 9.737910270690918 4.186544895172119 0.7353614568710327 0 9
12.46500015258789 9.57949161529541 4.142441749572754 0.3003353178501129 0 9
12.340371131896973 9.39589786529541 4.086975574493408 0.3044109046459198 0 9
12.219061851501465 9.217206954956055 4.033063888549805 0.30848029255867004 0 9
12.100956916809082 9.043203353881836 3.9806413650512695 0.31254255771636963 0 9
11.9858980178833 8.873652458190918 3.929649591445923 0.3165985345840454 0 9
11.873749732971191 8.70839786529541 3.880023717880249 0.3206474483013153 0 9
11.76439380645752 8.547285079956055 3.8317248821258545 0.3246893882751465 0 9
11.6577730178833 8.390116691589355 3.7846875190734863 0.32872501015663147 0 9
13.266093254089355 9.4575777053833 4.293008327484131 0.7948116064071655 0 9
13.292011260986328 9.386347770690918 4.287725925445557 0.795790433883667 0 9
13.317851066589355 9.315312385559082 4.282525062561035 0.7967570424079895 0 9
13.343534469604492 9.244355201721191 4.277400016784668 0.7977114915847778 0 9
13.369101524353027 9.173554420471191 4.272352695465088 0.7986537218093872 0 9
13.394550323486328 9.10287094116211 4.267383098602295 0.7995836734771729 0 9
13.419862747192383 9.032304763793945 4.262490272521973 0.8005013465881348 0 9
13.44505786895752 8.961835861206055 4.257678508758545 0.8014068603515625 0 9
13.470136642456055 8.891484260559082 4.25293493270874 0.8022998571395874 0 9
13.495058059692383 8.821269035339355 4.248273849487305 0.8031806349754333 0 9
13.51992130279541 8.751152038574219 4.243685245513916 0.804049015045166 0 9
13.792753219604492 8.84017562866211 4.3168206214904785 0.943897545337677 0 9
13.826621055603027 8.774609565734863 4.315061569213867 0.9442822933197021 0 9
13.86050796508789 8.709101676940918 4.313392162322998 0.9446475505828857 0 9
13.89437484741211 8.6436128616333 4.311811923980713 0.9449937343597412 0 9
13.92822265625 8.578222274780273 4.310323238372803 0.945320188999176 0 9
13.962031364440918 8.51285171508789 4.308924674987793 0.9456275701522827 0 9
13.995859146118164 8.447539329528809 4.307615280151367 0.9459152221679688 0 9
14.029647827148438 8.382265090942383 4.306388854980469 0.9461838006973267 0 9
14.063417434692383 8.317011833190918 4.305258274078369 0.9464327096939087 0 9
14.09716796875 8.25179672241211 4.304210186004639 0.9466624855995178 0 9
14.1309175491333 8.186659812927246 4.303255558013916 0.9468727111816406 0 9
14.164668083190918 8.12148380279541 4.302390098571777 0.9470634460449219 0 9
14.198417663574219 8.056386947631836 4.30161190032959 0.9472350478172302 0 9
14.232148170471191 7.991308212280273 4.300919055938721 0.9473869800567627 0 9
14.26585865020752 7.926249980926514 4.300318717956543 0.9475195407867432 0 9
21.552227020263672 11.848437309265137 6.480626106262207 0.7277451753616333 0 9
21.687206268310547 11.796210289001465 6.505231857299805 0.7249925136566162 0 9
21.823261260986328 11.743574142456055 6.530154705047607 0.7222249507904053 0 9
21.960330963134766 11.690546989440918 6.555413246154785 0.7194423675537109 0 9
22.098514556884766 11.637147903442383 6.581002712249756 0.7166450619697571 0 9
23.708534240722656 12.349393844604492 7.043898105621338 0.8143927454948425 0 9
23.665430068969727 12.19222640991211 7.01475715637207 0.8316800594329834 0 9
23.889667510986328 12.172382354736328 7.064963340759277 0.8119649887084961 0 9
23.98064422607422 12.083456993103027 7.075773239135742 0.8107243776321411 0 9
24.072011947631836 11.994355201721191 7.086771488189697 0.8094660043716431 0 9
24.16370964050293 11.904960632324219 7.097957134246826 0.808189868927002 0 9
24.255722045898438 11.815292358398438 7.109347343444824 0.8068958520889282 0 9
24.327674865722656 11.71556568145752 7.1149420738220215 0.4337770938873291 0 9
24.1656436920166 11.50423812866211 7.05238676071167 0.4376246929168701 0 9
22.76997947692871 10.714726448059082 6.630982398986816 0.1489432454109192 0 9
23.460214614868164 10.911171913146973 6.817660808563232 0.1448650062084198 0 9
23.69577980041504 10.8916597366333 6.8718461990356445 0.4491223692893982 0 9
23.544336318969727 10.6943359375 6.813940048217773 0.45293933153152466 0 9
23.39533233642578 10.500234603881836 6.757104396820068 0.456748902797699 0 9
23.248729705810547 10.309335708618164 6.701326847076416 0.46055060625076294 0 9
23.104433059692383 10.121522903442383 6.646584510803223 0.46434399485588074 0 9
22.962421417236328 9.936718940734863 6.59283447265625 0.46812981367111206 0 9
22.822635650634766 9.754862785339355 6.540058612823486 0.4719071388244629 0 9
27.27294921875 11.512557983398438 7.800462245941162 0.6152321696281433 0 9
27.470643997192383 11.450995445251465 7.842214107513428 0.6119565367698669 0 9
27.67038917541504 11.388769149780273 7.88457727432251 0.6086685061454773 0 9
27.87236213684082 11.325898170471191 7.927563190460205 0.6053680777549744 0 9
28.03044891357422 11.24380874633789 7.958095550537109 0.8094706535339355 0 9
28.160234451293945 11.1494140625 7.980654716491699 0.8071825504302979 0 9
28.290761947631836 11.054511070251465 8.003506660461426 0.8048778772354126 0 9
28.703065872192383 11.0673828125 8.1060209274292 0.5920408368110657 0 9
28.916738510131836 11.000956535339355 8.152329444885254 0.5886779427528381 0 9
29.02046775817871 10.891581535339355 8.167716026306152 0.42488813400268555 0 9
28.852479934692383 10.681035041809082 8.106850624084473 0.4280780851840973 0 9
29.30078125 10.697733879089355 8.219242095947266 0.5834619402885437 0 9
29.35904312133789 10.569921493530273 8.222197532653809 0.5832521915435791 0 9
29.417518615722656 10.442070007324219 8.225371360778809 0.5830272436141968 0 9
29.23812484741211 10.23085880279541 8.16227912902832 0.292280375957489 0 9
28.89726448059082 9.966249465942383 8.054564476013184 0.29618948698043823 0 9
29.59421730041504 10.058241844177246 8.236177444458008 0.5822625756263733 0 9
29.653593063354492 9.930155754089355 8.240205764770508 0.5819777846336365 0 9
29.713163375854492 9.802030563354492 8.24445915222168 0.5816779136657715 0 9
29.772987365722656 9.673828125 8.248919486999512 0.5813630819320679 0 9
29.833026885986328 9.545527458190918 8.2535982131958 0.5810332298278809 0 9
29.893280029296875 9.417128562927246 8.258501052856445 0.5806885957717896 0 9
29.953826904296875 9.2886323928833 8.263611793518066 0.5803290009498596 0 9
30.014549255371094 9.160018920898438 8.268953323364258 0.5799542665481567 0 9
37.81218719482422 11.354472160339355 10.403038024902344 0.24048088490962982 0 9
39.03968811035156 11.532343864440918 10.726415634155273 0.7210566997528076 0 9
39.1891975402832 11.385526657104492 10.753338813781738 0.7192513346672058 0 9
38.97585678100586 11.134100914001465 10.680977821350098 0.6260998249053955 0 9
38.90201187133789 10.924394607543945 10.647201538085938 0.6363317966461182 0 9
38.98261642456055 10.758515357971191 10.655951499938965 0.6275704503059387 0 9
38.986289978027344 10.571484565734863 10.643869400024414 0.6282825469970703 0 9
39.23324203491211 10.449647903442383 10.698378562927246 0.22138571739196777 0 9
39.3291015625 10.286367416381836 10.711832046508789 0.28438228368759155 0 9
38.83376693725586 9.970820426940918 10.564626693725586 0.28834477066993713 0 9
41.209529876708984 10.383906364440918 11.198142051696777 0.717586874961853 0 9
41.19124984741211 10.182929039001465 11.180644035339355 0.6519734859466553 0 9
41.034629821777344 9.949003219604492 11.12590217590332 0.6551818251609802 0 9
40.87941360473633 9.717304229736328 11.071879386901855 0.6583784818649292 0 9
40.72556686401367 9.487832069396973 11.018573760986328 0.6615633964538574 0 9
40.573143005371094 9.260565757751465 10.965974807739258 0.6647368669509888 0 9
41.60625076293945 9.300116539001465 11.23381233215332 0.7153085470199585 0 9
41.671756744384766 9.118574142456055 11.24032974243164 0.7148938775062561 0 9
30.392635345458984 -6.080937385559082 8.167192459106445 0.3512899577617645 0 3
30.035701751708984 -6.149804592132568 8.078607559204102 0.2555788457393646 0 3
29.72833824157715 -6.22607421875 8.003376007080078 0.3587557077407837 0 3
29.372968673706055 -6.289394378662109 7.91522741317749 0.3798224925994873 0 3
29.03972625732422 -6.354433536529541 7.833028316497803 0.3838087022304535 0 3
28.70980453491211 -6.417402267456055 7.751733779907227 0.3599497079849243 0 3
28.36554718017578 -6.474257469177246 7.6665496826171875 0.36394912004470825 0 3
28.02880859375 -6.52990198135376 7.583379745483398 0.3679303526878357 0 3
27.699237823486328 -6.584316253662109 7.502130031585693 0.3719151020050049 0 3
27.329198837280273 -6.626054763793945 7.409881591796875 0.42434173822402954 0 3
27.04947280883789 -6.686894416809082 7.342104434967041 0.42825889587402344 0 3
26.77472686767578 -6.746660232543945 7.275686264038086 0.43216848373413086 0 3
26.520038604736328 -6.80919885635376 7.21470308303833 0.4650115668773651 0 3
26.28171730041504 -6.873906135559082 7.158186435699463 0.4686828851699829 0 3
26.0469913482666 -6.937539100646973 7.102672100067139 0.47234612703323364 0 3
25.788984298706055 -6.992909908294678 7.04080867767334 0.41109922528266907 0 3
25.51384735107422 -7.041367053985596 6.9742350578308105 0.41502296924591064 0 3
25.197851181030273 -7.076054573059082 6.896474838256836 0.38739362359046936 0 3
24.91615104675293 -7.117734432220459 6.828055381774902 0.39127570390701294 0 3
24.642578125 -7.159355163574219 6.761820316314697 0.4318017065525055 0 3
24.390546798706055 -7.204980373382568 6.701457977294922 0.43569082021713257 0 3
24.160097122192383 -7.254960536956787 6.647027492523193 0.5685345530509949 0 3
23.752187728881836 -7.248827934265137 6.543686866760254 0.441463440656662 0 3
23.51365089416504 -7.291562557220459 6.486911296844482 0.4453269839286804 0 3
23.365957260131836 -7.360859394073486 6.45522403717041 0.2546706795692444 0 3
23.27470588684082 -7.447089672088623 6.439179420471191 0.4499514698982239 0 3
23.044530868530273 -7.487636566162109 6.3847336769104 0.4537886381149292 0 3
22.593788146972656 -7.453437328338623 6.269054412841797 0.45041176676750183 0 3
22.43650245666504 -7.513359069824219 6.23470401763916 0.849834680557251 0 3
22.35466766357422 -7.597695350646973 6.221382141113281 0.46524548530578613 0 3
22.139530181884766 -7.635605335235596 6.17098331451416 0.4690452218055725 0 3
21.927831649780273 -7.672871112823486 6.121510028839111 0.472835898399353 0 3
21.719491958618164 -7.709569931030273 6.072957515716553 0.47661662101745605 0 3
21.322303771972656 -7.676503658294678 5.971461772918701 0.48886269330978394 0 3
21.125078201293945 -7.712792873382568 5.925862789154053 0.4837132692337036 0 3
21.095409393310547 -7.809413909912109 5.92731237411499 0.8349214792251587 0 3
20.93878936767578 -7.858457088470459 5.8931565284729 0.49164336919784546 0 3
20.745859146118164 -7.892421722412109 5.848752975463867 0.495375394821167 0 3
20.555742263793945 -7.92589807510376 5.80513858795166 0.49909740686416626 0 3
20.1695499420166 -7.881171703338623 5.706003665924072 0.4958361089229584 0 3
20.056209564208984 -7.940800666809082 5.683961868286133 0.8237670063972473 0 3
19.982324600219727 -8.015507698059082 5.673162937164307 0.5102035999298096 0 3
19.803241729736328 -8.047050476074219 5.632521629333496 0.5138849020004272 0 3
19.626737594604492 -8.078104972839355 5.5925726890563965 0.5175560116767883 0 3
19.282207489013672 -8.037675857543945 5.504612922668457 0.5212546586990356 0 3
19.112089157104492 -8.067636489868164 5.46633768081665 0.5249046683311462 0 3
18.944355010986328 -8.09716796875 5.428694248199463 0.5285443067550659 0 3
18.89501953125 -8.17660140991211 5.4250335693359375 0.6722867488861084 0 3
18.91779327392578 -8.287460327148438 5.442187786102295 0.8050514459609985 0 3
18.93714714050293 -8.397440910339355 5.458546161651611 0.8026390075683594 0 3
18.9566593170166 -8.508066177368164 5.475114822387695 0.8002104163169861 0 3
18.97623062133789 -8.619394302368164 5.49189567565918 0.7977656722068787 0 3
18.995975494384766 -8.731406211853027 5.50888729095459 0.7953047156333923 0 3
19.01580047607422 -8.844160079956055 5.526098728179932 0.7928276062011719 0 3
19.03577995300293 -8.957558631896973 5.543526649475098 0.7903351187705994 0 3
19.055858612060547 -9.071699142456055 5.56118106842041 0.7878262996673584 0 3
19.076093673706055 -9.186562538146973 5.5790581703186035 0.7853016257286072 0 3
19.096445083618164 -9.302186965942383 5.597169876098633 0.7827611565589905 0 3
19.116933822631836 -9.418574333190918 5.615503787994385 0.7802049517631531 0 3
19.137577056884766 -9.535663604736328 5.6340765953063965 0.7776330709457397 0 3
19.1583194732666 -9.653613090515137 5.652894020080566 0.7750450372695923 0 3
19.179218292236328 -9.77230453491211 5.671934604644775 0.7724422812461853 0 3
19.200292587280273 -9.891816139221191 5.691230773925781 0.7698233127593994 0 3
19.22148323059082 -10.012147903442383 5.7107744216918945 0.7671889066696167 0 3
19.2427921295166 -10.133339881896973 5.730569839477539 0.7645388245582581 0 3
19.2642765045166 -10.255311965942383 5.750616550445557 0.7618741393089294 0 3
19.285917282104492 -10.378202438354492 5.77091646194458 0.7591935396194458 0 3
19.307714462280273 -10.501953125 5.791487216949463 0.7564976215362549 0 3
19.329647064208984 -10.626562118530273 5.812312602996826 0.7537867426872253 0 3
19.351757049560547 -10.752070426940918 5.833409786224365 0.751060426235199 0 3
19.3740234375 -10.878554344177246 5.8547821044921875 0.7483188509941101 0 3
19.39644432067871 -11.0059175491333 5.876425743103027 0.7455630302429199 0 3
19.4190616607666 -11.134257316589355 5.898352146148682 0.7427911162376404 0 3
19.441816329956055 -11.263554573059082 5.92056131362915 0.7400050163269043 0 3
19.464725494384766 -11.393827438354492 5.943055152893066 0.7372039556503296 0 3
19.487850189208984 -11.525097846984863 5.965845584869385 0.7343876361846924 0 3
19.511133193969727 -11.65738296508789 5.98893928527832 0.7315563559532166 0 3
19.534608840942383 -11.79068374633789 6.012320518493652 0.7287108898162842 0 3
19.55824089050293 -11.925058364868164 6.03601598739624 0.7258504033088684 0 3
19.582109451293945 -12.060487747192383 6.060017108917236 0.7229753732681274 0 3
19.606151580810547 -12.196972846984863 6.084333896636963 0.7200860381126404 0 3
19.630390167236328 -12.334589958190918 6.10897159576416 0.7171820998191833 0 3
19.654823303222656 -12.473320007324219 6.1339311599731445 0.7142638564109802 0 3
19.679452896118164 -12.613203048706055 6.1592254638671875 0.711330771446228 0 3
19.70427703857422 -12.754257202148438 6.184850215911865 0.7083834409713745 0 3
19.72931671142578 -12.896464347839355 6.210808753967285 0.7054222822189331 0 3
19.75455093383789 -13.03988265991211 6.237119674682617 0.702446699142456 0 3
19.780057907104492 -13.184531211853027 6.263782024383545 0.6994566917419434 0 3
19.805702209472656 -13.33041000366211 6.290798664093018 0.6964526772499084 0 3
19.831600189208984 -13.477578163146973 6.318179130554199 0.6934349536895752 0 3
19.85775375366211 -13.626015663146973 6.345923900604248 0.6904032826423645 0 3
19.88410186767578 -13.77578067779541 6.374044895172119 0.6873574256896973 0 3
19.910741806030273 -13.926855087280273 6.402544021606445 0.6842977404594421 0 3
19.937578201293945 -14.079296112060547 6.431427955627441 0.681224524974823 0 3
19.96466827392578 -14.233124732971191 6.460705280303955 0.6781373620033264 0 3
19.991971969604492 -14.388378143310547 6.490377426147461 0.6750368475914001 0 3
20.019609451293945 -14.545058250427246 6.520462989807129 0.6719223856925964 0 3
20.047420501708984 -14.703222274780273 6.550958156585693 0.6687943935394287 0 3
20.07552719116211 -14.8628511428833 6.581878662109375 0.6656529903411865 0 3
20.103925704956055 -15.0239839553833 6.613214492797852 0.6624984741210938 0 3
20.132558822631836 -15.186678886413574 6.644994258880615 0.6593300700187683 0 3
20.161483764648438 -15.350956916809082 6.677213191986084 0.6561487913131714 0 3
20.190664291381836 -15.516874313354492 6.709877014160156 0.6529542207717896 0 3
20.220136642456055 -15.684393882751465 6.743010520935059 0.6497465372085571 0 3
20.249940872192383 -15.853554725646973 6.7765984535217285 0.6465253829956055 0 3
20.280038833618164 -16.0244140625 6.810663223266602 0.6432920098304749 0 3
20.310409545898438 -16.197031021118164 6.845213413238525 0.6400449872016907 0 3
20.34111213684082 -16.37140655517578 6.88026237487793 0.6367849111557007 0 3
20.372148513793945 -16.547557830810547 6.915799617767334 0.6335127353668213 0 3
20.40347671508789 -16.725566864013672 6.951849937438965 0.6302273273468018 0 3
20.435155868530273 -16.90542984008789 6.988425254821777 0.626928985118866 0 3
20.467147827148438 -17.087167739868164 7.025519371032715 0.6236187815666199 0 3
20.49951171875 -17.270898818969727 7.063154220581055 0.6202957034111023 0 3
20.53218650817871 -17.456640243530273 7.10135555267334 0.6169593334197998 0 3
20.56523323059082 -17.64435577392578 7.140096187591553 0.6136115789413452 0 3
20.598670959472656 -17.834178924560547 7.179418087005615 0.6102510690689087 0 3
20.63245964050293 -18.02603530883789 7.219320297241211 0.6068781614303589 0 3
20.66663932800293 -18.22005844116211 7.2598090171813965 0.603493332862854 0 3
20.701171875 -18.41630744934082 7.30090856552124 0.6000959873199463 0 3
20.73613166809082 -18.614784240722656 7.342625617980957 0.596686601638794 0 3
20.771465301513672 -18.8155460357666 7.384964466094971 0.5932652950286865 0 3
20.8072452545166 -19.018632888793945 7.427955627441406 0.5898321270942688 0 3
20.84339714050293 -19.224178314208984 7.471595287322998 0.5863869786262512 0 3
20.8799991607666 -19.432069778442383 7.515905380249023 0.5829300880432129 0 3
20.917030334472656 -19.64242172241211 7.560889720916748 0.5794616341590881 0 3
20.95454978942871 -19.855331420898438 7.606564044952393 0.5759817957878113 0 3
20.99250030517578 -20.070858001708984 7.652968406677246 0.572489857673645 0 3
21.03089714050293 -20.289043426513672 7.7000861167907715 0.5689858794212341 0 3
21.069805145263672 -20.5098819732666 7.747950077056885 0.5654715299606323 0 3
21.109159469604492 -20.73355484008789 7.796560287475586 0.5619454383850098 0 3
21.1490421295166 -20.960018157958984 7.845956325531006 0.5584081411361694 0 3
9.240702629089355 9.240644454956055 3.212212562561035 0.801745593547821 0 9
9.25277328491211 9.170019149780273 3.2020585536956787 0.804287850856781 0 9
9.264745712280273 9.099843978881836 3.1920292377471924 0.8068141341209412 0 9
9.276601791381836 9.030058860778809 3.182129383087158 0.809324324131012 0 9
9.288436889648438 8.960722923278809 3.1723523139953613 0.8118185997009277 0 9
9.300175666809082 8.891797065734863 3.162696361541748 0.8142975568771362 0 9
9.311797142028809 8.823281288146973 3.1531622409820557 0.8167597055435181 0 9
9.32339859008789 8.755194664001465 3.1437463760375977 0.8192062377929688 0 9
9.334901809692383 8.687479972839355 3.1344475746154785 0.8216356039047241 0 9
9.34634780883789 8.620156288146973 3.125267267227173 0.8240500688552856 0 9
9.357675552368164 8.553261756896973 3.116197347640991 0.8264474272727966 0 9
9.36898422241211 8.48671817779541 3.1072466373443604 0.8288286924362183 0 9
9.380233764648438 8.42056655883789 3.0984039306640625 0.8311940431594849 0 9
10.526503562927246 9.36458969116211 3.463114023208618 0.8474345803260803 0 9
10.585488319396973 9.332343101501465 3.4687206745147705 0.8460652828216553 0 9
10.64468765258789 9.299941062927246 3.4744017124176025 0.8446813821792603 0 9
10.704062461853027 9.26742172241211 3.4801597595214844 0.8432835340499878 0 9
10.763534545898438 9.234745979309082 3.4859979152679443 0.8418717980384827 0 9
10.8232421875 9.201913833618164 3.491910219192505 0.8404457569122314 0 9
11.07552719116211 9.331093788146973 3.559755802154541 0.16655495762825012 0 9
11.123300552368164 9.286347389221191 3.5616869926452637 0.16646473109722137 0 9
11.1714448928833 9.2417573928833 3.5637834072113037 0.1663667857646942 0 9
12.336288452148438 10.112480163574219 3.9208624362945557 0.6322126388549805 0 9
12.698593139648438 10.314550399780273 4.021271228790283 0.9012141227722168 0 9
12.766737937927246 10.275156021118164 4.02820348739624 0.8996632099151611 0 9
12.835097312927246 10.235586166381836 4.0352301597595215 0.8980962038040161 0 9
12.903613090515137 10.195819854736328 4.042352199554443 0.8965135216712952 0 9
12.97240161895752 10.155937194824219 4.049575328826904 0.8949149250984192 0 9
13.041386604309082 10.115859031677246 4.056893825531006 0.893300473690033 0 9
13.110566139221191 10.075605392456055 4.064311981201172 0.8916704058647156 0 9
13.179960250854492 10.035175323486328 4.071828365325928 0.8900243043899536 0 9
13.249629020690918 9.994608879089355 4.07944393157959 0.88836270570755 0 9
13.319472312927246 9.953827857971191 4.087161540985107 0.8866851925849915 0 9
13.389609336853027 9.912890434265137 4.094978332519531 0.8849921822547913 0 9
13.298828125 9.753593444824219 4.053798675537109 0.9415988326072693 0 9
13.333144187927246 9.687050819396973 4.050966739654541 0.9422563910484314 0 9
13.367460250854492 9.62060546875 4.048224925994873 0.9428948163986206 0 9
13.401718139648438 9.554238319396973 4.045570373535156 0.9435135722160339 0 9
13.435956954956055 9.487988471984863 4.043000221252441 0.9441131949424744 0 9
13.470077514648438 9.42177677154541 4.0405168533325195 0.9446935057640076 0 9
13.504218101501465 9.355683326721191 4.038119316101074 0.945254385471344 0 9
13.53831958770752 9.289648056030273 4.035804271697998 0.9457961320877075 0 9
13.572362899780273 9.223711013793945 4.033577919006348 0.9463182687759399 0 9
13.606386184692383 9.157832145690918 4.031436443328857 0.9468209743499756 0 9
13.640390396118164 9.092050552368164 4.029378414154053 0.9473046064376831 0 9
13.6743745803833 9.026288986206055 4.027404308319092 0.9477686285972595 0 9
13.708319664001465 8.960644721984863 4.025516986846924 0.9482131600379944 0 9
13.742206573486328 8.89501953125 4.023714065551758 0.9486383199691772 0 9
13.776093482971191 8.82949161529541 4.021990776062012 0.9490441083908081 0 9
13.809980392456055 8.764022827148438 4.020355224609375 0.9494306445121765 0 9
13.843789100646973 8.69857406616211 4.018800735473633 0.9497974514961243 0 9
13.877635955810547 8.63320255279541 4.017333984375 0.9501449465751648 0 9
13.911425590515137 8.56787109375 4.015947341918945 0.9504730105400085 0 9
13.94521427154541 8.50259780883789 4.014644145965576 0.9507814645767212 0 9
13.97900390625 8.437362670898438 4.013421535491943 0.9510706067085266 0 9
14.0127534866333 8.372148513793945 4.012283802032471 0.9513401389122009 0 9
14.046483993530273 8.306991577148438 4.011230945587158 0.9515902400016785 0 9
14.080253601074219 8.241874694824219 4.010261535644531 0.951820969581604 0 9
14.113945007324219 8.176796913146973 4.009368896484375 0.9520320892333984 0 9
24.6397647857666 14.127635955810547 6.981347560882568 0.7254840731620789 0 9
27.63232421875 15.679140090942383 7.809240341186523 0.8115547895431519 0 9
23.538925170898438 13.217147827148438 6.635563373565674 0.47201699018478394 0 9
23.657596588134766 13.144492149353027 6.652321815490723 0.8215513229370117 0 9
23.12289047241211 12.7119140625 6.4858574867248535 0.828549325466156 0 9
21.62255859375 11.761034965515137 6.050158500671387 0.516496479511261 0 9
23.299589157104492 12.538026809692383 6.503584384918213 0.8262910842895508 0 9
23.3882999420166 12.4507417678833 6.512697696685791 0.8251348733901978 0 9
23.47736358642578 12.363242149353027 6.521974563598633 0.8239609003067017 0 9
23.56673812866211 12.275527000427246 6.531429767608643 0.8227686882019043 0 9
23.6563663482666 12.1875581741333 6.541043758392334 0.8215588331222534 0 9
23.746347427368164 12.09935474395752 6.550834655761719 0.8203309178352356 0 9
23.83658218383789 12.01089859008789 6.560801982879639 0.8190849423408508 0 9
23.927167892456055 11.92220687866211 6.570937156677246 0.8178213238716125 0 9
24.01806640625 11.833222389221191 6.581254005432129 0.8165396451950073 0 9
24.109315872192383 11.74398422241211 6.591741561889648 0.815240204334259 0 9
24.20085906982422 11.654511451721191 6.602407455444336 0.8139230608940125 0 9
24.29277229309082 11.564745903015137 6.61325740814209 0.8125880360603333 0 9
24.25210952758789 11.4121675491333 6.588176250457764 0.43884527683258057 0 9
22.757694244384766 10.584452629089355 6.169241905212402 0.1499703824520111 0 9
23.445858001708984 10.776796340942383 6.342632293701172 0.14587080478668213 0 9
23.779159545898438 10.800995826721191 6.419610500335693 0.450368732213974 0 9
23.626699447631836 10.604082107543945 6.365543842315674 0.45419424772262573 0 9
23.47671890258789 10.410429000854492 6.312478542327881 0.45801210403442383 0 9
23.329179763793945 10.219980239868164 6.260406494140625 0.4618217945098877 0 9
27.24003791809082 11.787812232971191 7.295626640319824 0.8271545171737671 0 9
26.573631286621094 11.358105659484863 7.103424072265625 0.478543221950531 0 9
26.62251853942871 11.23794937133789 7.102937698364258 0.47857603430747986 0 9
26.671133041381836 11.117694854736328 7.1025214195251465 0.4786037802696228 0 9
26.719491958618164 10.997363090515137 7.102184295654297 0.4786267876625061 0 9
26.767578125 10.876953125 7.101916313171387 0.47864460945129395 0 9
26.815370559692383 10.7564058303833 7.101722240447998 0.47865745425224304 0 9
26.86292839050293 10.635781288146973 7.1016082763671875 0.4786655306816101 0 9
26.910253524780273 10.515058517456055 7.101563453674316 0.4786684215068817 0 9
26.957284927368164 10.394218444824219 7.101594924926758 0.4786664843559265 0 9
27.00406265258789 10.273300170898438 7.101698875427246 0.47865933179855347 0 9
27.050565719604492 10.152226448059082 7.101876258850098 0.47864723205566406 0 9
27.0967960357666 10.031073570251465 7.1021318435668945 0.4786304235458374 0 9
27.142812728881836 9.909843444824219 7.102458477020264 0.47860825061798096 0 9
27.188533782958984 9.788456916809082 7.1028594970703125 0.4785812497138977 0 9
27.23404312133789 9.667011260986328 7.103332996368408 0.4785492420196533 0 9
27.279237747192383 9.545390129089355 7.103884696960449 0.47851234674453735 0 9
28.993846893310547 9.999550819396973 7.538620948791504 0.5959244966506958 0 9
29.051620483398438 9.873827934265137 7.542047500610352 0.5956536531448364 0 9
29.109647750854492 9.748046875 7.545672416687012 0.5953676104545593 0 9
29.167850494384766 9.6221284866333 7.549497127532959 0.5950663089752197 0 9
29.226268768310547 9.496171951293945 7.5534987449646 0.5947504043579102 0 9
31.099843978881836 9.950859069824219 8.026106834411621 0.703965425491333 0 9
35.87085723876953 11.300233840942383 9.244207382202148 0.5526614189147949 0 9
36.09025192260742 11.191523551940918 9.287710189819336 0.5500726103782654 0 9
36.31154251098633 11.081757545471191 9.33176040649414 0.5474762916564941 0 9
36.53466796875 10.970878601074219 9.376359939575195 0.5448720455169678 0 9
36.75970458984375 10.858827590942383 9.421515464782715 0.5422604084014893 0 9
36.98675537109375 10.745644569396973 9.46724796295166 0.5396411418914795 0 9
37.1076545715332 10.600409507751465 9.485929489135742 0.9886721968650818 0 9
37.131072998046875 10.42708969116211 9.479853630065918 0.9893053770065308 0 9
37.15439224243164 10.253984451293945 9.47397232055664 0.9899201393127441 0 9
37.17767333984375 10.081034660339355 9.468267440795898 0.990516185760498 0 9
37.20087814331055 9.908339500427246 9.462752342224121 0.9910935759544373 0 9
39.58970642089844 10.354531288146973 10.058472633361816 0.16368551552295685 0 9
40.57078170776367 10.416815757751465 10.295758247375488 0.9823145270347595 0 9
41.37871170043945 10.426542282104492 10.488798141479492 0.6544981598854065 0 9
41.53349685668945 10.267539024353027 10.51624870300293 0.6527898907661438 0 9
41.38447189331055 10.03384780883789 10.467007637023926 0.6523988842964172 0 9
41.22621154785156 9.799765586853027 10.415760040283203 0.655609130859375 0 9
41.06943130493164 9.567968368530273 10.365192413330078 0.6588075160980225 0 9
40.9140625 9.33837890625 10.31529426574707 0.6619943380355835 0 9
40.76001739501953 9.110937118530273 10.266050338745117 0.6651695370674133 0 9
42.48291015625 9.296093940734863 10.689373970031738 0.6422175168991089 0 9
30.39191246032715 -6.080800533294678 7.618386268615723 0.34887051582336426 0 3
30.090877532958984 -6.161171913146973 7.549789905548096 0.3562672734260559 0 3
29.653709411621094 -6.210410118103027 7.447006702423096 0.39553672075271606 0 3
29.32992172241211 -6.280156135559082 7.372705459594727 0.3995201587677002 0 3
29.01251983642578 -6.348476409912109 7.300008773803711 0.4034990668296814 0 3
28.709257125854492 -6.417304515838623 7.2308783531188965 0.4346398711204529 0 3
28.4356632232666 -6.490273475646973 7.16923189163208 0.438377320766449 0 3
28.166542053222656 -6.561992168426514 7.108735084533691 0.4421079754829407 0 3
27.873807907104492 -6.625800609588623 7.042280197143555 0.3850296139717102 0 3
27.557695388793945 -6.681464672088623 6.969927787780762 0.3890267014503479 0 3
27.24800682067871 -6.736015319824219 6.899179458618164 0.39301609992980957 0 3
26.944549560546875 -6.789453029632568 6.829985618591309 0.39699751138687134 0 3
26.6470890045166 -6.841835975646973 6.7623138427734375 0.4009706974029541 0 3
26.118045806884766 -6.8310546875 6.6357622146606445 0.40781697630882263 0 3
25.836444854736328 -6.88146448135376 6.571993827819824 0.41177406907081604 0 3
25.558162689208984 -6.930331707000732 6.509054183959961 0.4052641689777374 0 3
25.471757888793945 -7.02978515625 6.495019435882568 0.8771435618400574 0 3
25.181190490722656 -7.071347713470459 6.428945064544678 0.4254482090473175 0 3
24.91939353942871 -7.11865234375 6.370213031768799 0.4293712377548218 0 3
24.662343978881836 -7.165097713470459 6.3126654624938965 0.43328559398651123 0 3
24.409940719604492 -7.210702896118164 6.2562737464904785 0.4371911287307739 0 3
24.1734561920166 -7.258944988250732 6.203942775726318 0.570631206035614 0 3
23.754764556884766 -7.249608993530273 6.104769706726074 0.4397880434989929 0 3
23.74704933166504 -7.363925457000732 6.111234188079834 0.4441300630569458 0 3
23.508846282958984 -7.405898094177246 6.058418273925781 0.4480017423629761 0 3
23.27472686767578 -7.447089672088623 6.0066399574279785 0.45185959339141846 0 3
23.044530868530273 -7.487656116485596 5.955852031707764 0.45571285486221313 0 3
22.595312118530273 -7.453925609588623 5.84832763671875 0.46015027165412903 0 3
22.436601638793945 -7.513378620147705 5.8159050941467285 0.8534369468688965 0 3
22.354686737060547 -7.597714900970459 5.803469657897949 0.4672186076641083 0 3
22.139570236206055 -7.635605335235596 5.756453037261963 0.47103437781333923 0 3
21.9278507232666 -7.672890663146973 5.7103118896484375 0.4748407006263733 0 3
21.71953010559082 -7.709569931030273 5.665011405944824 0.47863778471946716 0 3
21.32386589050293 -7.677089691162109 5.570760250091553 0.4908997416496277 0 3
21.125370025634766 -7.712871074676514 5.5278730392456055 0.48575854301452637 0 3
21.095468521118164 -7.809453010559082 5.529176712036133 0.8384603261947632 0 3
20.938846588134766 -7.858457088470459 5.49729061126709 0.4937281012535095 0 3
20.745840072631836 -7.892441272735596 5.455874443054199 0.49747616052627563 0 3
20.555761337280273 -7.925917625427246 5.415189743041992 0.5012139678001404 0 3
20.169843673706055 -7.881269454956055 5.322783470153809 0.5055183172225952 0 3
20.056249618530273 -7.940800666809082 5.302160739898682 0.8272527456283569 0 3
19.982362747192383 -8.015487670898438 5.292081832885742 0.5123671889305115 0 3
19.803279876708984 -8.04703140258789 5.254168510437012 0.5160641670227051 0 3
19.626737594604492 -8.078125 5.2169036865234375 0.5197505950927734 0 3
19.282304763793945 -8.037694931030273 5.134875297546387 0.5234625339508057 0 3
19.112186431884766 -8.067656517028809 5.099169731140137 0.5271283388137817 0 3
18.944433212280273 -8.097246170043945 5.064051628112793 0.5307834148406982 0 3
18.895076751708984 -8.176620483398438 5.060622215270996 0.6747056841850281 0 3
18.917871475219727 -8.287460327148438 5.076630592346191 0.8084641098976135 0 3
18.937225341796875 -8.3974609375 5.091892719268799 0.8060411214828491 0 3
18.95671844482422 -8.508086204528809 5.107344150543213 0.8036021590232849 0 3
18.976308822631836 -8.619433403015137 5.122994899749756 0.8011468648910522 0 3
18.996015548706055 -8.7314453125 5.138848304748535 0.7986758947372437 0 3
19.015859603881836 -8.844160079956055 5.154903888702393 0.7961882948875427 0 3
19.035839080810547 -8.957597732543945 5.171160697937012 0.7936848402023315 0 3
19.055917739868164 -9.071718215942383 5.18762731552124 0.7911654710769653 0 3
19.076171875 -9.186601638793945 5.20430850982666 0.7886300086975098 0 3
19.09650421142578 -9.302206993103027 5.221195697784424 0.7860788702964783 0 3
19.11699104309082 -9.418593406677246 5.23830509185791 0.7835116982460022 0 3
19.137617111206055 -9.535722732543945 5.255630970001221 0.7809286117553711 0 3
19.158397674560547 -9.653613090515137 5.273176193237305 0.7783304452896118 0 3
19.179296493530273 -9.772323608398438 5.290948390960693 0.7757157683372498 0 3
19.20033073425293 -9.891874313354492 5.308950901031494 0.7730857133865356 0 3
19.22152328491211 -10.01220703125 5.327172756195068 0.7704407572746277 0 3
19.24285125732422 -10.133339881896973 5.345638275146484 0.7677795886993408 0 3
19.26433563232422 -10.25537109375 5.364340782165527 0.7651031613349915 0 3
19.28595733642578 -10.378222465515137 5.383281230926514 0.7624112367630005 0 3
19.30777359008789 -10.501972198486328 5.402464866638184 0.7597038149833679 0 3
19.329687118530273 -10.626601219177246 5.4218902587890625 0.7569814324378967 0 3
19.351797103881836 -10.752128601074219 5.44157600402832 0.7542439103126526 0 3
19.374080657958984 -10.87857437133789 5.461511135101318 0.7514905333518982 0 3
19.396522521972656 -11.005956649780273 5.481698513031006 0.7487227320671082 0 3
19.41910171508789 -11.134296417236328 5.502153396606445 0.7459396123886108 0 3
19.44189453125 -11.263554573059082 5.522873401641846 0.7431412935256958 0 3
19.464784622192383 -11.393866539001465 5.543854236602783 0.740328311920166 0 3
19.487890243530273 -11.52513599395752 5.5651140213012695 0.737500011920929 0 3
19.51119041442871 -11.657422065734863 5.586650848388672 0.7346570491790771 0 3
19.53466796875 -11.79076099395752 5.608470439910889 0.7317994236946106 0 3
19.558340072631836 -11.925077438354492 5.6305670738220215 0.7289271950721741 0 3
19.58218765258789 -12.060526847839355 5.652960777282715 0.7260395288467407 0 3
19.60624885559082 -12.197031021118164 5.675642490386963 0.7231380939483643 0 3
19.630449295043945 -12.334648132324219 5.69862699508667 0.7202215790748596 0 3
19.654863357543945 -12.473398208618164 5.721911907196045 0.7172905802726746 0 3
19.67949104309082 -12.613261222839355 5.745503902435303 0.7143455147743225 0 3
19.704336166381836 -12.75429630279541 5.769408226013184 0.7113856673240662 0 3
19.729373931884766 -12.896484375 5.7936272621154785 0.7084118723869324 0 3
19.754629135131836 -13.03994083404541 5.818167686462402 0.7054235935211182 0 3
19.78009796142578 -13.1845703125 5.8430399894714355 0.7024211287498474 0 3
19.8057804107666 -13.330429077148438 5.868236064910889 0.699404776096344 0 3
19.83169937133789 -13.477617263793945 5.89378023147583 0.696373701095581 0 3
19.857791900634766 -13.626093864440918 5.919662952423096 0.6933289766311646 0 3
19.884159088134766 -13.775819778442383 5.945891380310059 0.6902705430984497 0 3
19.91077995300293 -13.926894187927246 5.972475051879883 0.6871978640556335 0 3
19.9376163482666 -14.079394340515137 5.999424934387207 0.6841112971305847 0 3
19.964706420898438 -14.233182907104492 6.026729106903076 0.6810113787651062 0 3
19.992069244384766 -14.388456344604492 6.054418087005615 0.6778973340988159 0 3
20.0196475982666 -14.545116424560547 6.082478046417236 0.674769937992096 0 3
20.04749870300293 -14.703280448913574 6.110928058624268 0.6716287136077881 0 3
20.075605392456055 -14.862910270690918 6.139764785766602 0.6684741377830505 0 3
20.103984832763672 -15.024043083190918 6.16900110244751 0.6653061509132385 0 3
20.13261604309082 -15.186777114868164 6.198649883270264 0.6621243357658386 0 3
20.161561965942383 -15.351015090942383 6.228697776794434 0.6589298248291016 0 3
20.19074249267578 -15.516913414001465 6.259173393249512 0.6557214260101318 0 3
20.220272064208984 -15.684432983398438 6.290073871612549 0.6524999737739563 0 3
20.250038146972656 -15.853612899780273 6.3214111328125 0.649265468120575 0 3
20.28009796142578 -16.024473190307617 6.353187561035156 0.6460179090499878 0 3
20.310487747192383 -16.19709014892578 6.385413646697998 0.6427575349807739 0 3
20.341211318969727 -16.371444702148438 6.418105125427246 0.6394838094711304 0 3
20.37220573425293 -16.547636032104492 6.451258182525635 0.6361972093582153 0 3
20.403554916381836 -16.725624084472656 6.484887599945068 0.6328983306884766 0 3
20.435253143310547 -16.905487060546875 6.51900053024292 0.6295861005783081 0 3
20.467266082763672 -17.087265014648438 6.553609371185303 0.6262615919113159 0 3
20.499568939208984 -17.270977020263672 6.588721752166748 0.6229239106178284 0 3
20.532304763793945 -17.45669937133789 6.6243486404418945 0.6195737719535828 0 3
20.565351486206055 -17.644433975219727 6.660496234893799 0.6162115335464478 0 3
20.5987491607666 -17.834238052368164 6.697170257568359 0.6128368377685547 0 3
20.632518768310547 -18.026113510131836 6.734386444091797 0.6094498634338379 0 3
20.666717529296875 -18.220155715942383 6.772162914276123 0.6060506701469421 0 3
20.701229095458984 -18.416425704956055 6.810503959655762 0.602638840675354 0 3
20.736190795898438 -18.61488151550293 6.849413871765137 0.5992154479026794 0 3
20.771562576293945 -18.815624237060547 6.888913631439209 0.5957794785499573 0 3
20.807323455810547 -19.018749237060547 6.929017066955566 0.59233158826828 0 3
20.843475341796875 -19.224199295043945 6.969720840454102 0.5888721942901611 0 3
20.880096435546875 -19.432109832763672 7.011052131652832 0.5854002237319946 0 3
20.91716766357422 -19.642480850219727 7.053022384643555 0.5819172263145447 0 3
20.95458984375 -19.85546875 7.095643043518066 0.5784218907356262 0 3
20.992557525634766 -20.07097625732422 7.138916492462158 0.5749155879020691 0 3
21.030956268310547 -20.289159774780273 7.182872295379639 0.5713971257209778 0 3
21.069862365722656 -20.510000228881836 7.227517127990723 0.5678678154945374 0 3
21.109256744384766 -20.733633041381836 7.272865295410156 0.5643267035484314 0 3
21.149139404296875 -20.96011734008789 7.318947792053223 0.5607738494873047 0 3
9.255117416381836 9.25503921508789 2.987415075302124 0.8036603927612305 0 9
9.267108917236328 9.184218406677246 2.9779582023620605 0.806212842464447 0 9
9.279043197631836 9.113886833190918 2.968618154525757 0.8087493181228638 0 9
9.29091739654541 9.043964385986328 2.959397554397583 0.8112696409225464 0 9
9.302695274353027 8.974492073059082 2.9502880573272705 0.8137739896774292 0 9
9.314374923706055 8.905390739440918 2.941296339035034 0.8162622451782227 0 9
9.32601547241211 8.836737632751465 2.9324138164520264 0.8187342286109924 0 9
9.33755874633789 8.768495559692383 2.92364501953125 0.8211899399757385 0 9
9.349042892456055 8.700644493103027 2.914985179901123 0.82362961769104 0 9
9.360448837280273 8.633222579956055 2.9064323902130127 0.8260530829429626 0 9
9.371796607971191 8.566152572631836 2.897989511489868 0.8284600377082825 0 9
9.383066177368164 8.499472618103027 2.889648914337158 0.8308508396148682 0 9
9.394257545471191 8.4331636428833 2.8814141750335693 0.8332252502441406 0 9
9.405409812927246 8.3672456741333 2.873283624649048 0.8355831503868103 0 9
10.719199180603027 9.450175285339355 3.2616453170776367 0.8388105630874634 0 9
10.7793550491333 9.417597770690918 3.267056703567505 0.8374216556549072 0 9
10.83968734741211 9.3848237991333 3.2725415229797363 0.8360183238983154 0 9
11.182226181030273 9.593964576721191 3.3629260063171387 0.8767374157905579 0 9
11.23080062866211 9.548457145690918 3.3646068572998047 0.876299262046814 0 9
11.279394149780273 9.502870559692383 3.3663456439971924 0.8758462071418762 0 9
11.32796859741211 9.457206726074219 3.368144989013672 0.8753786087036133 0 9
11.376562118530273 9.411444664001465 3.3700029850006104 0.8748964071273804 0 9
11.425155639648438 9.365605354309082 3.3719170093536377 0.8743993639945984 0 9
11.473808288574219 9.319706916809082 3.3738903999328613 0.8738877773284912 0 9
13.811445236206055 11.11595630645752 4.046565055847168 0.503858208656311 0 9
13.963729858398438 11.135624885559082 4.076505661010742 0.5001577138900757 0 9
14.11832046508789 11.155624389648438 4.106973171234131 0.4964473247528076 0 9
14.275253295898438 11.175898551940918 4.137988567352295 0.49272650480270386 0 9
14.434550285339355 11.196503639221191 4.169559955596924 0.4889954626560211 0 9
14.596346855163574 11.217460632324219 4.20170783996582 0.4852542579174042 0 9
14.760624885559082 11.238710403442383 4.234442234039307 0.4815031886100769 0 9
14.912968635559082 11.249316215515137 4.263609409332275 0.9759140014648438 0 9
14.949159622192383 11.171698570251465 4.259579181671143 0.9768378138542175 0 9
14.985234260559082 11.094218254089355 4.255636692047119 0.9777427911758423 0 9
13.579960823059082 9.959784507751465 3.843820095062256 0.8789335489273071 0 9
13.651406288146973 9.918261528015137 3.85140061378479 0.8772028088569641 0 9
13.351425170898438 9.60904312133789 3.7545647621154785 0.9477549195289612 0 9
13.38564395904541 9.542773246765137 3.752103805541992 0.9483761787414551 0 9
13.41982364654541 9.476601600646973 3.7497246265411377 0.9489783048629761 0 9
13.453964233398438 9.410507202148438 3.7474241256713867 0.949560821056366 0 9
13.488046646118164 9.344472885131836 3.7452025413513184 0.9501240253448486 0 9
13.52212905883789 9.278534889221191 3.7430596351623535 0.9506677985191345 0 9
