ply
format ascii 1.0
element vertex 598
property float32 x
property float32 y
property float32 z
property float32 CosAngle
property uint32 ObjIdx
property uint32 ObjTag
end_header
19.551000595092773 -6.644843578338623 -0.42572614550590515 0.9467751383781433 0 3
18.988656997680664 -6.644433498382568 -0.41476547718048096 0.9438531398773193 0 3
18.503643035888672 -6.66173791885376 -0.4054598808288574 0.9408553242683411 0 3
17.96632194519043 -6.651034832000732 -0.3949783146381378 0.9377819299697876 0 3
17.487974166870117 -6.653066158294678 -0.38575834035873413 0.9346323013305664 0 3
17.002973556518555 -6.643847465515137 -0.3763609230518341 0.9314081072807312 0 3
20.946449279785156 -8.402206420898438 -0.46529966592788696 0.37177446484565735 0 3
16.14413070678711 -6.644726276397705 -0.3599328398704529 0.9247338771820068 0 3
19.90352439880371 -8.40169906616211 -0.4454144239425659 0.38837483525276184 0 3
15.3656005859375 -6.649277210235596 -0.34518203139305115 0.9177623987197876 0 3
18.945785522460938 -8.401288986206055 -0.42728346586227417 0.4048503041267395 0 3
14.608720779418945 -6.635605335235596 -0.33081573247909546 0.4130386412143707 0 3
14.282782554626465 -6.64285135269165 -0.3247581422328949 0.9067502021789551 0 3
13.8738374710083 -6.60476541519165 -0.31679487228393555 0.42931655049324036 0 3
13.64742660522461 -6.647871017456055 -0.312975138425827 0.8990432620048523 0 3
13.272724151611328 -6.613417625427246 -0.3057328760623932 0.44545623660087585 0 3
16.48615264892578 -8.400116920471191 -0.3814730644226074 0.45347148180007935 0 3
16.126323699951172 -8.3999605178833 -0.37487655878067017 0.46145105361938477 0 3
15.7786865234375 -8.399785041809082 -0.3685327172279358 0.46939367055892944 0 3
15.44259262084961 -8.399628639221191 -0.36242949962615967 0.47729790210723877 0 3
11.885604858398438 -6.603808403015137 -0.2803182899951935 0.48516425490379333 0 3
14.802631378173828 -8.39931583404541 -0.3508927822113037 0.4929909408092499 0 3
14.497626304626465 -8.399179458618164 -0.345436692237854 0.5007784962654114 0 3
14.201972007751465 -8.399043083190918 -0.3401739299297333 0.5085263252258301 0 3
13.743622779846191 -8.295390129089355 -0.33096542954444885 0.8562150597572327 0 3
13.762269973754883 -8.476093292236328 -0.3332328796386719 0.8515469431877136 0 3
13.179511070251465 -8.28125 -0.32091033458709717 0.5315176844596863 0 3
13.76210880279541 -8.820605278015137 -0.33700913190841675 0.8420054912567139 0 3
9.626757621765137 -6.292734146118164 -0.23711150884628296 0.5466334819793701 0 3
9.486279487609863 -6.323163986206055 -0.23504440486431122 0.5541251301765442 0 3
9.304130554199219 -6.323085784912109 -0.23194091022014618 0.5615717768669128 0 3
9.138935089111328 -6.331484317779541 -0.22921814024448395 0.8221114873886108 0 3
8.961308479309082 -6.328203201293945 -0.22617721557617188 0.8169711828231812 0 3
8.785273551940918 -6.322832107543945 -0.22316040098667145 0.5836396217346191 0 3
8.620888710021973 -6.32275390625 -0.22042281925678253 0.5909022688865662 0 3
13.761405944824219 -10.284140586853027 -0.35419249534606934 0.8011583089828491 0 3
13.761313438415527 -10.47787094116211 -0.3565957546234131 0.795757532119751 0 3
9.636220932006836 -7.474628925323486 -0.2514305114746094 0.7902917861938477 0 3
13.761113166809082 -10.873456954956055 -0.3615899682044983 0.7847631573677063 0 3
13.76102066040039 -11.075448989868164 -0.36418792605400085 0.7791715264320374 0 3
13.7609224319458 -11.280370712280273 -0.36684751510620117 0.773517370223999 0 3
7.599052429199219 -6.344140529632568 -0.2040911763906479 0.7677873373031616 0 3
7.43606424331665 -6.322187423706055 -0.20120498538017273 0.6472414135932922 0 3
9.340272903442383 -8.086718559265137 -0.254718154668808 0.654055118560791 0 3
9.172499656677246 -8.086640357971191 -0.2521113455295563 0.6608158349990845 0 3
7.058095455169678 -6.33605432510376 -0.19554884731769562 0.7443172931671143 0 3
8.852069854736328 -8.09115219116211 -0.24725554883480072 0.6744480133056641 0 3
8.694043159484863 -8.09115219116211 -0.24485930800437927 0.6810459494590759 0 3
6.691386699676514 -6.340390682220459 -0.19005171954631805 0.726074755191803 0 3
6.552919864654541 -6.32177734375 -0.18770401179790497 0.6938111186027527 0 3
8.237666130065918 -8.091113090515137 -0.23805740475654602 0.7005054354667664 0 3
9.831660270690918 9.831562042236328 -0.4013783037662506 0.7071497440338135 0 3
10.009687423706055 9.831464767456055 -0.40502655506134033 0.7007796764373779 0 3
10.190966606140137 9.83138656616211 -0.40877607464790344 0.694353461265564 0 3
10.375654220581055 9.831308364868164 -0.4126269519329071 0.6878717541694641 0 3
10.56387710571289 9.83121109008789 -0.4165858328342438 0.6813346147537231 0 3
10.75577163696289 9.8311128616333 -0.4206558167934418 0.6747420430183411 0 3
10.951455116271973 9.831034660339355 -0.4248412847518921 0.6680956482887268 0 3
11.151103019714355 9.830917358398438 -0.4291456639766693 0.6613941788673401 0 3
11.354853630065918 9.830859184265137 -0.43357253074645996 0.6546401977539062 0 3
11.562850952148438 9.830761909484863 -0.43813568353652954 0.6478334069252014 0 3
11.77530288696289 9.830663681030273 -0.44282180070877075 0.6409744024276733 0 3
11.992362976074219 9.830546379089355 -0.4476478397846222 0.6340639591217041 0 3
12.21422290802002 9.830449104309082 -0.45261505246162415 0.6271024346351624 0 3
12.441093444824219 9.830331802368164 -0.45774045586586 0.620090126991272 0 3
12.673144340515137 9.83023452758789 -0.46300414204597473 0.613028347492218 0 3
12.910639762878418 9.830117225646973 -0.46844130754470825 0.6059170365333557 0 3
13.153793334960938 9.829999923706055 -0.47403883934020996 0.598756730556488 0 3
13.402846336364746 9.829882621765137 -0.47981658577919006 0.5915486216545105 0 3
13.6580810546875 9.829765319824219 -0.485775887966156 0.5842923521995544 0 3
13.919740676879883 9.829628944396973 -0.4919222891330719 0.5769891738891602 0 3
14.18813419342041 9.829511642456055 -0.4982702434062958 0.5696397423744202 0 3
14.4635591506958 9.829374313354492 -0.5048261880874634 0.5622443556785583 0 3
14.746366500854492 9.829237937927246 -0.5116053819656372 0.5548034906387329 0 3
15.036879539489746 9.8291015625 -0.5185929536819458 0.5473178625106812 0 3
15.309057235717773 9.812030792236328 -0.5249214172363281 0.9606848359107971 0 3
15.60155200958252 9.803027153015137 -0.5319089889526367 0.5322084426879883 0 3
15.916679382324219 9.80289077758789 -0.5396317839622498 0.5245984196662903 0 3
16.241113662719727 9.802734375 -0.5476225018501282 0.516940176486969 0 3
16.549842834472656 9.787480354309082 -0.5550524592399597 0.8601593375205994 0 3
16.9643497467041 9.8281831741333 -0.5659700036048889 0.501499593257904 0 3
17.320634841918945 9.82802677154541 -0.5748907327651978 0.49371829628944397 0 3
17.688432693481445 9.827871322631836 -0.5841546654701233 0.4858962595462799 0 3
18.068227767944336 9.827675819396973 -0.5937438607215881 0.4780358374118805 0 3
18.460752487182617 9.827499389648438 -0.6037315130233765 0.4701371490955353 0 3
18.866718292236328 9.82730484008789 -0.6140960454940796 0.46220049262046814 0 3
19.286893844604492 9.827109336853027 -0.6248759031295776 0.4542268216609955 0 3
19.722158432006836 9.826894760131836 -0.6360957026481628 0.44621580839157104 0 3
20.17335319519043 9.826679229736328 -0.6477770805358887 0.4381694197654724 0 3
20.6414794921875 9.826464653015137 -0.6599488854408264 0.4300874173641205 0 3
21.127553939819336 9.826210975646973 -0.6726478338241577 0.421970397233963 0 3
21.63273811340332 9.825976371765137 -0.6858817934989929 0.4138200581073761 0 3
22.158281326293945 9.825722694396973 -0.6997285485267639 0.40563616156578064 0 3
22.70549201965332 9.825468063354492 -0.7141945958137512 0.397419810295105 0 3
23.27585792541504 9.8251953125 -0.7293336391448975 0.3891714811325073 0 3
23.8709716796875 9.824902534484863 -0.7451954483985901 0.3808917999267578 0 3
24.492591857910156 9.82460880279541 -0.7618069052696228 0.3725813031196594 0 3
25.00216293334961 9.76943302154541 -0.7749128341674805 0.8878235816955566 0 3
25.755468368530273 9.798202514648438 -0.7954826354980469 0.35587093234062195 0 3
26.53658676147461 9.82363224029541 -0.8168591260910034 0.34747254848480225 0 3
44.73378372192383 14.757128715515137 -1.359814167022705 0.9936618208885193 0 6
45.562660217285156 14.578378677368164 -1.3809789419174194 0.9931371212005615 42 6
41.68710708618164 10.107129096984863 -1.2382776737213135 0.9967330694198608 0 20
42.11399459838867 7.447499752044678 -1.2345963716506958 0.9143065214157104 0 20
37.38067626953125 -6.61046838760376 -1.0958420038223267 0.17360042035579681 0 3
35.51369857788086 -6.609570026397705 -1.0428016185760498 0.1824292689561844 0 3
33.81904602050781 -6.608769416809082 -0.9947470426559448 0.19124296307563782 0 3
32.273460388183594 -6.60802698135376 -0.9509904384613037 0.20004217326641083 0 3
30.858095169067383 -6.607363224029541 -0.9109957814216614 0.20882458984851837 0 3
29.556859970092773 -6.606738090515137 -0.8742952346801758 0.21759022772312164 0 3
28.356273651123047 -6.606171607971191 -0.8404989242553711 0.2263387143611908 0 3
27.515281677246094 -6.671191215515137 -0.8173169493675232 0.9715699553489685 0 3
26.71480941772461 -6.731542587280273 -0.7953001260757446 0.6907656192779541 0 3
27.782649993896484 -7.266445159912109 -0.8289984464645386 0.9666998386383057 0 3
27.78304100036621 -7.533613204956055 -0.830999493598938 0.9643778204917908 0 3
27.7834415435791 -7.802109241485596 -0.8330692648887634 0.9619781374931335 0 3
22.767187118530273 -6.614472389221191 -0.6844117641448975 0.27842023968696594 0 3
22.02608871459961 -6.614120960235596 -0.663891613483429 0.2870261073112488 0 3
21.328100204467773 -6.613789081573486 -0.6446159482002258 0.2956084907054901 0 3
20.669414520263672 -6.613476276397705 -0.6264779567718506 0.3041675090789795 0 3
20.046743392944336 -6.613183498382568 -0.6093818545341492 0.31270188093185425 0 3
19.457103729248047 -6.61290979385376 -0.5932396054267883 0.32121121883392334 0 3
18.89788055419922 -6.612636566162109 -0.5779725313186646 0.3296944200992584 0 3
18.5035343170166 -6.661660194396973 -0.5677193999290466 0.9406689405441284 0 3
17.966215133666992 -6.650976181030273 -0.5530428886413574 0.9375959634780884 0 3
17.487865447998047 -6.652987957000732 -0.5401336550712585 0.9344473481178284 0 3
17.00287628173828 -6.643788814544678 -0.5269731283187866 0.9312233924865723 0 3
20.94644546508789 -8.402206420898438 -0.6515102982521057 0.3716987371444702 0 3
16.144033432006836 -6.64464807510376 -0.5039709210395813 0.9245508313179016 0 3
19.903499603271484 -8.40169906616211 -0.623662531375885 0.388295978307724 0 3
15.36550235748291 -6.649218559265137 -0.4833167791366577 0.9175803661346436 0 3
18.945781707763672 -8.401249885559082 -0.5982794165611267 0.40476781129837036 0 3
14.6087007522583 -6.635566234588623 -0.46320950984954834 0.412954717874527 0 3
14.282694816589355 -6.642773151397705 -0.4547198414802551 0.9065708518028259 0 3
13.873847007751465 -6.604726314544678 -0.4435882568359375 0.4292289614677429 0 3
13.6473388671875 -6.647792816162109 -0.4382232427597046 0.8988655209541321 0 3
13.357460975646973 -6.655644416809082 -0.43081435561180115 0.8949037790298462 0 3
13.095404624938965 -6.672460556030273 -0.4242791533470154 0.6364769339561462 0 3
16.12630271911621 -8.399921417236328 -0.5248974561691284 0.46135732531547546 0 3
15.778671264648438 -8.39974594116211 -0.516016960144043 0.4692983627319336 0 3
15.44259262084961 -8.399589538574219 -0.5074695944786072 0.47720062732696533 0 3
11.885595321655273 -6.603808403015137 -0.3925166130065918 0.4850655496120453 0 3
14.8026123046875 -8.399276733398438 -0.4913156032562256 0.492890864610672 0 3
14.497631072998047 -8.399140357971191 -0.48367536067962646 0.5006764531135559 0 3
14.201952934265137 -8.399003982543945 -0.4763067662715912 0.5084230899810791 0 3
13.743535041809082 -8.295292854309082 -0.46341079473495483 0.8560462594032288 0 3
13.762182235717773 -8.475996017456055 -0.46658584475517273 0.8513790965080261 0 3
13.762104034423828 -8.647284507751465 -0.46919798851013184 0.8466432690620422 0 3
13.024154663085938 -8.347597122192383 -0.44657546281814575 0.6025912165641785 0 3
9.626757621765137 -6.292734146118164 -0.33202406764030457 0.5465222597122192 0 3
9.448808670043945 -6.298183441162109 -0.32780686020851135 0.5540122389793396 0 3
9.267353057861328 -6.298105239868164 -0.3234596252441406 0.5614575147628784 0 3
9.090643882751465 -6.298007488250732 -0.31925201416015625 0.5688579678535461 0 3
8.918437004089355 -6.297929763793945 -0.31517714262008667 0.5762127637863159 0 3
8.750566482543945 -6.2978515625 -0.31122922897338867 0.583520770072937 0 3
8.586835861206055 -6.297773361206055 -0.3074043095111847 0.5907817482948303 0 3
8.427069664001465 -6.297695159912109 -0.3036971986293793 0.5979949831962585 0 3
8.27108383178711 -6.297616958618164 -0.3001003861427307 0.6051608324050903 0 3
8.118749618530273 -6.297558307647705 -0.29661238193511963 0.6122773289680481 0 3
7.969902038574219 -6.29748010635376 -0.2932273745536804 0.6193445324897766 0 3
7.824423789978027 -6.297421932220459 -0.2899424731731415 0.6263617873191833 0 3
7.68212890625 -6.297343730926514 -0.28675276041030884 0.6333290338516235 0 3
7.542919635772705 -6.297285079956055 -0.2836546301841736 0.640245258808136 0 3
7.406689167022705 -6.297206878662109 -0.28064605593681335 0.6471090912818909 0 3
7.273290634155273 -6.29714822769165 -0.27772200107574463 0.6539217829704285 0 3
7.142646312713623 -6.297089576721191 -0.2748812735080719 0.6606810092926025 0 3
7.014618873596191 -6.297030925750732 -0.2721177637577057 0.6673879623413086 0 3
6.889150142669678 -6.296972751617432 -0.2694331407546997 0.6740401387214661 0 3
6.76611328125 -6.296914100646973 -0.2668214440345764 0.6806385517120361 0 3
6.645429611206055 -6.296855449676514 -0.2642807066440582 0.6871820092201233 0 3
6.527030944824219 -6.296796798706055 -0.26180967688560486 0.6936691999435425 0 3
6.418261528015137 -6.304042816162109 -0.25970473885536194 0.028345497325062752 0 3
9.831660270690918 9.8316011428833 -0.5161525011062622 0.706957221031189 0 3
10.009687423706055 9.831503868103027 -0.5208441019058228 0.7005889415740967 0 3
10.1909761428833 9.831425666809082 -0.5256640315055847 0.6941641569137573 0 3
10.375654220581055 9.831347465515137 -0.530616283416748 0.6876845359802246 0 3
10.563886642456055 9.831250190734863 -0.5357095003128052 0.6811488270759583 0 3
10.755781173706055 9.831151962280273 -0.5409426689147949 0.674558162689209 0 3
10.9514741897583 9.831073760986328 -0.5463235378265381 0.6679133176803589 0 3
11.151103019714355 9.83095645904541 -0.5518603324890137 0.6612136363983154 0 3
11.354853630065918 9.830859184265137 -0.5575551986694336 0.6544615030288696 0 3
11.562861442565918 9.830761909484863 -0.5634158253669739 0.6476569175720215 0 3
11.775312423706055 9.830663681030273 -0.5694414973258972 0.640799880027771 0 3
11.992372512817383 9.830546379089355 -0.5756424069404602 0.6338913440704346 0 3
12.2142333984375 9.830449104309082 -0.5820399522781372 0.6269314289093018 0 3
12.441083908081055 9.830331802368164 -0.5886169075965881 0.6199213862419128 0 3
12.673144340515137 9.83023452758789 -0.5953977704048157 0.6128615736961365 0 3
12.910654067993164 9.830117225646973 -0.6023927330970764 0.6057514548301697 0 3
13.153793334960938 9.829999923706055 -0.6095924377441406 0.5985938310623169 0 3
13.40285587310791 9.829882621765137 -0.6170182824134827 0.591387152671814 0 3
13.658090591430664 9.829765319824219 -0.6246813535690308 0.584132969379425 0 3
13.919740676879883 9.829628944396973 -0.632587730884552 0.5768320560455322 0 3
14.188154220581055 9.829511642456055 -0.640751302242279 0.5694841742515564 0 3
14.463579177856445 9.829374313354492 -0.6491804122924805 0.5620908141136169 0 3
14.746376991271973 9.829237937927246 -0.6578890681266785 0.5546522736549377 0 3
15.036904335021973 9.8291015625 -0.6668853759765625 0.5471683144569397 0 3
15.309008598327637 9.811991691589355 -0.675015389919281 0.960426926612854 0 3
15.60155200958252 9.803027153015137 -0.684008777141571 0.5320634841918945 0 3
15.9166841506958 9.80289077758789 -0.6939401030540466 0.5244554281234741 0 3
16.241147994995117 9.802734375 -0.7042164206504822 0.5167989134788513 0 3
16.54973602294922 9.787421226501465 -0.713762640953064 0.859930694103241 0 3
16.964365005493164 9.8281831741333 -0.7278040647506714 0.5013628005981445 0 3
17.320653915405273 9.82802677154541 -0.7392821907997131 0.49358341097831726 0 3
17.688432693481445 9.827871322631836 -0.7511953711509705 0.4857639968395233 0 3
18.0682315826416 9.827675819396973 -0.7635378837585449 0.477905809879303 0 3
18.460765838623047 9.827499389648438 -0.7763601541519165 0.4700089395046234 0 3
18.866737365722656 9.82730484008789 -0.789697527885437 0.4620743691921234 0 3
19.286909103393555 9.827109336853027 -0.8035595417022705 0.4541029632091522 0 3
19.72216796875 9.826894760131836 -0.8179845213890076 0.4460943341255188 0 3
20.173368453979492 9.826679229736328 -0.8330065011978149 0.43804988265037537 0 3
20.641489028930664 9.826464653015137 -0.8486617207527161 0.42997023463249207 0 3
21.1275577545166 9.826210975646973 -0.8649840354919434 0.42185553908348083 0 3
21.632753372192383 9.825976371765137 -0.8820136189460754 0.4137071967124939 0 3
22.15829086303711 9.825722694396973 -0.899815022945404 0.4055255651473999 0 3
22.705501556396484 9.825468063354492 -0.9184160232543945 0.39731156826019287 0 3
23.27585792541504 9.8251953125 -0.937880277633667 0.38906562328338623 0 3
23.87098503112793 9.824902534484863 -0.9582650065422058 0.3807879090309143 0 3
24.49263572692871 9.82460880279541 -0.9796355366706848 0.3724794089794159 0 3
25.0020751953125 9.76937484741211 -0.9964633584022522 0.8875852227210999 0 3
25.755496978759766 9.798202514648438 -1.0229690074920654 0.3557737171649933 0 3
26.53662109375 9.82363224029541 -1.0504322052001953 0.34737762808799744 0 3
43.849647521972656 15.786796569824219 -1.7300869226455688 0.03643070533871651 0 2
43.99260711669922 15.393632888793945 -1.730204701423645 0.03642820566892624 0 2
44.13190460205078 14.999101638793945 -1.730319619178772 0.036425817757844925 0 2
44.26765441894531 14.60335922241211 -1.7304322719573975 0.036423422396183014 0 2
44.39985656738281 14.206366539001465 -1.7305423021316528 0.0364210419356823 0 2
44.528343200683594 13.80810546875 -1.730649709701538 0.036418791860342026 0 2
44.65311050415039 13.408671379089355 -1.7307544946670532 0.03641681745648384 0 2
44.774295806884766 13.008105278015137 -1.7308568954467773 0.036414675414562225 0 2
44.89189529418945 12.606425285339355 -1.730956792831421 0.03641253709793091 0 2
45.00571823120117 12.203632354736328 -1.7310540676116943 0.036410532891750336 0 2
45.11593246459961 11.799823760986328 -1.7311489582061768 0.03640947490930557 0 2
45.22242736816406 11.39501953125 -1.7312425374984741 0.03640754520893097 0 2
41.68688201904297 10.107109069824219 -1.592354655265808 0.9964686632156372 0 20
45.42454528808594 10.58251953125 -1.7314249277114868 0.036406826227903366 0 2
45.52936553955078 10.176953315734863 -1.7318743467330933 0.5564746260643005 0 2
48.37582015991211 10.358222007751465 -1.8365365266799927 0.03644075617194176 0 1
48.46889114379883 9.924023628234863 -1.8366156816482544 0.03643921762704849 0 1
42.40420150756836 8.286483764648438 -1.6039191484451294 0.830948531627655 0 20
48.643367767333984 9.053105354309082 -1.8367663621902466 0.036436114460229874 0 1
48.72458267211914 8.616445541381836 -1.8368374109268188 0.03643468767404556 0 1
48.80171203613281 8.179121017456055 -1.8369059562683105 0.0364333800971508 0 1
48.87493133544922 7.741054534912109 -1.836971640586853 0.036432065069675446 0 1
48.94403839111328 7.302285194396973 -1.837034821510315 0.03643087297677994 0 1
49.009368896484375 6.86290979385376 -1.8370954990386963 0.03642956539988518 0 1
49.07059860229492 6.42296838760376 -1.8371530771255493 0.03642837703227997 0 1
49.1275634765625 5.982402324676514 -1.8372080326080322 0.036427419632673264 0 1
49.180721282958984 5.541347503662109 -1.837260365486145 0.036426350474357605 0 1
49.22977066040039 5.099843502044678 -1.8373099565505981 0.0364253930747509 0 1
49.27485275268555 4.657870769500732 -1.8373568058013916 0.036424439400434494 0 1
49.31597137451172 4.215487957000732 -1.837401032447815 0.03642348572611809 0 1
49.35293960571289 3.772773265838623 -1.837442398071289 0.03642265871167183 0 1
49.38579559326172 3.329706907272339 -1.8374810218811035 0.036421939730644226 0 1
49.41450119018555 2.8863279819488525 -1.8375167846679688 0.03642134368419647 0 1
49.43937301635742 2.4427342414855957 -1.8375500440597534 0.03642063960433006 0 1
49.46012496948242 1.9988867044448853 -1.8375803232192993 0.03642003610730171 0 1
49.47688293457031 1.5548827648162842 -1.8376080989837646 0.03641944006085396 0 1
49.48949432373047 1.110742211341858 -1.8376330137252808 0.036418963223695755 0 1
49.49811935424805 0.66650390625 -1.8376551866531372 0.03641849011182785 0 1
49.502601623535156 0.22218748927116394 -1.8376744985580444 0.0364181250333786 0 1
49.50307846069336 -0.22218748927116394 -1.8376911878585815 0.03641777113080025 0 1
49.499412536621094 -0.66650390625 -1.8377050161361694 0.036417532712221146 0 1
49.49176788330078 -1.1107616424560547 -1.8377162218093872 0.036417294293642044 0 1
49.47996139526367 -1.55496084690094 -1.8377244472503662 0.03641717880964279 0 1
49.46416473388672 -1.9990428686141968 -1.837730050086975 0.03641706332564354 0 1
49.44440460205078 -2.442949056625366 -1.8377329111099243 0.03641693294048309 0 1
49.42049026489258 -2.886660099029541 -1.8377329111099243 0.036416925489902496 0 1
49.39241027832031 -3.3301172256469727 -1.8377301692962646 0.03641705960035324 0 1
49.36038589477539 -3.7733006477355957 -1.8377246856689453 0.036417167633771896 0 1
49.32435607910156 -4.216191291809082 -1.8377165794372559 0.03641729801893234 0 1
49.28419876098633 -4.658750057220459 -1.8377054929733276 0.036417536437511444 0 1
49.24009323120117 -5.100878715515137 -1.8376919031143188 0.03641776368021965 0 1
49.19182586669922 -5.542597770690918 -1.8376753330230713 0.0364181324839592 0 1
49.13961410522461 -5.983867168426514 -1.837656021118164 0.03641849011182785 0 1
49.08328628540039 -6.42458963394165 -1.8376339673995972 0.036418963223695755 0 1
49.02300262451172 -6.864804744720459 -1.8376091718673706 0.03641943633556366 0 1
37.73204040527344 -5.62951135635376 -1.416210651397705 0.929642379283905 0 20
48.8902587890625 -7.743476390838623 -1.837551236152649 0.036420635879039764 0 1
48.817996978759766 -8.181855201721191 -1.8375182151794434 0.03642122820019722 0 1
37.380611419677734 -6.61046838760376 -1.4091845750808716 0.17355352640151978 0 3
35.513694763183594 -6.609570026397705 -1.340991497039795 0.18237967789173126 0 3
33.81888961791992 -6.608769416809082 -1.279184103012085 0.19119180738925934 0 3
32.273441314697266 -6.60802698135376 -1.2229207754135132 0.19998787343502045 0 3
30.858070373535156 -6.607363224029541 -1.171489953994751 0.20876795053482056 0 3
29.556781768798828 -6.606738090515137 -1.1242965459823608 0.21753160655498505 0 3
28.35624885559082 -6.606171607971191 -1.0808404684066772 0.22627733647823334 0 3
27.48080062866211 -6.662812232971191 -1.0497077703475952 0.9708510637283325 0 3
26.57529640197754 -6.69640588760376 -1.017376184463501 0.9691662788391113 0 3
27.4815673828125 -7.187714576721191 -1.0544979572296143 0.9664418697357178 0 3
27.481962203979492 -7.451972484588623 -1.057035207748413 0.9641206860542297 0 3
23.44515609741211 -6.583847522735596 -0.9040079116821289 0.2697191834449768 0 3
22.660425186157227 -6.583476543426514 -0.8759892582893372 0.2783449590206146 0 3
21.922832489013672 -6.58312463760376 -0.8497288227081299 0.2869480550289154 0 3
21.228052139282227 -6.58279275894165 -0.8250556588172913 0.2955288887023926 0 3
20.572494506835938 -6.582480430603027 -0.8018415570259094 0.3040851354598999 0 3
19.9527530670166 -6.582187175750732 -0.7799566388130188 0.3126171827316284 0 3
19.365873336791992 -6.581894397735596 -0.7592954635620117 0.32112419605255127 0 3
18.809282302856445 -6.581640243530273 -0.7397568821907043 0.32960477471351624 0 3
18.280542373657227 -6.581386566162109 -0.7212545871734619 0.3380594253540039 0 3
17.777563095092773 -6.581151962280273 -0.7037150263786316 0.3464867174625397 0 3
17.674663543701172 -6.724042892456055 -0.7020014524459839 0.03607526421546936 0 3
16.920766830444336 -6.611699104309082 -0.6743887066841125 0.3632564842700958 0 3
16.482275009155273 -6.611484050750732 -0.6592506170272827 0.37159761786460876 0 3
16.062997817993164 -6.611289024353027 -0.6448286175727844 0.3799089193344116 0 3
15.66162109375 -6.611093521118164 -0.6310743689537048 0.38819003105163574 0 3
15.276991844177246 -6.610918045043945 -0.6179409623146057 0.39643967151641846 0 3
14.908007621765137 -6.610742092132568 -0.6053921580314636 0.4046573042869568 0 3
14.55367660522461 -6.610566139221191 -0.5933881998062134 0.4128427505493164 0 3
14.213119506835938 -6.610410213470459 -0.5818989276885986 0.420994371175766 0 3
13.873842239379883 -6.604726314544678 -0.5704149007797241 0.42911234498023987 0 3
13.64725112915039 -6.647753715515137 -0.5635273456573486 0.8986266851425171 0 3
13.357382774353027 -6.65554666519165 -0.554002046585083 0.8946664929389954 0 3
12.979257583618164 -6.613242149353027 -0.5407600402832031 0.45325687527656555 0 3
16.12628936767578 -8.399921417236328 -0.6749911308288574 0.46123236417770386 0 3
15.77865219116211 -8.39974594116211 -0.6635664105415344 0.46917101740837097 0 3
15.442587852478027 -8.399589538574219 -0.6525805592536926 0.47707098722457886 0 3
11.88558578491211 -6.603769302368164 -0.5047442317008972 0.48493391275405884 0 3
14.802617073059082 -8.399276733398438 -0.6318041682243347 0.4927569031715393 0 3
14.4976167678833 -8.399140357971191 -0.6219817996025085 0.500540554523468 0 3
14.201948165893555 -8.399003982543945 -0.6125097274780273 0.5082851052284241 0 3
13.743447303771973 -8.295233726501465 -0.5959194898605347 0.8558192849159241 0 3
13.762094497680664 -8.475936889648438 -0.600004255771637 0.8511533141136169 0 3
13.762016296386719 -8.647226333618164 -0.6033595204353333 0.8464184403419495 0 3
12.920394897460938 -8.28109359741211 -0.5696961879730225 0.5388410091400146 0 3
9.587841987609863 -6.267284870147705 -0.42521727085113525 0.5463735461235046 0 3
9.402334213256836 -6.26720666885376 -0.41946837306022644 0.5538619160652161 0 3
9.22176742553711 -6.267128944396973 -0.4139050245285034 0.5613052845001221 0 3
9.045917510986328 -6.267031192779541 -0.40852126479148865 0.568703293800354 0 3
8.8745698928833 -6.266952991485596 -0.40330687165260315 0.5760563611984253 0 3
8.70751953125 -6.26687479019165 -0.3982563614845276 0.5833625793457031 0 3
8.595526695251465 -6.304140567779541 -0.3957064747810364 0.0359053798019886 0 3
8.5396089553833 -6.381816387176514 -0.3957531750202179 0.03590108081698418 0 3
8.482949256896973 -6.458945274353027 -0.39579880237579346 0.03589700534939766 0 3
8.43106460571289 -6.539804458618164 -0.39610105752944946 0.029812155291438103 0 3
8.386737823486328 -6.626835823059082 -0.396796852350235 0.02975989319384098 0 3
7.824413776397705 -6.297421932220459 -0.37285125255584717 0.6261919140815735 0 3
7.68212890625 -6.297343730926514 -0.36874860525131226 0.6331567168235779 0 3
7.542919635772705 -6.297285079956055 -0.36476606130599976 0.6400710344314575 0 3
7.406669616699219 -6.297206878662109 -0.36089658737182617 0.6469340324401855 0 3
7.273290634155273 -6.29714822769165 -0.3571368455886841 0.6537437438964844 0 3
7.142636775970459 -6.297089576721191 -0.3534834086894989 0.6605016589164734 0 3
7.014618873596191 -6.297030925750732 -0.3499313294887543 0.6672062873840332 0 3
6.88916015625 -6.296972751617432 -0.346476286649704 0.6738570332527161 0 3
6.766122817993164 -6.296914100646973 -0.34311798214912415 0.6804537177085876 0 3
6.645449161529541 -6.296855449676514 -0.33985060453414917 0.6869948506355286 0 3
6.527030944824219 -6.296796798706055 -0.3366728127002716 0.6934813261032104 0 3
6.410810470581055 -6.296738147735596 -0.33357909321784973 0.6999112963676453 0 3
9.831660270690918 9.8316011428833 -0.6309973001480103 0.7067167162895203 0 3
10.00967788696289 9.831503868103027 -0.6367330551147461 0.7003501057624817 0 3
10.1909761428833 9.831425666809082 -0.6426253914833069 0.6939279437065125 0 3
10.375663757324219 9.831347465515137 -0.6486796140670776 0.6874503493309021 0 3
10.563886642456055 9.831250190734863 -0.6549052000045776 0.6809170842170715 0 3
10.755781173706055 9.831151962280273 -0.6613015532493591 0.6743287444114685 0 3
10.951464653015137 9.831073760986328 -0.6678832769393921 0.667685866355896 0 3
11.15111255645752 9.83095645904541 -0.6746484041213989 0.660988450050354 0 3
11.354863166809082 9.830859184265137 -0.681610107421875 0.6542386412620544 0 3
11.562870979309082 9.830761909484863 -0.6887750029563904 0.6474364399909973 0 3
11.77530288696289 9.830663681030273 -0.696134626865387 0.6405817866325378 0 3
11.992392539978027 9.830546379089355 -0.7037274241447449 0.6336746215820312 0 3
12.214242935180664 9.830449104309082 -0.7115490436553955 0.626717746257782 0 3
12.4410982131958 9.830331802368164 -0.719585120677948 0.6197099685668945 0 3
12.673169136047363 9.83023452758789 -0.7278759479522705 0.6126523017883301 0 3
12.910649299621582 9.830117225646973 -0.7364231944084167 0.6055455803871155 0 3
13.15380859375 9.829999923706055 -0.7452256679534912 0.5983898639678955 0 3
13.402860641479492 9.829882621765137 -0.7543057203292847 0.5911859273910522 0 3
13.658090591430664 9.829765319824219 -0.7636743187904358 0.5839340686798096 0 3
13.919760704040527 9.829628944396973 -0.7733399868011475 0.576635479927063 0 3
14.188149452209473 9.829511642456055 -0.7833179831504822 0.5692905187606812 0 3
14.463583946228027 9.829374313354492 -0.7936227321624756 0.5618994832038879 0 3
14.746391296386719 9.829237937927246 -0.8042687773704529 0.5544632077217102 0 3
15.036898612976074 9.8291015625 -0.8152629137039185 0.5469824075698853 0 3
15.30894947052002 9.811952590942383 -0.8252046704292297 0.9601037502288818 0 3
15.601572036743164 9.803027153015137 -0.8362120389938354 0.5318877696990967 0 3
15.916693687438965 9.80289077758789 -0.8483424186706543 0.5242769122123718 0 3
16.241147994995117 9.802734375 -0.8609083890914917 0.5166230201721191 0 3
16.54962921142578 9.787343978881836 -0.8725700378417969 0.8596441149711609 0 3
16.96436882019043 9.8281831741333 -0.8897408843040466 0.5011920928955078 0 3
17.3206729888916 9.82802677154541 -0.903774082660675 0.49341514706611633 0 3
17.688457489013672 9.827871322631836 -0.9183292388916016 0.4855983257293701 0 3
18.068241119384766 9.827675819396973 -0.9334266185760498 0.4777429401874542 0 3
18.460771560668945 9.827499389648438 -0.9491116404533386 0.4698488712310791 0 3
18.866756439208984 9.82730484008789 -0.9654015898704529 0.46191683411598206 0 3
19.28693389892578 9.827109336853027 -0.9823514223098755 0.45394790172576904 0 3
19.722171783447266 9.826894760131836 -0.9999875426292419 0.44594240188598633 0 3
20.173397064208984 9.826679229736328 -1.0183531045913696 0.43790027499198914 0 3
20.641498565673828 9.826464653015137 -1.037487506866455 0.4298238158226013 0 3
21.127567291259766 9.826210975646973 -1.057457447052002 0.4217117726802826 0 3
21.632797241210938 9.825976371765137 -1.078268051147461 0.41356581449508667 0 3
22.15828514099121 9.825722694396973 -1.1000224351882935 0.4053876996040344 0 3
22.705522537231445 9.825468063354492 -1.122766375541687 0.3971761465072632 0 3
23.275917053222656 9.8251953125 -1.1465632915496826 0.38893240690231323 0 3
23.87101936340332 9.824902534484863 -1.1714965105056763 0.3806578814983368 0 3
24.49265480041504 9.82460880279541 -1.1976250410079956 0.3723524212837219 0 3
25.001972198486328 9.769335746765137 -1.2181992530822754 0.8872870206832886 0 3
25.755537033081055 9.798202514648438 -1.2505637407302856 0.35565218329429626 0 3
26.536664962768555 9.82363224029541 -1.2841717004776 0.347258985042572 0 3
36.13921356201172 13.010878562927246 -1.7431259155273438 0.04470931366086006 0 2
36.25637435913086 12.686620712280273 -1.7432172298431396 0.0447070449590683 0 2
36.37063217163086 12.361289024353027 -1.7433068752288818 0.04470478743314743 0 2
36.481971740722656 12.034960746765137 -1.743394374847412 0.04470251128077507 0 2
36.590370178222656 11.707616806030273 -1.7434802055358887 0.0447002612054348 0 2
36.69574737548828 11.379257202148438 -1.7435637712478638 0.04469811171293259 0 2
36.798065185546875 11.049941062927246 -1.743645429611206 0.04469609260559082 0 2
36.8974494934082 10.719667434692383 -1.743725061416626 0.04469405859708786 0 2
36.99385070800781 10.38851547241211 -1.743802785873413 0.04469204694032669 0 2
37.087284088134766 10.056523323059082 -1.7438784837722778 0.04469001665711403 0 2
36.78310012817383 9.620409965515137 -1.7254443168640137 0.04469876363873482 0 2
36.86964797973633 9.290292739868164 -1.7255291938781738 0.04469672217965126 0 2
36.95332336425781 8.959413528442383 -1.7256121635437012 0.04469458758831024 0 2
37.03404235839844 8.62777328491211 -1.7256929874420166 0.044692423194646835 0 2
37.1116828918457 8.295488357543945 -1.7257720232009888 0.044690389186143875 0 2
37.18634033203125 7.96240234375 -1.725848913192749 0.04468832165002823 0 2
37.25791549682617 7.628632545471191 -1.725924015045166 0.044686395674943924 0 2
37.326377868652344 7.294198989868164 -1.725996971130371 0.04468461498618126 0 2
37.3919563293457 6.959159851074219 -1.7260677814483643 0.044682689011096954 0 2
37.454429626464844 6.62353515625 -1.7261366844177246 0.0446808896958828 0 2
37.513885498046875 6.287323951721191 -1.7262036800384521 0.044679075479507446 0 2
37.69633865356445 5.970546722412109 -1.732062816619873 0.16175104677677155 0 2
38.79219055175781 5.787675857543945 -1.7799627780914307 0.13411761820316315 0 2
39.95621109008789 5.595195293426514 -1.830991506576538 0.04466846585273743 0 1
40.005897521972656 5.236425876617432 -1.831038475036621 0.04466726630926132 0 1
40.052249908447266 4.877265453338623 -1.8310831785202026 0.04466619715094566 0 1
40.09537124633789 4.517695426940918 -1.8311256170272827 0.044665124267339706 0 1
40.13516616821289 4.157675743103027 -1.8311659097671509 0.0446641705930233 0 1
40.17161560058594 3.79736328125 -1.831203818321228 0.044663336127996445 0 1
40.20494079589844 3.436699151992798 -1.831239938735962 0.04466238617897034 0 1
40.23490524291992 3.075761556625366 -1.8312734365463257 0.04466156288981438 0 1
40.261436462402344 2.714531183242798 -1.8313047885894775 0.044660963118076324 0 1
40.285037994384766 2.353085994720459 -1.8313339948654175 0.04466000944375992 0 1
40.305076599121094 1.9914257526397705 -1.8313610553741455 0.04465940594673157 0 1
40.321861267089844 1.6295897960662842 -1.831385612487793 0.04465882107615471 0 1
40.33529281616211 1.2675976753234863 -1.8314080238342285 0.044658344238996506 0 1
40.34558868408203 0.9055273532867432 -1.8314285278320312 0.04465774446725845 0 1
40.352420806884766 0.5433593392372131 -1.8314462900161743 0.044657379388809204 0 1
40.35598373413086 0.18113280832767487 -1.831462025642395 0.04465703293681145 0 1
40.35631561279297 -0.18111327290534973 -1.8314756155014038 0.0446566641330719 0 1
40.35327911376953 -0.5433593392372131 -1.8314868211746216 0.0446564257144928 0 1
40.34699630737305 -0.9055468440055847 -1.8314958810806274 0.044656191021203995 0 1
40.33744430541992 -1.2676562070846558 -1.8315026760101318 0.04465596005320549 0 1
40.32455825805664 -1.62966787815094 -1.8315072059631348 0.044655829668045044 0 1
40.30830383300781 -1.991542935371399 -1.8315094709396362 0.04465583711862564 0 1
39.01792907714844 -2.279062509536743 -1.7737362384796143 0.06906355917453766 0 2
37.96151351928711 -2.5594334602355957 -1.7266851663589478 0.04465584084391594 0 2
37.936912536621094 -2.900038957595825 -1.726680874824524 0.04465596377849579 0 2
37.90915298461914 -3.2404491901397705 -1.7266745567321777 0.044656191021203995 0 2
37.878334045410156 -3.58056640625 -1.7266662120819092 0.04465643689036369 0 2
26.059852600097656 -2.699589729309082 -1.1889808177947998 0.5326218605041504 0 6
25.85096549987793 -2.912714719772339 -1.180596947669983 0.9944270849227905 0 6
37.76738739013672 -4.599003791809082 -1.7266281843185425 0.044657398015260696 0 2
37.72428512573242 -4.937792778015137 -1.7266114950180054 0.04465775191783905 0 2
37.67795181274414 -5.276132583618164 -1.7265924215316772 0.04465833306312561 0 2
37.628665924072266 -5.61404275894165 -1.7265713214874268 0.04465882107615471 0 2
37.576255798339844 -5.951503753662109 -1.7265480756759644 0.04465942457318306 0 2
37.813236236572266 -6.337460994720459 -1.7399743795394897 0.044660020619630814 0 0
37.38059997558594 -6.610429763793945 -1.7227407693862915 0.17349453270435333 0 3
35.513553619384766 -6.609530925750732 -1.6393572092056274 0.18231835961341858 0 3
33.81886672973633 -6.608730316162109 -1.5638033151626587 0.1911269575357437 0 3
32.273433685302734 -6.60802698135376 -1.495025873184204 0.1999199390411377 0 3
30.857967376708984 -6.607363224029541 -1.4321397542953491 0.20869764685630798 0 3
29.556766510009766 -6.606738090515137 -1.3744491338729858 0.21745778620243073 0 3
28.3561954498291 -6.606171607971191 -1.321325659751892 0.22620077431201935 0 3
27.259950637817383 -6.609277248382568 -1.2729548215866089 0.2373385727405548 0 3
26.57515525817871 -6.696367263793945 -1.2437365055084229 0.9688424468040466 0 3
27.1964054107666 -7.113124847412109 -1.2757481336593628 0.9661188125610352 0 3
27.196786880493164 -7.374667644500732 -1.2788184881210327 0.9637981653213501 0 3
23.445165634155273 -6.583847522735596 -1.1051476001739502 0.2696273922920227 0 3
22.66041374206543 -6.583476543426514 -1.0709009170532227 0.2782503664493561 0 3
21.922773361206055 -6.58312463760376 -1.0387916564941406 0.2868512272834778 0 3
21.22808074951172 -6.58279275894165 -1.008632779121399 0.29542815685272217 0 3
20.57247543334961 -6.582480430603027 -0.9802481532096863 0.30398207902908325 0 3
19.952714920043945 -6.582187175750732 -0.9534966945648193 0.3125113248825073 0 3
19.365854263305664 -6.581894397735596 -0.9282390475273132 0.32101529836654663 0 3
18.809242248535156 -6.581640243530273 -0.9043546915054321 0.32949337363243103 0 3
18.280527114868164 -6.581386566162109 -0.8817374110221863 0.33794456720352173 0 3
17.77754783630371 -6.581151962280273 -0.8602916598320007 0.3463691473007202 0 3
17.298418045043945 -6.580917835235596 -0.8399294018745422 0.3547656536102295 0 3
16.841434478759766 -6.580702781677246 -0.8205755352973938 0.3631332218647003 0 3
16.40497589111328 -6.580488204956055 -0.8021572828292847 0.3714718818664551 0 3
15.987655639648438 -6.580292701721191 -0.7846049070358276 0.3797805607318878 0 3
15.588173866271973 -6.580097675323486 -0.7678695321083069 0.3880585730075836 0 3
15.205341339111328 -6.579921722412109 -0.7518890500068665 0.39630550146102905 0 3
14.838114738464355 -6.579745769500732 -0.7366230487823486 0.4045199155807495 0 3
14.485453605651855 -6.57958984375 -0.7220193147659302 0.4127022922039032 0 3
14.14647388458252 -6.579413890838623 -0.7080366611480713 0.42085158824920654 0 3
13.8738374710083 -6.604726314544678 -0.697356104850769 0.4289664924144745 0 3
13.647172927856445 -6.64773416519165 -0.6889089941978455 0.8983262181282043 0 3
13.357295036315918 -6.655527114868164 -0.6772642135620117 0.8943673372268677 0 3
12.979248046875 -6.613242149353027 -0.661078155040741 0.45310288667678833 0 3
12.851362228393555 -6.694042682647705 -0.6575982570648193 0.6451764106750488 0 3
13.777777671813965 -7.334569931030273 -0.7083448767662048 0.8811421990394592 0 3
13.778017044067383 -7.494179725646973 -0.7117868065834045 0.8768815994262695 0 3
11.885576248168945 -6.603769302368164 -0.6170486211776733 0.484769344329834 0 3
13.778486251831055 -7.818163871765137 -0.7189454436302185 0.8681485056877136 0 3
13.778725624084473 -7.982636451721191 -0.7226676940917969 0.8636769652366638 0 3
13.778974533081055 -8.148847579956055 -0.7264886498451233 0.8591355681419373 0 3
13.779223442077637 -8.316835403442383 -0.7304086089134216 0.8545249700546265 0 3
13.76199722290039 -8.475897789001465 -0.7334988117218018 0.8508688807487488 0 3
13.761919021606445 -8.647187232971191 -0.7376022338867188 0.8461357951164246 0 3
13.761836051940918 -8.820409774780273 -0.7418091893196106 0.841334879398346 0 3
9.587851524353027 -6.267245769500732 -0.5198284983634949 0.546187698841095 0 3
9.402334213256836 -6.267168045043945 -0.5128001570701599 0.5536738038063049 0 3
9.22176742553711 -6.26708984375 -0.5059995651245117 0.5611146688461304 0 3
9.045907974243164 -6.266992092132568 -0.49941757321357727 0.5685105919837952 0 3
8.874541282653809 -6.266913890838623 -0.4930427372455597 0.5758610963821411 0 3
8.70751953125 -6.266835689544678 -0.486867219209671 0.583164393901825 0 3
8.54458999633789 -6.266757488250732 -0.4808851480484009 0.5904210209846497 0 3
8.385604858398438 -6.266679763793945 -0.4750839173793793 0.5976300835609436 0 3
8.230400085449219 -6.2666015625 -0.46945920586586 0.6047908663749695 0 3
8.078808784484863 -6.266542911529541 -0.4640028178691864 0.6119032502174377 0 3
7.930703163146973 -6.266464710235596 -0.4587063491344452 0.6189665794372559 0 3
7.785927772521973 -6.266406059265137 -0.45356810092926025 0.6259791254997253 0 3
7.644326210021973 -6.266327857971191 -0.44857802987098694 0.6329423189163208 0 3
7.505810260772705 -6.266269207000732 -0.443732887506485 0.6398537755012512 0 3
7.37023401260376 -6.266191482543945 -0.4390261769294739 0.6467142701148987 0 3
7.237499713897705 -6.266132831573486 -0.4344511330127716 0.6535223126411438 0 3
7.107509613037109 -6.266074180603027 -0.43000778555870056 0.6602777242660522 0 3
6.980116844177246 -6.266054630279541 -0.42568573355674744 0.6669803857803345 0 3
6.855263710021973 -6.265995979309082 -0.4214840531349182 0.6736285090446472 0 3
6.732831954956055 -6.265937328338623 -0.4173995852470398 0.680222749710083 0 3
6.612753868103027 -6.265878677368164 -0.41342437267303467 0.6867616176605225 0 3
6.494921684265137 -6.265820026397705 -0.40955793857574463 0.6932456493377686 0 3
6.37926721572876 -6.265761375427246 -0.4057959020137787 0.6996736526489258 0 3
9.831669807434082 9.8316011428833 -0.745926022529602 0.7064276933670044 0 3
10.009687423706055 9.831503868103027 -0.7527068853378296 0.7000638842582703 0 3
10.1909761428833 9.831425666809082 -0.759672224521637 0.693644642829895 0 3
10.375673294067383 9.831347465515137 -0.7668313384056091 0.6871693134307861 0 3
10.563896179199219 9.831250190734863 -0.7741869688034058 0.68063884973526 0 3
10.755781173706055 9.831151962280273 -0.7817525863647461 0.6740528345108032 0 3
10.9514741897583 9.831073760986328 -0.7895292639732361 0.6674129962921143 0 3
11.15111255645752 9.83095645904541 -0.7975295782089233 0.6607186794281006 0 3
11.354872703552246 9.830859184265137 -0.8057574033737183 0.6539713740348816 0 3
11.562870979309082 9.830761909484863 -0.8142239451408386 0.6471716165542603 0 3
11.775321960449219 9.830663681030273 -0.8229484558105469 0.6403197646141052 0 3
11.992392539978027 9.830546379089355 -0.8319013714790344 0.6334161162376404 0 3
12.214242935180664 9.830449104309082 -0.8411402106285095 0.6264618635177612 0 3
12.441102981567383 9.830331802368164 -0.8506532907485962 0.6194567680358887 0 3
12.673169136047363 9.83023452758789 -0.8604503273963928 0.6124022006988525 0 3
12.910663604736328 9.830117225646973 -0.870549201965332 0.6052979826927185 0 3
13.153813362121582 9.829999923706055 -0.8809582591056824 0.5981451869010925 0 3
13.40286636352539 9.829882621765137 -0.8916947841644287 0.590944230556488 0 3
13.658109664916992 9.829765319824219 -0.9027693271636963 0.5836952328681946 0 3
13.919755935668945 9.829628944396973 -0.9141952991485596 0.576400101184845 0 3
14.188163757324219 9.829511642456055 -0.925993025302887 0.5690575838088989 0 3
14.463607788085938 9.829374313354492 -0.9381717443466187 0.5616693496704102 0 3
14.746391296386719 9.829237937927246 -0.9507618546485901 0.5542365312576294 0 3
15.036913871765137 9.8291015625 -0.963752806186676 0.5467584729194641 0 3
15.3088960647583 9.81191349029541 -0.9755048751831055 0.9597153663635254 0 3
15.6015625 9.803027153015137 -0.9885215759277344 0.5316709876060486 0 3
15.916718482971191 9.80289077758789 -1.0028598308563232 0.5240621566772461 0 3
16.241161346435547 9.802734375 -1.0177134275436401 0.5164117813110352 0 3
16.54952049255371 9.78726577758789 -1.0314946174621582 0.8592990040779114 0 3
16.964384078979492 9.8281831741333 -1.0518008470535278 0.5009869933128357 0 3
17.320669174194336 9.82802677154541 -1.0683910846710205 0.4932136535644531 0 3
17.688457489013672 9.827871322631836 -1.0855967998504639 0.48539999127388 0 3
18.06827163696289 9.827675819396973 -1.1034387350082397 0.4775472581386566 0 3
18.460790634155273 9.827499389648438 -1.1219805479049683 0.46965667605400085 0 3
18.86674690246582 9.82730484008789 -1.1412417888641357 0.46172821521759033 0 3
19.28695297241211 9.827109336853027 -1.1612765789031982 0.4537622630596161 0 3
19.722187042236328 9.826894760131836 -1.1821250915527344 0.44575998187065125 0 3
20.173383712768555 9.826679229736328 -1.2038339376449585 0.43772175908088684 0 3
20.641504287719727 9.826464653015137 -1.2264549732208252 0.4296480715274811 0 3
21.127601623535156 9.826210975646973 -1.250045895576477 0.4215390682220459 0 3
21.632787704467773 9.825976371765137 -1.2746578454971313 0.41339707374572754 0 3
22.158315658569336 9.825722694396973 -1.3003849983215332 0.40522173047065735 0 3
22.70552635192871 9.825468063354492 -1.3272688388824463 0.39701390266418457 0 3
23.27593231201172 9.8251953125 -1.3554024696350098 0.38877347111701965 0 3
23.871034622192383 9.824902534484863 -1.3848628997802734 0.3805024027824402 0 3
24.49264144897461 9.82460880279541 -1.4157540798187256 0.37220048904418945 0 3
25.00188446044922 9.769277572631836 -1.4400887489318848 0.8869280219078064 0 3
25.75554084777832 9.798202514648438 -1.4783473014831543 0.35550692677497864 0 3
26.536664962768555 9.823671340942383 -1.5180583000183105 0.3471171259880066 0 3
30.505233764648438 10.982519149780273 -1.7393728494644165 0.05294503644108772 0 2
30.60389518737793 10.708710670471191 -1.7394498586654663 0.05294277146458626 0 2
30.70015525817871 10.434062004089355 -1.7395254373550415 0.05294039845466614 0 2
30.7938175201416 10.158495903015137 -1.7395991086959839 0.05293826386332512 0 2
30.557132720947266 9.777148246765137 -1.7212023735046387 0.052948929369449615 0 2
30.645170211791992 9.502948760986328 -1.7212836742401123 0.05294632166624069 0 2
30.73069190979004 9.227949142456055 -1.7213635444641113 0.052943795919418335 0 2
30.8135986328125 8.952109336853027 -1.721441626548767 0.05294155701994896 0 2
30.894115447998047 8.675585746765137 -1.7215180397033691 0.05293912813067436 0 2
30.97205924987793 8.398359298706055 -1.7215927839279175 0.05293688923120499 0 2
31.04744529724121 8.120370864868164 -1.721665859222412 0.05293475091457367 0 2
31.120418548583984 7.841699123382568 -1.7217375040054321 0.05293247103691101 0 2
31.190818786621094 7.562343597412109 -1.7218073606491089 0.0529303178191185 0 2
31.25864601135254 7.282362937927246 -1.721875548362732 0.05292828008532524 0 2
31.32402229309082 7.001777172088623 -1.7219420671463013 0.052926141768693924 0 2
31.38680648803711 6.720585823059082 -1.7220067977905273 0.05292411148548126 0 2
31.447021484375 6.438827991485596 -1.7220699787139893 0.052922170609235764 0 2
31.50461769104004 6.156503677368164 -1.7221312522888184 0.052920375019311905 0 2
31.559677124023438 5.873691082000732 -1.7221870422363281 0.05291074886918068 0 2
32.66448211669922 5.776445388793945 -1.779573917388916 0.17564889788627625 0 2
33.58056640625 5.628085613250732 -1.826658844947815 0.05290800705552101 0 1
33.630550384521484 5.326581954956055 -1.8267039060592651 0.05290672183036804 0 1
33.677772521972656 5.024609088897705 -1.8267470598220825 0.05290551111102104 0 1
33.72227478027344 4.722226619720459 -1.8267884254455566 0.05290432274341583 0 1
33.76405715942383 4.419453144073486 -1.8268280029296875 0.05290314182639122 0 1
33.80313491821289 4.116308689117432 -1.8268656730651855 0.05290193855762482 0 1
33.83939743041992 3.812812328338623 -1.8269013166427612 0.05290087312459946 0 1
