ply
format ascii 1.0
element vertex 614
property float32 x
property float32 y
property float32 z
property float32 CosAngle
property uint32 ObjIdx
property uint32 ObjTag
end_header
11.384961128234863 -7.011933326721191 5.651833534240723 0.6117275953292847 0 3
11.208768844604492 -7.042949199676514 5.595522880554199 0.6178838014602661 0 3
10.898144721984863 -6.985019207000732 5.471541404724121 0.6241359114646912 0 3
10.734354972839355 -7.016757488250732 5.420706272125244 0.6715457439422607 0 3
10.686933517456055 -7.123476505279541 5.428828716278076 0.6360530257225037 0 3
10.522069931030273 -7.150820255279541 5.377480506896973 0.5415985584259033 0 3
10.196464538574219 -7.064140319824219 5.243258953094482 0.6479082107543945 0 3
10.041972160339355 -7.091347694396973 5.196344375610352 0.6537582874298096 0 3
9.927656173706055 -7.144999980926514 5.170140743255615 0.38993752002716064 0 3
9.86318302154541 -7.23388671875 5.170193195343018 0.3899343013763428 0 3
9.75033187866211 -7.28662109375 5.145124435424805 0.6416938304901123 0 3
9.600448608398438 -7.309804439544678 5.100432395935059 0.6473159790039062 0 3
9.453104972839355 -7.332597255706787 5.056938171386719 0.6528844237327576 0 3
9.308202743530273 -7.354921817779541 5.014513969421387 0.6578686833381653 0 3
9.165801048278809 -7.377030849456787 4.973282814025879 0.6640536785125732 0 3
9.02578067779541 -7.398788928985596 4.933143615722656 0.6694566607475281 0 3
8.888046264648438 -7.420273303985596 4.894064903259277 0.6747964024543762 0 3
8.752480506896973 -7.441425800323486 4.856013298034668 0.6800845265388489 0 3
8.619023323059082 -7.462304592132568 4.818948745727539 0.685314953327179 0 3
8.487597465515137 -7.482851505279541 4.782825946807861 0.6903021931648254 0 3
8.358144760131836 -7.503105163574219 4.747628211975098 0.6954196095466614 0 3
8.230586051940918 -7.523085594177246 4.713342666625977 0.7004784941673279 0 3
8.104863166809082 -7.542831897735596 4.679934024810791 0.7054792642593384 0 3
7.984687328338623 -7.565859317779541 4.649572849273682 0.7662615180015564 0 3
7.866347312927246 -7.588906288146973 4.620143890380859 0.7711418271064758 0 3
7.749472618103027 -7.61160135269165 4.59144401550293 0.7759625315666199 0 3
16.540077209472656 16.540117263793945 9.660731315612793 0.8551583886146545 0 9
16.651893615722656 16.35562515258789 9.639894485473633 0.857006847858429 0 9
16.763280868530273 16.17201042175293 9.619961738586426 0.8587825894355774 0 9
16.713886260986328 15.837186813354492 9.509655952453613 0.5345219373703003 0 9
16.76888656616211 15.606054306030273 9.46086311340332 0.5489927530288696 0 9
17.095233917236328 15.625781059265137 9.565468788146973 0.8636749386787415 0 9
17.20523452758789 15.445136070251465 9.549044609069824 0.8651604056358337 0 9
17.31490135192871 15.265155792236328 9.533479690551758 0.8665730357170105 0 9
17.42427635192871 15.085800170898438 9.51876163482666 0.8679126501083374 0 9
17.533397674560547 14.907050132751465 9.50489616394043 0.8691790699958801 0 9
17.64224624633789 14.72884750366211 9.491867065429688 0.8703719973564148 0 9
17.750917434692383 14.55117130279541 9.479665756225586 0.8714920282363892 0 9
17.859394073486328 14.3740234375 9.468297958374023 0.8725385665893555 0 9
22.509490966796875 17.786073684692383 11.848482131958008 0.8128204345703125 0 9
22.759784698486328 17.654315948486328 11.896320343017578 0.955966055393219 0 9
22.877147674560547 17.418729782104492 11.875459671020508 0.9576451182365417 0 9
22.993671417236328 17.183612823486328 11.855413436889648 0.9592645168304443 0 9
23.109432220458984 16.948984146118164 11.836174011230469 0.9608237147331238 0 9
21.15458869934082 15.225175857543945 10.764522552490234 0.5283480882644653 0 9
20.5811710357666 14.533827781677246 10.40594482421875 0.1887109875679016 0 9
19.744550704956055 13.679081916809082 9.92044448852539 0.6169175505638123 0 9
20.023319244384766 13.607890129089355 9.998756408691406 0.6120856404304504 0 9
20.306875228881836 13.535741806030273 10.079270362854004 0.6071961522102356 0 9
20.59535026550293 13.462577819824219 10.16204833984375 0.6022500395774841 0 9
20.888866424560547 13.388378143310547 10.247175216674805 0.5972471833229065 0 9
17.75761604309082 11.157890319824219 8.661642074584961 0.4992910623550415 0 9
17.89351463317871 11.0205078125 8.679325103759766 0.5744481086730957 0 9
17.373476028442383 10.486289024353027 8.38107681274414 0.3536198139190674 0 9
17.821874618530273 10.539862632751465 8.55140209197998 0.34657663106918335 0 9
18.288066864013672 10.595175743103027 8.729121208190918 0.3395209312438965 0 9
18.453866958618164 10.47109317779541 8.763036727905273 0.5689606070518494 0 9
18.597049713134766 10.332792282104492 8.78662395477295 0.5674333572387695 0 9
18.74150276184082 10.19400405883789 8.811294555664062 0.5658444762229919 0 9
18.88734245300293 10.054667472839355 8.837072372436523 0.5641940236091614 0 9
18.9454288482666 9.868398666381836 8.82244873046875 0.34246739745140076 0 9
18.936914443969727 9.648847579956055 8.777791023254395 0.2426207959651947 0 9
18.9424991607666 9.438495635986328 8.740763664245605 0.44839078187942505 0 9
18.848241806030273 9.181288719177246 8.658900260925293 0.4526299834251404 0 9
18.75470733642578 8.928319931030273 8.578746795654297 0.4568588137626648 0 9
19.793867111206055 9.206034660339355 9.0159273147583 0.5530017018318176 0 9
21.32160186767578 9.684745788574219 9.671798706054688 0.40807563066482544 0 9
22.698612213134766 10.0654296875 10.255036354064941 0.5712071061134338 0 9
19.973886489868164 8.643495559692383 8.988619804382324 0.3044583797454834 0 9
22.631366729736328 9.553241729736328 10.145535469055176 0.6236138343811035 0 9
24.04914093017578 9.898320198059082 10.740862846374512 0.8964722156524658 0 9
24.041250228881836 9.643651962280273 10.6982421875 0.9000442028045654 0 9
24.033065795898438 9.390820503234863 10.656656265258789 0.9035565853118896 0 9
24.02454948425293 9.13980484008789 10.616085052490234 0.9070092439651489 0 9
33.45068359375 11.70492172241211 14.636716842651367 0.8342018723487854 0 9
33.68595504760742 11.448925971984863 14.69410228729248 0.8309440612792969 0 9
33.92220687866211 11.19058609008789 14.752766609191895 0.8276401162147522 0 9
34.159549713134766 10.929902076721191 14.812713623046875 0.82429039478302 0 9
34.397987365722656 10.666776657104492 14.873984336853027 0.8208948373794556 0 9
34.63750076293945 10.401190757751465 14.9365816116333 0.81745445728302 0 9
34.5827522277832 10.04726505279541 14.873476028442383 0.4999084174633026 0 9
34.39949035644531 9.660038948059082 14.756776809692383 0.5038617849349976 0 9
34.420623779296875 9.333476066589355 14.729300498962402 0.3556870222091675 0 9
10.014452934265137 -2.715527296066284 4.285402774810791 0.7076202630996704 0 6
20.90296745300293 -7.314257621765137 9.146333694458008 0.48142582178115845 0 3
20.519140243530273 -7.387362957000732 9.007039070129395 0.46097809076309204 0 3
20.1334171295166 -7.453280925750732 8.866724014282227 0.4682731628417969 0 3
19.761913299560547 -7.518105506896973 8.732490539550781 0.49948400259017944 0 3
15.707929611206055 -6.137793064117432 6.965158462524414 0.48060187697410583 0 3
15.425410270690918 -6.187578201293945 6.864236354827881 0.4877256453037262 0 3
15.3232421875 -6.306855201721191 6.843690872192383 0.4946960508823395 0 3
15.053398132324219 -6.354374885559082 6.748367786407471 0.5016835927963257 0 3
14.62158203125 -6.327343463897705 6.579993724822998 0.5167303681373596 0 3
14.4566011428833 -6.410605430603027 6.531374931335449 0.7668019533157349 0 3
14.30492115020752 -6.497617244720459 6.488935947418213 0.5224016308784485 0 3
14.062362670898438 -6.540331840515137 6.405289173126221 0.5292240977287292 0 3
13.825956344604492 -6.581972599029541 6.324270725250244 0.5360041856765747 0 3
13.423925399780273 -6.539003849029541 6.166959285736084 0.5366478562355042 0 3
13.35367202758789 -6.653730392456055 6.161880970001221 0.5494339466094971 0 3
13.134452819824219 -6.692363262176514 6.088205814361572 0.5560827851295471 0 3
12.920429229736328 -6.730058670043945 6.016750812530518 0.5626864433288574 0 3
12.711366653442383 -6.76687479019165 5.9474310874938965 0.5692448616027832 0 3
12.50699234008789 -6.802870750427246 5.880155086517334 0.5757579207420349 0 3
12.16771411895752 -6.760546684265137 5.748945713043213 0.5898351073265076 0 3
11.975507736206055 -6.795156002044678 5.686715126037598 0.5887616276741028 0 3
11.93570327758789 -6.914902210235596 5.697045803070068 0.59501713514328 0 3
11.748261451721191 -6.947909832000732 5.637129783630371 0.6013412475585938 0 3
11.564706802368164 -6.98025369644165 5.578908443450928 0.6076173782348633 0 3
11.384941101074219 -7.011913776397705 5.522319316864014 0.6138401627540588 0 3
11.208749771118164 -7.042949199676514 5.4673004150390625 0.6200175881385803 0 3
10.898183822631836 -6.985019207000732 5.346184730529785 0.626288115978241 0 3
10.677128791809082 -6.979335784912109 5.26826810836792 0.6326555609703064 0 3
10.513983726501465 -7.008183479309082 5.218591213226318 0.6386781334877014 0 3
10.353730201721191 -7.036425590515137 5.17020320892334 0.6442232728004456 0 3
10.28945255279541 -7.128593444824219 5.169849872589111 0.3823399841785431 0 3
10.206308364868164 -7.207421779632568 5.160374164581299 0.6272951364517212 0 3
10.048261642456055 -7.231835842132568 5.113073825836182 0.6330978870391846 0 3
9.893105506896973 -7.255839824676514 5.067058086395264 0.638847291469574 0 3
9.740741729736328 -7.279433250427246 5.022279739379883 0.6445437073707581 0 3
9.591073989868164 -7.302656173706055 4.97869873046875 0.6501850485801697 0 3
9.443944931030273 -7.325507640838623 4.936277389526367 0.6557731032371521 0 3
9.299277305603027 -7.347909927368164 4.894930362701416 0.6607710123062134 0 3
9.15712833404541 -7.370038986206055 4.854727745056152 0.6669764518737793 0 3
9.017304420471191 -7.391855239868164 4.815585613250732 0.672397792339325 0 3
8.879765510559082 -7.413339614868164 4.777469158172607 0.6777623891830444 0 3
8.744375228881836 -7.434511661529541 4.7403435707092285 0.6830706596374512 0 3
8.611054420471191 -7.455429553985596 4.704184532165527 0.6883156299591064 0 3
8.480897903442383 -7.476933479309082 4.669543743133545 0.7480747103691101 0 3
8.35611343383789 -7.501288890838623 4.637717247009277 0.7532081604003906 0 3
8.2329683303833 -7.525273323059082 4.606677532196045 0.7582831978797913 0 3
8.111425399780273 -7.548925399780273 4.576399326324463 0.7632994651794434 0 3
7.991425514221191 -7.572265625 4.546873092651367 0.7682566046714783 0 3
7.872968673706055 -7.595273494720459 4.518074989318848 0.77315354347229 0 3
7.755956649780273 -7.61794900894165 4.489977836608887 0.7779910564422607 0 3
16.522167205810547 16.522207260131836 9.425497055053711 0.8589717149734497 0 9
16.63392448425293 16.337949752807617 9.405193328857422 0.8608261942863464 0 9
16.18490219116211 15.613984107971191 9.071693420410156 0.477740079164505 0 9
16.57597541809082 15.706503868103027 9.211514472961426 0.47048890590667725 0 9
16.927324295043945 15.7534761428833 9.327792167663574 0.5580189228057861 0 9
17.076932907104492 15.609023094177246 9.332660675048828 0.8675168752670288 0 9
17.186796188354492 15.42861270904541 9.316648483276367 0.8690072894096375 0 9
17.29638671875 15.248847007751465 9.301478385925293 0.8704246282577515 0 9
17.405683517456055 15.069686889648438 9.287138938903809 0.8717687129974365 0 9
17.514707565307617 14.8911714553833 9.27362060546875 0.8730393052101135 0 9
17.62349510192871 14.713183403015137 9.260919570922852 0.874236524105072 0 9
17.73208999633789 14.535722732543945 9.24903392791748 0.8753600716590881 0 9
21.464393615722656 17.275468826293945 11.114476203918457 0.10358305275440216 0 9
22.552616119384766 17.82011604309082 11.5946626663208 0.8140023350715637 0 9
22.844179153442383 17.719785690307617 11.66232967376709 0.8092797994613647 0 9
22.996307373046875 17.50945281982422 11.659276962280273 0.9558950662612915 0 9
23.11326026916504 17.27294921875 11.639487266540527 0.9575198888778687 0 9
23.229413986206055 17.036991119384766 11.620506286621094 0.9590842723846436 0 9
20.84097671508789 14.999452590942383 10.35793685913086 0.1857941895723343 0 9
20.388690948486328 14.397910118103027 10.06850528717041 0.19619864225387573 0 9
19.671600341796875 13.628535270690918 9.653593063354492 0.6212922930717468 0 9
19.948808670043945 13.557226181030273 9.729519844055176 0.6164436936378479 0 9
20.230663299560547 13.484960556030273 9.807572364807129 0.6115380525588989 0 9
20.51742172241211 13.411660194396973 9.887810707092285 0.6065751314163208 0 9
20.38103485107422 13.06289005279541 9.765183448791504 0.9164974093437195 0 9
17.335683822631836 10.892753601074219 8.258875846862793 0.15166111290454865 0 9
20.540233612060547 12.650586128234863 9.731081008911133 0.9197091460227966 0 9
17.59441375732422 10.61962890625 8.28997802734375 0.3503565490245819 0 9
18.024335861206055 10.659608840942383 8.447125434875488 0.5784348249435425 0 9
18.163515090942383 10.5230073928833 8.467738151550293 0.5770270228385925 0 9
18.30386734008789 10.385995864868164 8.489356994628906 0.5755571126937866 0 9
18.44546890258789 10.248574256896973 8.5120267868042 0.5740247964859009 0 9
18.588319778442383 10.11068344116211 8.53572940826416 0.572430431842804 0 9
18.7325382232666 9.972265243530273 8.560501098632812 0.5707743167877197 0 9
18.64470672607422 9.71175765991211 8.480188369750977 0.3491642475128174 0 9
18.867382049560547 9.61343765258789 8.54187297821045 0.2443353533744812 0 9
18.907499313354492 9.42105484008789 8.521392822265625 0.06717997789382935 0 9
19.16777229309082 9.3369140625 8.600587844848633 0.446585476398468 0 9
19.06962776184082 9.078242301940918 8.51964282989502 0.4508284330368042 0 9
19.96285057067871 9.284608840942383 8.881096839904785 0.47721490263938904 0 9
19.47148323059082 8.844374656677246 8.626843452453613 0.3108820915222168 0 9
19.92558479309082 8.835761070251465 8.792548179626465 0.3050231635570526 0 9
22.5126953125 9.742109298706055 9.895162582397461 0.1297871470451355 0 9
24.15886688232422 10.198007583618164 10.578046798706055 0.892066478729248 0 9
24.150760650634766 9.940155982971191 10.535022735595703 0.8957098722457886 0 9
24.142440795898438 9.68423843383789 10.493037223815918 0.8992937207221985 0 9
24.133808135986328 9.430194854736328 10.452075004577637 0.9028180241584778 0 9
24.124881744384766 9.177988052368164 10.412121772766113 0.9062822461128235 0 9
33.69447326660156 11.790234565734863 14.399999618530273 0.8309580087661743 0 9
33.93239974975586 11.532694816589355 14.456871032714844 0.8276891708374023 0 9
34.171443939208984 11.27279281616211 14.515006065368652 0.8243739604949951 0 9
34.41156005859375 11.010526657104492 14.574424743652344 0.8210128545761108 0 9
34.65277099609375 10.745800971984863 14.635149955749512 0.8176062703132629 0 9
34.475975036621094 10.352714538574219 14.52065372467041 0.5018147230148315 0 9
34.29267501831055 9.962987899780273 14.405204772949219 0.5058364868164062 0 9
34.11320114135742 9.579668045043945 14.293118476867676 0.5098031163215637 0 9
33.93748092651367 9.20248031616211 14.18430233001709 0.5137142539024353 0 9
10.014101028442383 -2.7154295444488525 4.185444355010986 0.7100304961204529 0 6
21.319805145263672 -7.245976448059082 9.083273887634277 0.4750731289386749 0 3
20.9341983795166 -7.3251953125 8.946650505065918 0.4823281764984131 0 3
20.57552719116211 -7.407636642456055 8.821422576904297 0.5579936504364014 0 3
20.19331932067871 -7.475449085235596 8.685980796813965 0.4394257068634033 0 3
19.78695297241211 -7.52761697769165 8.539881706237793 0.5005349516868591 0 3
15.70790958404541 -6.13781213760376 6.802924633026123 0.48227939009666443 0 3
15.425410270690918 -6.187578201293945 6.7043609619140625 0.4893697500228882 0 3
15.323203086853027 -6.306816101074219 6.684271812438965 0.49636486172676086 0 3
15.053359031677246 -6.354355335235596 6.591174125671387 0.5033762454986572 0 3
14.622050285339355 -6.327538967132568 6.426946640014648 0.5184550881385803 0 3
14.45644474029541 -6.410546779632568 6.379177093505859 0.7693947553634644 0 3
14.304882049560547 -6.497597694396973 6.3377885818481445 0.5241640210151672 0 3
14.062323570251465 -6.54031229019165 6.256078243255615 0.5310099720954895 0 3
13.825937271118164 -6.581953048706055 6.176949501037598 0.5378122925758362 0 3
13.424335479736328 -6.539218425750732 6.023509502410889 0.5384404063224792 0 3
13.353652000427246 -6.653730392456055 6.018348217010498 0.5512873530387878 0 3
13.134452819824219 -6.692343711853027 5.946387767791748 0.5579590797424316 0 3
12.92041015625 -6.730039119720459 5.876595973968506 0.5645849108695984 0 3
12.71132755279541 -6.76687479019165 5.808892250061035 0.5711653828620911 0 3
12.506972312927246 -6.802870750427246 5.743183612823486 0.5777003765106201 0 3
12.168046951293945 -6.7607421875 5.6151862144470215 0.5918073058128357 0 3
11.975546836853027 -6.795175552368164 5.554288387298584 0.59074467420578 0 3
11.935644149780273 -6.914882659912109 5.564338207244873 0.5970249772071838 0 3
11.748261451721191 -6.947890281677246 5.505823135375977 0.603369951248169 0 3
11.564706802368164 -6.980234146118164 5.448958396911621 0.6096668243408203 0 3
11.130898475646973 -6.855429649353027 5.2733306884765625 0.615904688835144 0 3
10.961640357971191 -6.887656211853027 5.222225666046143 0.7262558341026306 0 3
10.825898170471191 -6.938691139221191 5.187033176422119 0.7243961691856384 0 3
10.726816177368164 -7.011796951293945 5.169498920440674 0.3747117221355438 0 3
10.663535118103027 -7.107871055603027 5.169549942016602 0.3747148811817169 0 3
10.520761489868164 -7.149941444396973 5.131245136260986 0.61823970079422 0 3
10.356874465942383 -7.175273418426514 5.082515239715576 0.6241676807403564 0 3
10.196093559265137 -7.200175762176514 5.035115718841553 0.6300426721572876 0 3
10.038261413574219 -7.224628925323486 4.989011764526367 0.6358652114868164 0 3
9.8833589553833 -7.248671531677246 4.94415283203125 0.6416343450546265 0 3
9.731210708618164 -7.272324085235596 4.900505065917969 0.6473492980003357 0 3
9.581757545471191 -7.295566082000732 4.858023643493652 0.6530104875564575 0 3
9.434882164001465 -7.318456649780273 4.81666898727417 0.6586171388626099 0 3
9.290449142456055 -7.34093713760376 4.7763872146606445 0.6643586754798889 0 3
9.148515701293945 -7.363144397735596 4.73720121383667 0.6698545217514038 0 3
9.008886337280273 -7.384980201721191 4.699042797088623 0.6752935647964478 0 3
8.873574256896973 -7.408222675323486 4.662963390350342 0.734148383140564 0 3
8.74332046508789 -7.433652400970459 4.629386901855469 0.7394729256629944 0 3
8.614882469177246 -7.458710670471191 4.596646785736084 0.7447397708892822 0 3
8.488242149353027 -7.483417987823486 4.564716815948486 0.7499491572380066 0 3
8.363261222839355 -7.507714748382568 4.533576488494873 0.7551000118255615 0 3
8.239960670471191 -7.531699180603027 4.503209114074707 0.7601927518844604 0 3
8.118281364440918 -7.555312156677246 4.473586559295654 0.7652261257171631 0 3
7.99816370010376 -7.57861328125 4.444699764251709 0.770199716091156 0 3
7.879530906677246 -7.601621150970459 4.416522026062012 0.7751137614250183 0 3
7.762362957000732 -7.62429666519165 4.389040470123291 0.7799672484397888 0 3
15.51894474029541 15.518983840942383 8.643463134765625 0.49114328622817993 0 9
15.891074180603027 15.608359336853027 8.7723388671875 0.48392748832702637 0 9
16.27421760559082 15.700175285339355 8.905689239501953 0.47668176889419556 0 9
16.668848037719727 15.794511795043945 9.043707847595215 0.469407320022583 0 9
16.948612213134766 15.773300170898438 9.11829662322998 0.8697311282157898 0 9
16.98404312133789 15.52415943145752 9.062030792236328 0.6541499495506287 0 9
17.168554306030273 15.412226676940918 9.086287498474121 0.872795045375824 0 9
17.278066635131836 15.232675552368164 9.071508407592773 0.8742170929908752 0 9
17.387266159057617 15.053750038146973 9.057538032531738 0.8755654692649841 0 9
17.4962100982666 14.875429153442383 9.044370651245117 0.876840353012085 0 9
17.604883193969727 14.69765567779541 9.031998634338379 0.8780413866043091 0 9
17.713397979736328 14.520390510559082 9.020414352416992 0.8791688084602356 0 9
22.079004287719727 17.770116806030273 11.161890983581543 0.10103116184473038 0 9
22.593828201293945 17.85269546508789 11.340680122375488 0.7127087712287903 0 9
22.887948989868164 17.75373077392578 11.407876014709473 0.8103910088539124 0 9
23.11587905883789 17.600488662719727 11.442282676696777 0.9540798664093018 0 9
23.23324203491211 17.36263656616211 11.422765731811523 0.9557100534439087 0 9
23.349803924560547 17.125272750854492 11.404037475585938 0.9572795629501343 0 9
20.572616577148438 14.806288719177246 9.982345581054688 0.1938404142856598 0 9
23.178163528442383 16.367753982543945 11.174882888793945 0.5626744627952576 0 9
22.281620025634766 15.436777114868164 10.675402641296387 0.5114144086837769 0 9
19.87531280517578 13.507285118103027 9.46403694152832 0.6207602620124817 0 9
20.15556526184082 13.434882164001465 9.53967571258545 0.6158384084701538 0 9
20.305389404296875 13.273046493530273 9.553815841674805 0.9175934791564941 0 9
20.385467529296875 13.065741539001465 9.53592586517334 0.9193146824836731 0 9
19.08234405517578 11.990253448486328 8.875643730163574 0.4432969093322754 0 9
17.368104934692383 10.696894645690918 8.033334732055664 0.3541465401649475 0 9
17.819530487060547 10.75552749633789 8.197149276733398 0.34706911444664 0 9
18.289003372192383 10.816113471984863 8.368106842041016 0.3399786949157715 0 9
18.77765655517578 10.878788948059082 8.54666805267334 0.33287546038627625 0 9
18.157245635986328 10.302812576293945 8.22187328338623 0.5821144580841064 0 9
18.29732322692871 10.166269302368164 8.243639945983887 0.5805771350860596 0 9
18.43865203857422 10.029237747192383 8.266411781311035 0.5789777040481567 0 9
18.473691940307617 9.834491729736328 8.24222183227539 0.3518897294998169 0 9
18.35527229309082 9.560976028442383 8.150776863098145 0.3558373749256134 0 9
18.798847198486328 9.578495979309082 8.309229850769043 0.24603378772735596 0 9
19.017284393310547 9.475761413574219 8.367847442626953 0.5719594955444336 0 9
19.16552734375 9.33583927154541 8.395864486694336 0.5700507164001465 0 9
19.315332412719727 9.19521427154541 8.424986839294434 0.5680803060531616 0 9
19.417949676513672 9.031190872192383 8.434054374694824 0.31147754192352295 0 9
19.873046875 9.026777267456055 8.596184730529785 0.30560302734375 0 9
20.344589233398438 9.021562576293945 8.764768600463867 0.299724817276001 0 9
20.790077209472656 8.996699333190918 8.921545028686523 0.9765673279762268 0 9
20.909120559692383 8.826210975646973 8.93826961517334 0.9747400879859924 0 9
21.028398513793945 8.655038833618164 8.95567512512207 0.9728453159332275 0 9
24.24378776550293 9.724902153015137 10.287480354309082 0.8984822034835815 0 9
24.234745025634766 9.46962833404541 10.247148513793945 0.902018129825592 0 9
24.22538948059082 9.21621036529541 10.207818031311035 0.9054938554763794 0 9
33.94019317626953 11.87621021270752 14.16140365600586 0.8276576995849609 0 9
34.1808967590332 11.617128372192383 14.217740058898926 0.8243781328201294 0 9
34.42265701293945 11.355664253234863 14.27534294128418 0.8210520148277283 0 9
34.5595703125 11.057889938354492 14.290375709533691 0.4994610846042633 0 9
33.50960922241211 10.391308784484863 13.817095756530762 0.32274818420410156 0 9
34.18882751464844 10.266484260559082 14.058595657348633 0.507695198059082 0 9
34.009334564208984 9.880663871765137 13.947750091552734 0.5117302536964417 0 9
33.833534240722656 9.50113296508789 13.840124130249023 0.515709638595581 0 9
35.1359748840332 9.527461051940918 14.337345123291016 0.35077112913131714 0 9
34.45450973510742 9.011484146118164 14.025701522827148 0.3409145474433899 0 9
35.933807373046875 9.054570198059082 14.594221115112305 0.696092963218689 0 9
35.97488021850586 8.722265243530273 14.578497886657715 0.6968436241149902 0 9
36.01640701293945 8.39078140258789 14.564231872558594 0.6975259780883789 0 9
10.013769149780273 -2.7153515815734863 4.086155414581299 0.7123923897743225 0 6
22.161718368530273 -7.090976238250732 9.163869857788086 0.46125367283821106 0 3
21.750585556030273 -7.175273418426514 9.02012825012207 0.4686037302017212 0 3
21.351991653442383 -7.256933212280273 8.881495475769043 0.4759184420108795 0 3
21.000545501708984 -7.34841775894165 8.762402534484863 0.48319706320762634 0 3
20.604101181030273 -7.417929649353027 8.624414443969727 0.43350085616111755 0 3
20.215917587280273 -7.483828067779541 8.489700317382812 0.4957287609577179 0 3
19.797460556030273 -7.531640529632568 8.342020988464355 0.4601617455482483 0 3
15.707929611206055 -6.13781213760376 6.641775131225586 0.4838668406009674 0 3
15.425410270690918 -6.187578201293945 6.545540809631348 0.4909808337688446 0 3
15.323183059692383 -6.306796550750732 6.525911808013916 0.49800020456314087 0 3
15.053319931030273 -6.354335784912109 6.435018062591553 0.5050345659255981 0 3
14.62255859375 -6.32775354385376 6.274912357330322 0.5201442241668701 0 3
14.456308364868164 -6.410468578338623 6.228021621704102 0.7719342708587646 0 3
14.30484390258789 -6.497578144073486 6.18763542175293 0.5258909463882446 0 3
14.062284469604492 -6.540292739868164 6.1078691482543945 0.5327590703964233 0 3
13.82591724395752 -6.581933498382568 6.030611515045166 0.5395838618278503 0 3
13.424745559692383 -6.539413928985596 5.8809967041015625 0.5401963591575623 0 3
13.353612899780273 -6.653730392456055 5.875765800476074 0.5531036853790283 0 3
13.13443374633789 -6.692324161529541 5.805509567260742 0.5597968101501465 0 3
12.92041015625 -6.730019569396973 5.737377166748047 0.5664445161819458 0 3
12.711308479309082 -6.766855239868164 5.671275615692139 0.5730471611022949 0 3
12.506933212280273 -6.80285120010376 5.607120990753174 0.5796031355857849 0 3
12.168417930603027 -6.760937213897705 5.482327938079834 0.5937389135360718 0 3
11.9755859375 -6.79519510269165 5.422724723815918 0.5926879644393921 0 3
11.935625076293945 -6.914882659912109 5.432516574859619 0.5989912748336792 0 3
11.48607349395752 -6.792851448059082 5.255440711975098 0.6053479313850403 0 3
11.32193374633789 -6.833691120147705 5.208198070526123 0.7066798210144043 0 3
11.182870864868164 -6.88748025894165 5.17246675491333 0.7115620374679565 0 3
11.113574028015137 -6.983124732971191 5.169187545776367 0.36706846952438354 0 3
11.020780563354492 -7.063612937927246 5.1553215980529785 0.6027533411979675 0 3
10.847128868103027 -7.090468406677246 5.103652000427246 0.6088554263114929 0 3
10.676953315734863 -7.116796493530273 5.0534281730651855 0.6149068474769592 0 3
10.51009750366211 -7.142656326293945 5.004601955413818 0.6209057569503784 0 3
10.346445083618164 -7.168066024780273 4.957119464874268 0.6268535256385803 0 3
10.185917854309082 -7.193007469177246 4.9109392166137695 0.6327478289604187 0 3
10.028359413146973 -7.217519283294678 4.8660125732421875 0.6385897397994995 0 3
9.873671531677246 -7.241581916809082 4.8223090171813965 0.6443772315979004 0 3
9.721796989440918 -7.265273094177246 4.77977180480957 0.6501115560531616 0 3
9.572538375854492 -7.28857421875 4.738380432128906 0.6557910442352295 0 3
9.425898551940918 -7.311484336853027 4.698084831237793 0.6614155769348145 0 3
9.284276962280273 -7.336073875427246 4.660134315490723 0.7195530533790588 0 3
9.147988319396973 -7.362695217132568 4.624709606170654 0.7250651121139526 0 3
9.013671875 -7.388906002044678 4.590168476104736 0.7305213809013367 0 3
8.881386756896973 -7.414706707000732 4.556491374969482 0.7359201908111572 0 3
8.750937461853027 -7.440116882324219 4.523652076721191 0.7412624955177307 0 3
8.622344017028809 -7.465156078338623 4.491634368896484 0.7465468645095825 0 3
8.495488166809082 -7.489823818206787 4.460406303405762 0.7517731785774231 0 3
8.370390892028809 -7.514121055603027 4.4299540519714355 0.756941020488739 0 3
8.246953010559082 -7.538066387176514 4.400252819061279 0.7620506882667542 0 3
8.125117301940918 -7.561659812927246 4.371285438537598 0.7671002149581909 0 3
8.004823684692383 -7.584941387176514 4.343031406402588 0.7720906734466553 0 3
7.886074066162109 -7.60791015625 4.31547737121582 0.7770205736160278 0 3
7.768788814544678 -7.630585670471191 4.288600921630859 0.7818902134895325 0 3
15.602011680603027 15.602030754089355 8.480232238769531 0.4900989532470703 0 9
15.977421760559082 15.693143844604492 8.607364654541016 0.4828602075576782 0 9
16.363964080810547 15.786738395690918 8.738919258117676 0.47559094429016113 0 9
16.76220703125 15.882967948913574 8.8751220703125 0.4682929813861847 0 9
16.930702209472656 15.756620407104492 8.889077186584473 0.8734496235847473 0 9
16.9835147857666 15.523632049560547 8.843300819396973 0.5644495487213135 0 9
17.150468826293945 15.39599609375 8.857901573181152 0.8765233159065247 0 9
17.259862899780273 15.216659545898438 8.843509674072266 0.8779498338699341 0 9
17.369003295898438 15.037948608398438 8.829903602600098 0.8793027997016907 0 9
17.47787094116211 14.859824180603027 8.817076683044434 0.8805818557739258 0 9
17.586444854736328 14.682246208190918 8.805025100708008 0.8817868828773499 0 9
17.694862365722656 14.505194664001465 8.793750762939453 0.8829178214073181 0 9
22.264198303222656 17.919179916381836 10.9841890335083 0.7204089164733887 0 9
22.590761184692383 17.85025405883789 11.065801620483398 0.7150957584381104 0 9
22.922225952148438 17.780311584472656 11.149538040161133 0.7097252011299133 0 9
23.22816276550293 17.68599510192871 11.220682144165039 0.8066332340240479 0 9
23.353710174560547 17.452674865722656 11.205204010009766 0.953835129737854 0 9
18.0538272857666 13.241093635559082 8.604928016662598 0.8068872094154358 0 9
23.10298728942871 16.627422332763672 10.939897537231445 0.8592325448989868 0 9
23.0986328125 16.311601638793945 10.86807632446289 0.566425621509552 0 9
22.423418045043945 15.535018920898438 10.484345436096191 0.5098134279251099 0 9
19.802831649780273 13.458026885986328 9.202213287353516 0.625034511089325 0 9
20.081464767456055 13.38548755645752 9.275485038757324 0.6200966835021973 0 9
18.974140167236328 12.402851104736328 8.712236404418945 0.4421404004096985 0 9
18.921815872192383 12.127655982971191 8.637892723083496 0.4459457993507385 0 9
18.87109375 11.857539176940918 8.565807342529297 0.4496985077857971 0 9
17.399999618530273 10.716543197631836 7.854074001312256 0.15293678641319275 0 9
18.04896354675293 10.894022941589355 8.102547645568848 0.34375840425491333 0 9
18.52947235107422 10.958319664001465 8.273746490478516 0.3366450369358063 0 9
18.647401809692383 10.803339958190918 8.282780647277832 0.7864112257957458 0 9
18.551992416381836 10.526796340942383 8.198099136352539 0.34636425971984863 0 9
18.42757797241211 10.238652229309082 8.102185249328613 0.35046467185020447 0 9
18.306991577148438 9.957636833190918 8.009540557861328 0.3545183837413788 0 9
18.433340072631836 9.813007354736328 8.02596378326416 0.5838181972503662 0 9
18.47705078125 9.62441349029541 8.00705623626709 0.4810800552368164 0 9
18.71939468383789 9.538026809692383 8.074650764465332 0.5802977085113525 0 9
18.864511489868164 9.399628639221191 8.100512504577637 0.5784448385238647 0 9
19.01105499267578 9.26058578491211 8.12741756439209 0.5765299797058105 0 9
19.360429763793945 9.21669864654541 8.241092681884766 0.3120860159397125 0 9
19.81636619567871 9.216484069824219 8.399602890014648 0.3061961829662323 0 9
20.288768768310547 9.215605735778809 8.564438819885254 0.30030328035354614 0 9
20.274980545043945 8.990702629089355 8.52422046661377 0.6799448728561401 0 9
20.860097885131836 9.026972770690918 8.735799789428711 0.976416826248169 0 9
20.979686737060547 8.8560152053833 8.752227783203125 0.9745837450027466 0 9
21.09945297241211 8.684277534484863 8.769338607788086 0.9726828336715698 0 9
21.21953010559082 8.5117769241333 8.787116050720215 0.9707142114639282 0 9
21.339824676513672 8.338476181030273 8.805587768554688 0.9686781764030457 0 9
33.92802810668945 12.907441139221191 13.951556205749512 0.813231885433197 0 9
34.16708755493164 11.9556245803833 13.9124116897583 0.721631646156311 0 9
34.431365966796875 11.702284812927246 13.97667121887207 0.8210108280181885 0 9
34.45874786376953 11.36757755279541 13.945806503295898 0.5010684132575989 0 9
34.27126693725586 10.965643882751465 13.82955265045166 0.505280613899231 0 9
33.801483154296875 10.48183536529541 13.601458549499512 0.3603808879852295 0 9
33.908260345458984 10.182226181030273 13.607099533081055 0.5135412216186523 0 9
35.037147521972656 10.179277420043945 14.022881507873535 0.8735365867614746 0 9
34.97494125366211 9.821640014648438 13.962129592895508 0.8773371577262878 0 9
35.50124740600586 9.626503944396973 14.137174606323242 0.34827736020088196 0 9
34.803279876708984 9.10269546508789 13.826146125793457 0.3385825455188751 0 9
35.749080657958984 9.008008003234863 14.169180870056152 0.7019385099411011 0 9
35.79011535644531 8.677480697631836 14.154001235961914 0.7026914954185486 0 9
10.013437271118164 -2.7152538299560547 3.9875171184539795 0.714705765247345 0 6
22.621660232543945 -7.014941215515137 9.102789878845215 0.4546108841896057 0 3
22.196073532104492 -7.101972579956055 8.956816673278809 0.46201959252357483 0 3
21.801483154296875 -7.192070007324219 8.823281288146973 0.5558266639709473 0 3
21.415252685546875 -7.278417587280273 8.693058013916016 0.44909781217575073 0 3
21.006366729736328 -7.350429534912109 8.55352783203125 0.4564339816570282 0 3
20.60951042175293 -7.419882774353027 8.418717384338379 0.48942509293556213 0 3
20.216249465942383 -7.483945369720459 8.285192489624023 0.4548202157020569 0 3
19.833965301513672 -7.54552698135376 8.155939102172852 0.4620254933834076 0 3
15.707948684692383 -6.13781213760376 6.481664180755615 0.4854215383529663 0 3
15.425429344177246 -6.187578201293945 6.387756824493408 0.49255815148353577 0 3
15.323124885559082 -6.306796550750732 6.368579387664795 0.49960190057754517 0 3
15.053261756896973 -6.354335784912109 6.279874324798584 0.5066589713096619 0 3
14.623026847839355 -6.327968597412109 6.123834133148193 0.521798312664032 0 3
14.45621109008789 -6.410409927368164 6.0778045654296875 0.7744224071502686 0 3
14.304823875427246 -6.49755859375 6.038456439971924 0.5275822877883911 0 3
14.062284469604492 -6.540292739868164 5.960613250732422 0.5344720482826233 0 3
13.825878143310547 -6.581933498382568 5.8852219581604 0.5413191318511963 0 3
13.425175666809082 -6.539609432220459 5.739405155181885 0.5419154167175293 0 3
13.353593826293945 -6.653691291809082 5.734106540679932 0.554882287979126 0 3
13.134374618530273 -6.692304611206055 5.665548801422119 0.5615969896316528 0 3
12.920351028442383 -6.730019569396973 5.599056720733643 0.5682659149169922 0 3
12.711249351501465 -6.766855239868164 5.534546852111816 0.5748898983001709 0 3
12.506933212280273 -6.802812576293945 5.4719414710998535 0.5814669132232666 0 3
12.168729782104492 -6.761132717132568 5.350320339202881 0.5956300497055054 0 3
11.8564453125 -6.727617263793945 5.239358425140381 0.5944725871086121 0 3
11.697949409484863 -6.777167797088623 5.195984363555908 0.6934863328933716 0 3
11.575780868530273 -6.845917701721191 5.1688151359558105 0.35937973856925964 0 3
11.513983726501465 -6.949609279632568 5.168867111206055 0.3593929409980774 0 3
11.366991996765137 -7.000859260559082 5.130886077880859 0.5929233431816101 0 3
11.186327934265137 -7.028847694396973 5.0775957107543945 0.5991460680961609 0 3
11.009355545043945 -7.056249618530273 5.025816917419434 0.6053190231323242 0 3
10.835956573486328 -7.083183288574219 4.975496292114258 0.611440896987915 0 3
10.6660737991333 -7.109570026397705 4.926586627960205 0.6175112724304199 0 3
10.499472618103027 -7.135468482971191 4.879031658172607 0.6235299706459045 0 3
10.336112976074219 -7.160898208618164 4.832788467407227 0.6294960379600525 0 3
10.1758394241333 -7.185878753662109 4.787814140319824 0.6354096531867981 0 3
10.018534660339355 -7.210429668426514 4.744056224822998 0.6412700414657593 0 3
9.86410140991211 -7.234550476074219 4.701485633850098 0.6470764875411987 0 3
9.713671684265137 -7.259218692779541 4.66065788269043 0.6799823641777039 0 3
9.567733764648438 -7.284902095794678 4.621832847595215 0.685694694519043 0 3
9.424238204956055 -7.310194969177246 4.584018230438232 0.691351056098938 0 3
9.292441368103027 -7.342519283294678 4.551790714263916 0.798221230506897 0 3
9.156073570251465 -7.369218349456787 4.517215251922607 0.7267520427703857 0 3
9.021601676940918 -7.395390510559082 4.483448505401611 0.7322258353233337 0 3
8.889081954956055 -7.42117166519165 4.450526714324951 0.7376425862312317 0 3
8.758515357971191 -7.44656229019165 4.418422222137451 0.7430014610290527 0 3
8.62972640991211 -7.471562385559082 4.387122631072998 0.748302698135376 0 3
8.502734184265137 -7.49621057510376 4.356593132019043 0.7535462975502014 0 3
8.377480506896973 -7.520488262176514 4.326821327209473 0.7587308883666992 0 3
8.253886222839355 -7.544394493103027 4.29779052734375 0.7638564705848694 0 3
8.131914138793945 -7.56798791885376 4.269474983215332 0.7689222693443298 0 3
7.921483993530273 -7.505937099456787 4.194191932678223 0.7541295289993286 0 3
7.802480220794678 -7.527245998382568 4.1667914390563965 0.7590880393981934 0 3
7.710957050323486 -7.573808193206787 4.154067516326904 0.542062520980835 0 3
15.685370445251465 15.685409545898438 8.316295623779297 0.48902153968811035 0 9
16.0640811920166 15.778300285339355 8.44164752960205 0.4817602038383484 0 9
16.4541015625 15.873729705810547 8.571383476257324 0.47446805238723755 0 9
16.802616119384766 15.921249389648438 8.678128242492676 0.8754564523696899 0 9
16.91291046142578 15.740097045898438 8.661784172058105 0.8771086931228638 0 9
17.022871017456055 15.559648513793945 8.646220207214355 0.8786872625350952 0 9
17.103008270263672 15.353378295898438 8.61657428741455 0.6590678095817566 0 9
17.24183464050293 15.200761795043945 8.61742877960205 0.8816230893135071 0 9
17.35087776184082 15.022265434265137 8.6041841506958 0.8829801678657532 0 9
17.45964813232422 14.844355583190918 8.591702461242676 0.8842631578445435 0 9
17.56816291809082 14.6669921875 8.57996654510498 0.8854719996452332 0 9
17.676483154296875 14.49013614654541 8.568991661071777 0.8866065144538879 0 9
22.26120948791504 17.916776657104492 10.713128089904785 0.7227645516395569 0 9
22.58771514892578 17.847850799560547 10.792719841003418 0.7174345850944519 0 9
22.91910171508789 17.777910232543945 10.874382972717285 0.7120471596717834 0 9
23.255605697631836 17.70687484741211 10.9581880569458 0.7066016793251038 0 9
23.2930850982666 17.40738296508789 10.901786804199219 0.5525410175323486 0 9
18.04472541809082 13.234414100646973 8.389473915100098 0.8098258376121521 0 9
18.075605392456055 13.009199142456055 8.349215507507324 0.8137303590774536 0 9
18.10626983642578 12.7861328125 8.310019493103027 0.817568302154541 0 9
22.713769912719727 15.73617172241211 10.359426498413086 0.8830901384353638 0 9
18.868749618530273 12.823222160339355 8.552931785583496 0.4406983256340027 0 9
18.815683364868164 12.541776657104492 8.477507591247559 0.4446188509464264 0 9
18.764219284057617 12.265644073486328 8.404370307922363 0.44848817586898804 0 9
18.714277267456055 11.99462890625 8.333449363708496 0.4523051083087921 0 9
18.66584014892578 11.7285737991333 8.264657974243164 0.4560698866844177 0 9
17.810487747192383 10.969355583190918 7.842031478881836 0.34754613041877747 0 9
17.90169906616211 10.805116653442383 7.839163780212402 0.14993499219417572 0 9
18.46224594116211 10.918574333190918 8.041391372680664 0.7926124930381775 0 9
18.386425018310547 10.652148246765137 7.966398239135742 0.34877899289131165 0 9
18.263534545898438 10.363104820251465 7.872528553009033 0.35293805599212646 0 9
18.40363311767578 10.225332260131836 7.893029689788818 0.4775431156158447 0 9
18.364295959472656 9.988788604736328 7.837393760681152 0.4809335470199585 0 9
18.92953109741211 10.077128410339355 8.039685249328613 0.582931637763977 0 9
18.473339080810547 9.622480392456055 7.808942794799805 0.5092905759811401 0 9
18.57162094116211 9.462714195251465 7.814264297485352 0.5867494344711304 0 9
18.715078353881836 9.3251953125 7.8391008377075195 0.584890604019165 0 9
19.038026809692383 9.273730278015137 7.939178943634033 0.5903112888336182 0 9
19.062597274780273 9.074902534484863 7.9151458740234375 0.5921039581298828 0 9
19.086210250854492 8.876893997192383 7.891534328460693 0.5938750505447388 0 9
19.108808517456055 8.679648399353027 7.868347644805908 0.5956248641014099 0 9
19.130428314208984 8.483163833618164 7.845583915710449 0.5973535180091858 0 9
20.930156707763672 9.057304382324219 8.5499849319458 0.9761998653411865 0 9
21.05029296875 8.8858003616333 8.566122055053711 0.9743610620498657 0 9
21.170623779296875 8.713554382324219 8.582916259765625 0.9724541306495667 0 9
21.29119110107422 8.540507316589355 8.600380897521973 0.970479428768158 0 9
21.412050247192383 8.366679191589355 8.618515968322754 0.9684369564056396 0 9
34.100624084472656 12.973124504089355 13.6783447265625 0.811651885509491 0 9
35.44365310668945 12.760507583618164 14.122882843017578 0.9334487915039062 0 9
34.09773254394531 11.931366920471191 13.543370246887207 0.7253665924072266 0 9
34.412654876708984 11.695918083190918 13.626201629638672 0.7209568619728088 0 9
34.73173904418945 11.457655906677246 13.711261749267578 0.7164843678474426 0 9
33.98957061767578 10.875507354736328 13.3792085647583 0.5110656023025513 0 9
33.80992126464844 10.4844331741333 13.270901679992676 0.5152363777160645 0 9
34.03689193725586 10.22085952758789 13.323452949523926 0.32064583897590637 0 9
34.94548797607422 10.152636528015137 13.642888069152832 0.31313827633857727 0 9
35.140625 9.868183135986328 13.683942794799805 0.875937819480896 0 9
35.07741928100586 9.511581420898438 13.625527381896973 0.8796927332878113 0 9
35.014198303222656 9.157851219177246 13.568499565124512 0.883390486240387 0 9
35.56740188598633 8.96224594116211 13.75113582611084 0.7077362537384033 0 9
35.60841751098633 8.633437156677246 13.736477851867676 0.7084913849830627 0 9
10.01308536529541 -2.715136766433716 3.889507293701172 0.7169708013534546 0 6
23.55351448059082 -6.842929363250732 9.195402145385742 0.41323935985565186 0 3
23.098026275634766 -6.93603515625 9.041531562805176 0.4478561282157898 0 3
22.657148361206055 -7.025918006896973 8.893269538879395 0.455322265625 0 3
22.267635345458984 -7.124863147735596 8.765144348144531 0.46275386214256287 0 3
21.837675094604492 -7.203984260559082 8.620993614196777 0.4431213140487671 0 3
21.41517448425293 -7.278378963470459 8.479656219482422 0.45050716400146484 0 3
21.00033187866211 -7.348320007324219 8.341180801391602 0.4421204924583435 0 3
20.59322166442871 -7.414003849029541 8.205580711364746 0.44936603307724 0 3
20.199121475219727 -7.477597713470459 8.074968338012695 0.45663344860076904 0 3
19.817420959472656 -7.539237976074219 7.949102401733398 0.46386122703552246 0 3
15.707948684692383 -6.137793064117432 6.32257080078125 0.4869430959224701 0 3
15.425410270690918 -6.187597751617432 6.230957984924316 0.4941025674343109 0 3
15.32308578491211 -6.306796550750732 6.212240695953369 0.5011692047119141 0 3
15.053241729736328 -6.354316234588623 6.125715732574463 0.5082483887672424 0 3
14.623515129089355 -6.328183650970459 5.973728656768799 0.5234168767929077 0 3
14.4560546875 -6.410370826721191 5.928576946258545 0.7768568992614746 0 3
14.304784774780273 -6.497539043426514 5.890226364135742 0.5292371511459351 0 3
14.06224536895752 -6.540273189544678 5.814291954040527 0.5361490249633789 0 3
13.825859069824219 -6.581913948059082 5.74074649810791 0.5430174469947815 0 3
13.425429344177246 -6.539745807647705 5.598631381988525 0.5499745011329651 0 3
13.353554725646973 -6.653691291809082 5.5933451652526855 0.5566233396530151 0 3
13.134355545043945 -6.692304611206055 5.526467323303223 0.5633590221405029 0 3
12.920331954956055 -6.72998046875 5.461610794067383 0.5700489282608032 0 3
12.711249351501465 -6.766816139221191 5.398684024810791 0.5766931176185608 0 3
12.304316520690918 -6.692636489868164 5.251162052154541 0.5832910537719727 0 3
12.089882850646973 -6.71728515625 5.185161113739014 0.4568234086036682 0 3
11.990370750427246 -6.803593635559082 5.168483257293701 0.3516964614391327 0 3
11.919238090515137 -6.905370712280273 5.164318084716797 0.5773402452468872 0 3
11.727069854736328 -6.935390472412109 5.107834339141846 0.5837244391441345 0 3
11.5391206741333 -6.964765548706055 5.0529961585998535 0.5900593400001526 0 3
11.355058670043945 -6.993495941162109 4.99967622756958 0.5954087376594543 0 3
11.17464828491211 -7.021523475646973 4.947798252105713 0.6016514897346497 0 3
10.998026847839355 -7.048984050750732 4.897400379180908 0.6078429222106934 0 3
10.824921607971191 -7.075917720794678 4.848416805267334 0.613984227180481 0 3
10.655292510986328 -7.102382659912109 4.800802707672119 0.6200738549232483 0 3
10.488984107971191 -7.128320217132568 4.754507541656494 0.6261115074157715 0 3
10.325879096984863 -7.153789043426514 4.709488868713379 0.6320963501930237 0 3
10.16666030883789 -7.179394245147705 4.666074752807617 0.6645984649658203 0 3
10.013007164001465 -7.206445217132568 4.62506103515625 0.6704915761947632 0 3
9.862030982971191 -7.233046531677246 4.5851335525512695 0.6763308048248291 0 3
9.713613510131836 -7.259199142456055 4.546247959136963 0.6821157932281494 0 3
9.567733764648438 -7.284902095794678 4.508376598358154 0.6878454685211182 0 3
9.42421817779541 -7.310155868530273 4.471490383148193 0.6935195922851562 0 3
9.299277305603027 -7.347870826721191 4.443319797515869 0.8001368641853333 0 3
9.164140701293945 -7.375683307647705 4.410211086273193 0.7283896207809448 0 3
9.029492378234863 -7.401835918426514 4.3772149085998535 0.7338804006576538 0 3
8.896796226501465 -7.427617073059082 4.345043659210205 0.7393143177032471 0 3
8.76601505279541 -7.452968597412109 4.313675880432129 0.7446902990341187 0 3
8.63710880279541 -7.477949142456055 4.283089637756348 0.7500079870223999 0 3
8.509941101074219 -7.50255823135376 4.253261089324951 0.7552679777145386 0 3
8.289355278015137 -7.441347599029541 4.176212787628174 0.7411013841629028 0 3
8.165410041809082 -7.463534832000732 4.147364616394043 0.7462568283081055 0 3
8.043183326721191 -7.485410213470459 4.119237422943115 0.7513520121574402 0 3
7.922577857971191 -7.506991863250732 4.091818332672119 0.7563873529434204 0 3
7.803183555603027 -7.527929306030273 4.064883232116699 0.7528771162033081 0 3
7.710859298706055 -7.573671817779541 4.052048206329346 0.543769121170044 0 3
15.769160270690918 15.769198417663574 8.151623725891113 0.4879104197025299 0 9
16.15121078491211 15.863847732543945 8.275164604187012 0.4806261360645294 0 9
16.54474639892578 15.961132049560547 8.403035163879395 0.4733125567436218 0 9
16.785058975219727 15.904608726501465 8.452265739440918 0.8790508508682251 0 9
16.895292282104492 15.723671913146973 8.436359405517578 0.8807082176208496 0 9
17.00519561767578 15.54345703125 8.421218872070312 0.8822916746139526 0 9
17.03744125366211 15.294511795043945 8.368868827819824 0.5707753300666809 0 9
17.22396469116211 15.184980392456055 8.393208503723145 0.8852365016937256 0 9
17.332910537719727 15.006718635559082 8.380318641662598 0.886597752571106 0 9
17.441600799560547 14.82900333404541 8.368171691894531 0.8878845572471619 0 9
17.550039291381836 14.651835441589355 8.356754302978516 0.8890971541404724 0 9
22.143905639648438 18.152265548706055 10.466196060180664 0.8275589942932129 0 9
22.25826072692871 17.91437530517578 10.44382381439209 0.7250704169273376 0 9
22.584686279296875 17.845468521118164 10.52139949798584 0.7197244763374329 0 9
22.916034698486328 17.775487899780273 10.600997924804688 0.7143202424049377 0 9
23.25242042541504 17.704452514648438 10.682682991027832 0.7088584899902344 0 9
18.004453659057617 13.455078125 8.21583080291748 0.8087255358695984 0 9
18.035663604736328 13.22777271270752 8.175561904907227 0.8127090930938721 0 9
18.066600799560547 13.002695083618164 8.136351585388184 0.816625714302063 0 9
18.0972843170166 12.77978515625 8.098172187805176 0.8204755783081055 0 9
18.127676010131836 12.55892562866211 8.061009407043457 0.8242579102516174 0 9
18.15787124633789 12.340097427368164 8.0248441696167 0.8279727101325989 0 9
18.18779182434082 12.123222351074219 7.989655494689941 0.831619143486023 0 9
