ply
format ascii 1.0
element vertex 593
property float32 x
property float32 y
property float32 z
property float32 CosAngle
property uint32 ObjIdx
property uint32 ObjTag
end_header
23.82876968383789 -1.82156240940094 -1.875877022743225 0.0752638727426529 0 1
23.810741424560547 -2.035331964492798 -1.875824213027954 0.07526615262031555 0 1
23.790800094604492 -2.2488865852355957 -1.8757656812667847 0.07526843249797821 0 1
23.76884651184082 -2.4622459411621094 -1.8757010698318481 0.07527101039886475 0 1
23.744882583618164 -2.675429582595825 -1.875630259513855 0.07527389377355576 0 1
23.718984603881836 -2.888300657272339 -1.8755537271499634 0.07527686655521393 0 1
23.69105339050293 -3.1009764671325684 -1.8754711151123047 0.07528021186590195 0 1
23.66111183166504 -3.3133201599121094 -1.8753825426101685 0.07528384029865265 0 1
23.62921905517578 -3.525390625 -1.8752878904342651 0.07528767734766006 0 1
23.59537124633789 -3.7371678352355957 -1.875187635421753 0.07529163360595703 0 1
23.559492111206055 -3.948554515838623 -1.875081181526184 0.07529601454734802 0 1
23.521757125854492 -4.159609317779541 -1.8749688863754272 0.07530040293931961 0 1
23.481990814208984 -4.370331764221191 -1.8748507499694824 0.07530517876148224 0 1
23.44023323059082 -4.580605506896973 -1.8747265338897705 0.07531017065048218 0 1
23.396522521972656 -4.790468692779541 -1.874596357345581 0.07531551271677017 0 1
23.350936889648438 -4.999921798706055 -1.8744606971740723 0.07532084733247757 0 1
23.30335807800293 -5.208925724029541 -1.8743189573287964 0.07532655447721481 0 1
23.253787994384766 -5.417460918426514 -1.874171257019043 0.07533259689807892 0 1
23.202383041381836 -5.625527381896973 -1.8740180730819702 0.07533854246139526 0 1
23.148983001708984 -5.833046913146973 -1.8738588094711304 0.07534503936767578 0 1
23.093671798706055 -6.040078163146973 -1.873693823814392 0.07535161077976227 0 1
23.03644561767578 -6.246542930603027 -1.8735228776931763 0.07535851001739502 0 1
22.977264404296875 -6.452460765838623 -1.8733463287353516 0.07536564767360687 0 1
22.916210174560547 -6.657812118530273 -1.873164176940918 0.07537289708852768 0 1
22.85320281982422 -6.862499713897705 -1.8729760646820068 0.07538054138422012 0 1
8.784687042236328 -2.72412109375 -0.7219401597976685 0.9522508382797241 1045 6
22.721561431884766 -7.270116806030273 -1.8725827932357788 0.07539631426334381 0 1
22.652910232543945 -7.472949028015137 -1.8723777532577515 0.07540460675954819 0 1
22.582382202148438 -7.675117015838623 -1.8721669912338257 0.07541312277317047 0 1
22.509979248046875 -7.876601219177246 -1.871950626373291 0.07542174309492111 0 1
22.43572235107422 -8.077363014221191 -1.8717284202575684 0.07543077319860458 0 1
22.359569549560547 -8.2774019241333 -1.871500849723816 0.0754399523139 0 1
22.28156280517578 -8.476698875427246 -1.8712676763534546 0.07544945180416107 0 1
8.726797103881836 -3.4099607467651367 -0.7354376316070557 0.9713484644889832 0 6
22.120098114013672 -8.873007774353027 -1.8707847595214844 0.07546894997358322 0 1
22.036659240722656 -9.070019721984863 -1.870534896850586 0.0754789412021637 0 1
21.951366424560547 -9.2661714553833 -1.8702799081802368 0.07548917829990387 0 1
21.864276885986328 -9.461503982543945 -1.8700191974639893 0.07549971342086792 0 1
21.77535057067871 -9.656015396118164 -1.869753122329712 0.07551057636737823 0 1
21.684648513793945 -9.849628448486328 -1.8694815635681152 0.07552148401737213 0 1
21.592166900634766 -10.04238224029541 -1.8692048788070679 0.07553267478942871 0 1
21.497968673706055 -10.234257698059082 -1.8689227104187012 0.07554394006729126 0 1
13.156932830810547 -6.40896463394165 -1.1487526893615723 0.9819964170455933 0 20
13.105663299560547 -6.530195236206055 -1.1493494510650635 0.8922584056854248 0 20
21.204608917236328 -10.804277420043945 -1.868044376373291 0.07557953894138336 0 1
21.103378295898438 -10.992402076721191 -1.8677412271499634 0.07559171319007874 0 1
21.000410079956055 -11.179550170898438 -1.8674328327178955 0.07560421526432037 0 1
20.8956241607666 -11.365663528442383 -1.8671190738677979 0.07561706006526947 0 1
20.789257049560547 -11.550800323486328 -1.866800308227539 0.07562991976737976 0 1
20.68115234375 -11.734882354736328 -1.8664765357971191 0.07564306259155273 0 1
20.571346282958984 -11.917948722839355 -1.866147518157959 0.07565639168024063 0 1
20.459882736206055 -12.099960327148438 -1.8658136129379272 0.07566994428634644 0 1
20.346717834472656 -12.280858993530273 -1.8654744625091553 0.07568375021219254 0 1
20.231990814208984 -12.460702896118164 -1.8651305437088013 0.07569761574268341 0 1
20.11554718017578 -12.639452934265137 -1.8647816181182861 0.07571180909872055 0 1
19.997461318969727 -12.817030906677246 -1.8644278049468994 0.07572631537914276 0 1
19.877792358398438 -12.993535041809082 -1.8640692234039307 0.07574080675840378 0 1
19.75652313232422 -13.168867111206055 -1.8637055158615112 0.07575557380914688 0 1
19.633670806884766 -13.343046188354492 -1.8633373975753784 0.07577050477266312 0 1
19.509218215942383 -13.516035079956055 -1.862964153289795 0.07578559964895248 0 1
19.38314437866211 -13.687811851501465 -1.8625863790512085 0.07580108195543289 0 1
19.255565643310547 -13.858378410339355 -1.86220383644104 0.07581659406423569 0 1
19.12642478942871 -14.02773380279541 -1.8618165254592896 0.07583235949277878 0 1
18.99578094482422 -14.195898056030273 -1.8614248037338257 0.07584825158119202 0 1
18.863554000854492 -14.362733840942383 -1.8610281944274902 0.07586454600095749 0 1
18.729843139648438 -14.528339385986328 -1.8606274127960205 0.07588081806898117 0 1
17.532148361206055 -13.85318374633789 -1.7539315223693848 0.07589747756719589 0 2
17.403242111206055 -14.006855010986328 -1.7535419464111328 0.07588154822587967 0 2
17.27290916442871 -14.159296989440918 -1.7531455755233765 0.0758986845612526 0 2
17.141210556030273 -14.310507774353027 -1.7527450323104858 0.07591603696346283 0 2
17.00814437866211 -14.46044921875 -1.752340316772461 0.07593350112438202 0 2
16.873748779296875 -14.60912036895752 -1.7519314289093018 0.07595119625329971 0 2
16.73796844482422 -14.756503105163574 -1.7515184879302979 0.07596907764673233 0 2
16.600858688354492 -14.902616500854492 -1.7511013746261597 0.07598724216222763 0 2
16.462499618530273 -15.047402381896973 -1.7506804466247559 0.07600542902946472 0 2
16.32275390625 -15.190839767456055 -1.7502553462982178 0.07602404057979584 0 2
16.181835174560547 -15.3330078125 -1.749826431274414 0.07604257017374039 0 2
16.039609909057617 -15.473827362060547 -1.7493939399719238 0.07606127113103867 0 2
15.896093368530273 -15.613242149353027 -1.7489571571350098 0.0760803148150444 0 2
9.840937614440918 9.840995788574219 -1.2079616785049438 0.7035524249076843 0 4
10.019492149353027 9.84121036529541 -1.218983769416809 0.6971915364265442 0 4
10.20132827758789 9.84146499633789 -1.230307936668396 0.6907746195793152 0 4
10.386523246765137 9.841737747192383 -1.2419430017471313 0.6843024492263794 0 4
10.57535171508789 9.841992378234863 -1.2539047002792358 0.677774965763092 0 4
10.767812728881836 9.842246055603027 -1.2662006616592407 0.6711929440498352 0 4
10.964139938354492 9.842519760131836 -1.2788467407226562 0.6645568609237671 0 4
11.164433479309082 9.842792510986328 -1.2918505668640137 0.657866895198822 0 4
11.368866920471191 9.84310531616211 -1.3052279949188232 0.6511238813400269 0 4
11.577577590942383 9.843379020690918 -1.318994402885437 0.6443288326263428 0 4
11.790781021118164 9.843632698059082 -1.3331600427627563 0.6374817490577698 0 4
12.008612632751465 9.843925476074219 -1.3477447032928467 0.630582869052887 0 4
12.227226257324219 9.840898513793945 -1.3623120784759521 0.6240463852882385 0 4
12.454687118530273 9.841093063354492 -1.3777607679367065 0.6170497536659241 0 4
12.687421798706055 9.841288566589355 -1.393675446510315 0.6100029945373535 0 4
12.92562484741211 9.841444969177246 -1.4100773334503174 0.6029079556465149 0 4
13.169452667236328 9.841679573059082 -1.4269846677780151 0.59576416015625 0 4
13.419257164001465 9.841875076293945 -1.4444193840026855 0.5885718464851379 0 4
13.675272941589355 9.842089653015137 -1.4624072313308716 0.5813324451446533 0 4
13.937772750854492 9.842324256896973 -1.480970025062561 0.5740461349487305 0 4
14.206992149353027 9.842538833618164 -1.500133991241455 0.5667139887809753 0 4
14.479589462280273 9.840272903442383 -1.519530177116394 0.5595600008964539 0 4
14.763163566589355 9.840429306030273 -1.5399541854858398 0.5521384477615356 0 4
15.054452896118164 9.840566635131836 -1.5610637664794922 0.5446727275848389 0 4
15.353886604309082 9.840742111206055 -1.5828887224197388 0.5371626615524292 0 4
15.661815643310547 9.840917587280273 -1.6054635047912598 0.5296092629432678 0 4
15.978671073913574 9.841073989868164 -1.6288237571716309 0.5220140218734741 0 4
16.304922103881836 9.841269493103027 -1.6530108451843262 0.514376163482666 0 4
16.64107322692871 9.841425895690918 -1.678064227104187 0.5066964626312256 0 4
17.732187271118164 10.273085594177246 -1.7787389755249023 0.09655503928661346 0 0
17.888769149780273 10.150390625 -1.7852284908294678 0.09620386362075806 0 0
18.107694625854492 10.06087875366211 -1.7979955673217773 0.03452543914318085 0 0
17.756776809692383 9.658339500427246 -1.7544567584991455 0.0838424488902092 0 2
17.845468521118164 9.499979972839355 -1.754724383354187 0.08382970094680786 0 2
17.9327335357666 9.3408203125 -1.7549877166748047 0.08381711691617966 0 2
18.018476486206055 9.180859565734863 -1.7552465200424194 0.08380479365587234 0 2
18.102792739868164 9.0200777053833 -1.7555010318756104 0.08379259705543518 0 2
18.185625076293945 8.8584566116333 -1.7557512521743774 0.08378063887357712 0 2
18.266971588134766 8.696074485778809 -1.755996823310852 0.08376893401145935 0 2
18.346776962280273 8.532949447631836 -1.7562377452850342 0.08375748246908188 0 2
18.42509651184082 8.369062423706055 -1.7564743757247925 0.08374624699354172 0 2
18.50191307067871 8.204413414001465 -1.7567064762115479 0.08373518288135529 0 2
18.577207565307617 8.0390625 -1.7569338083267212 0.08372436463832855 0 2
18.65103530883789 7.872968673706055 -1.7571569681167603 0.08371366560459137 0 2
18.723241806030273 7.706191062927246 -1.7573750019073486 0.08370332419872284 0 2
18.793964385986328 7.538749694824219 -1.7575887441635132 0.08369302749633789 0 2
18.86310577392578 7.370625019073486 -1.7577978372573853 0.08368310332298279 0 2
18.930702209472656 7.201874732971191 -1.7580019235610962 0.08367342501878738 0 2
18.99675750732422 7.032441139221191 -1.7582017183303833 0.08366391062736511 0 2
19.061248779296875 6.86242151260376 -1.7583967447280884 0.08365459740161896 0 2
19.124120712280273 6.691757678985596 -1.7585868835449219 0.08364562690258026 0 2
19.185428619384766 6.520546913146973 -1.7587722539901733 0.0836368128657341 0 2
19.245155334472656 6.34874963760376 -1.7589528560638428 0.08362820744514465 0 2
19.303300857543945 6.176347732543945 -1.7591288089752197 0.08361978828907013 0 2
19.359844207763672 6.003437519073486 -1.7592999935150146 0.0836116224527359 0 2
19.414785385131836 5.829960823059082 -1.7594661712646484 0.08360376954078674 0 2
19.868730545043945 5.772402286529541 -1.7958359718322754 0.2791122496128082 0 2
20.552656173706055 5.771543025970459 -1.8528993129730225 0.27051693201065063 0 2
20.755878448486328 5.628124713897705 -1.8665902614593506 0.08358151465654373 0 1
20.80728530883789 5.442050457000732 -1.8667460680007935 0.08357451856136322 0 1
20.857030868530273 5.255488395690918 -1.866896629333496 0.08356764912605286 0 1
20.90496063232422 5.068476676940918 -1.8670419454574585 0.08356127142906189 0 1
20.951190948486328 4.880995750427246 -1.8671821355819702 0.08355497568845749 0 1
20.995643615722656 4.693085670471191 -1.8673169612884521 0.08354900032281876 0 1
21.03841781616211 4.504765510559082 -1.8674468994140625 0.0835430696606636 0 1
21.07941436767578 4.316015720367432 -1.8675713539123535 0.08353756368160248 0 1
21.11865234375 4.126914024353027 -1.8676905632019043 0.08353223651647568 0 1
21.15609359741211 3.9374217987060547 -1.8678044080734253 0.08352715522050858 0 1
21.191835403442383 3.7475781440734863 -1.867913007736206 0.08352230489253998 0 1
21.225820541381836 3.5574023723602295 -1.8680163621902466 0.0835176631808281 0 1
21.258007049560547 3.366933584213257 -1.8681142330169678 0.08351321518421173 0 1
21.288436889648438 3.1761326789855957 -1.8682070970535278 0.08350910991430283 0 1
21.31705093383789 2.985097646713257 -1.868294358253479 0.08350518345832825 0 1
21.34390640258789 2.7937304973602295 -1.86837637424469 0.08350158482789993 0 1
21.369022369384766 2.6021482944488525 -1.868453025817871 0.08349814265966415 0 1
21.392324447631836 2.410351514816284 -1.8685243129730225 0.08349499106407166 0 1
21.41388702392578 2.2183008193969727 -1.8685903549194336 0.0834919884800911 0 1
21.433612823486328 2.026054620742798 -1.8686509132385254 0.08348926901817322 0 1
21.451581954956055 1.8336522579193115 -1.8687063455581665 0.08348675072193146 0 1
21.467754364013672 1.6410741806030273 -1.8687560558319092 0.08348449319601059 0 1
21.48210906982422 1.448339819908142 -1.8688005208969116 0.08348258584737778 0 1
21.494667053222656 1.2554882764816284 -1.8688395023345947 0.08348093181848526 0 1
21.50550651550293 1.0625195503234863 -1.8688732385635376 0.0834793820977211 0 1
21.51447296142578 0.8694531321525574 -1.8689013719558716 0.08347824215888977 0 1
21.521678924560547 0.6763281226158142 -1.8689243793487549 0.08347711712121964 0 1
21.527090072631836 0.48314452171325684 -1.8689419031143188 0.0834762305021286 0 1
21.530664443969727 0.2898828089237213 -1.868953824043274 0.08347589522600174 0 1
21.532499313354492 0.0966210886836052 -1.8689604997634888 0.0834754928946495 0 1
21.53251838684082 -0.09664062410593033 -1.8689619302749634 0.08347541093826294 0 1
21.530780792236328 -0.2899218797683716 -1.868957757949829 0.0834754928946495 0 1
21.52714729309082 -0.4831640422344208 -1.8689483404159546 0.08347596973180771 0 1
21.521757125854492 -0.6763671636581421 -1.8689333200454712 0.08347668498754501 0 1
21.51460838317871 -0.8695117235183716 -1.868912935256958 0.08347764611244202 0 1
21.505643844604492 -1.0625585317611694 -1.8688873052597046 0.08347877860069275 0 1
21.494882583618164 -1.2555272579193115 -1.8688561916351318 0.08348008990287781 0 1
21.482303619384766 -1.4483789205551147 -1.8688195943832397 0.0834818035364151 0 1
21.467967987060547 -1.6411328315734863 -1.8687777519226074 0.08348370343446732 0 1
21.45183563232422 -1.8336913585662842 -1.8687304258346558 0.08348571509122849 0 1
21.43392562866211 -2.0260937213897705 -1.8686777353286743 0.08348807692527771 0 1
21.414159774780273 -2.2183592319488525 -1.868619680404663 0.08349078893661499 0 1
21.39275360107422 -2.410410165786743 -1.8685564994812012 0.08349340409040451 0 1
21.369413375854492 -2.602187395095825 -1.8684874773025513 0.08349661529064178 0 1
21.34437370300293 -2.7938084602355957 -1.8684134483337402 0.08349981904029846 0 1
21.31753921508789 -2.9851367473602295 -1.8683340549468994 0.0835033431649208 0 1
21.28886604309082 -3.176210880279541 -1.8682490587234497 0.08350732922554016 0 1
21.258514404296875 -3.3670310974121094 -1.8681589365005493 0.08351120352745056 0 1
21.226327896118164 -3.5575194358825684 -1.8680633306503296 0.08351564407348633 0 1
21.192401885986328 -3.747695207595825 -1.8679625988006592 0.08352005481719971 0 1
21.15669822692871 -3.93755841255188 -1.8678563833236694 0.08352483063936234 0 1
21.11927604675293 -4.127031326293945 -1.8677451610565186 0.0835297554731369 0 1
21.08003807067871 -4.316171646118164 -1.8676284551620483 0.08353500813245773 0 1
21.039081573486328 -4.5048828125 -1.867506504058838 0.08354044705629349 0 1
20.99640655517578 -4.693261623382568 -1.8673793077468872 0.08354606479406357 0 1
20.951913833618164 -4.881171703338623 -1.8672466278076172 0.08355206996202469 0 1
20.905742645263672 -5.068671703338623 -1.8671091794967651 0.08355811983346939 0 1
20.857772827148438 -5.255702972412109 -1.8669662475585938 0.08356458693742752 0 1
20.808124542236328 -5.442285060882568 -1.866817831993103 0.08357122540473938 0 1
20.756698608398438 -5.628359317779541 -1.8666645288467407 0.08357816189527512 0 1
20.70357322692871 -5.813945293426514 -1.8665060997009277 0.0835852324962616 0 1
20.648788452148438 -5.999003887176514 -1.8663424253463745 0.0835924819111824 0 1
20.592187881469727 -6.183554649353027 -1.866173505783081 0.08360021561384201 0 1
8.784433364868164 -2.7240428924560547 -0.7982766628265381 0.9516268968582153 1045 6
20.474023818969727 -6.550956726074219 -1.8658205270767212 0.08361596614122391 0 1
20.412382125854492 -6.733808517456055 -1.8656363487243652 0.0836242288351059 0 1
20.349023818969727 -6.916054725646973 -1.8654470443725586 0.08363277465105057 0 1
20.284082412719727 -7.097714900970459 -1.86525297164917 0.08364130556583405 0 1
20.21742057800293 -7.278691291809082 -1.865053653717041 0.08365017920732498 0 1
20.148983001708984 -7.459043025970459 -1.8648492097854614 0.08365953713655472 0 1
20.079023361206055 -7.638769149780273 -1.8646398782730103 0.08366888016462326 0 1
8.726288795471191 -3.409785032272339 -0.813172459602356 0.9707463979721069 0 6
19.934003829956055 -7.99609375 -1.8642061948776245 0.08368834853172302 0 1
19.85904312133789 -8.17372989654541 -1.86398184299469 0.08369835466146469 0 1
19.782440185546875 -8.3506441116333 -1.8637527227401733 0.08370869606733322 0 1
19.70425796508789 -8.526796340942383 -1.8635188341140747 0.08371908217668533 0 1
19.62435531616211 -8.702187538146973 -1.8632797002792358 0.08372998982667923 0 1
19.54292869567871 -8.876815795898438 -1.863035798072815 0.08374086767435074 0 1
19.459842681884766 -9.050663948059082 -1.862787127494812 0.08375218510627747 0 1
13.204608917236328 -6.286152362823486 -1.2693581581115723 0.42905229330062866 0 20
13.175507545471191 -6.417988300323486 -1.2720468044281006 0.9813474416732788 0 20
13.1259765625 -6.540292739868164 -1.27288019657135 0.8916754722595215 0 20
13.189531326293945 -6.720429420471191 -1.2848412990570068 0.8570330142974854 0 20
19.02079963684082 -9.907636642456055 -1.861472725868225 0.08381114900112152 0 1
18.928260803222656 -10.076444625854492 -1.86119544506073 0.08382362872362137 0 1
18.834218978881836 -10.244394302368164 -1.860913634300232 0.0838363841176033 0 1
18.73861312866211 -10.41146469116211 -1.8606274127960205 0.0838492140173912 0 1
17.57632827758789 -9.97314453125 -1.7540395259857178 0.08386248350143433 0 2
17.49056625366211 -10.133105278015137 -1.75448739528656 0.8581622838973999 0 2
17.388885498046875 -10.283769607543945 -1.7534747123718262 0.08385324478149414 0 2
17.293027877807617 -10.437695503234863 -1.753183364868164 0.08386708796024323 0 2
17.195722579956055 -10.590703010559082 -1.7528878450393677 0.08388122916221619 0 2
17.097049713134766 -10.742793083190918 -1.7525877952575684 0.0838954821228981 0 2
16.996992111206055 -10.89394474029541 -1.7522836923599243 0.08391013741493225 0 2
16.895526885986328 -11.04410171508789 -1.751975417137146 0.08392492681741714 0 2
16.792734146118164 -11.193320274353027 -1.7516628503799438 0.08393997699022293 0 2
16.688554763793945 -11.341581344604492 -1.751346230506897 0.0839550569653511 0 2
16.583066940307617 -11.488788604736328 -1.7510255575180054 0.08397047966718674 0 2
16.47620964050293 -11.635038375854492 -1.75070059299469 0.08398602902889252 0 2
16.368026733398438 -11.780214309692383 -1.7503716945648193 0.08400179445743561 0 2
16.258535385131836 -11.924394607543945 -1.750038743019104 0.08401782810688019 0 2
16.14777374267578 -12.06753921508789 -1.7497020959854126 0.08403392136096954 0 2
16.03564453125 -12.209589958190918 -1.749361276626587 0.08405034244060516 0 2
15.922324180603027 -12.350625038146973 -1.7490164041519165 0.08406677097082138 0 2
15.8076171875 -12.490507125854492 -1.7486677169799805 0.08408369868993759 0 2
15.691757202148438 -12.62939453125 -1.7483152151107788 0.08410055935382843 0 2
15.574569702148438 -12.767128944396973 -1.7479588985443115 0.08411777019500732 0 2
15.4561128616333 -12.90371036529541 -1.7475985288619995 0.08413523435592651 0 2
15.3364839553833 -13.03921890258789 -1.74723482131958 0.08415274322032928 0 2
15.21566390991211 -13.173612594604492 -1.746867299079895 0.08417031913995743 0 2
15.093573570251465 -13.30679702758789 -1.7464959621429443 0.084188312292099 0 2
14.970332145690918 -13.43886661529541 -1.7461209297180176 0.08420635014772415 0 2
14.845858573913574 -13.569746017456055 -1.7457423210144043 0.08422461152076721 0 2
14.720233917236328 -13.69945240020752 -1.745360016822815 0.08424307405948639 0 2
14.593476295471191 -13.82796859741211 -1.7449744939804077 0.08426159620285034 0 2
14.465507507324219 -13.955253601074219 -1.7445850372314453 0.0842805728316307 0 2
14.336444854736328 -14.081366539001465 -1.7441924810409546 0.0842994824051857 0 2
9.8408203125 9.8408203125 -1.3236463069915771 0.7030367255210876 0 4
10.019315719604492 9.841073989868164 -1.3357226848602295 0.6966807246208191 0 4
10.201151847839355 9.84130859375 -1.3481324911117554 0.6902685165405273 0 4
10.38638687133789 9.841543197631836 -1.360880732536316 0.6838012337684631 0 4
10.575175285339355 9.841815948486328 -1.373989224433899 0.6772786378860474 0 4
10.767675399780273 9.842050552368164 -1.3874610662460327 0.6707015037536621 0 4
10.963964462280273 9.8423433303833 -1.40131676197052 0.6640701293945312 0 4
11.16421890258789 9.842636108398438 -1.415566086769104 0.6573852300643921 0 4
11.368671417236328 9.842909812927246 -1.4302245378494263 0.6506471037864685 0 4
11.577363014221191 9.843202590942383 -1.4453094005584717 0.6438571214675903 0 4
11.790566444396973 9.843476295471191 -1.4608339071273804 0.6370152831077576 0 4
12.008398056030273 9.84375 -1.4768110513687134 0.6301214098930359 0 4
12.22695255279541 9.840643882751465 -1.4927681684494019 0.6235930919647217 0 4
12.45443344116211 9.840859413146973 -1.509695291519165 0.6166011691093445 0 4
12.687108993530273 9.841054916381836 -1.5271331071853638 0.6095606684684753 0 4
12.925272941589355 9.841249465942383 -1.545106291770935 0.6024702787399292 0 4
13.169120788574219 9.841425895690918 -1.5636314153671265 0.595331609249115 0 4
13.418925285339355 9.841659545898438 -1.5827385187149048 0.5881451964378357 0 4
13.674921989440918 9.841875076293945 -1.602447748184204 0.5809105038642883 0 4
13.937362670898438 9.842069625854492 -1.62278413772583 0.573630690574646 0 4
14.206640243530273 9.842304229736328 -1.6437820196151733 0.5663031339645386 0 4
14.479413986206055 9.84017562866211 -1.665057897567749 0.559147834777832 0 4
14.76292896270752 9.840292930603027 -1.6874346733093262 0.5517323017120361 0 4
15.0542573928833 9.840449333190918 -1.7105674743652344 0.54427170753479 0 4
15.353632926940918 9.840604782104492 -1.7344814538955688 0.5367680788040161 0 4
15.501230239868164 9.740057945251465 -1.7412383556365967 0.20371335744857788 0 0
15.571406364440918 9.59023380279541 -1.7393800020217896 0.199924036860466 0 0
15.636933326721191 9.438124656677246 -1.73717200756073 0.2001781165599823 0 0
15.715742111206055 9.294238090515137 -1.736586570739746 0.16746367514133453 0 0
15.883944511413574 9.202265739440918 -1.7459748983383179 0.166563481092453 0 0
15.995370864868164 9.076054573059082 -1.749164342880249 0.09208222478628159 0 2
16.078495025634766 8.933417320251465 -1.7494152784347534 0.09206907451152802 0 2
16.16033172607422 8.789979934692383 -1.749662160873413 0.0920560210943222 0 2
16.240800857543945 8.645761489868164 -1.7499052286148071 0.09204329550266266 0 2
16.31998062133789 8.500781059265137 -1.7501440048217773 0.09203077107667923 0 2
16.397851943969727 8.355097770690918 -1.7503790855407715 0.09201830625534058 0 2
16.474334716796875 8.208632469177246 -1.7506099939346313 0.09200633317232132 0 2
16.54949188232422 8.061464309692383 -1.7508370876312256 0.09199441224336624 0 2
16.623319625854492 7.913613319396973 -1.751059889793396 0.09198269993066788 0 2
16.695781707763672 7.765058517456055 -1.7512786388397217 0.09197106957435608 0 2
16.766855239868164 7.61583948135376 -1.7514933347702026 0.09195976704359055 0 2
16.8365421295166 7.465898036956787 -1.7517037391662598 0.09194887429475784 0 2
16.904882431030273 7.315351486206055 -1.7519103288650513 0.09193797409534454 0 2
16.97181510925293 7.164159774780273 -1.7521125078201294 0.09192733466625214 0 2
17.037343978881836 7.01232385635376 -1.7523103952407837 0.09191704541444778 0 2
17.101503372192383 6.859882831573486 -1.7525043487548828 0.0919068232178688 0 2
17.164276123046875 6.70681619644165 -1.752694010734558 0.09189684689044952 0 2
17.22554588317871 6.553203105926514 -1.75287926197052 0.09188725054264069 0 2
17.285526275634766 6.398945331573486 -1.7530605792999268 0.09187763184309006 0 2
17.344003677368164 6.244179725646973 -1.7532373666763306 0.0918683335185051 0 2
17.40103530883789 6.088847637176514 -1.7534099817276 0.0918593481183052 0 2
17.456640243530273 5.932968616485596 -1.7535781860351562 0.09185066819190979 0 2
17.53935432434082 5.786015510559082 -1.7565960884094238 0.3108859956264496 0 2
18.04765510559082 5.774589538574219 -1.802239179611206 0.3045322597026825 0 2
18.619647979736328 5.773906230926514 -1.8541117906570435 0.29601261019706726 0 2
18.735214233398438 5.625898361206055 -1.860514760017395 0.09181756526231766 0 1
18.786523818969727 5.457968711853027 -1.8606699705123901 0.09180998802185059 0 1
18.836307525634766 5.289570331573486 -1.8608207702636719 0.09180240333080292 0 1
18.884490966796875 5.120683670043945 -1.8609668016433716 0.09179525822401047 0 1
18.93115234375 4.951347351074219 -1.8611080646514893 0.09178824722766876 0 1
18.976171493530273 4.781581878662109 -1.861244559288025 0.09178163856267929 0 1
19.019725799560547 4.611367225646973 -1.861376404762268 0.09177503734827042 0 1
19.0616397857666 4.440781116485596 -1.8615036010742188 0.0917687937617302 0 1
19.101953506469727 4.269784927368164 -1.8616259098052979 0.09176289290189743 0 1
19.140703201293945 4.098437309265137 -1.861743688583374 0.09175704419612885 0 1
19.177928924560547 3.9266796112060547 -1.8618566989898682 0.09175140410661697 0 1
19.213476181030273 3.7546093463897705 -1.8619647026062012 0.09174613654613495 0 1
19.247499465942383 3.582226514816284 -1.8620679378509521 0.09174096584320068 0 1
19.27992057800293 3.4094724655151367 -1.8621665239334106 0.09173614531755447 0 1
19.31070327758789 3.236445188522339 -1.8622602224349976 0.0917314738035202 0 1
19.339881896972656 3.063124895095825 -1.862349033355713 0.09172722697257996 0 1
19.36747932434082 2.8895506858825684 -1.8624330759048462 0.0917229950428009 0 1
19.393457412719727 2.7157225608825684 -1.8625123500823975 0.09171916544437408 0 1
19.41781234741211 2.541640520095825 -1.8625867366790771 0.09171552211046219 0 1
19.44056510925293 2.367324113845825 -1.8626562356948853 0.09171207249164581 0 1
19.46175765991211 2.1928319931030273 -1.8627212047576904 0.091708704829216 0 1
19.48126983642578 2.0180859565734863 -1.8627809286117554 0.09170585870742798 0 1
19.49917984008789 1.843203067779541 -1.8628357648849487 0.09170318394899368 0 1
19.51542854309082 1.6681640148162842 -1.86288583278656 0.0917007327079773 0 1
19.53011703491211 1.4929686784744263 -1.8629311323165894 0.09169850498437881 0 1
19.54314422607422 1.3176171779632568 -1.8629714250564575 0.09169652312994003 0 1
19.554569244384766 1.1421679258346558 -1.863006830215454 0.0916946604847908 0 1
19.564374923706055 0.9666211009025574 -1.863037347793579 0.091693215072155 0 1
19.572500228881836 0.7909960746765137 -1.8630629777908325 0.09169195592403412 0 1
19.579023361206055 0.6152734160423279 -1.8630837202072144 0.09169100970029831 0 1
19.58394432067871 0.43953123688697815 -1.8630995750427246 0.09169016778469086 0 1
19.587186813354492 0.26374998688697815 -1.8631106615066528 0.09168972074985504 0 1
19.58882713317871 0.087890625 -1.86311674118042 0.09168937057256699 0 1
19.588848114013672 -0.08792968839406967 -1.8631178140640259 0.0916893258690834 0 1
19.58722686767578 -0.2637695372104645 -1.8631141185760498 0.09168947488069534 0 1
19.584003448486328 -0.4395507574081421 -1.8631054162979126 0.09168991446495056 0 1
19.579120635986328 -0.6153320074081421 -1.8630919456481934 0.09169057011604309 0 1
19.572656631469727 -0.7910351157188416 -1.8630735874176025 0.09169133752584457 0 1
19.564510345458984 -0.9666796922683716 -1.8630502223968506 0.09169257432222366 0 1
19.554706573486328 -1.1422070264816284 -1.8630218505859375 0.09169411659240723 0 1
19.54330062866211 -1.3176562786102295 -1.8629887104034424 0.09169569611549377 0 1
19.530292510986328 -1.493007779121399 -1.8629506826400757 0.09169767796993256 0 1
19.515663146972656 -1.6681835651397705 -1.8629080057144165 0.09169962257146835 0 1
19.499433517456055 -1.8432421684265137 -1.862860083580017 0.09170196205377579 0 1
19.4815616607666 -2.0181639194488525 -1.8628076314926147 0.09170455485582352 0 1
19.46204948425293 -2.19287109375 -1.8627500534057617 0.09170731157064438 0 1
19.440937042236328 -2.367382764816284 -1.862687587738037 0.09171050041913986 0 1
19.418182373046875 -2.541699171066284 -1.8626203536987305 0.09171386063098907 0 1
19.393827438354492 -2.7157812118530273 -1.8625482320785522 0.09171739965677261 0 1
19.36785125732422 -2.8896093368530273 -1.8624712228775024 0.09172123670578003 0 1
19.340272903442383 -3.063222646713257 -1.8623894453048706 0.09172527492046356 0 1
19.3111515045166 -3.2365429401397705 -1.8623030185699463 0.09172935038805008 0 1
19.280370712280273 -3.4095702171325684 -1.8622115850448608 0.091733917593956 0 1
19.247987747192383 -3.5823047161102295 -1.8621152639389038 0.09173865616321564 0 1
19.21404266357422 -3.7547459602355957 -1.8620142936706543 0.0917435735464096 0 1
19.178476333618164 -3.92681622505188 -1.8619083166122437 0.09174884110689163 0 1
19.14128875732422 -4.098554611206055 -1.8617976903915405 0.09175429493188858 0 1
19.102558135986328 -4.269921779632568 -1.861682415008545 0.09175997972488403 0 1
19.062225341796875 -4.440937519073486 -1.8615621328353882 0.0917658880352974 0 1
19.02031135559082 -4.611562252044678 -1.8614373207092285 0.09177213162183762 0 1
18.976835250854492 -4.781757831573486 -1.8613076210021973 0.0917784795165062 0 1
18.9317569732666 -4.951542854309082 -1.861173152923584 0.09178519248962402 0 1
18.885156631469727 -5.120898246765137 -1.8610341548919678 0.0917920470237732 0 1
18.837011337280273 -5.289784908294678 -1.860890507698059 0.09179893881082535 0 1
18.78724479675293 -5.458202838897705 -1.8607419729232788 0.09180637449026108 0 1
18.735937118530273 -5.626152038574219 -1.860588788986206 0.09181388467550278 0 1
8.784218788146973 -2.7239842414855957 -0.8747172355651855 0.9509384036064148 1045 6
18.62874984741211 -5.96056604385376 -1.860268473625183 0.09182976186275482 0 1
18.572813034057617 -6.126953125 -1.860101580619812 0.09183797240257263 0 1
18.515390396118164 -6.292851448059082 -1.8599299192428589 0.09184637665748596 0 1
18.456405639648438 -6.458202838897705 -1.8597537279129028 0.09185508638620377 0 1
18.395858764648438 -6.622929573059082 -1.8595727682113647 0.09186412394046783 0 1
18.333887100219727 -6.787128925323486 -1.8593872785568237 0.09187325835227966 0 1
17.22640609741211 -6.553515434265137 -1.7529656887054443 0.09188269823789597 0 2
8.725683212280273 -3.4095311164855957 -0.8910079598426819 0.9700787663459778 0 6
17.10234260559082 -6.860253810882568 -1.752590298652649 0.09187059104442596 0 2
17.038183212280273 -7.012714862823486 -1.7523934841156006 0.0918809175491333 0 2
16.972578048706055 -7.164531230926514 -1.7521928548812866 0.09188609570264816 0 2
16.905643463134766 -7.315722465515137 -1.7519885301589966 0.09189687669277191 0 2
16.837265014648438 -7.466289043426514 -1.7517801523208618 0.09190777689218521 0 2
16.76753807067871 -7.616152286529541 -1.7515674829483032 0.0919189527630806 0 2
16.696483612060547 -7.765449047088623 -1.7513508796691895 0.09193020313978195 0 2
16.62398338317871 -7.913984298706055 -1.7511298656463623 0.09194187819957733 0 2
13.175253868103027 -6.417890548706055 -1.393860101699829 0.9806320667266846 0 20
13.097578048706055 -6.526171684265137 -1.391789197921753 0.23451413214206696 0 20
16.3984375 -8.355409622192383 -1.750443935394287 0.09197551757097244 0 2
16.320566177368164 -8.50113296508789 -1.7502074241638184 0.09198792278766632 0 2
16.24138641357422 -8.646093368530273 -1.7499667406082153 0.09200072288513184 0 2
16.160858154296875 -8.790292739868164 -1.7497222423553467 0.09201347827911377 0 2
16.079023361206055 -8.93375015258789 -1.7494733333587646 0.09202659130096436 0 2
15.995878219604492 -9.076386451721191 -1.7492207288742065 0.09203994274139404 0 2
15.911405563354492 -9.218222618103027 -1.7489638328552246 0.09205342084169388 0 2
15.825663566589355 -9.359296798706055 -1.7487032413482666 0.09206715226173401 0 2
15.73867130279541 -9.499530792236328 -1.748438835144043 0.09208108484745026 0 2
15.650390625 -9.638964653015137 -1.7481703758239746 0.09209506213665009 0 2
15.56078052520752 -9.77750015258789 -1.7478981018066406 0.09210953861474991 0 2
15.469921112060547 -9.915214538574219 -1.747622013092041 0.0921241044998169 0 2
15.377870559692383 -10.052069664001465 -1.7473419904708862 0.0921388790011406 0 2
15.284491539001465 -10.188007354736328 -1.7470580339431763 0.09215353429317474 0 2
15.189960479736328 -10.323104858398438 -1.7467707395553589 0.09216873347759247 0 2
15.094199180603027 -10.457284927368164 -1.7464796304702759 0.09218396246433258 0 2
14.997187614440918 -10.590566635131836 -1.7461847066879272 0.0921996459364891 0 2
14.898944854736328 -10.722890853881836 -1.745886206626892 0.09221536666154861 0 2
14.799570083618164 -10.85433578491211 -1.7455838918685913 0.09223132580518723 0 2
14.698945045471191 -10.984804153442383 -1.745278000831604 0.09224741160869598 0 2
14.597207069396973 -11.114336013793945 -1.7449685335159302 0.09226375073194504 0 2
14.494218826293945 -11.242871284484863 -1.7446553707122803 0.09228041768074036 0 2
14.390116691589355 -11.37044906616211 -1.7443389892578125 0.09229724109172821 0 2
14.284862518310547 -11.497050285339355 -1.744018793106079 0.09231411665678024 0 2
14.178437232971191 -11.622636795043945 -1.7436950206756592 0.09233136475086212 0 2
14.070937156677246 -11.747265815734863 -1.743368148803711 0.09234852343797684 0 2
13.96224594116211 -11.870820045471191 -1.7430377006530762 0.09236600250005722 0 2
13.8525390625 -11.99339771270752 -1.7427037954330444 0.09238360822200775 0 2
13.741621017456055 -12.11490249633789 -1.7423664331436157 0.09240163117647171 0 2
16.21986198425293 -14.560565948486328 -2.0730817317962646 0.09245076030492783 0 2
13.6616792678833 -12.4873628616333 -1.7603753805160522 0.09246896207332611 0 2
13.546405792236328 -12.607011795043945 -1.7600295543670654 0.09248710423707962 0 2
13.429999351501465 -12.725546836853027 -1.7596803903579712 0.09250552207231522 0 2
13.312617301940918 -12.843027114868164 -1.7593281269073486 0.09252404421567917 0 2
13.194120407104492 -12.95937442779541 -1.7589727640151978 0.09254265576601028 0 2
9.84066390991211 9.840624809265137 -1.4395090341567993 0.7024726867675781 0 4
10.019160270690918 9.840898513793945 -1.4526444673538208 0.6961218118667603 0 4
10.200976371765137 9.84115219116211 -1.466137409210205 0.6897149085998535 0 4
10.386191368103027 9.841386795043945 -1.480002999305725 0.6832528114318848 0 4
10.574999809265137 9.84164047241211 -1.4942567348480225 0.676735520362854 0 4
10.767499923706055 9.841894149780273 -1.508909821510315 0.6701635718345642 0 4
10.963749885559082 9.84218692779541 -1.523977279663086 0.66353839635849 0 4
11.164042472839355 9.842460632324219 -1.5394736528396606 0.6568589210510254 0 4
11.368456840515137 9.842734336853027 -1.5554156303405762 0.6501261591911316 0 4
11.577167510986328 9.843008041381836 -1.571818232536316 0.6433418393135071 0 4
11.79037094116211 9.843280792236328 -1.5887020826339722 0.6365053653717041 0 4
12.008183479309082 9.843573570251465 -1.6060810089111328 0.6296177506446838 0 4
12.226679801940918 9.840429306030273 -1.6234252452850342 0.6230969429016113 0 4
12.454120635986328 9.840624809265137 -1.6418325901031494 0.616111159324646 0 4
12.686816215515137 9.8408203125 -1.66079580783844 0.6090757846832275 0 4
12.924999237060547 9.840995788574219 -1.680340051651001 0.601991593837738 0 4
13.168807983398438 9.84121036529541 -1.7004886865615845 0.5948587656021118 0 4
13.418632507324219 9.841405868530273 -1.7212666273117065 0.5876780152320862 0 4
13.674609184265137 9.841620445251465 -1.7427010536193848 0.580449640750885 0 4
13.7603120803833 9.717069625854492 -1.742440104484558 0.10044839978218079 0 2
13.849081993103027 9.59462833404541 -1.7427077293395996 0.10043314099311829 0 2
13.936796188354492 9.471405982971191 -1.7429722547531128 0.10041765868663788 0 2
14.023320198059082 9.34732437133789 -1.743233323097229 0.10040268301963806 0 2
14.10873031616211 9.222421646118164 -1.7434908151626587 0.10038792341947556 0 2
14.19302749633789 9.096757888793945 -1.7437450885772705 0.10037317126989365 0 2
14.276151657104492 8.970293045043945 -1.7439959049224854 0.10035869479179382 0 2
14.358124732971191 8.843047142028809 -1.7442431449890137 0.10034460574388504 0 2
14.438944816589355 8.71500015258789 -1.744486927986145 0.10033054649829865 0 2
14.518593788146973 8.586249351501465 -1.7447272539138794 0.10031679272651672 0 2
14.597050666809082 8.456738471984863 -1.7449640035629272 0.10030312836170197 0 2
14.674335479736328 8.326464653015137 -1.745197057723999 0.10028979927301407 0 2
14.75039005279541 8.195508003234863 -1.7454267740249634 0.10027655959129333 0 2
14.825312614440918 8.06380844116211 -1.745652675628662 0.1002635657787323 0 2
14.898944854736328 7.931445121765137 -1.7458750009536743 0.1002509817481041 0 2
14.971445083618164 7.798359394073486 -1.746093988418579 0.10023828595876694 0 2
15.042695045471191 7.664609432220459 -1.7463091611862183 0.10022580623626709 0 2
15.112733840942383 7.530195236206055 -1.7465205192565918 0.10021364688873291 0 2
15.181523323059082 7.395116806030273 -1.7467281818389893 0.1002018004655838 0 2
15.249062538146973 7.25939416885376 -1.746932029724121 0.10019011795520782 0 2
15.315370559692383 7.123046875 -1.7471321821212769 0.10017868131399155 0 2
15.380390167236328 6.986073970794678 -1.747328758239746 0.1001674234867096 0 2
15.44417953491211 6.848515510559082 -1.7475212812423706 0.10015644878149033 0 2
15.50667953491211 6.710312366485596 -1.7477102279663086 0.10014563053846359 0 2
15.567988395690918 6.57156229019165 -1.7478954792022705 0.10013490170240402 0 2
15.627948760986328 6.432226181030273 -1.7480765581130981 0.10012457519769669 0 2
15.686640739440918 6.292363166809082 -1.7482539415359497 0.10011440515518188 0 2
15.74404239654541 6.151894569396973 -1.748427391052246 0.10010446608066559 0 2
15.800175666809082 6.010937213897705 -1.7485970258712769 0.10009471327066422 0 2
15.854960441589355 5.869433403015137 -1.7487627267837524 0.10008538514375687 0 2
16.046972274780273 5.777265548706055 -1.764147400856018 0.33638083934783936 0 2
16.50224494934082 5.774394512176514 -1.8084299564361572 0.3279469907283783 0 2
16.98189353942871 5.771659851074219 -1.8552420139312744 0.10005830973386765 0 1
17.03451156616211 5.619472503662109 -1.8554011583328247 0.10004954040050507 0 1
17.085702896118164 5.466816425323486 -1.8555560111999512 0.10004115849733353 0 1
17.135448455810547 5.313652038574219 -1.8557065725326538 0.10003320872783661 0 1
17.183828353881836 5.160038948059082 -1.8558529615402222 0.1000252291560173 0 1
17.230741500854492 5.006015300750732 -1.8559951782226562 0.10001752525568008 0 1
17.276248931884766 4.851484298706055 -1.8561331033706665 0.10001018643379211 0 1
17.320350646972656 4.696542739868164 -1.8562663793563843 0.10000310093164444 0 1
17.363065719604492 4.541210651397705 -1.8563958406448364 0.09999597817659378 0 1
17.40425682067871 4.385488033294678 -1.8565207719802856 0.09998928755521774 0 1
17.444061279296875 4.229355335235596 -1.8566415309906006 0.09998274594545364 0 1
17.48238182067871 4.072890758514404 -1.8567577600479126 0.09997658431529999 0 1
17.51933479309082 3.916015625 -1.8568698167800903 0.09997051954269409 0 1
17.5548038482666 3.7588279247283936 -1.8569774627685547 0.09996459633111954 0 1
17.588769912719727 3.601328134536743 -1.8570806980133057 0.09995918720960617 0 1
17.621366500854492 3.443495988845825 -1.8571795225143433 0.09995384514331818 0 1
17.6524600982666 3.285331964492798 -1.8572741746902466 0.09994877129793167 0 1
17.682069778442383 3.1269335746765137 -1.8573641777038574 0.0999438613653183 0 1
17.71027374267578 2.968203067779541 -1.8574498891830444 0.09993918240070343 0 1
17.73695182800293 2.8092381954193115 -1.857531189918518 0.09993494302034378 0 1
17.762187957763672 2.650038957595825 -1.8576079607009888 0.09993082284927368 0 1
17.78597640991211 2.490605354309082 -1.8576806783676147 0.09992678463459015 0 1
17.80824089050293 2.3309569358825684 -1.8577486276626587 0.09992315620183945 0 1
17.82906150817871 2.171093702316284 -1.8578122854232788 0.09991970658302307 0 1
17.84843635559082 2.0110156536102295 -1.8578715324401855 0.09991653263568878 0 1
17.866289138793945 1.8507812023162842 -1.8579261302947998 0.09991361200809479 0 1
17.882596969604492 1.6904101371765137 -1.8579763174057007 0.09991107136011124 0 1
17.897539138793945 1.5298436880111694 -1.8580220937728882 0.09990855306386948 0 1
17.91095733642578 1.3691991567611694 -1.8580635786056519 0.09990627318620682 0 1
17.922889709472656 1.2083789110183716 -1.8581005334854126 0.09990423172712326 0 1
17.933340072631836 1.0474804639816284 -1.8581328392028809 0.09990252554416656 0 1
17.942264556884766 0.8864843845367432 -1.8581608533859253 0.09990093857049942 0 1
17.94970703125 0.7254296541213989 -1.8581842184066772 0.0998997613787651 0 1
17.95570182800293 0.5642773509025574 -1.8582032918930054 0.09989871084690094 0 1
17.960155487060547 0.4031054675579071 -1.858217716217041 0.09989797323942184 0 1
17.963163375854492 0.2418554574251175 -1.8582278490066528 0.09989745169878006 0 1
17.96466827392578 0.08060546964406967 -1.8582333326339722 0.0998971238732338 0 1
17.96468734741211 -0.08062499761581421 -1.8582345247268677 0.09989701211452484 0 1
17.96322250366211 -0.24187499284744263 -1.8582309484481812 0.09989720582962036 0 1
17.960233688354492 -0.4030859172344208 -1.8582229614257812 0.09989771246910095 0 1
17.955760955810547 -0.564257800579071 -1.858210563659668 0.0998983234167099 0 1
17.949804306030273 -0.7254101634025574 -1.8581937551498413 0.09989925473928452 0 1
17.942401885986328 -0.8864843845367432 -1.8581725358963013 0.09990029782056808 0 1
17.93343734741211 -1.0474804639816284 -1.8581466674804688 0.09990186989307404 0 1
17.92302703857422 -1.208398461341858 -1.8581162691116333 0.09990345686674118 0 1
17.9111328125 -1.3691991567611694 -1.858081579208374 0.09990515559911728 0 1
17.897714614868164 -1.529882788658142 -1.8580422401428223 0.09990741312503815 0 1
17.882850646972656 -1.6904296875 -1.8579986095428467 0.09990981221199036 0 1
17.86650276184082 -1.85085928440094 -1.8579504489898682 0.09991233795881271 0 1
17.848670959472656 -2.0110740661621094 -1.8578978776931763 0.09991513192653656 0 1
17.829336166381836 -2.171132802963257 -1.857840895652771 0.09991830587387085 0 1
17.80859375 -2.3310155868530273 -1.8577793836593628 0.09992141276597977 0 1
17.78628921508789 -2.4906835556030273 -1.8577134609222412 0.09992504864931107 0 1
17.76253890991211 -2.6501171588897705 -1.8576431274414062 0.09992896765470505 0 1
17.7373046875 -2.809316396713257 -1.8575681447982788 0.09993286430835724 0 1
17.710643768310547 -2.9682812690734863 -1.857488989830017 0.09993709623813629 0 1
17.68246078491211 -3.12701153755188 -1.8574053049087524 0.09994174540042877 0 1
17.652870178222656 -3.2854297161102295 -1.857317328453064 0.09994634985923767 0 1
17.621776580810547 -3.4435741901397705 -1.8572248220443726 0.09995141625404358 0 1
17.589277267456055 -3.601445198059082 -1.8571281433105469 0.09995653480291367 0 1
17.555234909057617 -3.758964776992798 -1.8570268154144287 0.09996215254068375 0 1
17.51984405517578 -3.9161717891693115 -1.8569213151931763 0.09996767342090607 0 1
17.482929229736328 -4.07302713394165 -1.8568115234375 0.09997360408306122 0 1
17.444608688354492 -4.229511737823486 -1.8566970825195312 0.09997966140508652 0 1
17.404804229736328 -4.385644435882568 -1.8565784692764282 0.09998620301485062 0 1
17.36359405517578 -4.541386604309082 -1.8564554452896118 0.09999281167984009 0 1
17.32097625732422 -4.696757793426514 -1.8563283681869507 0.09999961405992508 0 1
17.276874542236328 -4.851679801940918 -1.8561968803405762 0.10000673681497574 0 1
16.246112823486328 -4.719960689544678 -1.7499327659606934 0.09993680566549301 0 2
16.208066940307617 -4.867070198059082 -1.7504732608795166 0.4549333453178406 0 2
8.784003257751465 -2.723925828933716 -0.9512746930122375 0.9501851201057434 1045 6
16.10953140258789 -5.154511451721191 -1.7495403289794922 0.09994897991418839 0 2
16.061307907104492 -5.298457145690918 -1.7493996620178223 0.09995715320110321 0 2
16.011756896972656 -5.441953182220459 -1.7492550611495972 0.09996551275253296 0 2
15.9609375 -5.585000038146973 -1.7491060495376587 0.0999738946557045 0 2
15.908769607543945 -5.727519512176514 -1.7489532232284546 0.0999826043844223 0 2
15.85531234741211 -5.869550704956055 -1.7487963438034058 0.09999155253171921 0 2
15.800468444824219 -6.011074066162109 -1.7486313581466675 0.10005836933851242 0 2
8.7251558303833 -3.409316301345825 -0.968956708908081 0.9693449139595032 0 6
15.686894416809082 -6.292460918426514 -1.748282790184021 0.10007830709218979 0 2
15.62816333770752 -6.432382583618164 -1.7481024265289307 0.10008860379457474 0 2
15.568163871765137 -6.571699142456055 -1.7479183673858643 0.10009907931089401 0 2
15.506914138793945 -6.71044921875 -1.7477303743362427 0.10010974109172821 0 2
15.4443359375 -6.848613262176514 -1.747538447380066 0.10012083500623703 0 2
15.380546569824219 -6.986191272735596 -1.747342824935913 0.10013196617364883 0 2
15.315468788146973 -7.123144149780273 -1.747143268585205 0.10014337301254272 0 2
15.249101638793945 -7.259452819824219 -1.746939778327942 0.10015486925840378 0 2
13.174980163574219 -6.41775369644165 -1.5158634185791016 0.9798485636711121 0 20
13.031561851501465 -6.493261337280273 -1.50601065158844 0.8906418681144714 0 20
15.042695045471191 -7.664628505706787 -1.74630868434906 0.10018550604581833 0 2
14.971445083618164 -7.798398494720459 -1.746091365814209 0.10019797831773758 0 2
14.898905754089355 -7.931445121765137 -1.7458704710006714 0.10020937770605087 0 2
14.825234413146973 -8.063847541809082 -1.7456461191177368 0.10022228956222534 0 2
14.750350952148438 -8.195487976074219 -1.7454183101654053 0.10023512691259384 0 2
14.674238204956055 -8.326464653015137 -1.7451869249343872 0.10024736076593399 0 2
14.596972465515137 -8.456718444824219 -1.7449520826339722 0.10026079416275024 0 2
14.518437385559082 -8.586191177368164 -1.7447134256362915 0.10027461498975754 0 2
14.43880844116211 -8.714980125427246 -1.7444711923599243 0.10028844326734543 0 2
14.3579683303833 -8.842968940734863 -1.7442256212234497 0.10030262917280197 0 2
14.275976181030273 -8.97021484375 -1.743976354598999 0.10031697154045105 0 2
14.192851066589355 -9.0966796875 -1.7437235116958618 0.10033150762319565 0 2
14.108534812927246 -9.222343444824219 -1.7434673309326172 0.10034622997045517 0 2
14.023085594177246 -9.347207069396973 -1.7432074546813965 0.10036125779151917 0 2
13.9365234375 -9.471269607543945 -1.7429442405700684 0.10037627816200256 0 2
4.290117263793945 -2.97222638130188 -0.5398504734039307 0.10042599588632584 0 20
13.760038375854492 -9.71695327758789 -1.7424076795578003 0.10040722042322159 0 2
13.670136451721191 -9.838515281677246 -1.7421342134475708 0.1004229336977005 0 2
16.159687042236328 -11.85189437866211 -2.0728836059570312 0.10047236829996109 0 2
13.631757736206055 -10.187284469604492 -1.760270595550537 0.10048847645521164 0 2
13.53759765625 -10.307578086853027 -1.7599883079528809 0.10050449520349503 0 2
13.442362785339355 -10.426972389221191 -1.7597026824951172 0.10052073001861572 0 2
13.34603500366211 -10.5454683303833 -1.7594138383865356 0.10053732991218567 0 2
13.248613357543945 -10.663065910339355 -1.7591216564178467 0.10055412352085114 0 2
