ply
format ascii 1.0
element vertex 614
property float32 x
property float32 y
property float32 z
property float32 CosAngle
property uint32 ObjIdx
property uint32 ObjTag
end_header
35.46175765991211 9.615702629089355 10.337695121765137 0.4886428713798523 0 9
35.24896240234375 9.38833999633789 10.263270378112793 0.49218615889549255 0 9
36.912715911865234 9.654315948486328 10.734975814819336 0.7606954574584961 0 9
37.001834869384766 9.50039005279541 10.748394966125488 0.7597460746765137 0 9
37.09128952026367 9.346132278442383 10.762081146240234 0.7587794065475464 0 9
37.18107223510742 9.191484451293945 10.776058197021484 0.7577953338623047 0 9
6.618319988250732 -2.620410203933716 2.0027456283569336 0.8017597198486328 0 6
6.599784851074219 -2.6473631858825684 2.000729560852051 0.9408512711524963 0 6
6.60205078125 -2.682734251022339 2.0050227642059326 0.5209847688674927 0 6
11.391386032104492 -6.129961013793945 3.639615058898926 0.5962368249893188 0 3
11.299570083618164 -6.146132469177246 3.619065284729004 0.5996230244636536 0 3
11.20882797241211 -6.162089824676514 3.5988173484802246 0.6029963493347168 0 3
11.119062423706055 -6.177909851074219 3.5788679122924805 0.606357991695404 0 3
11.030312538146973 -6.193515300750732 3.5592122077941895 0.6097069382667542 0 3
11.003768920898438 -6.243750095367432 3.5596516132354736 0.7418138980865479 0 3
10.990663528442383 -6.301699161529541 3.564528465270996 0.6163278222084045 0 3
10.90371036529541 -6.31701135635376 3.545475721359253 0.6196398735046387 0 3
10.817617416381836 -6.332187175750732 3.5266969203948975 0.6229397654533386 0 3
10.7324800491333 -6.347148418426514 3.50818133354187 0.6262266039848328 0 3
10.648183822631836 -6.361991882324219 3.489934206008911 0.629501461982727 0 3
10.564764976501465 -6.376679420471191 3.4719417095184326 0.6327635049819946 0 3
10.482226371765137 -6.391191482543945 3.4542062282562256 0.6360124945640564 0 3
10.270819664001465 -6.325703144073486 3.3938558101654053 0.6466376185417175 0 3
10.191933631896973 -6.340410232543945 3.3771677017211914 0.6498331427574158 0 3
10.113398551940918 -6.354648113250732 3.360553503036499 0.6457764506340027 0 3
10.052656173706055 -6.379609107971191 3.3498480319976807 0.7106563448905945 0 3
10.065292358398438 -6.451171875 3.3636724948883057 0.7077349424362183 0 3
10.017831802368164 -6.484355449676514 3.3575079441070557 0.6552362442016602 0 3
9.940722465515137 -6.497949123382568 3.3414037227630615 0.6583942174911499 0 3
9.864355087280273 -6.511386394500732 3.32551908493042 0.66153883934021 0 3
9.788671493530273 -6.524726390838623 3.3098526000976562 0.6646705865859985 0 3
9.713749885559082 -6.537909984588623 3.2943954467773438 0.6677886247634888 0 3
9.63949203491211 -6.550976276397705 3.279154062271118 0.6708933115005493 0 3
9.565897941589355 -6.563945293426514 3.264113664627075 0.6739841103553772 0 3
9.49300765991211 -6.576757431030273 3.2492775917053223 0.6770618557929993 0 3
9.420781135559082 -6.58947229385376 3.2346391677856445 0.680125892162323 0 3
9.349160194396973 -6.602089881896973 3.220198392868042 0.6831756830215454 0 3
9.151308059692383 -6.524101257324219 3.1620962619781494 0.6863085031509399 0 3
9.08193302154541 -6.536308288574219 3.148232936859131 0.6893312931060791 0 3
9.012557983398438 -6.548007488250732 3.1343419551849365 0.6866779923439026 0 3
8.964062690734863 -6.574433326721191 3.127706527709961 0.6653918623924255 0 3
8.976640701293945 -6.645839691162109 3.1424760818481445 0.6622673273086548 0 3
8.920195579528809 -6.666191101074219 3.133148670196533 0.7011854648590088 0 3
8.852890014648438 -6.678046703338623 3.1200103759765625 0.7041380405426025 0 3
8.7861909866333 -6.689804553985596 3.1070449352264404 0.7070762515068054 0 3
8.720000267028809 -6.701464653015137 3.0942485332489014 0.7100009322166443 0 3
8.654375076293945 -6.712987899780273 3.081618309020996 0.7129105925559998 0 3
8.58925724029541 -6.724452972412109 3.0691516399383545 0.7158066630363464 0 3
8.524687767028809 -6.73583984375 3.056849718093872 0.7186875939369202 0 3
8.460624694824219 -6.747109413146973 3.0447044372558594 0.7215542197227478 0 3
8.397050857543945 -6.75830078125 3.032717227935791 0.7244060635566711 0 3
8.334023475646973 -6.769394397735596 3.020885944366455 0.7272437214851379 0 3
8.271425247192383 -6.780429363250732 3.009204387664795 0.7300668954849243 0 3
8.209355354309082 -6.791347503662109 2.9976754188537598 0.7328746914863586 0 3
8.147734642028809 -6.802187442779541 2.986290216445923 0.7356682419776917 0 3
8.08658218383789 -6.812968730926514 2.9750540256500244 0.7384467720985413 0 3
8.02587890625 -6.823671817779541 2.963961362838745 0.7412107586860657 0 3
7.965644359588623 -6.83425760269165 2.9530107975006104 0.7439595460891724 0 3
7.905839443206787 -6.844785213470459 2.9421985149383545 0.7466931939125061 0 3
7.749745845794678 -6.770702838897705 2.8953819274902344 0.7556658387184143 0 3
7.691835880279541 -6.781269550323486 2.8850903511047363 0.7518472671508789 0 3
7.634003639221191 -6.791406154632568 2.8748021125793457 0.7545384764671326 0 3
7.576562404632568 -6.801484107971191 2.8646514415740967 0.7572135329246521 0 3
7.53298807144165 -6.823671817779541 2.8597280979156494 0.590202808380127 0 3
7.54601526260376 -6.897343635559082 2.8763818740844727 0.5867840647697449 0 3
7.50939416885376 -6.925976276397705 2.8742403984069824 0.7654073238372803 0 3
7.452792644500732 -6.935937404632568 2.864464282989502 0.7680187821388245 0 3
7.396581649780273 -6.945839881896973 2.854815721511841 0.7706136107444763 0 3
7.340742111206055 -6.95568323135376 2.845285654067993 0.7731946110725403 0 3
7.285292625427246 -6.96544885635376 2.8358755111694336 0.7757599949836731 0 3
7.230214595794678 -6.975136756896973 2.826587677001953 0.7783094644546509 0 3
7.175468444824219 -6.984785079956055 2.8174116611480713 0.7808435559272766 0 3
7.12109375 -6.994335651397705 2.808356523513794 0.7833619713783264 0 3
7.067030906677246 -7.003867149353027 2.7994143962860107 0.7858643531799316 0 3
9.8540620803833 9.854022979736328 3.6720662117004395 0.9398233890533447 0 9
9.90771484375 9.819120407104492 3.6755988597869873 0.938920259475708 0 9
9.96142578125 9.784140586853027 3.67920184135437 0.9380009770393372 0 9
10.015233993530273 9.749062538146973 3.682873249053955 0.9370654821395874 0 9
10.069082260131836 9.713886260986328 3.686619997024536 0.9361134171485901 0 9
10.123065948486328 9.678593635559082 3.6904385089874268 0.935145378112793 0 9
10.177108764648438 9.643202781677246 3.6943271160125732 0.9341608285903931 0 9
10.231249809265137 9.607733726501465 3.698287010192871 0.9331604242324829 0 9
10.28548812866211 9.57216739654541 3.702322006225586 0.9321431517601013 0 9
10.096503257751465 9.312089920043945 3.6192171573638916 0.9084910750389099 0 9
10.122909545898438 9.252695083618164 3.6137654781341553 0.9098614454269409 0 9
10.149276733398438 9.193534851074219 3.6084041595458984 0.9112136960029602 0 9
10.175546646118164 9.134531021118164 3.6031289100646973 0.9125473499298096 0 9
10.2017183303833 9.07568359375 3.597945213317871 0.913862407207489 0 9
10.227831840515137 9.01699161529541 3.5928468704223633 0.9151589274406433 0 9
10.253886222839355 8.95849609375 3.5878372192382812 0.9164370894432068 0 9
10.279863357543945 8.900176048278809 3.582914113998413 0.917696475982666 0 9
10.305761337280273 8.841972351074219 3.5780770778656006 0.918937087059021 0 9
10.331621170043945 8.783984184265137 3.5733253955841064 0.9201589822769165 0 9
10.357362747192383 8.726113319396973 3.5686557292938232 0.9213625192642212 0 9
10.383085250854492 8.668378829956055 3.5640742778778076 0.9225471019744873 0 9
10.408730506896973 8.610819816589355 3.5595779418945312 0.9237129092216492 0 9
10.434316635131836 8.553398132324219 3.555161476135254 0.9248601198196411 0 9
10.459843635559082 8.496112823486328 3.550830364227295 0.9259885549545288 0 9
10.485292434692383 8.43896484375 3.546579122543335 0.9270978569984436 0 9
10.510703086853027 8.381933212280273 3.5424129962921143 0.9281887412071228 0 9
10.536054611206055 8.32509708404541 3.5383248329162598 0.9292604327201843 0 9
10.561347007751465 8.268378257751465 3.5343215465545654 0.9303132891654968 0 9
10.58658218383789 8.21175765991211 3.53039813041687 0.9313473701477051 0 9
10.611738204956055 8.155253410339355 3.5265541076660156 0.9323626160621643 0 9
10.636894226074219 8.098886489868164 3.5227890014648438 0.933358907699585 0 9
11.83144474029541 8.924843788146973 3.905113697052002 0.7554921507835388 0 9
11.911640167236328 8.901738166809082 3.9183425903320312 0.7529408931732178 0 9
11.992265701293945 8.878397941589355 3.931729316711426 0.750377357006073 0 9
12.07347583770752 8.85488224029541 3.9452743530273438 0.747800886631012 0 9
12.15517520904541 8.831191062927246 3.9589803218841553 0.7452122569084167 0 9
12.2373628616333 8.80728530883789 3.9728517532348633 0.7426109313964844 0 9
20.243515014648438 14.431913375854492 6.550938606262207 0.9754482507705688 0 9
20.32515525817871 14.352988243103027 6.556453704833984 0.9746279716491699 0 9
20.40691375732422 14.273886680603027 6.562095642089844 0.9737897515296936 0 9
20.488788604736328 14.194628715515137 6.567864894866943 0.9729338884353638 0 9
20.57076072692871 14.115195274353027 6.573771953582764 0.9720602631568909 0 9
20.65283203125 14.035605430603027 6.579806804656982 0.9711688756942749 0 9
20.731014251708984 13.953144073486328 6.584692001342773 0.8410536050796509 0 9
20.80044937133789 13.86464786529541 6.586916446685791 0.8407695889472961 0 9
20.791582107543945 13.724374771118164 6.564532279968262 0.49626410007476807 0 9
20.93958854675293 13.6875581741333 6.59181022644043 0.8401456475257874 0 9
21.009315490722656 13.598925590515137 6.594473838806152 0.839806079864502 0 9
20.211151123046875 12.953964233398438 6.325645446777344 0.27176347374916077 0 9
19.971542358398438 12.674296379089355 6.232779502868652 0.2758125960826874 0 9
19.73872947692871 12.402636528015137 6.142685413360596 0.2798578441143036 0 9
19.512441635131836 12.138651847839355 6.055248737335205 0.2838989198207855 0 9
19.292402267456055 11.881972312927246 5.970352649688721 0.2879359722137451 0 9
19.078319549560547 11.6323823928833 5.887895584106445 0.29196828603744507 0 9
23.89695167541504 14.423651695251465 7.354941368103027 0.9310489892959595 0 9
27.17591667175293 16.23681640625 8.341628074645996 0.9729459881782532 0 9
27.222108840942383 16.099042892456055 8.333544731140137 0.973889946937561 0 9
27.268163681030273 15.961562156677246 8.325631141662598 0.9748160243034363 0 9
27.3140811920166 15.8242769241333 8.317876815795898 0.9757239818572998 0 9
21.617168426513672 12.394550323486328 6.566015243530273 0.632899820804596 0 9
21.752206802368164 12.342577934265137 6.59013557434082 0.6305835247039795 0 9
21.888280868530273 12.29027271270752 6.614587306976318 0.6282526850700378 0 9
22.025447845458984 12.237597465515137 6.639374732971191 0.6259074807167053 0 9
22.16370964050293 12.1845703125 6.664499282836914 0.6235474348068237 0 9
22.303125381469727 12.13119125366211 6.689976692199707 0.6211727261543274 0 9
22.44367218017578 12.077402114868164 6.71580696105957 0.6187835931777954 0 9
22.585371017456055 12.023261070251465 6.741996765136719 0.6163800954818726 0 9
22.728261947631836 11.968710899353027 6.768543720245361 0.6139622926712036 0 9
22.872343063354492 11.913788795471191 6.795462608337402 0.6115301847457886 0 9
23.017656326293945 11.8584566116333 6.822758674621582 0.6090837717056274 0 9
23.06929588317871 11.754355430603027 6.822354793548584 0.7167849540710449 0 9
23.02535057067871 11.602069854736328 6.793891429901123 0.719788134098053 0 9
22.98175811767578 11.45107364654541 6.765786170959473 0.7227782011032104 0 9
22.938398361206055 11.301249504089355 6.738034725189209 0.7257549166679382 0 9
22.895429611206055 11.152655601501465 6.710635662078857 0.7287182807922363 0 9
22.74068260192871 10.951308250427246 6.650807857513428 0.21402952075004578 0 9
22.363710403442383 10.64638614654541 6.526522159576416 0.21810530126094818 0 9
22.76824188232422 10.7138671875 6.630480766296387 0.73752760887146 0 9
21.383066177368164 9.945077896118164 6.214033126831055 0.3002816438674927 0 9
22.684921264648438 10.427011489868164 6.578694820404053 0.743333101272583 0 9
22.64373016357422 10.285234451293945 6.553288459777832 0.7462151050567627 0 9
21.201152801513672 9.515409469604492 6.123374938964844 0.2316097617149353 0 9
21.636014938354492 9.594160079956055 6.236473083496094 0.22740930318832397 0 9
28.07941436767578 12.300898551940918 8.077771186828613 0.5643141269683838 0 9
20.621522903442383 8.923690795898438 5.920733451843262 0.7902151346206665 0 9
20.62935447692871 8.817362785339355 5.911556243896484 0.7914420366287231 0 9
28.896854400634766 12.197968482971191 8.264914512634277 0.46657150983810425 0 9
29.015233993530273 12.0947847366333 8.283167839050293 0.4655434489250183 0 9
22.03351593017578 9.068633079528809 6.278370380401611 0.7256065607070923 0 9
22.032207489013672 8.9526948928833 6.266486644744873 0.7269824743270874 0 9
22.030996322631836 8.837206840515137 6.254796028137207 0.7283417582511902 0 9
22.029823303222656 8.722187042236328 6.243290901184082 0.729684054851532 0 9
22.028730392456055 8.60757827758789 6.231968879699707 0.7310095429420471 0 9
22.027713775634766 8.493417739868164 6.220823764801025 0.7323185801506042 0 9
31.38361167907715 11.93935489654541 8.84781265258789 0.612913191318512 0 9
31.556053161621094 11.84310531616211 8.881352424621582 0.6105983257293701 0 9
31.72964859008789 11.746073722839355 8.915278434753418 0.6082746982574463 0 9
33.71804428100586 12.310370445251465 9.458355903625488 0.8486955165863037 0 9
33.80560302734375 12.170702934265137 9.467495918273926 0.8478763103485107 0 9
33.89337921142578 12.030722618103027 9.476859092712402 0.8470386266708374 0 9
33.98138427734375 11.890507698059082 9.486448287963867 0.8461825847625732 0 9
34.06960678100586 11.750039100646973 9.496259689331055 0.8453081250190735 0 9
34.15806579589844 11.60927677154541 9.506308555603027 0.8444151878356934 0 9
34.246795654296875 11.468241691589355 9.516576766967773 0.8435039520263672 0 9
33.79248046875 11.147714614868164 9.376336097717285 0.05296702682971954 0 9
33.91788864135742 11.0205078125 9.39731502532959 0.43213629722595215 0 9
34.109901428222656 10.91390609741211 9.43684196472168 0.36665764451026917 0 9
34.53851318359375 10.8804292678833 9.541827201843262 0.36262357234954834 0 9
34.976776123046875 10.846171379089355 9.649351119995117 0.3585825562477112 0 9
35.374473571777344 10.795682907104492 9.74560546875 0.4166925549507141 0 9
35.59814453125 10.689570426940918 9.793902397155762 0.9178283214569092 0 9
35.585819244384766 10.511972427368164 9.777441024780273 0.9193736910820007 0 9
35.57349395751953 10.334980010986328 9.761210441589355 0.9209024310112 0 9
36.16095733642578 10.329901695251465 9.909581184387207 0.775259792804718 0 9
36.247440338134766 10.178886413574219 9.920669555664062 0.7743939161300659 0 9
36.21193313598633 9.993788719177246 9.898576736450195 0.48010191321372986 0 9
36.42130661010742 9.875898361206055 9.943578720092773 0.772609293460846 0 9
36.50863265991211 9.723867416381836 9.95541763305664 0.7716906070709229 0 9
36.59632873535156 9.571561813354492 9.967509269714355 0.7707544565200806 0 9
36.68427658081055 9.418867111206055 9.979856491088867 0.7698007822036743 0 9
36.77255630493164 9.265800476074219 9.992467880249023 0.7688297033309937 0 9
42.942832946777344 10.615839958190918 11.65609073638916 0.7531291842460632 0 9
6.617909908294678 -2.6202147006988525 1.8755215406417847 0.8054506778717041 0 6
6.599355220794678 -2.6471874713897705 1.8736459016799927 0.9451820254325867 0 6
6.601288795471191 -2.682421922683716 1.8775686025619507 0.5234068632125854 0 6
11.391386032104492 -6.129921913146973 3.408620834350586 0.5989441275596619 0 3
11.29955005645752 -6.146093845367432 3.389376401901245 0.6023455858230591 0 3
11.208807945251465 -6.162089824676514 3.3704121112823486 0.6057341694831848 0 3
11.11904239654541 -6.177890300750732 3.3517327308654785 0.6091108918190002 0 3
11.030253410339355 -6.193515300750732 3.3333146572113037 0.6124759316444397 0 3
11.003457069396973 -6.243574142456055 3.333648920059204 0.7452020645141602 0 3
10.99062442779541 -6.301660060882568 3.338289737701416 0.619128406047821 0 3
10.903613090515137 -6.316972732543945 3.3204433917999268 0.6224560737609863 0 3
10.817558288574219 -6.332129001617432 3.302853584289551 0.625770628452301 0 3
10.732401847839355 -6.347128868103027 3.2855172157287598 0.6290727257728577 0 3
10.64810562133789 -6.361952781677246 3.268425464630127 0.632362425327301 0 3
10.564725875854492 -6.376640319824219 3.251580238342285 0.6356391310691833 0 3
10.482148170471191 -6.391171932220459 3.2349674701690674 0.6389030814170837 0 3
10.271288871765137 -6.326035022735596 3.178622007369995 0.6495407223701477 0 3
10.1924409866333 -6.340703010559082 3.1629927158355713 0.6527510285377502 0 3
10.11343765258789 -6.354687213897705 3.1472795009613037 0.6487050652503967 0 3
10.052343368530273 -6.379414081573486 3.1371655464172363 0.7139033675193787 0 3
10.064980506896973 -6.45095682144165 3.1501033306121826 0.710968554019928 0 3
10.017773628234863 -6.484316349029541 3.1444082260131836 0.6582138538360596 0 3
9.940664291381836 -6.497910022735596 3.1293249130249023 0.661386251449585 0 3
9.8642578125 -6.511366844177246 3.1144473552703857 0.6645455956459045 0 3
9.7886323928833 -6.52468729019165 3.099775552749634 0.6676909923553467 0 3
9.713671684265137 -6.53787088394165 3.085303544998169 0.6708229780197144 0 3
9.639432907104492 -6.550917625427246 3.0710246562957764 0.6739417314529419 0 3
9.56581974029541 -6.563906192779541 3.0569405555725098 0.6770471334457397 0 3
9.492968559265137 -6.576738357543945 3.0430455207824707 0.680138349533081 0 3
9.420682907104492 -6.589452743530273 3.029336452484131 0.6832163333892822 0 3
9.34912109375 -6.60205078125 3.015810489654541 0.6862807273864746 0 3
9.151328086853027 -6.524140357971191 2.9614267349243164 0.6894209980964661 0 3
9.081953048706055 -6.536347389221191 2.948441505432129 0.6924573183059692 0 3
9.012988090515137 -6.548320293426514 2.9355599880218506 0.6897626519203186 0 3
8.963788986206055 -6.574238300323486 2.929112672805786 0.6684343218803406 0 3
8.976366996765137 -6.645605087280273 2.9429433345794678 0.6652946472167969 0 3
8.920136451721191 -6.666171550750732 2.934288263320923 0.704371988773346 0 3
8.852850914001465 -6.678027153015137 2.921985626220703 0.7073379158973694 0 3
8.7861328125 -6.689765453338623 2.9098424911499023 0.7102894186973572 0 3
8.719961166381836 -6.701406002044678 2.8978567123413086 0.7132275104522705 0 3
8.654315948486328 -6.712987899780273 2.8860301971435547 0.7161502242088318 0 3
8.589238166809082 -6.724433422088623 2.874356985092163 0.7190586924552917 0 3
8.524648666381836 -6.735800743103027 2.86283278465271 0.7219534516334534 0 3
8.46060562133789 -6.7470703125 2.851458787918091 0.7248321771621704 0 3
8.3970308303833 -6.758261680603027 2.840233087539673 0.7276977300643921 0 3
8.333984375 -6.769374847412109 2.829150915145874 0.7305476665496826 0 3
8.27138614654541 -6.78039026260376 2.818211317062378 0.7333834767341614 0 3
8.20931625366211 -6.791327953338623 2.8074121475219727 0.7362051606178284 0 3
8.147695541381836 -6.802167892456055 2.796753406524658 0.7390111088752747 0 3
8.086543083190918 -6.812929630279541 2.7862303256988525 0.7418020367622375 0 3
8.025839805603027 -6.823613166809082 2.775841236114502 0.7445786595344543 0 3
7.965585708618164 -6.834218502044678 2.7655837535858154 0.7473399043083191 0 3
7.90576171875 -6.844746112823486 2.7554588317871094 0.7500860095024109 0 3
7.750058650970459 -6.771015644073486 2.711750030517578 0.7590625882148743 0 3
7.691835880279541 -6.781269550323486 2.7019989490509033 0.7552581429481506 0 3
7.634003639221191 -6.791445255279541 2.6923656463623047 0.7579606771469116 0 3
7.576581954956055 -6.801503658294678 2.6828513145446777 0.7606480717658997 0 3
7.53271484375 -6.823398113250732 2.6781344413757324 0.5929014086723328 0 3
7.545702934265137 -6.89708948135376 2.6937358379364014 0.5894681215286255 0 3
7.509335994720459 -6.925956726074219 2.6918158531188965 0.7688844203948975 0 3
7.452773094177246 -6.935898303985596 2.6826601028442383 0.771506667137146 0 3
7.396523475646973 -6.945839881896973 2.6736230850219727 0.7741147875785828 0 3
7.340722560882568 -6.955644607543945 2.664695978164673 0.7767075300216675 0 3
7.28527307510376 -6.965410232543945 2.6558876037597656 0.7792845368385315 0 3
7.230155944824219 -6.97509765625 2.647186756134033 0.7818455100059509 0 3
7.175429344177246 -6.984726428985596 2.638596773147583 0.7843911051750183 0 3
7.121035099029541 -6.994335651397705 2.630114793777466 0.7869209051132202 0 3
7.06701135635376 -7.003828048706055 2.6217384338378906 0.7894349694252014 0 3
10.714335441589355 10.714277267456055 3.724435567855835 0.6434492468833923 0 9
10.817011833190918 10.720293045043945 3.7433717250823975 0.6401949524879456 0 9
10.92074203491211 10.726386070251465 3.7625765800476074 0.6369270086288452 0 9
11.025586128234863 10.732558250427246 3.782055377960205 0.6336467862129211 0 9
11.131484031677246 10.73876953125 3.8018155097961426 0.6303535103797913 0 9
11.238476753234863 10.745058059692383 3.821857452392578 0.627047598361969 0 9
11.346659660339355 10.751425743103027 3.8421926498413086 0.6237286329269409 0 9
11.455995559692383 10.757851600646973 3.862825632095337 0.6203972101211548 0 9
11.566503524780273 10.764355659484863 3.883756399154663 0.6170536875724792 0 9
11.678241729736328 10.770917892456055 3.9050021171569824 0.613696813583374 0 9
10.117070198059082 9.247363090515137 3.369063377380371 0.9142497181892395 0 9
10.14339828491211 9.188241958618164 3.3640694618225098 0.9156073331832886 0 9
10.169687271118164 9.129257202148438 3.3591561317443848 0.9169468879699707 0 9
10.195839881896973 9.070448875427246 3.3543224334716797 0.9182673096656799 0 9
10.221933364868164 9.011836051940918 3.3495748043060303 0.9195694327354431 0 9
10.248007774353027 8.953378677368164 3.3449056148529053 0.9208528399467468 0 9
10.273964881896973 8.895058631896973 3.340320348739624 0.9221175909042358 0 9
10.2998628616333 8.836933135986328 3.3358099460601807 0.9233635067939758 0 9
10.325702667236328 8.778944969177246 3.331382989883423 0.9245908260345459 0 9
10.351484298706055 8.721113204956055 3.3270339965820312 0.9257993102073669 0 9
10.377167701721191 8.66341781616211 3.322765350341797 0.9269890189170837 0 9
10.402812004089355 8.605897903442383 3.3185746669769287 0.9281596541404724 0 9
10.428398132324219 8.548535346984863 3.3144588470458984 0.9293118119239807 0 9
12.161269187927246 9.878105163574219 3.851090908050537 0.9507697224617004 0 9
12.188300132751465 9.809609413146973 3.845679521560669 0.9521077871322632 0 9
12.215272903442383 9.741308212280273 3.8403561115264893 0.9534277319908142 0 9
12.242148399353027 9.673202514648438 3.8351223468780518 0.9547293186187744 0 9
12.268964767456055 9.605253219604492 3.8299708366394043 0.9560129046440125 0 9
12.295663833618164 9.537460327148438 3.8249080181121826 0.9572781324386597 0 9
12.3223237991333 9.469843864440918 3.8199331760406494 0.9585251808166504 0 9
19.2857608795166 14.684160232543945 5.958126068115234 0.47812899947166443 0 9
19.487051010131836 14.699726104736328 5.999874114990234 0.4748023748397827 0 9
19.69123077392578 14.71556568145752 6.04234504699707 0.4714646637439728 0 9
19.119043350219727 14.154667854309082 5.847194671630859 0.04367125779390335 0 9
19.904218673706055 14.598124504089355 6.067248344421387 0.58827143907547 0 9
19.867090225219727 14.43423843383789 6.036124229431152 0.5913042426109314 0 9
19.83039093017578 14.272050857543945 6.005449295043945 0.5943242311477661 0 9
19.79410171508789 14.111522674560547 5.975222110748291 0.5973310470581055 0 9
20.259334564208984 14.30648422241211 6.096225261688232 0.8510147929191589 0 9
20.32794952392578 14.218632698059082 6.097601413726807 0.8508224487304688 0 9
20.3966007232666 14.130781173706055 6.09911584854126 0.8506114482879639 0 9
20.465351104736328 14.042890548706055 6.100762844085693 0.8503818511962891 0 9
20.534160614013672 13.954960823059082 6.1025390625 0.8501338362693787 0 9
20.60302734375 13.867011070251465 6.104454040527344 0.849867045879364 0 9
20.67201042175293 13.77904224395752 6.106508731842041 0.8495816588401794 0 9
20.74105453491211 13.691015243530273 6.108687400817871 0.8492777943611145 0 9
20.796600341796875 13.594061851501465 6.107012748718262 0.17387813329696655 0 9
20.79949188232422 13.463105201721191 6.090062141418457 0.17436230182647705 0 9
21.967851638793945 14.079882621765137 6.413586139678955 0.804635763168335 0 9
22.006113052368164 13.965468406677246 6.406394958496094 0.8055388927459717 0 9
22.044336318969727 13.851327896118164 6.399362564086914 0.8064242005348206 0 9
19.866424560546875 12.358866691589355 5.750961780548096 0.2800231873989105 0 9
19.63736343383789 12.094452857971191 5.668891429901123 0.28407734632492065 0 9
19.41468620300293 11.8374605178833 5.589217185974121 0.2881265878677368 0 9
27.278827667236328 16.464902877807617 7.831837177276611 0.972364604473114 0 9
27.3253116607666 16.326093673706055 7.824069499969482 0.9733293056488037 0 9
27.371679306030273 16.187538146972656 7.816472053527832 0.9742759466171265 0 9
27.41796875 16.049219131469727 7.809026718139648 0.9752042889595032 0 9
27.464080810546875 15.9111909866333 7.801749229431152 0.9761145114898682 0 9
27.51007843017578 15.77333927154541 7.794623851776123 0.9770064353942871 0 9
21.528593063354492 12.215703010559082 6.084251403808594 0.6398360729217529 0 9
21.66031265258789 12.162245750427246 6.105989933013916 0.628437340259552 0 9
21.79277229309082 12.108320236206055 6.127952575683594 0.6261853575706482 0 9
21.926288604736328 12.054022789001465 6.150216102600098 0.6239185333251953 0 9
22.060819625854492 11.999374389648438 6.17278528213501 0.621637225151062 0 9
22.19644546508789 11.944355010986328 6.195668697357178 0.6193413734436035 0 9
22.333086013793945 11.888983726501465 6.21886682510376 0.6170312762260437 0 9
22.470897674560547 11.833203315734863 6.24238395690918 0.6147063970565796 0 9
22.60982322692871 11.777050971984863 6.266232967376709 0.6123672723770142 0 9
22.749862670898438 11.720468521118164 6.290395259857178 0.6100141406059265 0 9
22.89107322692871 11.663535118103027 6.314908504486084 0.6076464653015137 0 9
23.03349494934082 11.60619068145752 6.339763164520264 0.6052644848823547 0 9
23.177108764648438 11.5483980178833 6.364962100982666 0.6028682589530945 0 9
23.32195281982422 11.490214347839355 6.390513896942139 0.600458025932312 0 9
23.03220558166504 11.2192964553833 6.297248363494873 0.7274633646011353 0 9
22.988672256469727 11.07070255279541 6.271707534790039 0.730426013469696 0 9
22.92753791809082 10.914765357971191 6.241608619689941 0.21364371478557587 0 9
21.83919906616211 10.276679039001465 5.932693958282471 0.7193412780761719 0 9
20.904199600219727 9.722382545471191 5.666791915893555 0.7734320163726807 0 9
20.912343978881836 9.612226486206055 5.657247066497803 0.7747371196746826 0 9
20.920351028442383 9.502421379089355 5.647823333740234 0.7760301828384399 0 9
20.92822265625 9.392929077148438 5.638515472412109 0.7773110270500183 0 9
20.93603515625 9.283769607543945 5.629327297210693 0.7785797119140625 0 9
20.94369125366211 9.174901962280273 5.620256423950195 0.7798361778259277 0 9
20.951190948486328 9.066347122192383 5.611303806304932 0.7810805439949036 0 9
20.95863151550293 8.958086013793945 5.602467060089111 0.7823125720024109 0 9
20.965917587280273 8.850136756896973 5.59374475479126 0.7835323810577393 0 9
20.973125457763672 8.742480278015137 5.585136413574219 0.7847397923469543 0 9
21.825176239013672 8.98291015625 5.801246166229248 0.7356406450271606 0 9
21.824275970458984 8.868203163146973 5.7903733253479 0.7370222210884094 0 9
21.82341766357422 8.753945350646973 5.779669284820557 0.7383871078491211 0 9
21.822675704956055 8.640175819396973 5.769136905670166 0.7397351264953613 0 9
21.82191276550293 8.526777267456055 5.758765697479248 0.7410666346549988 0 9
21.8212890625 8.413847923278809 5.748571872711182 0.7423810958862305 0 9
32.02824020385742 12.184550285339355 8.422996520996094 0.60312420129776 0 9
31.83396339416504 11.94742202758789 8.357711791992188 0.09298800677061081 0 9
32.3864631652832 11.989218711853027 8.488554954528809 0.598466157913208 0 9
32.39287185668945 11.82656192779541 8.476240158081055 0.9199067950248718 0 9
22.641016006469727 8.151229858398438 5.914832592010498 0.4857022166252136 0 9
32.390254974365234 11.497187614440918 8.448210716247559 0.9229581952095032 0 9
32.38886642456055 11.333300590515137 8.434501647949219 0.9244588613510132 0 9
32.38740158081055 11.169862747192383 8.420976638793945 0.9259426593780518 0 9
32.38589859008789 11.006972312927246 8.407659530639648 0.9274097681045532 0 9
32.38435363769531 10.84457015991211 8.394535064697266 0.9288600087165833 0 9
35.941951751708984 11.856796264648438 9.302836418151855 0.9051922559738159 0 9
35.92929458618164 11.674081802368164 9.285909652709961 0.9068425893783569 0 9
34.173866271972656 10.934374809265137 8.819445610046387 0.36752358078956604 0 9
34.556678771972656 10.886152267456055 8.905531883239746 0.42717236280441284 0 9
34.92253875732422 10.829355239868164 8.98720645904541 0.4232904016971588 0 9
35.29521560668945 10.7715425491333 9.070571899414062 0.41939985752105713 0 9
35.674861907958984 10.712597846984863 9.1556978225708 0.41550061106681824 0 9
35.85273361206055 10.590839385986328 9.18906021118164 0.9164002537727356 0 9
35.839881896972656 10.412363052368164 9.173689842224121 0.9179353713989258 0 9
35.82695388793945 10.234511375427246 9.158537864685059 0.9194540977478027 0 9
35.814022064208984 10.057168006896973 9.143597602844238 0.9209561347961426 0 9
35.80105209350586 9.880410194396973 9.128877639770508 0.9224414825439453 0 9
35.78806686401367 9.704179763793945 9.114358901977539 0.9239104986190796 0 9
36.20142364501953 9.642069816589355 9.208521842956543 0.7815406322479248 0 9
36.287967681884766 9.490898132324219 9.219614028930664 0.7806004881858826 0 9
42.57144546508789 10.930429458618164 10.803466796875 0.7611985206604004 0 9
42.562049865722656 10.724648475646973 10.788759231567383 0.7622361779212952 0 9
42.552791595458984 10.519453048706055 10.77433967590332 0.7632564306259155 0 9
6.61746072769165 -2.620058536529541 1.7494195699691772 0.8083181977272034 0 6
6.59890604019165 -2.6470117568969727 1.747638463973999 0.948651134967804 0 6
6.600566387176514 -2.6821484565734863 1.7512493133544922 0.5250861644744873 0 6
11.391327857971191 -6.129941463470459 3.17964506149292 0.6014856100082397 0 3
11.29955005645752 -6.146093845367432 3.1616909503936768 0.6049010157585144 0 3
11.208807945251465 -6.162070274353027 3.1440019607543945 0.6083046197891235 0 3
11.119023323059082 -6.177890300750732 3.1265761852264404 0.6116956472396851 0 3
11.030253410339355 -6.193495750427246 3.1093990802764893 0.6150747537612915 0 3
11.003125190734863 -6.243378639221191 3.1096010208129883 0.748384952545166 0 3
10.990546226501465 -6.301620960235596 3.1140236854553223 0.6217585206031799 0 3
10.903554916381836 -6.316933631896973 3.0973756313323975 0.6251001954078674 0 3
10.817500114440918 -6.332070350646973 3.08096981048584 0.6284287571907043 0 3
10.732343673706055 -6.347070217132568 3.0647988319396973 0.631744921207428 0 3
10.648046493530273 -6.361914157867432 3.048854351043701 0.6350485682487488 0 3
10.564667701721191 -6.37658166885376 3.0331382751464844 0.6383386254310608 0 3
10.482109069824219 -6.391132831573486 3.0176446437835693 0.6416167616844177 0 3
10.271796226501465 -6.326327800750732 2.9652440547943115 0.6522645354270935 0 3
10.192558288574219 -6.340761661529541 2.9505457878112793 0.6482160687446594 0 3
10.113456726074219 -6.354687213897705 2.935875177383423 0.651454746723175 0 3
10.052030563354492 -6.379238128662109 2.9263339042663574 0.7169530391693115 0 3
10.064667701721191 -6.450780868530273 2.93839168548584 0.7140061855316162 0 3
10.017714500427246 -6.484277248382568 2.9331653118133545 0.6610095500946045 0 3
9.940605163574219 -6.497870922088623 2.919097423553467 0.6641952991485596 0 3
9.864198684692383 -6.511327743530273 2.9052226543426514 0.6673680543899536 0 3
9.78857421875 -6.524628639221191 2.891533851623535 0.6705267429351807 0 3
9.713651657104492 -6.537831783294678 2.8780338764190674 0.673672080039978 0 3
9.639374732971191 -6.55089807510376 2.864712953567505 0.67680424451828 0 3
9.565800666809082 -6.563847541809082 2.851577043533325 0.6799225807189941 0 3
9.492890357971191 -6.576699256896973 2.8386168479919434 0.683026909828186 0 3
9.420663833618164 -6.589414119720459 2.8258275985717773 0.6861180663108826 0 3
9.349042892456055 -6.602011680603027 2.8132128715515137 0.6891950964927673 0 3
9.151347160339355 -6.524140357971191 2.7625038623809814 0.6923434138298035 0 3
9.081992149353027 -6.536366939544678 2.750392198562622 0.6953926682472229 0 3
9.0132417678833 -6.548476219177246 2.738438129425049 0.6984272599220276 0 3
8.963476181030273 -6.57400369644165 2.7322640419006348 0.671293318271637 0 3
8.97607421875 -6.645410060882568 2.745163917541504 0.6681383848190308 0 3
8.920097351074219 -6.66613245010376 2.737165689468384 0.7073631882667542 0 3
8.852773666381836 -6.677988052368164 2.7256875038146973 0.7103423476219177 0 3
8.786073684692383 -6.68972635269165 2.7143609523773193 0.7133063673973083 0 3
8.719902038574219 -6.701366901397705 2.703181505203247 0.7162562608718872 0 3
8.654276847839355 -6.712929725646973 2.692148447036743 0.7191913723945618 0 3
8.589179039001465 -6.724374771118164 2.681260585784912 0.7221127152442932 0 3
8.524609565734863 -6.735761642456055 2.6705105304718018 0.7250190377235413 0 3
8.460566520690918 -6.747050762176514 2.659900665283203 0.7279106974601746 0 3
8.396991729736328 -6.758242130279541 2.649428367614746 0.7307877540588379 0 3
8.333945274353027 -6.769335746765137 2.639089822769165 0.7336503267288208 0 3
8.271347045898438 -6.780351638793945 2.6288886070251465 0.736498236656189 0 3
8.209296226501465 -6.791269302368164 2.6188135147094727 0.7393309473991394 0 3
8.14761734008789 -6.802128791809082 2.608869791030884 0.7421496510505676 0 3
8.086464881896973 -6.812910079956055 2.5990545749664307 0.7449526190757751 0 3
7.8837890625 -6.702851295471191 2.543548583984375 0.7478183507919312 0 3
7.824628829956055 -6.713281154632568 2.5341546535491943 0.7505910396575928 0 3
7.765468597412109 -6.72326135635376 2.5247411727905273 0.6369813084602356 0 3
7.695566177368164 -6.723378658294678 2.511793375015259 0.6402646899223328 0 3
7.626327991485596 -6.723515510559082 2.4990291595458984 0.6435354351997375 0 3
7.557851314544678 -6.723652362823486 2.4864439964294434 0.6467917561531067 0 3
7.494042873382568 -6.727382659912109 2.475369453430176 0.7641435265541077 0 3
7.437675476074219 -6.737324237823486 2.466712474822998 0.7668247222900391 0 3
7.386152267456055 -6.751230239868164 2.459639549255371 0.7497898936271667 0 3
7.33556604385376 -6.765703201293945 2.4528920650482178 0.7518529891967773 0 3
7.285292625427246 -6.780038833618164 2.446218490600586 0.7539035081863403 0 3
7.235214710235596 -6.794296741485596 2.439622163772583 0.7559422254562378 0 3
7.185370922088623 -6.808437347412109 2.433100461959839 0.7579688429832458 0 3
7.135781288146973 -6.822499752044678 2.4266536235809326 0.7599828243255615 0 3
7.086464881896973 -6.836445331573486 2.420278310775757 0.76198410987854 0 3
7.037304401397705 -6.850312232971191 2.4139764308929443 0.7634916305541992 0 3
7.001523494720459 -6.876953125 2.4122676849365234 0.23910921812057495 0 3
7.026679515838623 -6.9638671875 2.4316670894622803 0.7927873730659485 0 3
10.709745407104492 10.709707260131836 3.4569387435913086 0.6462655663490295 0 9
10.81234359741211 10.715703010559082 3.4745075702667236 0.6429981589317322 0 9
10.916034698486328 10.721757888793945 3.4923243522644043 0.639717698097229 0 9
11.020800590515137 10.727910041809082 3.510396957397461 0.6364240646362305 0 9
11.126660346984863 10.734101295471191 3.5287275314331055 0.6331176161766052 0 9
11.23355484008789 10.740331649780273 3.5473239421844482 0.6297988891601562 0 9
11.341659545898438 10.746679306030273 3.566189765930176 0.6264670491218567 0 9
11.45091724395752 10.75308609008789 3.5853309631347656 0.62312251329422 0 9
11.561327934265137 10.759550094604492 3.604753017425537 0.6197652816772461 0 9
11.672948837280273 10.766093254089355 3.6244564056396484 0.616395890712738 0 9
11.785840034484863 10.772714614868164 3.644458293914795 0.6130134463310242 0 9
11.873788833618164 10.755682945251465 3.6566848754882812 0.933468222618103 0 9
10.163846969604492 9.124042510986328 3.1174440383911133 0.9210928082466125 0 9
10.190019607543945 9.06527328491211 3.112961769104004 0.9224187135696411 0 9
10.216113090515137 9.006698608398438 3.1085565090179443 0.9237261414527893 0 9
11.986190795898438 10.471991539001465 3.632814645767212 0.9396018981933594 0 9
12.014042854309082 10.401620864868164 3.627065658569336 0.94109046459198 0 9
12.041776657104492 10.33144474029541 3.6214077472686768 0.9425609111785889 0 9
12.069453239440918 10.261484146118164 3.615837574005127 0.944013237953186 0 9
12.096952438354492 10.191699028015137 3.610351800918579 0.9454476833343506 0 9
12.124433517456055 10.122148513793945 3.604952096939087 0.9468638896942139 0 9
12.151796340942383 10.052812576293945 3.599635124206543 0.9482619166374207 0 9
12.179081916809082 9.983652114868164 3.5944063663482666 0.9496418237686157 0 9
12.206269264221191 9.914668083190918 3.5892598628997803 0.9510036706924438 0 9
12.233359336853027 9.845878601074219 3.5841970443725586 0.9523468613624573 0 9
12.260371208190918 9.777265548706055 3.5792160034179688 0.9536721706390381 0 9
12.287284851074219 9.708847045898438 3.5743184089660645 0.9549789428710938 0 9
12.31412124633789 9.640585899353027 3.5695033073425293 0.9562675356864929 0 9
12.340859413146973 9.572519302368164 3.5647659301757812 0.957537829875946 0 9
12.36751937866211 9.504590034484863 3.560110092163086 0.9587895274162292 0 9
12.394121170043945 9.43685531616211 3.555537223815918 0.9600229263305664 0 9
19.272499084472656 14.537909507751465 5.509997367858887 0.4819823205471039 0 9
18.820722579956055 14.065038681030273 5.362730503082275 0.5170734524726868 0 9
19.546932220458984 14.471464157104492 5.551095008850098 0.8211067318916321 0 9
19.757030487060547 14.490195274353027 5.592236042022705 0.5949923396110535 0 9
19.720956802368164 14.328065872192383 5.56376314163208 0.5980374217033386 0 9
19.685253143310547 14.167597770690918 5.535695552825928 0.6010693907737732 0 9
19.649940490722656 14.008729934692383 5.50803804397583 0.6040880680084229 0 9
20.136249542236328 14.219550132751465 5.62639856338501 0.8595978021621704 0 9
20.20439338684082 14.13222599029541 5.627664566040039 0.8594047427177429 0 9
20.27259635925293 14.044843673706055 5.629047870635986 0.8591930270195007 0 9
20.8345890045166 14.296249389648438 5.767221450805664 0.9676257967948914 0 9
20.91796875 14.2158203125 5.772583961486816 0.9667271971702576 0 9
21.425506591796875 14.420585632324219 5.894728660583496 0.6752312779426575 0 9
21.503671646118164 14.33339786529541 5.898471355438232 0.6748027801513672 0 9
21.58199119567871 14.246112823486328 5.902359485626221 0.6743583679199219 0 9
21.660526275634766 14.158788681030273 5.906394958496094 0.6738975644111633 0 9
21.739198684692383 14.071386337280273 5.910575866699219 0.6734209060668945 0 9
21.8072452545166 13.97695255279541 5.911959171295166 0.81376051902771 0 9
21.845428466796875 13.863495826721191 5.905375957489014 0.8146673440933228 0 9
21.883554458618164 13.750311851501465 5.898943901062012 0.8155560493469238 0 9
21.921621322631836 13.637401580810547 5.892656326293945 0.8164266347885132 0 9
27.328397750854492 16.831308364868164 7.325643062591553 0.9691137075424194 0 9
22.440526962280273 13.68236255645752 5.998886585235596 0.7275978326797485 0 9
27.421972274780273 16.551288604736328 7.310613632202148 0.9711055755615234 0 9
27.46859359741211 16.411680221557617 7.303325176239014 0.9720741510391235 0 9
27.51509666442871 16.272363662719727 7.296199798583984 0.9730245471000671 0 9
27.561464309692383 16.133241653442383 7.289209842681885 0.9739565849304199 0 9
27.607694625854492 15.994394302368164 7.28237771987915 0.9748703241348267 0 9
27.65380859375 15.855761528015137 7.275700569152832 0.9757658243179321 0 9
27.699745178222656 15.717324256896973 7.2691650390625 0.9766429662704468 0 9
26.287109375 14.760194778442383 6.880988597869873 0.5985432863235474 0 9
26.206483840942383 14.560625076293945 6.842710018157959 0.6018920540809631 0 9
26.126659393310547 14.363222122192383 6.804967880249023 0.6052303910255432 0 9
26.047636032104492 14.167890548706055 6.767751216888428 0.6085582971572876 0 9
25.96937370300293 13.974687576293945 6.731059551239014 0.6118755340576172 0 9
25.89191436767578 13.783495903015137 6.694887638092041 0.6151821613311768 0 9
25.81523323059082 13.594316482543945 6.659201622009277 0.6184779405593872 0 9
25.739276885986328 13.40712833404541 6.624028205871582 0.6217625141143799 0 9
23.02439308166504 11.861933708190918 5.9115891456604 0.7401830554008484 0 9
23.046249389648438 11.74257755279541 5.903610706329346 0.7411829233169556 0 9
21.187246322631836 10.675878524780273 5.415072917938232 0.7545415163040161 0 9
21.195781707763672 10.56119155883789 5.405082702636719 0.7559359669685364 0 9
21.204179763793945 10.4468355178833 5.395213603973389 0.7573186755180359 0 9
21.212459564208984 10.33285140991211 5.385467529296875 0.7586895227432251 0 9
21.220605850219727 10.219257354736328 5.37584114074707 0.7600480318069458 0 9
21.22865104675293 10.1060152053833 5.3663330078125 0.7613945603370667 0 9
21.236562728881836 9.993124961853027 5.356944561004639 0.7627291679382324 0 9
20.7291202545166 9.64095687866211 5.217976093292236 0.7308669090270996 0 9
20.830801010131836 9.574746131896973 5.232694149017334 0.7288110256195068 0 9
20.93292999267578 9.508124351501465 5.247581481933594 0.7267438173294067 0 9
21.035585403442383 9.441113471984863 5.26263427734375 0.7246646881103516 0 9
21.138729095458984 9.373671531677246 5.277865886688232 0.7225738763809204 0 9
21.242401123046875 9.305761337280273 5.293266296386719 0.7204710841178894 0 9
21.28873062133789 9.21240234375 5.294464111328125 0.7717300653457642 0 9
21.29574203491211 9.102187156677246 5.28599214553833 0.7729669213294983 0 9
21.302637100219727 8.992284774780273 5.277627944946289 0.7741914987564087 0 9
21.309432983398438 8.882675170898438 5.2693772315979 0.7754036784172058 0 9
21.31607437133789 8.773378372192383 5.261239051818848 0.7766036987304688 0 9
21.322635650634766 8.664374351501465 5.253204345703125 0.7777910828590393 0 9
21.329082489013672 8.5556640625 5.245280742645264 0.7789660692214966 0 9
21.620975494384766 8.560293197631836 5.307560920715332 0.7495823502540588 0 9
21.620624542236328 8.44814395904541 5.298120021820068 0.7509187459945679 0 9
21.52994155883789 8.301504135131836 5.266715049743652 0.4397432208061218 0 9
21.62007713317871 8.22499942779541 5.279681205749512 0.7535411715507507 0 9
22.547460556030273 8.462167739868164 5.496809005737305 0.48722535371780396 0 9
22.73353385925293 8.415801048278809 5.532922267913818 0.4840456247329712 0 9
22.92205047607422 8.36880874633789 5.569594383239746 0.48085838556289673 0 9
32.62312316894531 11.744979858398438 7.913880348205566 0.9185130000114441 0 9
32.62136459350586 11.579237937927246 7.900774955749512 0.9200364351272583 0 9
32.619590759277344 11.414023399353027 7.887852668762207 0.9215430021286011 0 9
32.617794036865234 11.249335289001465 7.875126838684082 0.9230326414108276 0 9
32.61589813232422 11.085136413574219 7.862576961517334 0.9245055317878723 0 9
32.61392593383789 10.9214448928833 7.8502197265625 0.9259614944458008 0 9
32.61195373535156 10.758261680603027 7.838034629821777 0.9274004697799683 0 9
36.20146560668945 11.762499809265137 8.68796443939209 0.9035782217979431 0 9
36.18816375732422 11.578866958618164 8.672221183776855 0.9052188396453857 0 9
36.174861907958984 11.395878791809082 8.656692504882812 0.906842827796936 0 9
36.16156005859375 11.213574409484863 8.641375541687012 0.9084503650665283 0 9
36.1481819152832 11.031835556030273 8.62626838684082 0.9100411534309387 0 9
36.13486099243164 10.85074234008789 8.611369132995605 0.9116156101226807 0 9
36.12144470214844 10.670233726501465 8.596674919128418 0.9131733775138855 0 9
36.10800552368164 10.490273475646973 8.582189559936523 0.9147148728370667 0 9
36.09455108642578 10.31093692779541 8.56790542602539 0.916239321231842 0 9
36.081111907958984 10.13216781616211 8.553828239440918 0.9177474975585938 0 9
40.47052764892578 11.169081687927246 9.582463264465332 0.6789859533309937 0 9
40.51105499267578 10.98486328125 9.58028507232666 0.6791405081748962 0 9
40.551307678222656 10.800643920898438 9.578252792358398 0.6792849898338318 0 9
40.591346740722656 10.616445541381836 9.5763521194458 0.6794195771217346 0 9
42.07374954223633 10.80263614654541 9.914546012878418 0.9026435613632202 0 9
42.04636764526367 10.594687461853027 9.8967866897583 0.9042625427246094 0 9
42.1728515625 10.425527572631836 9.915446281433105 0.7731726169586182 0 9
6.61669921875 -2.619745969772339 1.62427818775177 0.8116025328636169 0 6
6.598203182220459 -2.646738290786743 1.6226372718811035 0.9524990916252136 0 6
6.599531173706055 -2.681699275970459 1.6259081363677979 0.8199148774147034 0 6
11.391308784484863 -6.129902362823486 2.952531576156616 0.6038616299629211 0 3
11.299530982971191 -6.146074295043945 2.935864210128784 0.6072903275489807 0 3
11.208749771118164 -6.162070274353027 2.9194347858428955 0.6107074618339539 0 3
11.119003295898438 -6.177870750427246 2.9032487869262695 0.6141113042831421 0 3
11.030234336853027 -6.193495750427246 2.887295961380005 0.6175042390823364 0 3
11.002812385559082 -6.243203163146973 2.887411117553711 0.7513612508773804 0 3
10.990468978881836 -6.301581859588623 2.891583204269409 0.6242167353630066 0 3
10.90347671508789 -6.316914081573486 2.876127243041992 0.6275715231895447 0 3
10.817421913146973 -6.332070350646973 2.8608946800231934 0.6309133172035217 0 3
10.732284545898438 -6.347031116485596 2.8458759784698486 0.6342424750328064 0 3
10.6480073928833 -6.361875057220459 2.831073760986328 0.63755863904953 0 3
10.564589500427246 -6.376562595367432 2.8164758682250977 0.6408622860908508 0 3
10.482030868530273 -6.391093730926514 2.802088975906372 0.6441532969474792 0 3
10.272284507751465 -6.326621055603027 2.7535817623138428 0.6548081636428833 0 3
10.192578315734863 -6.340800762176514 2.7398178577423096 0.6507725715637207 0 3
10.113495826721191 -6.354745864868164 2.7261922359466553 0.6540237665176392 0 3
10.051718711853027 -6.37902307510376 2.717230796813965 0.719805121421814 0 3
10.06435489654541 -6.450585842132568 2.728440761566162 0.716846227645874 0 3
10.017656326293945 -6.484257698059082 2.723651647567749 0.663622260093689 0 3
9.940546989440918 -6.49783182144165 2.7105846405029297 0.6668208241462708 0 3
9.864179611206055 -6.511269569396973 2.6976988315582275 0.670006275177002 0 3
9.788515090942383 -6.524589538574219 2.684990882873535 0.6731773614883423 0 3
9.713554382324219 -6.537792682647705 2.672454833984375 0.6763356924057007 0 3
9.639335632324219 -6.550859451293945 2.660085678100586 0.6794794201850891 0 3
9.565741539001465 -6.563827991485596 2.6478874683380127 0.6826101541519165 0 3
9.49283218383789 -6.576640605926514 2.6358511447906494 0.6857273578643799 0 3
9.420585632324219 -6.589375019073486 2.6239771842956543 0.688830554485321 0 3
9.349003791809082 -6.601992130279541 2.61226224899292 0.6919199228286743 0 3
9.151406288146973 -6.524179458618164 2.5652008056640625 0.6950737833976746 0 3
9.019082069396973 -6.491093635559082 2.5362558364868164 0.7999935746192932 0 3
8.961953163146973 -6.51123046875 2.5283803939819336 0.802497923374176 0 3
8.895976066589355 -6.524472713470459 2.517997980117798 0.704220712184906 0 3
8.828749656677246 -6.536327838897705 2.5072481632232666 0.7072395086288452 0 3
8.76210880279541 -6.548085689544678 2.496642589569092 0.7102437019348145 0 3
8.696015357971191 -6.559706687927246 2.486178159713745 0.7132337093353271 0 3
