ply
format ascii 1.0
element vertex 594
property float32 x
property float32 y
property float32 z
property float32 CosAngle
property uint32 ObjIdx
property uint32 ObjTag
end_header
8.275858879089355 -8.201923370361328 0.29057586193084717 0.7142430543899536 0 3
32.23786163330078 14.817997932434082 0.29488158226013184 0.9509473443031311 487 7
32.302528381347656 14.672470092773438 0.2948731780052185 0.39988166093826294 487 7
32.343624114990234 14.5164155960083 0.2946501076221466 0.7170543670654297 487 6
41.23053741455078 15.685556411743164 0.36663907766342163 0.3415396213531494 505 8
44.86069107055664 10.23917007446289 0.382437139749527 0.9780929088592529 0 4
44.97102355957031 10.052236557006836 0.3829907178878784 0.8361752033233643 0 4
38.108116149902344 -2.225908041000366 0.3172680735588074 0.9671278595924377 0 6
25.03961944580078 -2.253603458404541 0.2089504897594452 0.7978789806365967 488 7
25.04123878479004 -2.3670995235443115 0.20905226469039917 0.7974969148635864 488 7
43.37575149536133 -5.677509784698486 0.36358198523521423 0.31421297788619995 0 3
18.769208908081055 -2.542470693588257 0.15741974115371704 0.8990514278411865 0 6
18.794891357421875 -2.631904125213623 0.15773360431194305 0.4115038216114044 0 6
41.57424545288086 -6.012099266052246 0.34913161396980286 0.944978654384613 0 3
40.74565505981445 -6.079091548919678 0.3424038589000702 0.33123549818992615 0 3
40.53502655029297 -6.233778953552246 0.3408570885658264 0.3354347348213196 0 3
39.67660903930664 -6.284169673919678 0.3338688611984253 0.33968088030815125 0 3
39.16547775268555 -6.383525371551514 0.32980772852897644 0.3430234491825104 0 3
38.79625701904297 -6.502236366271973 0.3269410729408264 0.34808722138404846 0 3
38.30406951904297 -6.596630573272705 0.32304030656814575 0.3522911071777344 0 3
31.80866050720215 -5.625087738037109 0.2684706151485443 0.31587696075439453 0 3
31.36463737487793 -5.691845417022705 0.2649378776550293 0.36067816615104675 0 3
30.97955894470215 -5.765693187713623 0.26189467310905457 0.36486005783081055 0 3
30.43967628479004 -5.806689262390137 0.25755706429481506 0.9293571710586548 0 3
30.264793395996094 -5.914208889007568 0.25629499554634094 0.37320223450660706 0 3
29.904598236083984 -5.983290672302246 0.25347837805747986 0.3773621618747711 0 3
29.35293960571289 -6.010048866271973 0.24901992082595825 0.9243043661117554 0 3
29.179052352905273 -6.111025333404541 0.24777373671531677 0.3856586813926697 0 3
28.841981887817383 -6.17565393447876 0.245147243142128 0.3897954225540161 0 3
28.343406677246094 -6.202060222625732 0.24115706980228424 0.9190839529037476 0 3
28.216299057006836 -6.307099342346191 0.24030089378356934 0.39804524183273315 0 3
27.628095626831055 -6.305947303771973 0.2355305403470993 0.4028032422065735 0 3
27.41950225830078 -6.387939453125 0.2339951992034912 0.9136962294578552 0 3
27.258075714111328 -6.479462623596191 0.23286239802837372 0.41035982966423035 0 3
26.59428596496582 -6.447880744934082 0.2274339199066162 0.5422459840774536 0 3
26.545907974243164 -6.562431335449219 0.2272689789533615 0.41852790117263794 0 3
26.260711669921875 -6.617138385772705 0.2250770479440689 0.4225994050502777 0 3
25.980966567993164 -6.67077112197876 0.22293898463249207 0.4266625642776489 0 3
25.706493377685547 -6.723427772521973 0.22084029018878937 0.4307170808315277 0 3
25.437118530273438 -6.775087833404541 0.21878372132778168 0.43476277589797974 0 3
25.068973541259766 -6.797685623168945 0.2158660888671875 0.43880003690719604 0 3
25.00577163696289 -6.901162147521973 0.2155979871749878 0.8965455293655396 0 3
24.554988861083984 -6.895497798919678 0.21197524666786194 0.4468787908554077 0 3
24.32393455505371 -6.948525428771973 0.21024444699287415 0.8925353288650513 0 3
24.296688079833984 -7.058837890625 0.21028335392475128 0.4548591375350952 0 3
24.053661346435547 -7.105478286743164 0.2084568738937378 0.458851158618927 0 3
23.5833683013916 -7.081787109375 0.20465530455112457 0.46293604373931885 0 3
23.413602828979492 -7.145497798919678 0.20345687866210938 0.8842982053756714 0 3
23.326454162597656 -7.233505725860596 0.20297987759113312 0.4707714319229126 0 3
23.099716186523438 -7.276982307434082 0.2012939453125 0.4747260808944702 0 3
22.876708984375 -7.319736003875732 0.1996319591999054 0.478671133518219 0 3
22.459247589111328 -7.297451019287109 0.19626571238040924 0.4820106625556946 0 3
22.37651252746582 -7.381786823272705 0.1958378553390503 0.8736013770103455 0 3
22.25088882446289 -7.451220512390137 0.19502639770507812 0.4904480576515198 0 3
22.041669845581055 -7.491337776184082 0.19348753988742828 0.4943541884422302 0 3
21.835750579833984 -7.530849456787109 0.19197219610214233 0.49825000762939453 0 3
21.42305564880371 -7.496279239654541 0.1886386126279831 0.5027462244033813 0 3
21.348739624023438 -7.577978134155273 0.18828216195106506 0.8624662160873413 0 3
21.216064453125 -7.638251781463623 0.18741104006767273 0.5098775029182434 0 3
18.917470932006836 -6.906786918640137 0.167377769947052 0.2064153105020523 0 3
18.59754753112793 -6.884736061096191 0.16482162475585938 0.5025912523269653 0 3
18.424442291259766 -6.914814472198486 0.16355940699577332 0.5064647197723389 0 3
18.25397491455078 -6.944423675537109 0.1623205542564392 0.5103287100791931 0 3
18.192705154418945 -7.014775276184082 0.16205459833145142 0.7540020942687988 0 3
18.090478897094727 -7.068778991699219 0.16142578423023224 0.7569423913955688 0 3
17.989072799682617 -7.122373104095459 0.16080428659915924 0.7598673701286316 0 3
17.888446807861328 -7.175556659698486 0.16018874943256378 0.7627769708633423 0 3
17.74061393737793 -7.208876609802246 0.1591479480266571 0.926967978477478 0 3
17.67616081237793 -7.275282859802246 0.15886901319026947 0.9286351799964905 0 3
17.611942291259766 -7.341454982757568 0.15858687460422516 0.9302905797958374 0 3
17.547958374023438 -7.407392501831055 0.1583070307970047 0.9319267272949219 0 3
17.484189987182617 -7.473114967346191 0.1580323725938797 0.9335422515869141 0 3
17.424930572509766 -7.540419578552246 0.15780121088027954 0.9988032579421997 0 3
17.387353897094727 -7.617002010345459 0.15776991844177246 0.9990078806877136 0 3
17.349775314331055 -7.693544864654541 0.15774017572402954 0.9991923570632935 0 3
17.31221580505371 -7.770068168640137 0.15771667659282684 0.9993566870689392 0 3
16.365848541259766 -7.433701038360596 0.14939986169338226 0.9041390419006348 0 3
16.325908660888672 -7.504111289978027 0.1493370085954666 0.43551188707351685 0 3
16.23918914794922 -7.552743911743164 0.14885132014751434 0.8994030952453613 0 3
16.240751266479492 -7.642333984375 0.14917892217636108 0.8971174955368042 0 3
16.242353439331055 -7.732275009155273 0.1495101898908615 0.8951264023780823 0 3
16.243955612182617 -7.822665691375732 0.14984862506389618 0.8931500315666199 0 3
16.24553680419922 -7.91344690322876 0.15018844604492188 0.8911231756210327 0 3
16.24711799621582 -8.004638671875 0.15053527057170868 0.8890786170959473 0 3
16.248760223388672 -8.096259117126465 0.1508834809064865 0.8870161175727844 0 3
14.933837890625 -7.524950981140137 0.1389865130186081 0.4587783217430115 0 3
14.63670825958252 -7.457783222198486 0.13653090596199036 0.8840659260749817 0 3
14.615165710449219 -7.529618740081787 0.1366419941186905 0.47564658522605896 0 3
14.513622283935547 -7.559911727905273 0.13600997626781464 0.878875732421875 0 3
14.515068054199219 -7.643681526184082 0.13634368777275085 0.8764165639877319 0 3
14.516532897949219 -7.727880477905273 0.13668197393417358 0.8742698431015015 0 3
14.518016815185547 -7.812470436096191 0.13702529668807983 0.8720829486846924 0 3
14.51952075958252 -7.897548675537109 0.13737152516841888 0.869878351688385 0 3
14.521024703979492 -7.983017444610596 0.1377233862876892 0.8676568865776062 0 3
14.522528648376465 -8.068915367126465 0.13808028399944305 0.8654173016548157 0 3
14.562938690185547 -8.177119255065918 0.13881133496761322 0.8631687164306641 0 3
13.161669731140137 -7.468193054199219 0.1257728487253189 0.5064442157745361 0 3
13.169775009155273 -7.551103115081787 0.12617400288581848 0.5060904026031494 0 3
13.036161422729492 -7.552470684051514 0.12522384524345398 0.5099954605102539 0 3
12.996064186096191 -7.607353210449219 0.1251591444015503 0.8563405871391296 0 3
13.035849571228027 -7.709384441375732 0.125874325633049 0.8543350696563721 0 3
13.036845207214355 -7.789150238037109 0.12622100114822388 0.8519946336746216 0 3
13.037821769714355 -7.869345664978027 0.12657058238983154 0.8496367335319519 0 3
13.038818359375 -7.950028896331787 0.1269238293170929 0.8472615480422974 0 3
11.56680679321289 -7.12389612197876 0.11290527135133743 0.09561938047409058 0 3
11.249208450317383 -6.998134613037109 0.11011062562465668 0.4026002585887909 0 3
11.104501724243164 -6.97741174697876 0.10899917036294937 0.4067041873931885 0 3
10.962675094604492 -6.957118988037109 0.1079130545258522 0.41079962253570557 0 3
10.830683708190918 -6.941728591918945 0.10691878944635391 0.6757616996765137 0 3
10.74691390991211 -6.956298828125 0.10639892518520355 0.679063081741333 0 3
10.663945198059082 -6.970712661743164 0.1058865338563919 0.6823506355285645 0 3
10.581787109375 -6.984990119934082 0.10538162291049957 0.6856244206428528 0 3
10.500429153442383 -6.999130725860596 0.10488280653953552 0.6888839602470398 0 3
10.41982364654541 -7.013134479522705 0.10439101606607437 0.6921298503875732 0 3
10.342880249023438 -7.029013633728027 0.10393432527780533 0.8833658695220947 0 3
10.286845207214355 -7.05862283706665 0.10368835180997849 0.8854600787162781 0 3
10.231083869934082 -7.088095664978027 0.10344558209180832 0.8875361084938049 0 3
10.175546646118164 -7.117431640625 0.10320678353309631 0.8895949125289917 0 3
10.120302200317383 -7.146650314331055 0.10297149419784546 0.8916352987289429 0 3
10.065302848815918 -7.175712585449219 0.10273834317922592 0.8936576843261719 0 3
10.010537147521973 -7.204658031463623 0.10250869393348694 0.8956620693206787 0 3
9.956006050109863 -7.233466625213623 0.10228118300437927 0.8976486921310425 0 3
9.903700828552246 -7.263583660125732 0.10207732766866684 0.9904947876930237 0 3
9.864980697631836 -7.303486347198486 0.10201629251241684 0.991100549697876 0 3
9.826289176940918 -7.343349456787109 0.1019551083445549 0.9916863441467285 0 3
9.787646293640137 -7.38317346572876 0.10189498960971832 0.9922521114349365 0 3
9.749062538146973 -7.422939300537109 0.10184020549058914 0.9927980303764343 0 3
9.710497856140137 -7.462666034698486 0.10178679972887039 0.9933239221572876 0 3
9.671981811523438 -7.502333641052246 0.10173400491476059 0.9938297867774963 0 3
9.633524894714355 -7.541982173919678 0.10168563574552536 0.994315505027771 0 3
9.595067977905273 -7.581591606140137 0.10163833200931549 0.9947813749313354 0 3
9.558222770690918 -7.622411727905273 0.10160995274782181 0.9765146374702454 0 3
9.533437728881836 -7.672900199890137 0.10171081125736237 0.9755388498306274 0 3
9.508612632751465 -7.723485946655273 0.10181457549333572 0.9745436906814575 0 3
9.483720779418945 -7.774189472198486 0.10192092508077621 0.9735286235809326 0 3
9.4587984085083 -7.824970722198486 0.10202895849943161 0.9724940657615662 0 3
9.433808326721191 -7.875907897949219 0.10213913023471832 0.9714397192001343 0 3
9.408759117126465 -7.926904201507568 0.10225219279527664 0.9703661203384399 0 3
9.383651733398438 -7.97805643081665 0.10236968845129013 0.9692726135253906 0 3
9.358495712280273 -8.029306411743164 0.10248488932847977 0.9681599140167236 0 3
9.33828067779541 -8.084970474243164 0.10266082733869553 0.839674711227417 0 3
9.329062461853027 -8.15053653717041 0.102960966527462 0.837229311466217 0 3
9.319814682006836 -8.216493606567383 0.10326537489891052 0.8347671627998352 0 3
9.310478210449219 -8.282841682434082 0.10357238352298737 0.8322880268096924 0 3
9.30111312866211 -8.349579811096191 0.10388229042291641 0.8297921419143677 0 3
9.291669845581055 -8.416728019714355 0.10419967770576477 0.8272794485092163 0 3
9.277441024780273 -8.479950904846191 0.10446548461914062 0.6856058239936829 0 3
9.195575714111328 -8.481181144714355 0.10397155582904816 0.6888657808303833 0 3
9.114481925964355 -8.482392311096191 0.10348296910524368 0.692111074924469 0 3
9.034120559692383 -8.483583450317383 0.10300140082836151 0.6953433156013489 0 3
8.954511642456055 -8.484794616699219 0.1025262400507927 0.6985617876052856 0 3
8.87564468383789 -8.485966682434082 0.1020602360367775 0.701765775680542 0 3
8.797460556030273 -8.48714828491211 0.10159789770841599 0.7049558758735657 0 3
8.719989776611328 -8.488310813903809 0.10114288330078125 0.7081320881843567 0 3
8.64321231842041 -8.489462852478027 0.10069137066602707 0.7112935781478882 0 3
8.567138671875 -8.490585327148438 0.10024917125701904 0.7144404649734497 0 3
29.86174774169922 29.86170768737793 -0.35099196434020996 0.3688448965549469 0 6
42.396610260009766 26.37493133544922 -0.4149883985519409 0.9450371265411377 612 12
44.764793395996094 20.819833755493164 -0.41032546758651733 0.9158118963241577 0 4
44.77012634277344 20.578407287597656 -0.40952375531196594 0.9176050424575806 0 4
44.80195999145508 20.35000991821289 -0.4089820683002472 0.9494506120681763 0 4
32.34299850463867 14.516122817993164 -0.29464614391326904 0.7170681357383728 487 6
44.82242965698242 18.213525772094727 -0.4021128714084625 0.9345120787620544 0 4
44.82756805419922 17.981611251831055 -0.40143248438835144 0.9361000061035156 0 4
44.84963607788086 17.75721549987793 -0.4009760916233063 0.9328064322471619 0 4
44.88290023803711 15.479462623596191 -0.39459747076034546 0.9523137807846069 0 4
44.887821197509766 15.256083488464355 -0.39403119683265686 0.9536734223365784 0 4
44.97805404663086 13.067333221435547 -0.3892829716205597 0.553568959236145 0 4
44.94127655029297 12.838232040405273 -0.38845932483673096 0.9673541784286499 0 4
44.8666877746582 12.599404335021973 -0.38732680678367615 0.9666773080825806 0 4
45.0610237121582 12.436083793640137 -0.38851118087768555 0.989882230758667 0 4
45.04225540161133 11.56493091583252 -0.3865029811859131 0.4690808355808258 0 4
44.898681640625 10.460087776184082 -0.38315412402153015 0.9771857857704163 0 4
44.90449905395508 10.249189376831055 -0.38280776143074036 0.9823209643363953 0 4
45.01585006713867 10.062235832214355 -0.38337233662605286 0.8361966609954834 0 4
47.36313247680664 10.141435623168945 -0.4025680422782898 0.9808527231216431 0 4
10.788779258728027 -0.04842773452401161 -0.08966842293739319 0.5056595206260681 593 13
10.752724647521973 -0.09651366621255875 -0.0893731638789177 0.8885291218757629 593 13
10.752333641052246 -0.14479492604732513 -0.08937301486730576 0.8869926929473877 593 13
10.787890434265137 -0.19370116293430328 -0.08967452496290207 0.49767374992370605 593 13
38.10360336303711 -2.2256152629852295 -0.3172331154346466 0.9672420620918274 0 6
25.323192596435547 -2.279130697250366 -0.21131759881973267 0.4771473705768585 488 6
43.37485122680664 -5.677412033081055 -0.363576203584671 0.3142193555831909 0 3
18.766942977905273 -2.5421581268310547 -0.15740050375461578 0.8991600871086121 0 6
18.7903995513916 -2.631279230117798 -0.1576966792345047 0.4116019606590271 0 6
41.605926513671875 -6.016689300537109 -0.34938856959342957 0.3269718587398529 0 3
40.61639404296875 -6.059814453125 -0.34130918979644775 0.2540120780467987 0 3
40.06907272338867 -6.16213846206665 -0.3369424343109131 0.25730669498443604 0 3
39.551902770996094 -6.264404296875 -0.3328280448913574 0.3400145471096039 0 3
39.03850555419922 -6.362841606140137 -0.32874587178230286 0.343030720949173 0 3
38.79551696777344 -6.502099514007568 -0.3269392251968384 0.34809380769729614 0 3
31.760244369506836 -5.469657897949219 -0.26785263419151306 0.3522984981536865 0 3
31.361825942993164 -5.546064376831055 -0.2646999955177307 0.35649484395980835 0 3
30.972625732421875 -5.620712757110596 -0.2616268992424011 0.36068451404571533 0 3
30.52741050720215 -5.681552410125732 -0.2580763101577759 0.19966544210910797 0 3
30.105146408081055 -5.742900371551514 -0.25472503900527954 0.3690416216850281 0 3
29.743192672729492 -5.812294960021973 -0.2518784999847412 0.3732089698314667 0 3
29.450380325317383 -5.892431735992432 -0.24962356686592102 0.5238912105560303 0 3
29.15422821044922 -5.969365119934082 -0.24733413755893707 0.3816987872123718 0 3
28.814287185668945 -6.034638404846191 -0.24467910826206207 0.38584306836128235 0 3
28.412410736083984 -6.083681583404541 -0.24149657785892487 0.225971981883049 0 3
28.047958374023438 -6.137451171875 -0.23862914741039276 0.3939310312271118 0 3
27.730087280273438 -6.198408126831055 -0.23616011440753937 0.3980516791343689 0 3
27.48768424987793 -6.273896217346191 -0.23433348536491394 0.5468419194221497 0 3
27.21766471862793 -6.340908050537109 -0.23227019608020782 0.4062691628932953 0 3
26.917293548583984 -6.398427486419678 -0.2299516201019287 0.40953850746154785 0 3
26.68692398071289 -6.470341682434082 -0.2282252460718155 0.9104243516921997 0 3
26.545516967773438 -6.562334060668945 -0.22727034986019135 0.4185342788696289 0 3
26.26032257080078 -6.617021560668945 -0.22507812082767487 0.4226059019565582 0 3
25.98055648803711 -6.670693397521973 -0.22293731570243835 0.4266691207885742 0 3
25.706083297729492 -6.723310470581055 -0.2208346575498581 0.43072354793548584 0 3
25.234149932861328 -6.721044540405273 -0.2170376479625702 0.43476927280426025 0 3
24.97208023071289 -6.771396160125732 -0.21504561603069305 0.4394013583660126 0 3
24.71493148803711 -6.820888519287109 -0.2130938619375229 0.44342848658561707 0 3
24.405731201171875 -6.853564262390137 -0.21068786084651947 0.2867051064968109 0 3
24.121122360229492 -6.890575885772705 -0.208495631814003 0.4508644640445709 0 3
23.878036499023438 -6.937236309051514 -0.2066625952720642 0.45486557483673096 0 3
23.641220092773438 -6.983623027801514 -0.20488204061985016 0.5981214046478271 0 3
23.468740463256836 -7.047353267669678 -0.2036598175764084 0.6017236113548279 0 3
23.262392044067383 -7.099365234375 -0.20214401185512543 0.46681374311447144 0 3
23.03475570678711 -7.143056392669678 -0.20043960213661194 0.47094759345054626 0 3
22.81092643737793 -7.186025142669678 -0.1987754851579666 0.47490203380584717 0 3
22.586219787597656 -7.226826190948486 -0.19709303975105286 0.32121986150741577 0 3
22.288721084594727 -7.24206018447876 -0.19478149712085724 0.4826131761074066 0 3
22.076416015625 -7.282763481140137 -0.19320906698703766 0.4865387976169586 0 3
21.867509841918945 -7.322841644287109 -0.19166457653045654 0.49045491218566895 0 3
21.661903381347656 -7.362275123596191 -0.19015014171600342 0.4943608045578003 0 3
21.488388061523438 -7.411025047302246 -0.18891845643520355 0.6339054107666016 0 3
21.3382511138916 -7.466572284698486 -0.18789245188236237 0.6371414065361023 0 3
21.14495086669922 -7.505634784698486 -0.18648482859134674 0.5060182809829712 0 3
20.951005935668945 -7.542821884155273 -0.18506957590579987 0.5098837614059448 0 3
19.026865005493164 -6.946708679199219 -0.16834716498851776 0.9784461259841919 0 3
19.013662338256836 -7.038759708404541 -0.16851043701171875 0.9775099158287048 0 3
18.7889347076416 -7.051610946655273 -0.16679443418979645 0.3653259575366974 0 3
18.253740310668945 -6.944384574890137 -0.16232238709926605 0.5103307962417603 0 3
18.19229507446289 -7.014638423919678 -0.1620507836341858 0.7540185451507568 0 3
18.090087890625 -7.068623065948486 -0.16142241656780243 0.7569587230682373 0 3
17.98868179321289 -7.122216701507568 -0.16079925000667572 0.7598837018013 0 3
17.8880558013916 -7.175419807434082 -0.1601879894733429 0.7627930045127869 0 3
17.74014663696289 -7.208662033081055 -0.1591484099626541 0.9269972443580627 0 3
17.700634002685547 -7.285341739654541 -0.15908843278884888 0.370854914188385 0 3
17.744754791259766 -7.396806240081787 -0.1597813367843628 0.9762228727340698 0 3
17.69391632080078 -7.468994140625 -0.1596250832080841 0.9771854281425476 0 3
16.375146865844727 -6.99905252456665 -0.14802458882331848 0.28046849370002747 0 3
17.555419921875 -7.596904277801514 -0.15898223221302032 0.9749616980552673 0 3
16.375614166259766 -7.173779010772705 -0.14858733117580414 0.2875838875770569 0 3
16.233016967773438 -7.198329925537109 -0.1475854516029358 0.9079521298408508 0 3
16.234344482421875 -7.286279201507568 -0.14789505302906036 0.9060628414154053 0 3
16.235673904418945 -7.374579906463623 -0.1482061743736267 0.9041547179222107 0 3
16.237001419067383 -7.463271141052246 -0.1485232561826706 0.9022283554077148 0 3
16.238447189331055 -7.552392482757568 -0.1488487273454666 0.8991296887397766 0 3
16.278837203979492 -7.660243988037109 -0.14952987432479858 0.8972012996673584 0 3
14.845185279846191 -7.067158222198486 -0.1366494745016098 0.896361768245697 0 3
14.62997055053711 -7.045419692993164 -0.13495682179927826 0.8943634033203125 0 3
16.28358268737793 -7.931962490081787 -0.15054015815258026 0.8913423418998718 0 3
16.285146713256836 -8.023368835449219 -0.1508863866329193 0.8892988562583923 0 3
14.854520797729492 -7.401572227478027 -0.13793258368968964 0.4592960476875305 0 3
14.932997703552246 -7.524501800537109 -0.13897521793842316 0.45880502462387085 0 3
14.770849227905273 -7.526123046875 -0.13777801394462585 0.4628435969352722 0 3
14.61434555053711 -7.529189109802246 -0.13663649559020996 0.4756726920604706 0 3
14.512919425964355 -7.559540748596191 -0.13600386679172516 0.8785561323165894 0 3
14.553290367126465 -7.663798809051514 -0.1367030292749405 0.8764870166778564 0 3
14.554755210876465 -7.748193264007568 -0.1370399445295334 0.874317467212677 0 3
13.131025314331055 -7.066103458404541 -0.12393356114625931 0.3349515199661255 0 3
14.55770492553711 -7.918290615081787 -0.13773392140865326 0.8701079487800598 0 3
14.559188842773438 -8.003973960876465 -0.13808608055114746 0.8678874373435974 0 3
14.560653686523438 -8.090106964111328 -0.1384429931640625 0.8656490445137024 0 3
14.562138557434082 -8.176689147949219 -0.13880355656147003 0.8633933663368225 0 3
13.121376991271973 -7.44534158706665 -0.12539641559123993 0.8622483611106873 0 3
13.169072151184082 -7.550732135772705 -0.12617294490337372 0.5061167478561401 0 3
13.035478591918945 -7.552079677581787 -0.1252020299434662 0.510021984577179 0 3
12.995575904846191 -7.607060432434082 -0.12515060603618622 0.856743335723877 0 3
13.035341262817383 -7.709091663360596 -0.1258685290813446 0.854367733001709 0 3
13.036317825317383 -7.788857460021973 -0.12621337175369263 0.8520268797874451 0 3
13.037333488464355 -7.869071960449219 -0.1265621930360794 0.8496695160865784 0 3
13.038310050964355 -7.949697017669678 -0.12692062556743622 0.8472278118133545 0 3
13.039345741271973 -8.030829429626465 -0.12728087604045868 0.8448355793952942 0 3
11.736669540405273 -7.301376819610596 -0.11487991362810135 0.9771764278411865 0 3
11.205458641052246 -7.040868759155273 -0.10999023169279099 0.40669798851013184 0 3
11.19155216217041 -7.102373123168945 -0.11016754060983658 0.9117056727409363 0 3
11.179657936096191 -7.165419578552246 -0.11036376655101776 0.5521243810653687 0 3
11.072470664978027 -7.167040824890137 -0.10962218791246414 0.5558604001998901 0 3
10.966718673706055 -7.168603420257568 -0.10889343172311783 0.5595849752426147 0 3
10.823290824890137 -7.144384384155273 -0.10778594762086868 0.5632987022399902 0 3
10.759316444396973 -7.171728134155273 -0.10746704041957855 0.5670013427734375 0 3
10.477753639221191 -7.05211877822876 -0.10496902465820312 0.692136824131012 0 3
10.397440910339355 -7.066083908081055 -0.10448256880044937 0.6953688263893127 0 3
10.37997055053711 -7.122529029846191 -0.10462752729654312 0.8854736089706421 0 3
10.323700904846191 -7.152275085449219 -0.10438278317451477 0.8875495791435242 0 3
10.26766586303711 -7.181865215301514 -0.10414046794176102 0.8896083831787109 0 3
10.211904525756836 -7.211337566375732 -0.10390136390924454 0.8916487693786621 0 3
10.156425476074219 -7.240653991699219 -0.10366805642843246 0.8936710357666016 0 3
10.10116195678711 -7.269872665405273 -0.10343612730503082 0.8956758975982666 0 3
10.046152114868164 -7.298935413360596 -0.1032063290476799 0.897662341594696 0 3
9.991376876831055 -7.327900409698486 -0.1029803454875946 0.8996307849884033 0 3
9.903984069824219 -7.332372665405273 -0.10241805762052536 0.9911346435546875 0 3
9.86514663696289 -7.372392177581787 -0.10235916078090668 0.9917200803756714 0 3
9.930927276611328 -7.491220474243164 -0.10338760167360306 0.999436616897583 0 3
9.898759841918945 -7.536923885345459 -0.10340423136949539 0.9992788434028625 0 3
9.86660099029541 -7.582626819610596 -0.10342361032962799 0.999100923538208 0 3
9.834403991699219 -7.628349304199219 -0.1034422293305397 0.9989029765129089 0 3
9.802226066589355 -7.674072265625 -0.10346511751413345 0.9986847639083862 0 3
9.770009994506836 -7.719833850860596 -0.10348968207836151 0.9984465837478638 0 3
9.706796646118164 -7.740888595581055 -0.10318756103515625 0.9969934225082397 0 3
9.705536842346191 -7.81139612197876 -0.10354644805192947 0.9979095458984375 0 3
9.673280715942383 -7.857236385345459 -0.10357772558927536 0.9976109862327576 0 3
9.641005516052246 -7.903095722198486 -0.10361068695783615 0.9972923994064331 0 3
9.608691215515137 -7.949013710021973 -0.10364654660224915 0.9969534873962402 0 3
9.576376914978027 -7.994931697845459 -0.10368423163890839 0.9965947866439819 0 3
9.486074447631836 -7.992040634155273 -0.10308578610420227 0.24139168858528137 0 3
9.421415328979492 -8.010127067565918 -0.1027790829539299 0.9693049192428589 0 3
9.39615249633789 -8.061591148376465 -0.1028970330953598 0.9681919813156128 0 3
9.427900314331055 -8.162607192993164 -0.10364410281181335 0.841048538684845 0 3
9.418447494506836 -8.228681564331055 -0.10394805669784546 0.8386125564575195 0 3
9.408945083618164 -8.295106887817383 -0.10425231605768204 0.8361594676971436 0 3
9.399384498596191 -8.36196231842041 -0.1045602411031723 0.8336897492408752 0 3
9.389784812927246 -8.429189682006836 -0.10487319529056549 0.8312004208564758 0 3
9.360097885131836 -8.478720664978027 -0.10496780276298523 0.6823316216468811 0 3
9.277441024780273 -8.479970932006836 -0.1044686883687973 0.6856053471565247 0 3
9.195556640625 -8.481181144714355 -0.103973388671875 0.6888653039932251 0 3
9.114442825317383 -8.482392311096191 -0.10348174721002579 0.6921117305755615 0 3
9.034111022949219 -8.483583450317383 -0.10300155729055405 0.6953436136245728 0 3
8.954511642456055 -8.484804153442383 -0.10252517461776733 0.6985616087913513 0 3
8.87563419342041 -8.485976219177246 -0.10205871611833572 0.7017658352851868 0 3
8.797480583190918 -8.487128257751465 -0.1015983521938324 0.7049558758735657 0 3
8.720009803771973 -8.488290786743164 -0.10114074498414993 0.7081319689750671 0 3
8.643232345581055 -8.489442825317383 -0.10069183260202408 0.7112937569618225 0 3
8.567138671875 -8.490575790405273 -0.10024841129779816 0.714440643787384 0 3
15.515028953552246 15.515097618103027 -0.5471842885017395 0.6943052411079407 0 4
15.657470703125 15.517606735229492 -0.5497569441795349 0.6910701394081116 0 4
15.801239967346191 15.520136833190918 -0.5523483157157898 0.6878209710121155 0 4
15.94637680053711 15.522714614868164 -0.5549739003181458 0.6845583915710449 0 4
16.092920303344727 15.525301933288574 -0.5576529502868652 0.6812817454338074 0 4
16.240869522094727 15.527929306030273 -0.5603551864624023 0.6779912114143372 0 4
16.390947341918945 15.531161308288574 -0.563121497631073 0.6727902889251709 0 4
16.542177200317383 15.534189224243164 -0.5659177303314209 0.6694655418395996 0 4
16.695009231567383 15.537275314331055 -0.568755567073822 0.6661267280578613 0 4
16.84932518005371 15.540390014648438 -0.5716328024864197 0.6627749800682068 0 4
17.00528335571289 15.543554306030273 -0.5745506882667542 0.6594092845916748 0 4
17.162822723388672 15.546748161315918 -0.577505886554718 0.6560307145118713 0 4
17.321962356567383 15.549941062927246 -0.5805090069770813 0.6526387929916382 0 4
17.482763290405273 15.553193092346191 -0.5835539698600769 0.649233877658844 0 4
17.645341873168945 15.556493759155273 -0.5866427421569824 0.6458151936531067 0 4
17.809598922729492 15.559794425964355 -0.5897778272628784 0.6423841118812561 0 4
17.97563362121582 15.563163757324219 -0.5929543972015381 0.6389402747154236 0 4
18.14344596862793 15.566572189331055 -0.596179723739624 0.63548344373703 0 4
18.313095092773438 15.569979667663574 -0.5994587540626526 0.632013738155365 0 4
18.484678268432617 15.573456764221191 -0.6027745604515076 0.6285309791564941 0 4
18.65813446044922 15.576952934265137 -0.6061568260192871 0.6250359416007996 0 4
18.832860946655273 15.579912185668945 -0.6095436811447144 0.6229123473167419 0 4
19.009912490844727 15.583192825317383 -0.6130024790763855 0.6193969249725342 0 4
19.188915252685547 15.586493492126465 -0.61651211977005 0.6158692836761475 0 4
19.37002944946289 15.589853286743164 -0.6200796365737915 0.612328827381134 0 4
19.55327033996582 15.593232154846191 -0.6237006783485413 0.6087759733200073 0 4
19.738622665405273 15.596650123596191 -0.627370297908783 0.6052114963531494 0 4
19.926219940185547 15.600107192993164 -0.6311014890670776 0.6016339063644409 0 4
20.116004943847656 15.60360336303711 -0.634888768196106 0.5980451703071594 0 4
20.308115005493164 15.607138633728027 -0.638737142086029 0.5944437384605408 0 4
20.502567291259766 15.610732078552246 -0.6426471471786499 0.5908308029174805 0 4
20.699443817138672 15.614384651184082 -0.6466072201728821 0.5872053503990173 0 4
20.898778915405273 15.618056297302246 -0.6506345868110657 0.5835683345794678 0 4
21.100555419921875 15.621767044067383 -0.6547533273696899 0.5799198746681213 0 4
21.307411193847656 15.627352714538574 -0.658967137336731 0.5759531259536743 0 4
21.51453971862793 15.631258964538574 -0.6631991267204285 0.5722801685333252 0 4
21.72432518005371 15.635204315185547 -0.6674954295158386 0.5685956478118896 0 4
21.9368839263916 15.639208793640137 -0.6718605160713196 0.5648999214172363 0 4
22.1522159576416 15.643251419067383 -0.6762987375259399 0.5611926317214966 0 4
22.370418548583984 15.647353172302246 -0.6808122992515564 0.5574740767478943 0 4
22.591552734375 15.651533126831055 -0.6853961944580078 0.5537440776824951 0 4
22.815752029418945 15.655771255493164 -0.6900619268417358 0.5500028133392334 0 4
23.042959213256836 15.660029411315918 -0.6948000192642212 0.546251118183136 0 4
23.27332878112793 15.6643648147583 -0.6996248960494995 0.5424880385398865 0 4
23.506942749023438 15.6687593460083 -0.704513669013977 0.5387139916419983 0 4
23.743621826171875 15.673075675964355 -0.709499180316925 0.5356445908546448 0 4
23.983564376831055 15.677372932434082 -0.7145669460296631 0.5318514704704285 0 4
24.227001190185547 15.681767463684082 -0.7197073101997375 0.5280469059944153 0 4
24.473934173583984 15.68618106842041 -0.7249477505683899 0.5242320895195007 0 4
24.72450065612793 15.690692901611328 -0.7302721738815308 0.5204067230224609 0 4
24.978797912597656 15.695243835449219 -0.7356969118118286 0.5165702700614929 0 4
25.236923217773438 15.699892044067383 -0.7412161231040955 0.5127237439155579 0 4
25.49891471862793 15.704599380493164 -0.7468335032463074 0.5088674426078796 0 4
25.764949798583984 15.709403991699219 -0.7525463700294495 0.5050004124641418 0 4
26.035106658935547 15.714247703552246 -0.7583768367767334 0.5011230707168579 0 4
26.31465721130371 15.722274780273438 -0.7644553780555725 0.49539294838905334 0 4
26.594404220581055 15.727900505065918 -0.770526111125946 0.4914911687374115 0 4
26.878662109375 15.733622550964355 -0.7767084836959839 0.487579345703125 0 4
27.16754913330078 15.739423751831055 -0.7830026149749756 0.4836573302745819 0 4
27.461103439331055 15.745341300964355 -0.7894211411476135 0.4797259271144867 0 4
27.759540557861328 15.751298904418945 -0.7959661483764648 0.4757847785949707 0 4
28.062997817993164 15.757431030273438 -0.8026247024536133 0.4718344807624817 0 4
28.37151336669922 15.763603210449219 -0.8094098567962646 0.4678746163845062 0 4
44.73053741455078 22.287860870361328 -1.246317982673645 0.9044542908668518 0 4
44.73602294921875 22.040555953979492 -1.2436962127685547 0.9063566327095032 0 4
44.74147415161133 21.794227600097656 -1.241112470626831 0.9082410931587219 0 4
44.746883392333984 21.548934936523438 -1.2385761737823486 0.9101070165634155 0 4
44.75231170654297 21.304656982421875 -1.2360682487487793 0.9119547009468079 0 4
44.75770568847656 21.061357498168945 -1.2335913181304932 0.913783848285675 0 4
44.76303482055664 20.818973541259766 -1.231153130531311 0.9155949950218201 0 4
44.76838684082031 20.577606201171875 -1.228747010231018 0.9173873662948608 0 4
44.773719787597656 20.337158203125 -1.2263743877410889 0.9191614985466003 0 4
32.34239196777344 14.515849113464355 -0.8840824961662292 0.716883659362793 487 6
44.784305572509766 19.859012603759766 -1.2217284440994263 0.9226537942886353 0 4
44.78955841064453 19.621259689331055 -1.219461441040039 0.9243720769882202 0 4
44.79477310180664 19.384424209594727 -1.2172247171401978 0.9260718822479248 0 4
44.79998779296875 19.148447036743164 -1.2150133848190308 0.9277527928352356 0 4
44.80522537231445 18.913270950317383 -1.2128453254699707 0.9294150471687317 0 4
44.81041717529297 18.678993225097656 -1.2107070684432983 0.9310587644577026 0 4
44.815574645996094 18.445497512817383 -1.208590030670166 0.9326837062835693 0 4
44.82071304321289 18.212841033935547 -1.2065178155899048 0.9342896938323975 0 4
44.82586669921875 17.980926513671875 -1.2044645547866821 0.9358770847320557 0 4
44.83094787597656 17.749834060668945 -1.2024571895599365 0.9374455213546753 0 4
44.836063385009766 17.519500732421875 -1.200470209121704 0.9389951229095459 0 4
44.84114074707031 17.2899112701416 -1.1985127925872803 0.9405256509780884 0 4
44.84621810913086 17.06108283996582 -1.1965954303741455 0.9420375227928162 0 4
44.85123825073242 16.832958221435547 -1.1946995258331299 0.9435301423072815 0 4
44.85629653930664 16.605575561523438 -1.1928317546844482 0.9450039863586426 0 4
44.8613166809082 16.378856658935547 -1.191003680229187 0.9464586973190308 0 4
44.86627960205078 16.15287971496582 -1.1891971826553345 0.9478942155838013 0 4
44.87127685546875 15.927529335021973 -1.1874264478683472 0.949310839176178 0 4
44.876258850097656 15.702899932861328 -1.1856794357299805 0.9507081508636475 0 4
44.88121795654297 15.478877067565918 -1.1839680671691895 0.9520866274833679 0 4
44.88614273071289 15.25551700592041 -1.1822724342346191 0.9534456729888916 0 4
44.89104461669922 15.032821655273438 -1.180612564086914 0.9547854661941528 0 4
44.8959846496582 14.810673713684082 -1.17898428440094 0.956106424331665 0 4
44.90088653564453 14.589189529418945 -1.1773828268051147 0.9574075937271118 0 4
44.9057502746582 14.368290901184082 -1.1758068799972534 0.95868980884552 0 4
44.91059494018555 14.147958755493164 -1.1742572784423828 0.9599525928497314 0 4
44.91553497314453 13.928232192993164 -1.1727397441864014 0.9611961245536804 0 4
44.92036056518555 13.70907211303711 -1.1712446212768555 0.9624202847480774 0 4
44.92518615722656 13.490439414978027 -1.1697838306427002 0.963624894618988 0 4
44.93002700805664 13.272353172302246 -1.1683462858200073 0.964810311794281 0 4
44.93479537963867 13.05477523803711 -1.1669349670410156 0.9659762382507324 0 4
44.93961715698242 12.837743759155273 -1.1655610799789429 0.9671227335929871 0 4
44.86500930786133 12.598916053771973 -1.1621344089508057 0.966446042060852 0 4
44.88037872314453 12.38621997833252 -1.161084771156311 0.7003461122512817 0 4
44.884910583496094 12.170947074890137 -1.1597787141799927 0.7011229395866394 0 4
44.88938522338867 11.95614242553711 -1.158502221107483 0.7018987536430359 0 4
44.89389419555664 11.74184513092041 -1.1572436094284058 0.7026606798171997 0 4
44.89830780029297 11.527938842773438 -1.1560084819793701 0.70340895652771 0 4
44.90272521972656 11.314520835876465 -1.154807686805725 0.7041433453559875 0 4
44.90711975097656 11.101513862609863 -1.1536246538162231 0.7048639059066772 0 4
44.911434173583984 10.888955116271973 -1.152470350265503 0.7055829763412476 0 4
44.91535949707031 10.676689147949219 -1.1513258218765259 0.4515790641307831 0 4
44.89706039428711 10.459696769714355 -1.1496394872665405 0.9769516587257385 0 4
44.90285873413086 10.248798370361328 -1.1486083269119263 0.9820853471755981 0 4
45.01449966430664 10.061943054199219 -1.150290846824646 0.8359909057617188 0 4
45.88069152832031 10.039599418640137 -1.171268105506897 0.1568818986415863 0 4
46.942527770996094 10.051376342773438 -1.197205662727356 0.19467265903949738 0 4
47.96990966796875 10.046415328979492 -1.2222508192062378 0.1883794218301773 0 4
26.165496826171875 1.1750683784484863 -0.6531838178634644 0.9993294477462769 610 14
26.16737174987793 1.0575097799301147 -0.653103232383728 0.9994491338729858 610 14
23.847822189331055 0.7494433522224426 -0.595016598701477 0.21436253190040588 610 14
23.717782974243164 0.6388183236122131 -0.5916984677314758 0.16865403950214386 610 14
23.679794311523438 0.5314550399780273 -0.5906844735145569 0.16894343495368958 610 14
23.63725471496582 0.424384742975235 -0.5895717740058899 0.15081211924552917 610 14
23.584735870361328 0.3175683617591858 -0.5882179141044617 0.15115858614444733 610 14
10.648154258728027 0.09557616710662842 -0.26555922627449036 0.6397808194160461 593 13
10.649198532104492 0.047783203423023224 -0.26557648181915283 0.6288236379623413 593 13
23.55293846130371 9.765624781721272e-06 -0.5873718857765198 0.14487801492214203 610 14
23.571063995361328 -0.10579100996255875 -0.5878318548202515 0.1453249752521515 610 14
10.739638328552246 -0.09641601145267487 -0.26784026622772217 0.7128630876541138 593 13
10.735888481140137 -0.1445605456829071 -0.26775848865509033 0.7415615320205688 593 13
23.702470779418945 -0.425537109375 -0.5911972522735596 0.16712987422943115 610 14
23.743934631347656 -0.5329003930091858 -0.5922835469245911 0.16682273149490356 610 14
10.661630630493164 -0.28715819120407104 -0.2659797668457031 0.3163957893848419 593 13
10.649481773376465 -0.33467772603034973 -0.2657136619091034 0.4930080771446228 593 13
26.19926643371582 -0.9410644173622131 -0.6537923812866211 0.9984036087989807 610 14
38.0991096496582 -2.2253613471984863 -0.9517461657524109 0.9670891165733337 0 6
25.322450637817383 -2.2790722846984863 -0.6340511441230774 0.47702908515930176 488 6
49.25133514404297 -6.221923828125 -1.2380136251449585 0.950503408908844 0 3
43.373992919921875 -5.677294731140137 -1.090908169746399 0.3141385614871979 0 3
18.764677047729492 -2.5418455600738525 -0.4722343385219574 0.899020254611969 0 6
18.785926818847656 -2.6306543350219727 -0.47306305170059204 0.4115374982357025 0 6
41.60514450073242 -6.016552448272705 -1.0483583211898804 0.3268895447254181 0 3
41.04573059082031 -6.123857498168945 -1.0349464416503906 0.33112460374832153 0 3
40.500457763671875 -6.228446960449219 -1.021889328956604 0.33535444736480713 0 3
39.9687385559082 -6.33043909072876 -1.0091814994812012 0.3395777940750122 0 3
39.14686584472656 -6.380497932434082 -0.9891428351402283 0.3437940180301666 0 3
38.644657135009766 -6.476806640625 -0.9771808981895447 0.3480035364627838 0 3
38.154441833496094 -6.570849418640137 -0.9655221104621887 0.35220617055892944 0 3
31.80770492553711 -5.624911785125732 -0.805540919303894 0.31579890847206116 0 3
31.363563537597656 -5.691650390625 -0.7949314117431641 0.36059093475341797 0 3
30.978544235229492 -5.76549768447876 -0.7858200669288635 0.3647717237472534 0 3
30.602195739746094 -5.837685585021973 -0.776932954788208 0.36894699931144714 0 3
30.23426628112793 -5.908251762390137 -0.7682560682296753 0.37311306595802307 0 3
29.874481201171875 -5.977255821228027 -0.7597882151603699 0.3772716522216797 0 3
29.52250862121582 -6.044775485992432 -0.7515180706977844 0.38142111897468567 0 3
26.778818130493164 -5.608329772949219 -0.6823114156723022 0.9223984479904175 0 3
28.84104347229004 -6.175458908081055 -0.7355532050132751 0.38970014452934265 0 3
28.511043548583984 -6.238759517669678 -0.7278438210487366 0.39382779598236084 0 3
28.18791961669922 -6.300732135772705 -0.7203100323677063 0.3979473412036896 0 3
27.871376037597656 -6.361435413360596 -0.7129400372505188 0.4020591676235199 0 3
27.561201095581055 -6.420947074890137 -0.7057387232780457 0.4061633050441742 0 3
27.275009155273438 -6.483466625213623 -0.6991493105888367 0.45296964049339294 0 3
26.918291091918945 -6.526435375213623 -0.690742015838623 0.40060698986053467 0 3
26.545106887817383 -6.562236309051514 -0.6819236874580383 0.4184248447418213 0 3
26.259950637817383 -6.616943359375 -0.675351083278656 0.42249515652656555 0 3
25.98018455505371 -6.670576095581055 -0.6689174771308899 0.42655742168426514 0 3
25.705692291259766 -6.723232269287109 -0.6626222133636475 0.43061068654060364 0 3
25.4363956451416 -6.774892330169678 -0.6564573645591736 0.43465518951416016 0 3
25.232919692993164 -6.842138290405273 -0.6519937515258789 0.42442798614501953 0 3
25.00379753112793 -6.900634765625 -0.6468621492385864 0.8963691592216492 0 3
24.79141616821289 -6.961884498596191 -0.6421773433685303 0.405582070350647 0 3
24.519384384155273 -7.004364967346191 -0.6359338164329529 0.45074597001075745 0 3
24.272314071655273 -7.051747798919678 -0.6303423643112183 0.4547460079193115 0 3
24.02952003479004 -7.098330020904541 -0.6248584389686584 0.4587368667125702 0 3
23.79092788696289 -7.144091606140137 -0.6194815039634705 0.4627184569835663 0 3
23.556415557861328 -7.189091682434082 -0.614206075668335 0.46669065952301025 0 3
23.325809478759766 -7.233310222625732 -0.6090342402458191 0.47065410017967224 0 3
23.099090576171875 -7.276806354522705 -0.6039632558822632 0.4746072590351105 0 3
22.876123428344727 -7.319580078125 -0.5989838242530823 0.4785511791706085 0 3
22.656766891479492 -7.361649990081787 -0.5940997004508972 0.48248544335365295 0 3
22.44098663330078 -7.403017520904541 -0.5893078446388245 0.4864083230495453 0 3
22.22860336303711 -7.443759441375732 -0.5846035480499268 0.4903234541416168 0 3
22.01959991455078 -7.483837604522705 -0.579984724521637 0.4942282438278198 0 3
21.81387710571289 -7.52331018447876 -0.5754485726356506 0.49812474846839905 0 3
21.611356735229492 -7.562158107757568 -0.5709962248802185 0.5020097494125366 0 3
21.411903381347656 -7.600400447845459 -0.5666224360466003 0.5058847665786743 0 3
21.215517044067383 -7.638075828552246 -0.5623261332511902 0.509749174118042 0 3
21.022098541259766 -7.67516565322876 -0.5581061244010925 0.5136035680770874 0 3
18.63106346130371 -6.897119045257568 -0.49544447660446167 0.9322666525840759 0 3
18.519756317138672 -6.950595378875732 -0.4933093190193176 0.5063362121582031 0 3
18.348407745361328 -6.980380535125732 -0.48957428336143494 0.5101993083953857 0 3
18.191923141479492 -7.014462947845459 -0.48623359203338623 0.753826379776001 0 3
18.0897159576416 -7.068486213684082 -0.48434653878211975 0.7567657232284546 0 3
17.988290786743164 -7.122079849243164 -0.4824826717376709 0.7596900463104248 0 3
17.887664794921875 -7.175243854522705 -0.4806423783302307 0.7625988721847534 0 3
17.79139518737793 -7.22952127456665 -0.47892439365386963 0.9267561435699463 0 3
16.35405158996582 -6.731122970581055 -0.4410373568534851 0.9187058210372925 0 3
16.437841415405273 -6.852040767669678 -0.44412338733673096 0.28853845596313477 0 3
16.250282287597656 -6.859599590301514 -0.4398813545703888 0.29032373428344727 0 3
16.22807502746582 -6.936220645904541 -0.4401187002658844 0.9127402305603027 0 3
16.268310546875 -7.039931297302246 -0.4420642852783203 0.9105854630470276 0 3
16.269794464111328 -7.127431392669678 -0.4429669976234436 0.9091219305992126 0 3
16.27120018005371 -7.215263366699219 -0.44388502836227417 0.9072461128234863 0 3
16.272645950317383 -7.303466796875 -0.44481146335601807 0.9053522348403931 0 3
14.839716911315918 -6.740517616271973 -0.40646710991859436 0.9039605855941772 0 3
16.275516510009766 -7.480966567993164 -0.4467089772224426 0.9015097618103027 0 3
14.625751495361328 -6.802353382110596 -0.4022637903690338 0.9000915884971619 0 3
14.6980562210083 -6.91637659072876 -0.4051000773906708 0.3162209987640381 0 3
14.541552543640137 -6.922626972198486 -0.4016394019126892 0.31895729899406433 0 3
14.503310203552246 -6.984423637390137 -0.4014437794685364 0.8935155868530273 0 3
14.543466567993164 -7.08434534072876 -0.40343260765075684 0.8911550641059875 0 3
14.544853210449219 -7.165946960449219 -0.4043582081794739 0.88954758644104 0 3
14.546181678771973 -7.24791955947876 -0.4052952527999878 0.8874909281730652 0 3
14.54750919342041 -7.330263614654541 -0.40624603629112244 0.8854167461395264 0 3
14.548837661743164 -7.413017272949219 -0.4072071611881256 0.8833243250846863 0 3
14.550166130065918 -7.496142387390137 -0.4081840515136719 0.8812141418457031 0 3
13.111650466918945 -6.829658031463623 -0.36869001388549805 0.8796652555465698 0 3
13.23592758178711 -6.97008752822876 -0.37304243445396423 0.33985602855682373 0 3
13.1013765335083 -6.974501609802246 -0.370138555765152 0.34254008531570435 0 3
12.986337661743164 -6.988251686096191 -0.36777159571647644 0.873876690864563 0 3
12.98739242553711 -7.064169883728027 -0.3686971962451935 0.8716887831687927 0 3
13.027177810668945 -7.161747932434082 -0.37073439359664917 0.8694859743118286 0 3
13.02823257446289 -7.238661766052246 -0.37168624997138977 0.8672629594802856 0 3
13.02928638458252 -7.31594705581665 -0.37264785170555115 0.8650220632553101 0 3
13.030322074890137 -7.393681526184082 -0.37362363934516907 0.8623185157775879 0 3
13.031474113464355 -7.471806526184082 -0.37461501359939575 0.8600393533706665 0 3
13.032607078552246 -7.550380706787109 -0.3756152391433716 0.8577432036399841 0 3
13.033759117126465 -7.629384517669678 -0.3766314685344696 0.8554295897483826 0 3
13.034892082214355 -7.708817958831787 -0.37766218185424805 0.8530986905097961 0 3
13.035888671875 -7.78860330581665 -0.3787004053592682 0.8517537713050842 0 3
13.036904335021973 -7.868818283081055 -0.37975311279296875 0.8493960499763489 0 3
13.0378999710083 -7.949462890625 -0.38081496953964233 0.8470215797424316 0 3
13.038915634155273 -8.0305757522583 -0.3818931579589844 0.84462970495224 0 3
11.736356735229492 -7.301181316375732 -0.3447035253047943 0.976931631565094 0 3
11.205595016479492 -7.040966510772705 -0.330036461353302 0.40657520294189453 0 3
11.062479972839355 -7.020478248596191 -0.3267449736595154 0.41066816449165344 0 3
10.922167778015137 -7.000400066375732 -0.32352492213249207 0.4147548973560333 0 3
10.806581497192383 -6.994931697845459 -0.3210291862487793 0.6788909435272217 0 3
10.723163604736328 -7.009404182434082 -0.31948041915893555 0.6821773648262024 0 3
10.640565872192383 -7.023759841918945 -0.3179571330547333 0.6854502558708191 0 3
10.558720588684082 -7.037997722625732 -0.31645187735557556 0.6887089014053345 0 3
10.477665901184082 -7.052080154418945 -0.314969003200531 0.6919541358947754 0 3
10.397353172302246 -7.066044807434082 -0.313505083322525 0.6951821446418762 0 3
10.379765510559082 -7.122392654418945 -0.31393539905548096 0.8852450847625732 0 3
10.323495864868164 -7.152138710021973 -0.313200980424881 0.887320876121521 0 3
10.26747989654541 -7.181747913360596 -0.3124760389328003 0.8893786072731018 0 3
10.2117280960083 -7.211201190948486 -0.31176191568374634 0.8914188146591187 0 3
10.156220436096191 -7.240537166595459 -0.3110560476779938 0.893440842628479 0 3
10.100956916809082 -7.269755840301514 -0.31035932898521423 0.8954446315765381 0 3
10.045947074890137 -7.298818111419678 -0.3096725344657898 0.8974306583404541 0 3
9.991190910339355 -7.327763557434082 -0.3089942932128906 0.8993985652923584 0 3
9.903739929199219 -7.332158088684082 -0.3073052763938904 0.9908860921859741 0 3
9.86490249633789 -7.372197151184082 -0.3071221709251404 0.9914677143096924 0 3
9.826112747192383 -7.412158012390137 -0.3069477677345276 0.9920333027839661 0 3
9.787353515625 -7.452079772949219 -0.30677902698516846 0.9925770163536072 0 3
9.748652458190918 -7.491982460021973 -0.30661773681640625 0.9931026101112366 0 3
9.709980010986328 -7.531826019287109 -0.3064594864845276 0.9936081767082214 0 3
9.671357154846191 -7.571630477905273 -0.3063102662563324 0.9940938353538513 0 3
9.632753372192383 -7.611376762390137 -0.30616819858551025 0.9945593476295471 0 3
9.59634780883789 -7.652822017669678 -0.30609723925590515 0.9763094186782837 0 3
9.571474075317383 -7.703505516052246 -0.3064042627811432 0.9753340482711792 0 3
9.54654312133789 -7.754306316375732 -0.30671751499176025 0.974338948726654 0 3
