ply
format ascii 1.0
element vertex 1390
property float32 x
property float32 y
property float32 z
property float32 CosAngle
property uint32 ObjIdx
property uint32 ObjTag
end_header
13.6084 7.4308 2.1226 0.1380 0 3
12.7551 8.1973 2.0757 0.5589 0 3
10.8920 8.1537 1.8626 0.6158 0 3
8.2844 7.1786 1.5007 0.2849 0 3
10.7797 -10.7797 1.9591 0.6814 0 3
12.5610 -10.8842 2.1359 0.6282 0 3
14.6783 -10.9881 2.3563 0.5718 0 3
16.8907 -10.8551 2.5802 0.8489 0 3
18.0915 -9.8787 2.6489 0.4507 0 3
21.8638 -9.9849 3.0888 0.3865 0 3
26.3209 -9.8172 3.6101 0.3203 0 3
35.2923 -10.3628 4.7268 0.2526 0 3
37.5645 8.1717 4.9402 0.9625 0 3
27.7464 8.1471 3.7162 0.3061 0 3
23.2791 8.6827 3.1929 0.9189 0 3
15.0041 6.8522 2.1197 0.1298 0 3
14.4809 7.9072 2.1203 0.1298 0 3
12.7550 8.1972 1.9484 0.5595 0 3
10.9822 8.2212 1.7629 0.1289 0 3
8.0870 7.0075 1.3751 0.2921 0 3
10.7798 -10.7798 1.8315 0.6821 0 3
12.5611 -10.8843 1.9967 0.6288 0 3
12.8704 -9.6347 1.9314 0.5521 0 3
16.8904 -10.8548 2.4120 0.8498 0 3
18.0917 -9.8788 2.4764 0.4511 0 3
21.9278 -10.0141 2.8960 0.4046 0 3
26.3214 -9.8174 3.3749 0.3207 0 3
35.2930 -10.3630 4.4189 0.2528 0 3
37.5638 8.1716 4.6183 0.9635 0 3
27.7459 8.1469 3.4740 0.3064 0 3
16.5076 6.1571 2.1166 0.1217 0 3
16.0293 7.3204 2.1170 0.1217 0 3
14.7483 8.0533 2.0187 0.8574 0 3
12.6117 8.1051 1.8010 0.5601 0 3
11.0154 8.2461 1.6531 0.6171 0 3
7.8991 6.8447 1.2557 0.2994 0 3
10.7799 -10.7799 1.7041 0.6827 0 3
12.5612 -10.8844 1.8579 0.6294 0 3
14.5417 -10.8858 2.0304 0.5730 0 3
15.0828 -9.6931 2.0041 0.5136 0 3
18.0920 -9.8790 2.3041 0.4516 0 3
22.1075 -10.0961 2.7166 0.3873 0 3
26.3219 -9.8175 3.1402 0.3210 0 3
35.2939 -10.3632 4.1116 0.2531 0 3
37.5630 8.1714 4.2969 0.9645 0 3
27.3362 8.0267 3.1846 0.3067 0 3
17.7156 6.6076 2.1135 0.1135 0 3
17.2025 7.8562 2.1139 0.1135 0 3
14.7480 8.0531 1.8783 0.8582 0 3
12.6115 8.1050 1.6757 0.5606 0 3
11.0153 8.2460 1.5381 0.6177 0 3
7.7201 6.6896 1.1418 0.3066 0 3
10.7800 -10.7800 1.5769 0.6833 0 3
12.5613 -10.8845 1.7192 0.6300 0 3
14.5419 -10.8860 1.8789 0.5735 0 3
16.8896 -10.8543 2.0767 0.8514 0 3
18.0922 -9.8791 2.1322 0.4520 0 3
22.1371 -10.1097 2.5173 0.3876 0 3
26.3224 -9.8177 2.9059 0.3212 0 3
35.0477 -10.2909 3.7783 0.0738 0 3
37.5622 8.1712 3.9762 0.9654 0 3
27.5529 8.0903 2.9703 0.3070 0 3
19.1114 7.1283 2.1099 0.1053 0 3
17.6470 8.0592 2.0067 0.4385 0 3
14.7476 8.0529 1.7381 0.8590 0 3
12.6114 8.1050 1.5507 0.5611 0 3
11.0152 8.2459 1.4233 0.6183 0 3
7.5494 6.5416 1.0333 0.3138 0 3
9.5368 -9.5368 1.2828 0.6839 0 3
12.5615 -10.8846 1.5809 0.6305 0 3
14.5420 -10.8860 1.7277 0.5739 0 3
16.8892 -10.8541 1.9095 0.8521 0 3
18.0924 -9.8792 1.9606 0.4523 0 3
22.1375 -10.1098 2.3147 0.3879 0 3
26.3228 -9.8179 2.6720 0.3215 0 3
35.2955 -10.3637 3.4987 0.2535 0 3
37.5615 8.1710 3.6560 0.9662 0 3
27.5524 8.0901 2.7311 0.3072 0 3
23.2772 8.6820 2.3629 0.9223 0 3
17.5632 8.0208 1.8364 0.4389 0 3
14.7473 8.0527 1.5981 0.8597 0 3
12.6113 8.1049 1.4258 0.5616 0 3
11.0151 8.2459 1.3087 0.6188 0 3
7.3863 6.4003 0.9296 0.3210 0 3
9.5369 -9.5369 1.1706 0.6844 0 3
11.0556 -9.5797 1.2697 0.6310 0 3
14.5422 -10.8862 1.5767 0.5744 0 3
16.8888 -10.8538 1.7425 0.8528 0 3
18.0927 -9.8794 1.7892 0.4527 0 3
22.1378 -10.1099 2.1124 0.3882 0 3
26.3233 -9.8181 2.4385 0.3217 0 3
35.2963 -10.3640 3.1929 0.2537 0 3
37.5607 8.1709 3.3364 0.9669 0 3
27.5519 8.0900 2.4924 0.3075 0 3
23.2767 8.6818 2.1563 0.9230 0 3
17.6504 8.0607 1.6842 0.4406 0 3
14.7470 8.0525 1.4584 0.8604 0 3
12.6112 8.1048 1.3012 0.5620 0 3
11.0150 8.2458 1.1943 0.6192 0 3
7.2636 6.2940 0.8342 0.6733 0 3
9.5370 -9.5370 1.0587 0.6848 0 3
11.0557 -9.5798 1.1483 0.6314 0 3
12.8652 -9.6308 1.2615 0.5747 0 3
16.8884 -10.8536 1.5758 0.8534 0 3
18.0929 -9.8795 1.6181 0.4530 0 3
22.1381 -10.1101 1.9104 0.3884 0 3
26.3237 -9.8182 2.2053 0.3220 0 3
35.2970 -10.3642 2.8876 0.2538 0 3
37.5600 8.1708 3.0172 0.9676 0 3
23.1576 6.7997 1.8945 0.4872 0 3
23.2762 8.6816 1.9500 0.9237 0 3
17.6553 8.0630 1.5235 0.4408 0 3
14.7466 8.0524 1.3189 0.8610 0 3
12.6110 8.1047 1.1767 0.5624 0 3
11.0149 8.2457 1.0800 0.6197 0 3
7.5570 6.5483 0.7849 0.6738 0 3
9.5371 -9.5371 0.9469 0.6852 0 3
11.0558 -9.5799 1.0270 0.6318 0 3
12.8654 -9.6309 1.1282 0.5751 0 3
15.0832 -9.6934 1.2587 0.5155 0 3
18.0931 -9.8796 1.4472 0.4532 0 3
22.1384 -10.1103 1.7086 0.3887 0 3
26.3242 -9.8184 1.9724 0.3221 0 3
35.2979 -10.3644 2.5826 0.2540 0 3
37.5592 8.1706 2.6984 0.9682 0 3
22.8398 6.7063 1.6711 0.4943 0 3
23.2757 8.6814 1.7440 0.9243 0 3
17.6603 8.0652 1.3630 0.4409 0 3
14.7463 8.0522 1.1795 0.8615 0 3
12.6109 8.1046 1.0524 0.5627 0 3
11.0148 8.2456 0.9659 0.6201 0 3
7.5570 6.5482 0.7020 0.6742 0 3
9.5371 -9.5371 0.8352 0.6856 0 3
11.0559 -9.5799 0.9059 0.6321 0 3
12.8655 -9.6310 0.9951 0.5754 0 3
15.0834 -9.6935 1.1102 0.5157 0 3
18.0933 -9.8797 1.2765 0.4535 0 3
21.9461 -10.0225 1.4939 0.3405 0 3
26.3247 -9.8186 1.7397 0.3223 0 3
35.2987 -10.3646 2.2780 0.2541 0 3
28.2317 6.1415 1.7890 0.0642 0 3
22.5164 6.6114 1.4531 0.4676 0 3
23.2752 8.6812 1.5382 0.9248 0 3
17.6653 8.0675 1.2025 0.4410 0 3
14.7460 8.0520 1.0403 0.8620 0 3
12.6108 8.1045 0.9282 0.5630 0 3
11.0147 8.2455 0.8520 0.6204 0 3
7.5569 6.5481 0.6192 0.6746 0 3
9.5372 -9.5372 0.7236 0.6859 0 3
11.0560 -9.5800 0.7848 0.6324 0 3
12.8656 -9.6311 0.8622 0.5757 0 3
15.0836 -9.6936 0.9619 0.5160 0 3
18.0936 -9.8799 1.1060 0.4537 0 3
21.8475 -9.9774 1.2885 0.2837 0 3
26.3251 -9.8188 1.5073 0.3225 0 3
35.2995 -10.3649 1.9737 0.2542 0 3
32.3966 7.0474 1.7787 0.0560 0 3
22.1885 6.5151 1.2406 0.4747 0 3
23.2747 8.6811 1.3327 0.9253 0 3
17.6702 8.0697 1.0422 0.4411 0 3
14.7456 8.0518 0.9013 0.8624 0 3
12.6106 8.1044 0.8042 0.5633 0 3
11.0146 8.2455 0.7381 0.6207 0 3
7.5569 6.5481 0.5364 0.6749 0 3
9.5373 -9.5373 0.6121 0.6862 0 3
11.0561 -9.5801 0.6639 0.6327 0 3
12.8658 -9.6312 0.7294 0.5759 0 3
15.0837 -9.6937 0.8137 0.5162 0 3
17.5278 -9.5709 0.9063 0.4539 0 3
21.8670 -9.9864 1.0910 0.3892 0 3
26.3256 -9.8189 1.2751 0.3226 0 3
35.3003 -10.3651 1.6696 0.2543 0 3
44.2998 6.3694 2.0311 0.0477 0 3
37.5570 8.1701 1.7443 0.9697 0 3
21.8704 6.4218 1.0344 0.4818 0 3
21.9254 8.1778 1.0620 0.5035 0 3
17.6751 8.0720 0.8818 0.4412 0 3
14.7453 8.0517 0.7624 0.8628 0 3
12.6105 8.1044 0.6803 0.5636 0 3
11.0145 8.2454 0.6244 0.6210 0 3
7.5568 6.5480 0.4538 0.6752 0 3
9.5374 -9.5374 0.5007 0.6864 0 3
11.0610 -9.5844 0.5433 0.6337 0 3
12.8666 -9.6318 0.5966 0.5773 0 3
15.0839 -9.6938 0.6656 0.5164 0 3
17.5280 -9.5710 0.7414 0.4540 0 3
21.1833 -9.6741 0.8645 0.3893 0 3
26.3261 -9.8191 1.0431 0.3227 0 3
35.3011 -10.3654 1.3658 0.2544 0 3
37.5563 8.1699 1.4268 0.9700 0 3
21.5614 6.3310 0.8342 0.4889 0 3
21.6346 8.0694 0.8572 0.5105 0 3
17.6801 8.0743 0.7215 0.4412 0 3
11.7834 6.4343 0.4984 0.5035 0 3
10.0864 6.4821 0.4451 0.5637 0 3
11.0144 8.2453 0.5108 0.6212 0 3
7.5567 6.5480 0.3712 0.6754 0 3
9.5375 -9.5374 0.3894 0.6866 0 3
11.1318 -9.6458 0.4252 0.6330 0 3
12.8660 -9.6314 0.4640 0.5762 0 3
15.0841 -9.6939 0.5176 0.5165 0 3
17.5282 -9.5711 0.5765 0.4541 0 3
21.1836 -9.6742 0.6723 0.3894 0 3
26.3266 -9.8193 0.8111 0.3228 0 3
35.3019 -10.3656 1.0621 0.2545 0 3
35.8530 7.7994 1.0592 0.5382 0 3
21.2613 6.2429 0.6397 0.4959 0 3
21.3448 7.9612 0.6576 0.4824 0 3
13.9548 6.3729 0.4429 0.4407 0 3
11.8840 6.4892 0.3909 0.0312 0 3
12.6103 8.1042 0.4327 0.5639 0 3
10.8907 8.1527 0.3927 0.6213 0 3
7.5567 6.5479 0.2886 0.6756 0 3
9.5375 -9.5375 0.2781 0.6867 0 3
11.1319 -9.6459 0.3037 0.6332 0 3
12.8661 -9.6314 0.3314 0.5763 0 3
15.0842 -9.6940 0.3697 0.5166 0 3
18.0945 -9.8804 0.4250 0.4542 0 3
21.1839 -9.6744 0.4801 0.3895 0 3
26.3270 -9.8195 0.5793 0.3228 0 3
34.1984 -10.0415 0.7348 0.2545 0 3
35.4090 7.7028 0.7471 0.9705 0 3
27.7397 8.1451 0.5960 0.3086 0 3
19.0399 7.1016 0.4190 0.9265 0 3
17.6900 8.0788 0.4009 0.4412 0 3
14.7443 8.0511 0.3464 0.8636 0 3
12.7533 8.1961 0.3126 0.5640 0 3
11.0142 8.2452 0.2837 0.6215 0 3
7.5566 6.5479 0.2061 0.6758 0 3
9.5376 -9.5376 0.1668 0.6868 0 3
11.1320 -9.6460 0.1822 0.6332 0 3
12.8663 -9.6315 0.1988 0.5764 0 3
15.0167 -9.6507 0.2208 0.5167 0 3
18.0947 -9.8805 0.2550 0.4543 0 3
21.8683 -9.9869 0.2974 0.3896 0 3
27.1777 -10.1368 0.3588 0.3229 0 3
34.1991 -10.0417 0.4409 0.2545 0 3
35.6435 7.7538 0.4512 0.2400 0 3
27.7392 8.1449 0.3576 0.3087 0 3
23.2723 8.6801 0.3072 0.9266 0 3
17.6862 8.0771 0.2405 0.4401 0 3
14.7440 8.0509 0.2078 0.8637 0 3
12.7532 8.1960 0.1875 0.5641 0 3
11.0141 8.2451 0.1702 0.6216 0 3
7.5565 6.5478 0.1237 0.6759 0 3
9.5377 -9.5377 0.0556 0.6869 0 3
11.1321 -9.6461 0.0607 0.6333 0 3
12.8664 -9.6316 0.0663 0.5764 0 3
15.0881 -9.6965 0.0739 0.5168 0 3
18.0949 -9.8806 0.0850 0.4543 0 3
21.8687 -9.9871 0.0991 0.3896 0 3
27.1782 -10.1370 0.1196 0.3229 0 3
35.3042 -10.3663 0.1517 0.2546 0 3
41.4042 5.9531 0.1725 0.1702 0 3
28.7949 6.2640 0.1215 0.2400 0 3
27.7387 8.1448 0.1192 0.3087 0 3
23.2718 8.6800 0.1024 0.9267 0 3
17.6761 8.0725 0.0801 0.4404 0 3
14.7437 8.0508 0.0693 0.8638 0 3
12.7530 8.1959 0.0625 0.5642 0 3
11.0140 8.2450 0.0567 0.6216 0 3
7.5565 6.5478 0.0412 0.6759 0 3
9.5378 -9.5378 -0.0556 0.6869 0 3
11.1322 -9.6462 -0.0607 0.6333 0 3
12.8665 -9.6318 -0.0663 0.5764 0 3
15.0932 -9.6998 -0.0740 0.5166 0 3
18.0952 -9.8807 -0.0850 0.4543 0 3
21.8690 -9.9872 -0.0991 0.3896 0 3
27.1787 -10.1371 -0.1196 0.3229 0 3
35.1687 -10.3265 -0.1511 0.9671 0 3
42.1252 3.0129 -0.1741 0.5925 281 12
41.4028 5.9529 -0.1725 0.1702 0 3
28.9946 6.3074 -0.1223 0.9708 0 3
27.5463 8.0883 -0.1184 0.3087 0 3
23.2714 8.6798 -0.1024 0.9267 0 3
17.6661 8.0679 -0.0801 0.4407 0 3
14.7433 8.0506 -0.0693 0.8638 0 3
12.7529 8.1959 -0.0625 0.5642 0 3
8.8266 6.6076 -0.0455 0.5430 0 3
7.5564 6.5477 -0.0412 0.6759 0 3
9.5379 -9.5378 -0.1668 0.6868 0 3
11.1323 -9.6462 -0.1822 0.6332 0 3
12.8666 -9.6318 -0.1988 0.5764 0 3
15.0984 -9.7031 -0.2220 0.5164 0 3
18.0954 -9.8809 -0.2550 0.4543 0 3
21.8693 -9.9874 -0.2974 0.3895 0 3
27.1792 -10.1373 -0.3588 0.3229 0 3
35.1680 -10.3263 -0.4534 0.9670 0 3
42.0154 3.0051 -0.5210 0.7692 281 12
41.0762 5.9059 -0.5133 0.1702 0 3
28.9940 6.3073 -0.3670 0.9707 0 3
27.5458 8.0882 -0.3551 0.3087 0 3
23.2709 8.6796 -0.3072 0.9267 0 3
17.6561 8.0633 -0.2401 0.4409 0 3
14.7430 8.0504 -0.2078 0.8638 0 3
12.7528 8.1958 -0.1875 0.5641 0 3
8.7306 6.5357 -0.1349 0.5490 0 3
7.5563 6.5476 -0.1237 0.6759 0 3
9.5379 -9.5379 -0.2781 0.6867 0 3
11.1324 -9.6463 -0.3037 0.6331 0 3
12.8668 -9.6319 -0.3314 0.5763 0 3
15.1036 -9.7065 -0.3702 0.5162 0 3
18.0956 -9.8810 -0.4251 0.4542 0 3
21.8696 -9.9875 -0.4957 0.3895 0 3
27.1796 -10.1375 -0.5981 0.3228 0 3
35.1673 -10.3261 -0.7557 0.9669 0 3
42.0197 3.0054 -0.8685 0.4589 281 12
41.0748 5.9057 -0.8556 0.1702 0 3
28.9934 6.3072 -0.6117 0.9706 0 3
27.5452 8.0880 -0.5919 0.3086 0 3
16.8648 6.2902 -0.3711 0.3757 0 3
13.9537 6.3724 -0.3163 0.4408 0 3
14.7427 8.0502 -0.3463 0.8637 0 3
12.7526 8.1957 -0.3125 0.5641 0 3
8.7148 6.5238 -0.2244 0.6215 0 3
7.5563 6.5476 -0.2061 0.6758 0 3
9.5380 -9.5380 -0.3894 0.6866 0 3
11.1325 -9.6464 -0.4252 0.6330 0 3
12.8669 -9.6320 -0.4640 0.5762 0 3
15.1087 -9.7098 -0.5185 0.5159 0 3
18.0959 -9.8811 -0.5952 0.4541 0 3
21.8699 -9.9877 -0.6940 0.3894 0 3
27.1801 -10.1377 -0.8374 0.3227 0 3
35.1666 -10.3258 -1.0580 0.9667 0 3
42.0254 3.0057 -1.2163 0.9614 281 12
41.0734 5.9055 -1.1979 0.1701 0 3
28.6661 6.2360 -0.8469 0.2400 0 3
25.0079 7.3430 -0.7524 0.0261 0 3
16.7873 6.2614 -0.5172 0.3756 0 3
13.8897 6.3432 -0.4408 0.4408 0 3
11.7824 6.4337 -0.3875 0.5036 0 3
10.0856 6.4816 -0.3461 0.5639 0 3
8.7490 6.5494 -0.3155 0.6214 0 3
7.5562 6.5475 -0.2886 0.6757 0 3
9.5381 -9.5381 -0.5007 0.6864 0 3
11.1326 -9.6465 -0.5468 0.6328 0 3
12.8670 -9.6321 -0.5967 0.5760 0 3
15.1139 -9.7131 -0.6669 0.5156 0 3
18.0961 -9.8812 -0.7654 0.4540 0 3
21.8702 -9.9878 -0.8925 0.3893 0 3
27.1806 -10.1379 -1.0769 0.3226 0 3
35.1659 -10.3257 -1.3606 0.9665 0 3
47.4956 -10.3321 -1.8044 0.0349 0 2
48.2177 -6.9326 -1.8084 0.0349 0 2
42.0613 3.0083 -1.5654 0.8094 281 12
41.0721 5.9053 -1.5404 0.1701 0 3
28.6654 6.2358 -1.0890 0.2399 0 3
22.1359 6.4997 -0.8564 0.6824 0 3
16.7871 6.2613 -0.6651 0.3755 0 3
13.8895 6.3432 -0.5668 0.4406 0 3
11.7283 6.4042 -0.4961 0.5035 0 3
10.0393 6.4519 -0.4430 0.5638 0 3
8.7489 6.5494 -0.4057 0.6212 0 3
7.5562 6.5475 -0.3712 0.6755 0 3
9.5382 -9.5382 -0.6122 0.6861 0 3
11.1327 -9.6466 -0.6685 0.6326 0 3
12.8671 -9.6322 -0.7294 0.5758 0 3
15.1191 -9.7164 -0.8156 0.5152 0 3
18.0963 -9.8813 -0.9357 0.4538 0 3
21.8706 -9.9880 -1.0911 0.3892 0 3
27.1810 -10.1380 -1.3165 0.3225 0 3
35.1652 -10.3255 -1.6632 0.9662 0 3
38.4215 -8.3581 -1.7844 0.0432 0 2
41.3516 -5.9454 -1.8959 0.0431 0 1
41.7307 -2.9846 -1.8987 0.0430 0 1
41.8866 0.0001 -1.9009 0.0430 0 1
39.4218 2.8195 -1.7936 0.0429 0 2
39.4500 5.6721 -1.8087 0.0429 0 0
28.6647 6.2357 -1.3313 0.2398 0 3
21.9955 6.4585 -1.0403 0.3084 0 3
16.7868 6.2612 -0.8131 0.3754 0 3
13.8893 6.3431 -0.6929 0.4405 0 3
11.7282 6.4041 -0.6064 0.5033 0 3
10.0392 6.4518 -0.5416 0.5636 0 3
8.7488 6.5493 -0.4960 0.6210 0 3
7.5561 6.5474 -0.4537 0.6753 0 3
9.5383 -9.5382 -0.7237 0.6859 0 3
11.1328 -9.6467 -0.7903 0.6323 0 3
12.8731 -9.6366 -0.8627 0.5774 0 3
15.1240 -9.7196 -0.9645 0.5171 0 3
18.0965 -9.8815 -1.1061 0.4536 0 3
21.8709 -9.9881 -1.2899 0.3890 0 3
27.1816 -10.1382 -1.5564 0.3224 0 3
31.6179 -9.2839 -1.7679 0.0515 0 2
32.2527 -7.0162 -1.7708 0.0514 0 2
34.7028 -4.9895 -1.8809 0.0513 0 1
35.0128 -2.5041 -1.8832 0.0513 0 1
35.1370 0.0001 -1.8850 0.0512 0 1
33.0646 2.3648 -1.7784 0.0512 0 2
32.8286 4.7200 -1.7793 0.0512 0 2
12.9065 2.8077 -0.7086 0.9695 0 20
22.1637 6.5078 -1.2392 0.9499 0 3
16.7866 6.2611 -0.9612 0.3753 0 3
13.8891 6.3430 -0.8191 0.4403 0 3
11.7280 6.4041 -0.7169 0.5031 0 3
10.0391 6.4518 -0.6402 0.5634 0 3
8.7487 6.5493 -0.5863 0.6208 0 3
7.5560 6.5473 -0.5364 0.6750 0 3
9.5383 -9.5383 -0.8353 0.6855 0 3
11.0611 -9.5845 -0.9063 0.6349 0 3
12.8674 -9.6324 -0.9953 0.5753 0 3
15.1168 -9.7150 -1.1127 0.5171 0 3
18.0968 -9.8816 -1.2767 0.4534 0 3
21.8712 -9.9882 -1.4888 0.3888 0 3
26.5641 -9.9079 -1.7556 0.0598 0 2
27.2466 -8.0004 -1.7584 0.0597 0 2
28.2021 -6.1350 -1.7872 0.1932 0 2
29.8922 -4.2978 -1.8700 0.0596 0 1
30.1543 -2.1566 -1.8720 0.0595 0 1
30.2569 0.0001 -1.8736 0.0595 0 1
28.4694 2.0362 -1.7674 0.0594 0 2
28.2642 4.0638 -1.7682 0.0594 0 2
12.9062 2.8076 -0.8179 0.9690 0 20
22.1633 6.5077 -1.4303 0.9495 0 3
16.7863 6.2610 -1.1094 0.3751 0 3
13.8890 6.3429 -0.9455 0.4401 0 3
11.7279 6.4040 -0.8274 0.5029 0 3
10.0390 6.4517 -0.7389 0.5631 0 3
8.7487 6.5492 -0.6767 0.6205 0 3
7.5560 6.5473 -0.6191 0.6747 0 3
9.5384 -9.5384 -0.9470 0.6851 0 3
11.0575 -9.5813 -1.0272 0.6317 0 3
12.8675 -9.6325 -1.1284 0.5750 0 3
15.1097 -9.7104 -1.2609 0.5170 0 3
18.0970 -9.8817 -1.4475 0.4531 0 3
21.8715 -9.9884 -1.6880 0.3886 0 3
23.3392 -8.7051 -1.7487 0.0681 0 2
23.9342 -7.0277 -1.7512 0.0680 0 2
25.8855 -5.6311 -1.8597 0.0679 0 1
26.2498 -3.7741 -1.8618 0.0678 0 1
26.4764 -1.8936 -1.8635 0.0677 0 1
26.5639 0.0000 -1.8649 0.0677 0 1
26.5113 1.8962 -1.8659 0.0676 0 1
24.8111 3.5673 -1.7597 0.0676 0 2
12.9060 2.8076 -0.9272 0.9685 0 20
22.1628 6.5076 -1.6216 0.9490 0 3
16.7860 6.2609 -1.2577 0.3749 0 3
13.8888 6.3429 -1.0719 0.4399 0 3
11.7278 6.4039 -0.9381 0.5026 0 3
10.0389 6.4516 -0.8378 0.5628 0 3
8.7486 6.5492 -0.7672 0.6201 0 3
7.5559 6.5473 -0.7019 0.6743 0 3
9.5385 -9.5385 -1.0588 0.6847 0 3
11.0576 -9.5814 -1.1485 0.6313 0 3
12.8677 -9.6326 -1.2617 0.5746 0 3
15.1026 -9.7058 -1.4092 0.5170 0 3
18.0972 -9.8819 -1.6185 0.4528 0 3
20.1754 -9.2138 -1.7410 0.0764 0 2
20.8099 -7.7617 -1.7434 0.0763 0 2
21.3372 -6.2652 -1.7456 0.0762 0 2
23.0737 -5.0194 -1.8535 0.0761 0 1
23.3956 -3.3637 -1.8553 0.0760 0 1
23.5953 -1.6876 -1.8568 0.0760 0 1
23.6713 0.0001 -1.8581 0.0759 0 1
23.6230 1.6896 -1.8590 0.0759 0 1
22.1070 3.1785 -1.7531 0.0758 0 2
12.8551 2.7965 -1.0327 0.9680 0 20
21.6014 6.3427 -1.7672 0.0758 0 0
16.7858 6.2608 -1.4063 0.3747 0 3
13.8886 6.3428 -1.1985 0.4396 0 3
11.7277 6.4038 -1.0489 0.5023 0 3
10.0388 6.4516 -0.9367 0.5625 0 3
8.7485 6.5491 -0.8578 0.6198 0 3
7.5558 6.5472 -0.7848 0.6739 0 3
9.5386 -9.5386 -1.1708 0.6842 0 3
11.0577 -9.5815 -1.2700 0.6308 0 3
12.8678 -9.6327 -1.3952 0.5742 0 3
15.0955 -9.7013 -1.5575 0.5169 0 3
17.5397 -9.5774 -1.7346 0.0847 0 2
18.2029 -8.3130 -1.7369 0.0846 0 2
18.7729 -7.0020 -1.7391 0.0845 0 2
20.0952 -5.9005 -1.8178 0.2535 0 2
20.8102 -4.5270 -1.8485 0.0843 0 1
21.0986 -3.0335 -1.8501 0.0842 0 1
21.2769 -1.5217 -1.8515 0.0842 0 1
21.3441 0.0000 -1.8526 0.0841 0 1
21.2994 1.5234 -1.8534 0.0841 0 1
19.9319 2.8658 -1.7478 0.0841 0 2
12.8548 2.7964 -1.1419 0.9673 0 20
19.3249 5.6743 -1.7481 0.0840 0 2
16.7855 6.2607 -1.5550 0.3744 0 3
13.8884 6.3427 -1.3252 0.4393 0 3
11.7275 6.4038 -1.1598 0.5020 0 3
10.0387 6.4515 -1.0357 0.5621 0 3
8.7484 6.5490 -0.9485 0.6194 0 3
7.5558 6.5471 -0.8678 0.6735 0 3
9.5387 -9.5386 -1.2830 0.6837 0 3
11.0578 -9.5816 -1.3916 0.6304 0 3
12.8679 -9.6328 -1.5288 0.5738 0 3
15.0883 -9.6966 -1.7059 0.5168 0 3
15.9775 -8.7244 -1.7314 0.0929 0 2
16.5797 -7.5716 -1.7336 0.0928 0 2
17.0969 -6.3769 -1.7355 0.0927 0 2
18.5895 -5.4584 -1.8427 0.0926 0 1
18.9488 -4.1220 -1.8444 0.0925 0 1
19.2098 -2.7619 -1.8458 0.0925 0 1
19.3709 -1.3854 -1.8471 0.0924 0 1
19.4310 0.0000 -1.8481 0.0923 0 1
19.3896 1.3868 -1.8489 0.0923 0 1
18.1442 2.6087 -1.7434 0.0923 0 2
12.8546 2.7964 -1.2512 0.9666 0 20
17.5912 5.1653 -1.7437 0.0923 0 2
16.7853 6.2606 -1.7039 0.3741 0 3
13.8882 6.3426 -1.4521 0.4390 0 3
11.7274 6.4037 -1.2709 0.5016 0 3
10.0386 6.4514 -1.1349 0.5617 0 3
8.7483 6.5490 -1.0394 0.6189 0 3
7.5557 6.5471 -0.9509 0.6730 0 3
9.5387 -9.5387 -1.3954 0.6832 0 3
11.0579 -9.5817 -1.5135 0.6298 0 3
12.8680 -9.6329 -1.6627 0.5733 0 3
14.0430 -9.0250 -1.7267 0.1013 0 2
14.6690 -8.0098 -1.7288 0.1011 0 2
15.2202 -6.9508 -1.7307 0.1010 0 2
15.6937 -5.8534 -1.7325 0.1009 0 2
17.0623 -5.0099 -1.8394 0.1008 0 1
17.3908 -3.7831 -1.8409 0.1007 0 1
17.6292 -2.5347 -1.8423 0.1007 0 1
17.7760 -1.2713 -1.8434 0.1006 0 1
17.8303 0.0000 -1.8443 0.1005 0 1
17.7917 1.2725 -1.8450 0.1005 0 1
16.6485 2.3937 -1.7398 0.1005 0 2
12.8543 2.7963 -1.3607 0.9658 0 20
16.1410 4.7394 -1.7401 0.1005 0 2
15.7601 5.8782 -1.7399 0.1005 0 2
13.8881 6.3425 -1.5793 0.4386 0 3
11.7273 6.4036 -1.3821 0.5012 0 3
10.0385 6.4514 -1.2343 0.5612 0 3
8.6741 6.4935 -1.1208 0.6203 0 3
7.5556 6.5470 -1.0341 0.6724 0 3
9.5388 -9.5388 -1.5079 0.6825 0 3
11.0580 -9.5818 -1.6355 0.6293 0 3
12.3365 -9.2350 -1.7225 0.1096 0 2
12.9795 -8.3414 -1.7246 0.1095 0 2
13.5568 -7.4025 -1.7265 0.1093 0 2
14.0650 -6.4233 -1.7284 0.1092 0 2
15.3811 -5.7369 -1.8350 0.1091 0 1
15.7649 -4.6289 -1.8366 0.1090 0 1
16.0674 -3.4952 -1.8380 0.1089 0 1
16.2867 -2.3416 -1.8392 0.1089 0 1
16.4216 -1.1745 -1.8403 0.1088 0 1
16.4712 0.0001 -1.8411 0.1087 0 1
16.4350 1.1755 -1.8418 0.1087 0 1
15.7953 2.2711 -1.7837 0.1909 0 2
12.8541 2.7963 -1.4704 0.9650 0 20
14.7583 4.3335 -1.7193 0.1087 0 1
14.5580 5.4298 -1.7368 0.1087 0 2
13.8879 6.3424 -1.7066 0.4383 0 3
11.7271 6.4035 -1.4935 0.5008 0 3
10.0384 6.4513 -1.3338 0.5607 0 3
8.6741 6.4934 -1.2112 0.6198 0 3
7.5556 6.5470 -1.1175 0.6718 0 3
9.5389 -9.5389 -1.6206 0.6819 0 3
10.8131 -9.3696 -1.7189 0.1179 0 2
11.4675 -8.5844 -1.7209 0.1178 0 2
12.0641 -7.7532 -1.7228 0.1176 0 2
12.5997 -6.8799 -1.7246 0.1175 0 2
13.0711 -5.9694 -1.7263 0.1174 0 2
14.2932 -5.3311 -1.8327 0.1173 0 1
14.6489 -4.3013 -1.8341 0.1172 0 1
14.9292 -3.2476 -1.8355 0.1171 0 1
15.1323 -2.1757 -1.8366 0.1171 0 1
15.2570 -1.0912 -1.8376 0.1170 0 1
15.3026 0.0000 -1.8384 0.1169 0 1
15.2686 1.0921 -1.8390 0.1169 0 1
15.1552 2.1791 -1.8394 0.1169 0 1
12.8538 2.7962 -1.5803 0.9641 0 20
13.8511 4.0671 -1.7343 0.1169 0 2
13.5245 5.0444 -1.7341 0.1169 0 2
13.1276 5.9952 -1.7338 0.1169 0 2
11.7270 6.4035 -1.6052 0.5003 0 3
10.0383 6.4513 -1.4335 0.5602 0 3
8.6740 6.4933 -1.3017 0.6192 0 3
7.5555 6.5469 -1.2010 0.6712 0 3
9.4399 -9.4399 -1.7156 0.1262 0 2
10.1010 -8.7525 -1.7176 0.1261 0 2
10.7114 -8.0184 -1.7195 0.1260 0 2
11.2679 -7.2414 -1.7213 0.1258 0 2
11.7673 -6.4255 -1.7230 0.1257 0 2
12.4558 -5.6883 -1.7597 0.4047 0 2
13.3473 -4.9782 -1.8307 0.1255 0 1
13.6788 -4.0164 -1.8320 0.1254 0 1
13.9398 -3.0324 -1.8333 0.1253 0 1
14.1288 -2.0314 -1.8343 0.1252 0 1
14.2448 -1.0188 -1.8353 0.1252 0 1
14.2869 0.0000 -1.8360 0.1251 0 1
14.2549 1.0196 -1.8366 0.1251 0 1
14.1488 2.0344 -1.8369 0.1251 0 1
12.8407 2.7934 -1.6887 0.9631 0 20
12.9312 3.7970 -1.7319 0.1250 0 2
12.6264 4.7094 -1.7318 0.1251 0 2
12.2560 5.5971 -1.7315 0.1251 0 2
11.7269 6.4034 -1.7170 0.4998 0 3
10.0382 6.4512 -1.5334 0.5596 0 3
8.6739 6.4933 -1.3924 0.6186 0 3
7.5554 6.5469 -1.2847 0.6705 0 3
8.8561 -8.8561 -1.7146 0.1344 0 2
9.4756 -8.2106 -1.7164 0.1343 0 2
10.0476 -7.5215 -1.7182 0.1341 0 2
10.5689 -6.7923 -1.7199 0.1340 0 2
11.0366 -6.0265 -1.7215 0.1339 0 2
12.1427 -5.5454 -1.8275 0.1338 0 1
12.5172 -4.6687 -1.8289 0.1337 0 1
12.8274 -3.7664 -1.8302 0.1336 0 1
13.0716 -2.8435 -1.8314 0.1335 0 1
13.2484 -1.9048 -1.8324 0.1334 0 1
13.3568 -0.9553 -1.8332 0.1334 0 1
13.3959 0.0000 -1.8339 0.1333 0 1
13.3656 0.9559 -1.8344 0.1333 0 1
13.2660 1.9074 -1.8348 0.1332 0 1
12.3472 2.6860 -1.7299 0.1332 0 2
12.1243 3.5600 -1.7299 0.1332 0 2
11.8385 4.4155 -1.7297 0.1332 0 2
11.4914 5.2480 -1.7294 0.1333 0 2
11.0848 6.0528 -1.7290 0.1333 0 2
10.0381 6.4511 -1.6335 0.5590 0 3
8.6737 6.4931 -1.4833 0.6173 0 3
7.5554 6.5468 -1.3686 0.6698 0 3
8.3392 -8.3392 -1.7137 0.1426 0 2
8.9220 -7.7309 -1.7154 0.1424 0 2
9.4600 -7.0817 -1.7171 0.1423 0 2
9.9502 -6.3946 -1.7187 0.1422 0 2
10.3900 -5.6734 -1.7202 0.1421 0 2
11.4308 -5.2202 -1.8260 0.1419 0 1
11.7827 -4.3947 -1.8273 0.1418 0 1
12.0742 -3.5453 -1.8286 0.1417 0 1
12.3037 -2.6765 -1.8296 0.1417 0 1
12.4697 -1.7929 -1.8306 0.1416 0 1
12.5713 -0.8991 -1.8314 0.1415 0 1
12.6079 0.0000 -1.8320 0.1415 0 1
12.5792 0.8997 -1.8325 0.1414 0 1
12.4852 1.7951 -1.8329 0.1414 0 1
11.6204 2.5279 -1.7280 0.1414 0 2
11.4106 3.3504 -1.7281 0.1414 0 2
11.1417 4.1556 -1.7279 0.1414 0 2
10.8151 4.9391 -1.7277 0.1414 0 2
10.4327 5.6967 -1.7272 0.1415 0 2
9.9964 6.4244 -1.7267 0.1415 0 2
8.6736 6.4930 -1.5744 0.6164 0 3
7.5553 6.5468 -1.4527 0.6690 0 3
7.8783 -7.8783 -1.7129 0.1507 0 2
8.4284 -7.3032 -1.7145 0.1506 0 2
8.9361 -6.6895 -1.7161 0.1505 0 2
9.3987 -6.0402 -1.7176 0.1503 0 2
10.2996 -5.6240 -1.8041 0.4489 0 2
10.7962 -4.9304 -1.8247 0.1501 0 1
11.1282 -4.1505 -1.8260 0.1500 0 1
11.4030 -3.3482 -1.8271 0.1499 0 1
11.6193 -2.5276 -1.8281 0.1498 0 1
11.7758 -1.6931 -1.8290 0.1497 0 1
11.8715 -0.8490 -1.8298 0.1497 0 1
11.9058 0.0000 -1.8304 0.1496 0 1
11.8785 0.8496 -1.8309 0.1496 0 1
11.7897 1.6952 -1.8312 0.1496 0 1
11.0849 2.4114 -1.7440 0.2670 0 2
10.7749 3.1638 -1.7265 0.1495 0 2
10.5210 3.9241 -1.7263 0.1496 0 2
10.2127 4.6640 -1.7261 0.1496 0 2
9.8517 5.3794 -1.7257 0.1496 0 2
9.4399 6.0667 -1.7251 0.1497 0 2
8.6735 6.4929 -1.6657 0.6157 0 3
7.5552 6.5467 -1.5369 0.6682 0 3
7.4646 -7.4647 -1.7122 0.1589 0 2
7.9855 -6.9194 -1.7137 0.1587 0 2
8.4661 -6.3377 -1.7152 0.1586 0 2
8.9040 -5.7223 -1.7167 0.1585 0 2
9.8607 -5.3844 -1.8222 0.1584 0 1
10.2270 -4.6705 -1.8235 0.1582 0 1
10.5411 -3.9316 -1.8247 0.1581 0 1
10.8012 -3.1715 -1.8258 0.1580 0 1
11.0057 -2.3941 -1.8268 0.1580 0 1
11.1536 -1.6036 -1.8276 0.1579 0 1
11.2440 -0.8041 -1.8283 0.1578 0 1
11.2763 0.0000 -1.8289 0.1578 0 1
11.2503 0.8046 -1.8294 0.1577 0 1
11.1660 1.6054 -1.8297 0.1577 0 1
11.0240 2.3982 -1.8298 0.1577 0 1
10.2049 2.9964 -1.7250 0.1577 0 2
9.9644 3.7165 -1.7249 0.1577 0 2
9.6725 4.4173 -1.7246 0.1577 0 2
9.3307 5.0950 -1.7243 0.1578 0 2
8.9408 5.7459 -1.7238 0.1578 0 2
8.5050 6.3668 -1.7231 0.1579 0 2
7.5552 6.5466 -1.6214 0.6673 0 3
7.0913 -7.0913 -1.7115 0.1670 0 2
7.5858 -6.5731 -1.7130 0.1669 0 2
8.0420 -6.0202 -1.7144 0.1667 0 2
8.6818 -5.5794 -1.7613 0.5337 0 2
9.3660 -5.1142 -1.8212 0.1665 0 1
9.7136 -4.4360 -1.8225 0.1664 0 1
10.0115 -3.7341 -1.8236 0.1663 0 1
10.2582 -3.0121 -1.8246 0.1662 0 1
10.4522 -2.2737 -1.8255 0.1661 0 1
10.5924 -1.5230 -1.8263 0.1660 0 1
10.6781 -0.7637 -1.8270 0.1660 0 1
10.7085 0.0000 -1.8276 0.1659 0 1
10.6837 0.7642 -1.8280 0.1659 0 1
10.6036 1.5246 -1.8283 0.1658 0 1
10.4688 2.2774 -1.8284 0.1658 0 1
9.6909 2.8455 -1.7237 0.1658 0 2
9.4625 3.5294 -1.7236 0.1658 0 2
9.1854 4.1948 -1.7234 0.1659 0 2
8.8609 4.8385 -1.7230 0.1659 0 2
8.4908 5.4567 -1.7225 0.1659 0 2
8.0770 6.0464 -1.7219 0.1660 0 2
7.5551 6.5466 -1.7061 0.6664 0 3
6.7527 -6.7527 -1.7110 0.1752 0 2
7.2232 -6.2589 -1.7124 0.1750 0 2
7.6705 -5.7420 -1.7167 0.5924 0 2
8.5412 -5.4891 -1.8190 0.1747 0 1
8.9173 -4.8692 -1.8203 0.1746 0 1
9.2479 -4.2234 -1.8215 0.1745 0 1
9.5314 -3.5550 -1.8226 0.1744 0 1
9.7659 -2.8675 -1.8236 0.1743 0 1
9.9504 -2.1645 -1.8244 0.1742 0 1
10.0836 -1.4498 -1.8252 0.1741 0 1
10.1650 -0.7270 -1.8258 0.1741 0 1
10.1939 0.0001 -1.8264 0.1740 0 1
10.1701 0.7274 -1.8268 0.1740 0 1
10.0938 1.4513 -1.8270 0.1740 0 1
9.9654 2.1679 -1.8272 0.1740 0 1
9.2249 2.7087 -1.7225 0.1740 0 2
9.0076 3.3596 -1.7224 0.1740 0 2
8.7438 3.9931 -1.7222 0.1740 0 2
8.4350 4.6059 -1.7219 0.1740 0 2
8.0828 5.1945 -1.7214 0.1741 0 2
7.6890 5.7559 -1.7208 0.1741 0 2
7.2559 6.2874 -1.7201 0.1742 0 2
6.4440 -6.4440 -1.7104 0.1833 0 2
6.8927 -5.9726 -1.7118 0.1831 0 2
7.4117 -5.5483 -1.7377 0.5931 0 2
8.1499 -5.2376 -1.8183 0.1829 0 1
8.5085 -4.6460 -1.8195 0.1827 0 1
8.8237 -4.0296 -1.8206 0.1826 0 1
9.0939 -3.3918 -1.8217 0.1825 0 1
9.3175 -2.7358 -1.8226 0.1824 0 1
9.4932 -2.0651 -1.8234 0.1823 0 1
9.6202 -1.3831 -1.8241 0.1823 0 1
9.6976 -0.6936 -1.8248 0.1822 0 1
9.7251 0.0001 -1.8253 0.1822 0 1
9.7023 0.6939 -1.8256 0.1821 0 1
9.6295 1.3846 -1.8259 0.1821 0 1
9.5069 2.0681 -1.8260 0.1821 0 1
8.8004 2.5841 -1.7215 0.1821 0 2
8.5932 3.2051 -1.7214 0.1821 0 2
8.3416 3.8095 -1.7211 0.1821 0 2
8.0471 4.3940 -1.7208 0.1821 0 2
7.7111 4.9557 -1.7204 0.1822 0 2
7.3356 5.4914 -1.7198 0.1822 0 2
6.9225 5.9984 -1.7192 0.1823 0 2
6.1615 -6.1615 -1.7099 0.1914 0 2
6.5922 -5.7122 -1.7117 0.6487 0 2
7.4036 -5.5422 -1.8148 0.5655 0 2
7.7919 -5.0075 -1.8176 0.1910 0 1
8.1345 -4.4417 -1.8187 0.1908 0 1
8.4356 -3.8523 -1.8198 0.1907 0 1
8.6936 -3.2425 -1.8208 0.1906 0 1
8.9072 -2.6154 -1.8217 0.1905 0 1
9.0750 -1.9741 -1.8225 0.1904 0 1
9.1962 -1.3222 -1.8232 0.1904 0 1
9.2701 -0.6630 -1.8238 0.1903 0 1
9.2962 0.0001 -1.8243 0.1903 0 1
9.2744 0.6633 -1.8246 0.1902 0 1
9.2047 1.3235 -1.8249 0.1902 0 1
9.0875 1.9769 -1.8250 0.1902 0 1
8.4690 2.4867 -1.7321 0.3408 0 2
8.2141 3.0637 -1.7204 0.1902 0 2
7.9737 3.6414 -1.7202 0.1902 0 2
7.6922 4.2003 -1.7199 0.1902 0 2
7.3711 4.7372 -1.7194 0.1903 0 2
7.0123 5.2494 -1.7189 0.1903 0 2
6.6175 5.7342 -1.7183 0.1904 0 2
5.9019 -5.9019 -1.7095 0.1995 0 2
6.3715 -5.5209 -1.7267 0.6492 0 2
7.0971 -5.3129 -1.8158 0.1992 0 1
7.4629 -4.7961 -1.8169 0.1990 0 1
7.7908 -4.2541 -1.8180 0.1989 0 1
8.0790 -3.6896 -1.8191 0.1988 0 1
8.3260 -3.1054 -1.8200 0.1987 0 1
8.5303 -2.5047 -1.8209 0.1986 0 1
8.6909 -1.8906 -1.8216 0.1985 0 1
8.8069 -1.2662 -1.8223 0.1985 0 1
8.8775 -0.6349 -1.8229 0.1984 0 1
8.9024 0.0001 -1.8233 0.1983 0 1
8.8814 0.6352 -1.8237 0.1983 0 1
8.8146 1.2674 -1.8239 0.1983 0 1
8.7024 1.8931 -1.8240 0.1983 0 1
8.4382 2.4777 -1.8012 0.3026 0 2
7.8660 2.9339 -1.7195 0.1983 0 2
7.6358 3.4871 -1.7193 0.1983 0 2
7.3663 4.0223 -1.7190 0.1983 0 2
7.0589 4.5366 -1.7186 0.1984 0 2
6.7154 5.0271 -1.7181 0.1984 0 2
6.3374 5.4914 -1.7175 0.1985 0 2
5.6851 -5.6851 -1.7159 0.7015 0 2
6.3622 -5.5128 -1.7966 0.6192 0 2
6.8089 -5.0971 -1.8152 0.2072 0 1
7.1597 -4.6012 -1.8163 0.2071 0 1
7.4740 -4.0811 -1.8174 0.2070 0 1
7.7503 -3.5395 -1.8184 0.2069 0 1
7.9871 -2.9790 -1.8193 0.2068 0 1
8.1829 -2.4027 -1.8201 0.2067 0 1
8.3368 -1.8136 -1.8209 0.2066 0 1
8.4479 -1.2146 -1.8215 0.2065 0 1
8.5156 -0.6090 -1.8220 0.2065 0 1
8.5394 0.0000 -1.8225 0.2064 0 1
8.5192 0.6094 -1.8228 0.2064 0 1
8.4551 1.2157 -1.8230 0.2064 0 1
8.3474 1.8159 -1.8232 0.2063 0 1
8.1966 2.4068 -1.8232 0.2063 0 1
7.5452 2.8142 -1.7186 0.2063 0 2
7.3244 3.3449 -1.7185 0.2064 0 2
7.0659 3.8583 -1.7182 0.2064 0 2
6.7711 4.3516 -1.7178 0.2065 0 2
6.4417 4.8222 -1.7173 0.2065 0 2
6.0792 5.2677 -1.7167 0.2066 0 2
5.4959 -5.4959 -1.7259 0.7017 0 2
6.1723 -5.3483 -1.8136 0.2154 0 1
6.5423 -4.8975 -1.8147 0.2153 0 1
6.8791 -4.4209 -1.8158 0.2152 0 1
7.1810 -3.9211 -1.8168 0.2151 0 1
7.4463 -3.4006 -1.8178 0.2149 0 1
7.6736 -2.8621 -1.8186 0.2148 0 1
7.8617 -2.3084 -1.8194 0.2147 0 1
8.0094 -1.7423 -1.8201 0.2147 0 1
8.1160 -1.1669 -1.8207 0.2146 0 1
8.1809 -0.5851 -1.8213 0.2145 0 1
8.2037 0.0000 -1.8217 0.2145 0 1
8.1842 0.5854 -1.8220 0.2144 0 1
8.1226 1.1679 -1.8222 0.2144 0 1
8.0191 1.7445 -1.8223 0.2144 0 1
7.8743 2.3121 -1.8224 0.2144 0 1
7.2947 2.7208 -1.7288 0.4096 0 2
7.0364 3.2134 -1.7177 0.2144 0 2
6.7881 3.7066 -1.7174 0.2145 0 2
6.5050 4.1806 -1.7171 0.2145 0 2
6.1885 4.6327 -1.7166 0.2146 0 2
5.8404 5.0608 -1.7160 0.2146 0 2
5.4882 -5.4881 -1.7907 0.6691 0 2
5.9390 -5.1462 -1.8131 0.2235 0 1
6.2948 -4.7123 -1.8142 0.2233 0 1
6.6188 -4.2536 -1.8153 0.2232 0 1
6.9091 -3.7727 -1.8163 0.2231 0 1
7.1643 -3.2718 -1.8172 0.2230 0 1
7.3828 -2.7537 -1.8180 0.2229 0 1
7.5636 -2.2209 -1.8188 0.2228 0 1
7.7056 -1.6762 -1.8195 0.2227 0 1
7.8081 -1.1226 -1.8200 0.2226 0 1
7.8704 -0.5629 -1.8205 0.2226 0 1
7.8923 0.0000 -1.8209 0.2225 0 1
7.8735 0.5632 -1.8213 0.2225 0 1
7.8142 1.1235 -1.8215 0.2225 0 1
7.7146 1.6782 -1.8216 0.2224 0 1
7.5753 2.2243 -1.8216 0.2224 0 1
6.9733 2.6009 -1.7172 0.2225 0 2
6.7693 3.0914 -1.7170 0.2225 0 2
6.5305 3.5659 -1.7167 0.2225 0 2
6.2581 4.0219 -1.7164 0.2226 0 2
5.9537 4.4569 -1.7159 0.2226 0 2
5.6189 4.8688 -1.7154 0.2227 0 2
5.3503 -5.3503 -1.8116 0.2317 0 1
5.7219 -4.9580 -1.8127 0.2315 0 1
6.0646 -4.5399 -1.8138 0.2314 0 1
6.3766 -4.0980 -1.8148 0.2312 0 1
6.6562 -3.6345 -1.8158 0.2311 0 1
6.9018 -3.1520 -1.8166 0.2310 0 1
7.1123 -2.6527 -1.8175 0.2309 0 1
7.2863 -2.1395 -1.8182 0.2308 0 1
7.4230 -1.6148 -1.8188 0.2307 0 1
7.5217 -1.0814 -1.8194 0.2307 0 1
7.5817 -0.5422 -1.8199 0.2306 0 1
7.6026 0.0000 -1.8203 0.2306 0 1
7.5845 0.5425 -1.8206 0.2305 0 1
7.5273 1.0823 -1.8208 0.2305 0 1
7.4314 1.6167 -1.8209 0.2305 0 1
7.2972 2.1427 -1.8209 0.2305 0 1
6.7896 2.5324 -1.7350 0.4113 0 2
6.5207 2.9779 -1.7163 0.2305 0 2
6.2908 3.4350 -1.7161 0.2305 0 2
6.0285 3.8743 -1.7157 0.2306 0 2
5.7353 4.2934 -1.7153 0.2306 0 2
5.4128 4.6902 -1.7148 0.2307 0 2
5.1611 -5.1611 -1.8113 0.2397 0 1
5.5194 -4.7826 -1.8124 0.2395 0 1
5.8498 -4.3791 -1.8134 0.2394 0 1
6.1506 -3.9528 -1.8144 0.2393 0 1
6.4202 -3.5057 -1.8153 0.2391 0 1
6.6570 -3.0401 -1.8161 0.2390 0 1
6.8599 -2.5586 -1.8169 0.2389 0 1
7.0277 -2.0635 -1.8176 0.2388 0 1
7.1594 -1.5574 -1.8183 0.2388 0 1
7.2545 -1.0430 -1.8188 0.2387 0 1
7.3122 -0.5229 -1.8193 0.2386 0 1
7.3324 0.0000 -1.8196 0.2386 0 1
7.3149 0.5232 -1.8199 0.2385 0 1
7.2597 1.0439 -1.8201 0.2385 0 1
7.1672 1.5592 -1.8202 0.2385 0 1
7.0378 2.0665 -1.8202 0.2385 0 1
6.7692 2.5248 -1.7929 0.3649 0 2
6.2890 2.8720 -1.7157 0.2385 0 2
6.0672 3.3129 -1.7155 0.2386 0 2
5.8143 3.7366 -1.7151 0.2386 0 2
5.5316 4.1409 -1.7147 0.2387 0 2
5.2205 4.5237 -1.7142 0.2387 0 2
4.9840 -4.9840 -1.8110 0.2477 0 1
5.3299 -4.6184 -1.8120 0.2475 0 1
5.6489 -4.2287 -1.8130 0.2474 0 1
5.9393 -3.8169 -1.8140 0.2473 0 1
6.1995 -3.3851 -1.8148 0.2471 0 1
6.4281 -2.9356 -1.8157 0.2470 0 1
6.6239 -2.4705 -1.8164 0.2469 0 1
6.7858 -1.9925 -1.8171 0.2468 0 1
6.9129 -1.5038 -1.8177 0.2468 0 1
7.0046 -1.0071 -1.8182 0.2467 0 1
7.0604 -0.5049 -1.8187 0.2466 0 1
7.0798 0.0000 -1.8190 0.2466 0 1
7.0628 0.5052 -1.8193 0.2465 0 1
7.0095 1.0079 -1.8195 0.2465 0 1
6.9202 1.5054 -1.8196 0.2465 0 1
6.7952 1.9953 -1.8196 0.2465 0 1
6.6352 2.4748 -1.8195 0.2465 0 1
6.0722 2.7731 -1.7152 0.2465 0 2
5.8581 3.1988 -1.7149 0.2466 0 2
5.6139 3.6079 -1.7146 0.2466 0 2
5.3410 3.9983 -1.7142 0.2467 0 2
5.0408 4.3679 -1.7137 0.2467 0 2
4.8181 -4.8180 -1.8107 0.2556 0 1
5.1523 -4.4646 -1.8117 0.2555 0 1
5.4606 -4.0878 -1.8127 0.2554 0 1
5.7412 -3.6896 -1.8136 0.2552 0 1
5.9926 -3.2722 -1.8144 0.2551 0 1
6.2135 -2.8376 -1.8152 0.2550 0 1
6.4026 -2.3881 -1.8160 0.2549 0 1
6.5591 -1.9259 -1.8166 0.2548 0 1
6.6819 -1.4535 -1.8172 0.2547 0 1
6.7705 -0.9734 -1.8177 0.2547 0 1
6.8243 -0.4880 -1.8181 0.2546 0 1
6.8430 0.0000 -1.8185 0.2546 0 1
6.8266 0.4883 -1.8187 0.2545 0 1
6.7750 0.9741 -1.8189 0.2545 0 1
6.6886 1.4551 -1.8190 0.2545 0 1
6.5679 1.9285 -1.8190 0.2545 0 1
6.4133 2.3921 -1.8190 0.2545 0 1
5.8691 2.6804 -1.7146 0.2545 0 2
5.6622 3.0918 -1.7144 0.2545 0 2
5.4262 3.4872 -1.7141 0.2546 0 2
5.1625 3.8646 -1.7137 0.2546 0 2
4.8723 4.2220 -1.7132 0.2547 0 2
4.6621 -4.6621 -1.8104 0.2636 0 1
4.9855 -4.3200 -1.8114 0.2635 0 1
5.2837 -3.9553 -1.8123 0.2633 0 1
5.5551 -3.5700 -1.8132 0.2632 0 1
5.7983 -3.1661 -1.8140 0.2631 0 1
6.0119 -2.7455 -1.8148 0.2630 0 1
6.1948 -2.3105 -1.8155 0.2629 0 1
6.3461 -1.8634 -1.8161 0.2628 0 1
6.4649 -1.4064 -1.8167 0.2627 0 1
6.5505 -0.9418 -1.8172 0.2626 0 1
6.6025 -0.4722 -1.8176 0.2626 0 1
6.6206 0.0000 -1.8180 0.2625 0 1
6.6047 0.4724 -1.8182 0.2625 0 1
6.5548 0.9424 -1.8184 0.2625 0 1
6.4712 1.4078 -1.8185 0.2624 0 1
6.3543 1.8659 -1.8185 0.2624 0 1
6.2048 2.3143 -1.8184 0.2625 0 1
5.6783 2.5932 -1.7141 0.2625 0 2
5.4782 2.9913 -1.7139 0.2625 0 2
5.2499 3.3739 -1.7136 0.2626 0 2
4.9947 3.7390 -1.7132 0.2626 0 2
4.7140 4.0848 -1.7128 0.2627 0 2
4.5153 -4.5153 -1.8102 0.2716 0 1
4.8284 -4.1838 -1.8111 0.2714 0 1
5.1171 -3.8306 -1.8120 0.2713 0 1
5.3799 -3.4575 -1.8129 0.2712 0 1
5.6153 -3.0662 -1.8137 0.2710 0 1
5.8222 -2.6588 -1.8144 0.2709 0 1
5.9992 -2.2376 -1.8151 0.2708 0 1
6.1457 -1.8045 -1.8157 0.2707 0 1
6.2606 -1.3619 -1.8163 0.2706 0 1
6.3435 -0.9120 -1.8167 0.2706 0 1
6.3938 -0.4573 -1.8171 0.2705 0 1
6.4113 0.0000 -1.8175 0.2705 0 1
6.3959 0.4575 -1.8177 0.2704 0 1
6.3475 0.9127 -1.8179 0.2704 0 1
6.2666 1.3632 -1.8180 0.2704 0 1
6.1534 1.8068 -1.8180 0.2704 0 1
1.7091 0.6374 -0.5171 0.0144 294 14
1.4411 0.6582 -0.4491 0.1670 294 14
1.4194 0.7751 -0.4585 0.1105 294 14
1.4303 0.9192 -0.4820 0.1051 294 14
1.4229 1.0652 -0.5039 0.1006 294 14
4.5651 3.9557 -1.7123 0.2706 0 2
4.3768 -4.3768 -1.8099 0.2795 0 1
4.6803 -4.0555 -1.8109 0.2793 0 1
4.9601 -3.7131 -1.8117 0.2792 0 1
5.2147 -3.3513 -1.8126 0.2791 0 1
5.4428 -2.9720 -1.8133 0.2790 0 1
5.6432 -2.5771 -1.8140 0.2788 0 1
5.8148 -2.1688 -1.8147 0.2787 0 1
5.9567 -1.7490 -1.8153 0.2787 0 1
6.0680 -1.3200 -1.8158 0.2786 0 1
6.1483 -0.8839 -1.8163 0.2785 0 1
6.1970 -0.4432 -1.8167 0.2784 0 1
6.2140 0.0000 -1.8170 0.2784 0 1
6.1989 0.4434 -1.8172 0.2784 0 1
6.1521 0.8846 -1.8174 0.2783 0 1
1.4798 0.3219 -0.4428 0.1743 294 14
1.4552 0.4273 -0.4435 0.1741 294 14
1.4187 0.5292 -0.4428 0.1743 294 14
1.3711 0.6262 -0.4407 0.1755 294 14
1.3187 0.7201 -0.4393 0.1187 294 14
1.3240 0.8509 -0.4602 0.1133 294 14
1.3127 0.9827 -0.4795 0.1088 294 14
1.2880 1.1161 -0.4983 0.1074 294 14
4.2460 -4.2460 -1.8097 0.2874 0 1
4.5403 -3.9342 -1.8106 0.2872 0 1
4.8117 -3.6020 -1.8114 0.2871 0 1
5.0586 -3.2510 -1.8122 0.2870 0 1
5.2798 -2.8830 -1.8130 0.2869 0 1
5.4742 -2.4999 -1.8137 0.2868 0 1
5.6405 -2.1038 -1.8143 0.2867 0 1
5.7781 -1.6966 -1.8149 0.2866 0 1
5.8861 -1.2804 -1.8154 0.2865 0 1
5.9639 -0.8574 -1.8159 0.2864 0 1
1.7098 -0.1223 -0.5166 0.0271 294 14
1.5819 0.0000 -0.4768 0.0294 294 14
1.4694 0.1051 -0.4440 0.1887 294 14
1.4364 0.2066 -0.4374 0.1916 294 14
1.4105 0.3068 -0.4350 0.1824 294 14
1.3870 0.4073 -0.4357 0.1822 294 14
1.3523 0.5044 -0.4350 0.1824 294 14
1.3073 0.5971 -0.4331 0.1836 294 14
1.2525 0.6839 -0.4301 0.1849 294 14
1.2320 0.7918 -0.4414 0.1215 294 14
1.2181 0.9119 -0.4586 0.1200 294 14
1.1939 1.0346 -0.4761 0.1156 294 14
4.1222 -4.1221 -1.8095 0.2953 0 1
4.4078 -3.8194 -1.8104 0.2951 0 1
4.6712 -3.4968 -1.8112 0.2950 0 1
4.9109 -3.1560 -1.8120 0.2949 0 1
5.1256 -2.7987 -1.8127 0.2948 0 1
5.3141 -2.4269 -1.8134 0.2946 0 1
5.4756 -2.0423 -1.8140 0.2945 0 1
5.6091 -1.6469 -1.8145 0.2945 0 1
5.7139 -1.2429 -1.8150 0.2944 0 1
1.4348 -0.2062 -0.4499 0.1918 294 14
1.4359 -0.1027 -0.4469 0.1926 294 14
1.4260 0.0000 -0.4426 0.1945 294 14
1.4055 0.1005 -0.4374 0.1968 294 14
1.3748 0.1977 -0.4311 0.1996 294 14
1.3471 0.2930 -0.4279 0.1905 294 14
1.3246 0.3889 -0.4285 0.1903 294 14
1.2916 0.4817 -0.4279 0.1905 294 14
1.2489 0.5704 -0.4262 0.1917 294 14
1.1969 0.6536 -0.4233 0.1930 294 14
1.1515 0.7401 -0.4249 0.1296 294 14
1.1377 0.8517 -0.4411 0.1281 294 14
1.1122 0.9638 -0.4568 0.1237 294 14
4.0047 -4.0048 -1.8093 0.3031 0 1
4.2822 -3.7106 -1.8101 0.3030 0 1
4.5380 -3.3971 -1.8109 0.3029 0 1
4.7708 -3.0660 -1.8117 0.3027 0 1
4.9793 -2.7189 -1.8124 0.3026 0 1
5.1625 -2.3576 -1.8131 0.3025 0 1
5.3193 -1.9840 -1.8137 0.3024 0 1
5.4489 -1.5999 -1.8142 0.3023 0 1
1.4175 -0.3083 -0.4634 0.1721 294 14
1.3732 -0.1974 -0.4432 0.1999 294 14
1.3745 -0.0983 -0.4402 0.2007 294 14
1.3656 0.0000 -0.4363 0.2025 294 14
1.3466 0.0963 -0.4313 0.2049 294 14
1.3180 0.1895 -0.4254 0.2077 294 14
1.2889 0.2804 -0.4214 0.1986 294 14
1.2673 0.3721 -0.4219 0.1984 294 14
1.2358 0.4610 -0.4214 0.1990 294 14
1.1952 0.5458 -0.4198 0.1998 294 14
1.1459 0.6257 -0.4171 0.2011 294 14
1.0885 0.6996 -0.4134 0.2029 294 14
1.0669 0.7987 -0.4257 0.1363 294 14
1.0463 0.9066 -0.4423 0.2235 294 14
3.8933 -3.8933 -1.8091 0.3110 0 1
4.1630 -3.6072 -1.8099 0.3109 0 1
4.4116 -3.3025 -1.8107 0.3107 0 1
4.6379 -2.9805 -1.8114 0.3106 0 1
4.8405 -2.6431 -1.8121 0.3105 0 1
5.0185 -2.2919 -1.8128 0.3104 0 1
1.4204 -0.5297 -0.4981 0.1643 294 14
1.3901 -0.4082 -0.4761 0.1719 294 14
1.3505 -0.2938 -0.4541 0.1802 294 14
1.3164 -0.1892 -0.4370 0.2079 294 14
1.3180 -0.0943 -0.4342 0.2093 294 14
1.3098 0.0000 -0.4304 0.2106 294 14
1.2921 0.0924 -0.4257 0.2129 294 14
1.2655 0.1820 -0.4201 0.2158 294 14
1.2353 0.2687 -0.4154 0.2067 294 14
1.2144 0.3566 -0.4159 0.2064 294 14
1.1845 0.4419 -0.4154 0.2071 294 14
1.1457 0.5232 -0.4139 0.2078 294 14
1.0987 0.6000 -0.4113 0.2091 294 14
1.0496 0.6746 -0.4100 0.2875 294 14
1.0286 0.7700 -0.4222 0.2402 294 14
1.0076 0.8732 -0.4381 0.2315 294 14
3.7873 -3.7873 -1.8089 0.3188 0 1
4.0496 -3.5090 -1.8097 0.3187 0 1
4.2914 -3.2125 -1.8105 0.3185 0 1
4.5114 -2.8993 -1.8112 0.3184 0 1
4.7085 -2.5710 -1.8119 0.3183 0 1
1.3655 -0.6236 -0.5070 0.1705 294 14
1.3501 -0.5035 -0.4867 0.1723 294 14
1.3242 -0.3888 -0.4661 0.1799 294 14
1.2893 -0.2805 -0.4456 0.1882 294 14
1.2638 -0.1817 -0.4312 0.2160 294 14
1.2657 -0.0905 -0.4286 0.2173 294 14
1.2582 0.0000 -0.4250 0.2192 294 14
1.2417 0.0888 -0.4204 0.2210 294 14
1.2167 0.1749 -0.4151 0.2238 294 14
1.1856 0.2580 -0.4098 0.2147 294 14
1.1657 0.3423 -0.4103 0.2149 294 14
1.1370 0.4241 -0.4098 0.2151 294 14
1.1000 0.5023 -0.4084 0.2159 294 14
1.0563 0.5768 -0.4065 0.2267 294 14
1.0189 0.6548 -0.4091 0.2953 294 14
0.9930 0.7434 -0.4189 0.2481 294 14
0.9715 0.8419 -0.4342 0.2394 294 14
3.6864 -3.6864 -1.8087 0.3266 0 1
3.9417 -3.4155 -1.8095 0.3265 0 1
4.1770 -3.1269 -1.8103 0.3264 0 1
4.3911 -2.8220 -1.8109 0.3262 0 1
4.5829 -2.5024 -1.8116 0.3261 0 1
1.3002 -0.5938 -0.4959 0.1786 294 14
1.2860 -0.4797 -0.4762 0.1804 294 14
1.2640 -0.3711 -0.4571 0.1880 294 14
1.2331 -0.2683 -0.4378 0.1962 294 14
1.2150 -0.1746 -0.4259 0.2240 294 14
1.2171 -0.0871 -0.4234 0.2254 294 14
1.2103 0.0000 -0.4199 0.2272 294 14
1.1949 0.0855 -0.4156 0.2296 294 14
1.1713 0.1684 -0.4106 0.2324 294 14
1.1401 0.2480 -0.4048 0.2351 294 14
1.1204 0.3290 -0.4051 0.2229 294 14
1.0933 0.4078 -0.4048 0.2331 294 14
1.0589 0.4836 -0.4039 0.2337 294 14
1.0173 0.5555 -0.4021 0.2347 294 14
0.9898 0.6361 -0.4082 0.3032 294 14
0.9596 0.7184 -0.4159 0.2561 294 14
0.9377 0.8126 -0.4305 0.2474 294 14
3.5902 -3.5902 -1.8086 0.3344 0 1
3.8387 -3.3262 -1.8093 0.3343 0 1
4.0679 -3.0452 -1.8100 0.3341 0 1
4.2763 -2.7482 -1.8107 0.3340 0 1
4.4631 -2.4370 -1.8114 0.3339 0 1
1.2404 -0.5665 -0.4858 0.1867 294 14
1.2286 -0.4583 -0.4671 0.1941 294 14
1.2087 -0.3549 -0.4487 0.1960 294 14
1.1813 -0.2570 -0.4306 0.2042 294 14
1.1695 -0.1681 -0.4209 0.2321 294 14
1.1719 -0.0838 -0.4185 0.2334 294 14
1.1657 0.0000 -0.4152 0.2352 294 14
1.1513 0.0823 -0.4111 0.2376 294 14
1.1290 0.1623 -0.4063 0.2404 294 14
1.1000 0.2393 -0.4010 0.2536 294 14
1.0796 0.3170 -0.4008 0.2411 294 14
1.0539 0.3931 -0.4007 0.2412 294 14
1.0209 0.4662 -0.3998 0.2417 294 14
0.9870 0.5389 -0.4006 0.3163 294 14
0.9621 0.6183 -0.4074 0.3110 294 14
0.9309 0.6969 -0.4142 0.3058 294 14
0.9060 0.7851 -0.4270 0.2553 294 14
3.4983 -3.4983 -1.8084 0.3422 0 1
3.7405 -3.2412 -1.8092 0.3420 0 1
3.9637 -2.9672 -1.8099 0.3419 0 1
4.1668 -2.6779 -1.8105 0.3418 0 1
1.1847 -0.6469 -0.4934 0.1880 294 14
1.1856 -0.5414 -0.4764 0.1947 294 14
1.1763 -0.4388 -0.4589 0.2021 294 14
1.1581 -0.3400 -0.4412 0.2102 294 14
1.1334 -0.2466 -0.4240 0.2122 294 14
1.1272 -0.1620 -0.4163 0.2401 294 14
1.1296 -0.0808 -0.4140 0.2414 294 14
1.1240 0.0000 -0.4109 0.2432 294 14
1.1105 0.0794 -0.4070 0.2456 294 14
1.0901 0.1567 -0.4026 0.2584 294 14
1.0634 0.2313 -0.3978 0.2615 294 14
1.0418 0.3059 -0.3969 0.2491 294 14
1.0170 0.3793 -0.3968 0.2491 294 14
0.9853 0.4500 -0.3959 0.2497 294 14
0.9604 0.5244 -0.4000 0.3240 294 14
0.9357 0.6014 -0.4066 0.3188 294 14
0.9050 0.6775 -0.4132 0.3137 294 14
0.8762 0.7593 -0.4238 0.2632 294 14
3.4106 -3.4106 -1.8083 0.3499 0 1
3.6466 -3.1598 -1.8090 0.3498 0 1
3.8642 -2.8927 -1.8097 0.3496 0 1
4.0621 -2.6106 -1.8103 0.3495 0 1
1.1326 -0.6185 -0.4838 0.1961 294 14
1.1352 -0.5184 -0.4679 0.2027 294 14
1.1281 -0.4207 -0.4514 0.2101 294 14
1.1123 -0.3266 -0.4346 0.2182 294 14
1.0892 -0.2370 -0.4179 0.2270 294 14
1.0875 -0.1563 -0.4119 0.2481 294 14
1.0901 -0.0780 -0.4097 0.2494 294 14
1.0852 0.0000 -0.4069 0.2615 294 14
1.0733 0.0768 -0.4034 0.2637 294 14
1.0544 0.1516 -0.3994 0.2664 294 14
1.0289 0.2239 -0.3948 0.2695 294 14
1.0064 0.2955 -0.3932 0.2571 294 14
0.9825 0.3665 -0.3931 0.2571 294 14
0.9538 0.4357 -0.3931 0.3371 294 14
0.9351 0.5106 -0.3994 0.3318 294 14
0.9106 0.5853 -0.4058 0.3266 294 14
0.8804 0.6591 -0.4123 0.3214 294 14
0.8481 0.7349 -0.4208 0.2711 294 14
3.3266 -3.3266 -1.8081 0.3576 0 1
3.5568 -3.0820 -1.8088 0.3575 0 1
3.7690 -2.8214 -1.8095 0.3573 0 1
3.9620 -2.5462 -1.8101 0.3572 0 1
1.0846 -0.5922 -0.4750 0.2041 294 14
1.0885 -0.4971 -0.4599 0.2108 294 14
1.0833 -0.4040 -0.4444 0.2181 294 14
1.0698 -0.3141 -0.4285 0.2262 294 14
1.0565 -0.2298 -0.4156 0.3445 294 14
1.0514 -0.1512 -0.4083 0.2663 294 14
1.0543 -0.0754 -0.4062 0.2676 294 14
1.0500 0.0000 -0.4035 0.2694 294 14
1.0387 0.0743 -0.4002 0.2716 294 14
1.0207 0.1467 -0.3963 0.2743 294 14
0.9964 0.2168 -0.3919 0.2774 294 14
0.9731 0.2858 -0.3898 0.2650 294 14
0.9500 0.3544 -0.3897 0.2651 294 14
0.9295 0.4246 -0.3928 0.3449 294 14
0.9109 0.4974 -0.3989 0.3395 294 14
0.8868 0.5699 -0.4051 0.3343 294 14
0.8569 0.6415 -0.4114 0.3292 294 14
0.8217 0.7120 -0.4179 0.2789 294 14
3.2461 -3.2462 -1.8080 0.3653 0 1
3.4707 -3.0074 -1.8087 0.3652 0 1
3.6778 -2.7531 -1.8093 0.3650 0 1
1.0267 -0.6599 -0.4807 0.3042 294 14
1.0402 -0.5680 -0.4668 0.2121 294 14
1.0462 -0.4778 -0.4530 0.3228 294 14
1.0464 -0.3903 -0.4398 0.3324 294 14
1.0409 -0.3056 -0.4273 0.3422 294 14
1.0303 -0.2241 -0.4153 0.3521 294 14
1.0263 -0.1475 -0.4083 0.3741 294 14
1.0206 -0.0730 -0.4030 0.2755 294 14
1.0167 0.0000 -0.4004 0.2773 294 14
1.0060 0.0719 -0.3972 0.2796 294 14
0.9889 0.1422 -0.3935 0.2822 294 14
0.9657 0.2101 -0.3892 0.2853 294 14
0.9418 0.2765 -0.3866 0.2730 294 14
0.9196 0.3430 -0.3865 0.3579 294 14
0.9063 0.4140 -0.3924 0.3526 294 14
0.8878 0.4848 -0.3984 0.3473 294 14
0.8639 0.5552 -0.4045 0.3421 294 14
0.8345 0.6248 -0.4106 0.3370 294 14
0.7996 0.6928 -0.4167 0.3320 294 14
3.1690 -3.1690 -1.8079 0.3730 0 1
3.3882 -2.9359 -1.8085 0.3728 0 1
3.5903 -2.6877 -1.8091 0.3727 0 1
0.9945 -0.6391 -0.4769 0.2614 294 14
1.0114 -0.5523 -0.4649 0.3211 294 14
1.0184 -0.4651 -0.4516 0.3305 294 14
1.0194 -0.3802 -0.4389 0.3401 294 14
1.0148 -0.2980 -0.4267 0.3499 294 14
1.0052 -0.2187 -0.4150 0.3597 294 14
1.0025 -0.1441 -0.4086 0.3817 294 14
0.9963 -0.0713 -0.4029 0.3870 294 14
0.9855 0.0000 -0.3975 0.3923 294 14
0.9752 0.0698 -0.3944 0.2875 294 14
0.9588 0.1379 -0.3908 0.2901 294 14
0.9367 0.2038 -0.3867 0.2932 294 14
0.9122 0.2679 -0.3835 0.2809 294 14
0.8974 0.3347 -0.3863 0.3656 294 14
0.8841 0.4038 -0.3921 0.3602 294 14
0.8657 0.4727 -0.3979 0.3550 294 14
0.8421 0.5412 -0.4038 0.3498 294 14
0.8131 0.6087 -0.4097 0.3447 294 14
0.7788 0.6748 -0.4157 0.3398 294 14
3.0950 -3.0950 -1.8077 0.3806 0 1
3.3091 -2.8673 -1.8084 0.3805 0 1
3.5064 -2.6248 -1.8090 0.3803 0 1
0.9619 -0.6182 -0.4722 0.2693 294 14
0.9844 -0.5375 -0.4632 0.3288 294 14
0.9920 -0.4530 -0.4504 0.3382 294 14
0.9936 -0.3706 -0.4380 0.3478 294 14
0.9899 -0.2907 -0.4261 0.3575 294 14
0.9811 -0.2134 -0.4147 0.3673 294 14
0.9797 -0.1408 -0.4088 0.3893 294 14
0.9739 -0.0697 -0.4033 0.3946 294 14
0.9637 0.0000 -0.3980 0.3998 294 14
0.9490 0.0679 -0.3930 0.4050 294 14
0.9304 0.1338 -0.3882 0.2980 294 14
0.9091 0.1978 -0.3843 0.3010 294 14
0.8844 0.2597 -0.3807 0.3786 294 14
0.8761 0.3268 -0.3862 0.3732 294 14
0.8628 0.3941 -0.3918 0.3679 294 14
0.8446 0.4612 -0.3974 0.3626 294 14
0.8212 0.5278 -0.4032 0.3575 294 14
3.4961 2.6172 -1.8037 0.5748 0 2
3.1257 2.7085 -1.7082 0.3797 0 2
3.0239 -3.0239 -1.8076 0.3882 0 1
3.2330 -2.8014 -1.8082 0.3881 0 1
0.8921 -0.6679 -0.4711 0.2754 294 14
0.9312 -0.5984 -0.4679 0.2773 294 14
0.9586 -0.5234 -0.4617 0.3365 294 14
0.9667 -0.4415 -0.4492 0.3459 294 14
0.9690 -0.3614 -0.4372 0.3554 294 14
0.9660 -0.2837 -0.4256 0.3651 294 14
0.9583 -0.2085 -0.4146 0.3915 294 14
0.9577 -0.1377 -0.4090 0.3968 294 14
0.9524 -0.0681 -0.4036 0.4021 294 14
0.9426 0.0000 -0.3984 0.4074 294 14
0.9285 0.0665 -0.3935 0.4125 294 14
0.9104 0.1309 -0.3888 0.4175 294 14
0.8884 0.1933 -0.3843 0.4223 294 14
4.1150 1.2083 -1.8128 0.3871 0 1
4.0182 1.4988 -1.8128 0.3871 0 1
3.9008 1.7815 -1.8127 0.3871 0 1
3.7635 2.0551 -1.8125 0.3872 0 1
3.6069 2.3181 -1.8123 0.3872 0 1
3.4319 2.5691 -1.8121 0.3873 0 1
3.0537 2.6461 -1.7080 0.3873 0 2
2.9554 -2.9554 -1.8075 0.3958 0 1
3.1598 -2.7380 -1.8081 0.3957 0 1
0.8642 -0.6469 -0.4668 0.2833 294 14
0.9021 -0.5798 -0.4638 0.2852 294 14
0.9333 -0.5096 -0.4599 0.2876 294 14
0.9425 -0.4304 -0.4481 0.3535 294 14
0.9454 -0.3526 -0.4363 0.3630 294 14
0.9430 -0.2769 -0.4250 0.3726 294 14
0.9369 -0.2038 -0.4147 0.3991 294 14
0.9366 -0.1346 -0.4092 0.4044 294 14
0.9317 -0.0667 -0.4039 0.4096 294 14
0.9223 0.0000 -0.3989 0.4148 294 14
0.9088 0.0651 -0.3940 0.4199 294 14
0.8913 0.1281 -0.3894 0.4249 294 14
0.8700 0.1893 -0.3850 0.4298 294 14
4.0217 1.1809 -1.8126 0.3947 0 1
3.9271 1.4647 -1.8125 0.3947 0 1
3.8124 1.7411 -1.8124 0.3947 0 1
3.6781 2.0084 -1.8123 0.3947 0 1
3.5251 2.2655 -1.8121 0.3948 0 1
3.3541 2.5109 -1.8118 0.3948 0 1
3.0406 2.6347 -1.7399 0.6992 0 2
2.8896 -2.8896 -1.8074 0.4034 0 1
3.0894 -2.6771 -1.8080 0.4032 0 1
0.8377 -0.6271 -0.4628 0.2912 294 14
0.8747 -0.5621 -0.4599 0.2931 294 14
0.9051 -0.4943 -0.4561 0.2955 294 14
0.9193 -0.4198 -0.4470 0.3611 294 14
0.9227 -0.3441 -0.4355 0.3706 294 14
0.9210 -0.2704 -0.4245 0.3802 294 14
0.9163 -0.1993 -0.4147 0.4066 294 14
0.9162 -0.1317 -0.4094 0.4119 294 14
0.9117 -0.0652 -0.4042 0.4171 294 14
0.9028 0.0000 -0.3993 0.4223 294 14
0.8898 0.0637 -0.3945 0.4274 294 14
0.8728 0.1255 -0.3900 0.4324 294 14
4.0042 0.8711 -1.8123 0.4023 0 1
3.9318 1.1546 -1.8124 0.4022 0 1
3.8394 1.4320 -1.8123 0.4023 0 1
3.7272 1.7022 -1.8122 0.4023 0 1
3.5960 1.9636 -1.8121 0.4023 0 1
3.4464 2.2149 -1.8119 0.4024 0 1
3.2792 2.4548 -1.8116 0.4024 0 1
3.0354 2.6302 -1.7763 0.6184 0 2
2.8262 -2.8262 -1.8073 0.4109 0 1
0.7705 -0.6677 -0.4610 0.2978 294 14
0.8126 -0.6084 -0.4590 0.2991 294 14
0.8487 -0.5454 -0.4562 0.3009 294 14
0.8784 -0.4797 -0.4526 0.3033 294 14
0.8970 -0.4097 -0.4459 0.3687 294 14
0.9009 -0.3360 -0.4348 0.3781 294 14
0.8998 -0.2642 -0.4240 0.3877 294 14
0.8964 -0.1950 -0.4148 0.4141 294 14
0.8966 -0.1289 -0.4096 0.4193 294 14
0.8923 -0.0638 -0.4045 0.4246 294 14
0.8839 0.0000 -0.3997 0.4297 294 14
0.8714 0.0623 -0.3950 0.4348 294 14
0.8550 0.1229 -0.3906 0.4397 294 14
3.9161 0.8519 -1.8121 0.4098 0 1
3.8453 1.1292 -1.8121 0.4098 0 1
3.7549 1.4005 -1.8121 0.4098 0 1
3.6453 1.6648 -1.8120 0.4098 0 1
3.5169 1.9204 -1.8119 0.4098 0 1
3.3706 2.1662 -1.8117 0.4099 0 1
3.2070 2.4008 -1.8114 0.4099 0 1
3.0271 2.6231 -1.8111 0.4100 0 1
2.7651 -2.7651 -1.8072 0.4184 0 1
0.7479 -0.6481 -0.4573 0.3057 294 14
