ply
format ascii 1.0
element vertex 594
property float32 x
property float32 y
property float32 z
property float32 CosAngle
property uint32 ObjIdx
property uint32 ObjTag
end_header
10.990819931030273 10.60311508178711 -1.7070385217666626 0.11056797206401825 0 2
11.085917472839355 10.50439453125 -1.7070982456207275 0.11056417226791382 0 2
11.180136680603027 10.404824256896973 -1.7071572542190552 0.11056040227413177 0 2
9.333086013793945 8.530829429626465 -1.4133727550506592 0.6749956011772156 0 20
9.4013671875 8.43959903717041 -1.4121814966201782 0.7234048247337341 0 20
11.457392692565918 10.101054191589355 -1.707330584526062 0.11054915934801102 0 2
11.547987937927246 9.998144149780273 -1.707387089729309 0.11054547131061554 0 2
11.637636184692383 9.894404411315918 -1.7074427604675293 0.1105419471859932 0 2
11.7263765335083 9.78988265991211 -1.7074979543685913 0.11053822934627533 0 2
11.81411075592041 9.684501647949219 -1.7075523138046265 0.11053493618965149 0 2
11.913212776184082 9.588241577148438 -1.7093639373779297 0.11053124070167542 0 2
11.999159812927246 9.481210708618164 -1.7094171047210693 0.11052780598402023 0 2
12.084150314331055 9.373417854309082 -1.7094694375991821 0.11052452772855759 0 2
8.38663101196289 6.385595798492432 -1.1782511472702026 0.991038978099823 0 6
8.3740234375 6.258066177368164 -1.1685383319854736 0.6707466244697571 0 6
8.448564529418945 6.196376800537109 -1.1711307764053345 0.39131540060043335 0 6
8.60555648803711 6.193486213684082 -1.1851366758346558 0.7562844157218933 0 6
12.494345664978027 8.823134422302246 -1.7097210884094238 0.1105082780122757 0 2
12.573369026184082 8.710868835449219 -1.7097691297531128 0.11050525307655334 0 2
12.651406288146973 8.597890853881836 -1.709816575050354 0.11050223559141159 0 2
12.728407859802246 8.484228134155273 -1.7098631858825684 0.11049916595220566 0 2
12.804423332214355 8.369873046875 -1.7099093198776245 0.11049605906009674 0 2
12.879374504089355 8.254814147949219 -1.7099545001983643 0.11049307882785797 0 2
12.953290939331055 8.139101028442383 -1.7099990844726562 0.11049029976129532 0 2
13.026142120361328 8.022705078125 -1.7100428342819214 0.11048747599124908 0 2
13.097978591918945 7.905663967132568 -1.7100857496261597 0.11048466712236404 0 2
13.168720245361328 7.787978172302246 -1.7101281881332397 0.1104818731546402 0 2
13.238398551940918 7.669638633728027 -1.7101694345474243 0.11047939956188202 0 2
13.307050704956055 7.550683498382568 -1.7102103233337402 0.11047662794589996 0 2
13.37459945678711 7.431113243103027 -1.7102503776550293 0.11047399789094925 0 2
13.44106388092041 7.310927391052246 -1.7102895975112915 0.11047154664993286 0 2
13.506474494934082 7.190155982971191 -1.710328221321106 0.11046893149614334 0 2
13.570741653442383 7.068789005279541 -1.710365891456604 0.1104665994644165 0 2
13.633955001831055 6.946845531463623 -1.7104028463363647 0.11046411097049713 0 2
13.69603443145752 6.824326038360596 -1.7104389667510986 0.11046184599399567 0 2
13.757030487060547 6.701269149780273 -1.7104743719100952 0.11045949906110764 0 2
13.816904067993164 6.577646255493164 -1.710508942604065 0.11045734584331512 0 2
13.875673294067383 6.45348596572876 -1.710542917251587 0.11045508086681366 0 2
13.933290481567383 6.328798770904541 -1.710575819015503 0.11045311391353607 0 2
13.989824295043945 6.20361328125 -1.7106081247329712 0.11045079678297043 0 2
14.045185089111328 6.077890396118164 -1.7106395959854126 0.1104489117860794 0 2
14.099413871765137 5.951679706573486 -1.7106701135635376 0.11044702678918839 0 2
14.152509689331055 5.824990272521973 -1.7107000350952148 0.1104450523853302 0 2
14.476903915405273 5.807109355926514 -1.7435368299484253 0.38264602422714233 0 2
14.853622436523438 5.803994178771973 -1.7825627326965332 0.35840582847595215 0 2
15.173349380493164 5.772480487823486 -1.8146406412124634 0.11043956130743027 0 1
15.224745750427246 5.636122703552246 -1.814668893814087 0.11043796688318253 0 1
15.274999618530273 5.499335765838623 -1.8146963119506836 0.11043614149093628 0 1
15.32396411895752 5.362099647521973 -1.8147228956222534 0.11043450981378555 0 1
15.371679306030273 5.224413871765137 -1.8147485256195068 0.11043306440114975 0 1
15.418183326721191 5.086298942565918 -1.8147733211517334 0.11043140292167664 0 1
15.463407516479492 4.94775390625 -1.814797282218933 0.11042999476194382 0 1
15.50741195678711 4.808827877044678 -1.8148205280303955 0.11042845994234085 0 1
15.550127029418945 4.669511795043945 -1.8148425817489624 0.11042728275060654 0 1
15.591581344604492 4.52978515625 -1.8148640394210815 0.11042596399784088 0 1
15.631815910339355 4.389707088470459 -1.8148844242095947 0.11042466014623642 0 1
15.670761108398438 4.249267578125 -1.8149040937423706 0.11042342334985733 0 1
15.708427429199219 4.108486175537109 -1.8149229288101196 0.1104222983121872 0 1
15.744804382324219 3.967363119125366 -1.8149408102035522 0.11042135208845139 0 1
15.77993106842041 3.825917959213257 -1.8149577379226685 0.11042026430368423 0 1
15.813788414001465 3.684150218963623 -1.8149737119674683 0.11041928082704544 0 1
15.846357345581055 3.5420897006988525 -1.8149889707565308 0.11041827499866486 0 1
15.877616882324219 3.3997557163238525 -1.8150032758712769 0.11041755229234695 0 1
15.907626152038574 3.2571191787719727 -1.815016746520996 0.1104167029261589 0 1
15.936327934265137 3.1142187118530273 -1.815029263496399 0.11041589081287384 0 1
15.963720321655273 2.9710545539855957 -1.8150408267974854 0.11041522771120071 0 1
15.989852905273438 2.8276758193969727 -1.8150516748428345 0.11041447520256042 0 1
16.014686584472656 2.6840527057647705 -1.8150615692138672 0.11041385680437088 0 1
16.03822135925293 2.540224552154541 -1.8150705099105835 0.11041329056024551 0 1
16.06043815612793 2.3961620330810547 -1.8150787353515625 0.1104128360748291 0 1
16.08134651184082 2.2519140243530273 -1.8150858879089355 0.11041247099637985 0 1
16.100976943969727 2.107490301132202 -1.8150920867919922 0.1104121208190918 0 1
16.119266510009766 1.9629004001617432 -1.815097451210022 0.11041191220283508 0 1
16.13631820678711 1.81814444065094 -1.815101981163025 0.1104113757610321 0 1
16.15199089050293 1.6732324361801147 -1.815105676651001 0.11041136831045151 0 1
16.16639518737793 1.528173804283142 -1.8151084184646606 0.11041104793548584 0 1
16.17949104309082 1.3830175399780273 -1.8151103258132935 0.11041092872619629 0 1
16.19124984741211 1.2377440929412842 -1.8151111602783203 0.1104108914732933 0 1
16.20170783996582 1.0923436880111694 -1.8151111602783203 0.11041088402271271 0 1
16.210859298706055 0.9468847513198853 -1.815110445022583 0.1104108914732933 0 1
16.218690872192383 0.8013378977775574 -1.8151086568832397 0.11041098833084106 0 1
16.225194931030273 0.6557226181030273 -1.8151060342788696 0.11041122674942017 0 1
16.230419158935547 0.5100683569908142 -1.815102458000183 0.11041135340929031 0 1
16.23428726196289 0.3643749952316284 -1.8150980472564697 0.11041173338890076 0 1
16.236845016479492 0.21862304210662842 -1.81509268283844 0.11041206121444702 0 1
16.23810577392578 0.07289062440395355 -1.8150866031646729 0.11041244119405746 0 1
16.238046646118164 -0.07287108898162842 -1.8150794506072998 0.1104128360748291 0 1
16.23666000366211 -0.21862304210662842 -1.8150714635849 0.11041329801082611 0 1
16.233983993530273 -0.36433592438697815 -1.8150625228881836 0.11041375994682312 0 1
16.229949951171875 -0.5100292563438416 -1.8150527477264404 0.11041450500488281 0 1
16.224628448486328 -0.6556835770606995 -1.8150420188903809 0.11041517555713654 0 1
16.217987060546875 -0.8012793064117432 -1.815030574798584 0.11041580140590668 0 1
16.210020065307617 -0.9468163847923279 -1.8150180578231812 0.1104167103767395 0 1
16.200761795043945 -1.0922753810882568 -1.815004825592041 0.1104174330830574 0 1
16.190176010131836 -1.2376269102096558 -1.814990520477295 0.11041825264692307 0 1
16.178281784057617 -1.3828905820846558 -1.8149755001068115 0.11041916906833649 0 1
16.165077209472656 -1.5280468463897705 -1.8149595260620117 0.11042007058858871 0 1
16.150556564331055 -1.6730566024780273 -1.8149425983428955 0.11042120307683945 0 1
16.134716033935547 -1.8179296255111694 -1.8149248361587524 0.11042232066392899 0 1
16.117597579956055 -1.9626562595367432 -1.8149062395095825 0.11042339354753494 0 1
16.099149703979492 -2.107236385345459 -1.8148866891860962 0.11042466014623642 0 1
15.981844902038574 -2.237968683242798 -1.803853988647461 0.14131571352481842 0 2
15.140731811523438 -2.2589452266693115 -1.7111396789550781 0.1104271188378334 0 2
15.1196870803833 -2.394716739654541 -1.7111189365386963 0.11042837798595428 0 2
15.097382545471191 -2.5303027629852295 -1.7110971212387085 0.11042976379394531 0 2
15.073837280273438 -2.6656932830810547 -1.7110745906829834 0.11043139547109604 0 2
15.0491304397583 -2.800830125808716 -1.711051344871521 0.11043272167444229 0 2
15.023163795471191 -2.9357616901397705 -1.7110271453857422 0.11043433845043182 0 2
14.995966911315918 -3.0704588890075684 -1.7110021114349365 0.11043602228164673 0 2
14.967607498168945 -3.2048730850219727 -1.710976481437683 0.1104375571012497 0 2
14.937997817993164 -3.339042901992798 -1.7109500169754028 0.11043933779001236 0 2
14.907176971435547 -3.4729297161102295 -1.7109224796295166 0.11044113337993622 0 2
14.875175476074219 -3.6065428256988525 -1.7108944654464722 0.11044285446405411 0 2
14.84194278717041 -3.7398436069488525 -1.7108652591705322 0.11044476181268692 0 2
14.80751895904541 -3.8728513717651367 -1.710835576057434 0.11044672131538391 0 2
14.77187442779541 -4.005517482757568 -1.710805058479309 0.11044883728027344 0 2
14.735077857971191 -4.137870788574219 -1.7107735872268677 0.11045082658529282 0 2
14.697070121765137 -4.269912242889404 -1.710741400718689 0.11045273393392563 0 2
14.657851219177246 -4.401562213897705 -1.7107083797454834 0.11045501381158829 0 2
14.617499351501465 -4.532861232757568 -1.71067476272583 0.11045701056718826 0 2
14.575898170471191 -4.663798809051514 -1.7106401920318604 0.1104593575000763 0 2
14.533164024353027 -4.794325828552246 -1.7106050252914429 0.11046164482831955 0 2
14.489228248596191 -4.924491882324219 -1.7105687856674194 0.11046396195888519 0 2
14.444140434265137 -5.05422830581665 -1.7105318307876587 0.11046633124351501 0 2
14.39786148071289 -5.183544635772705 -1.7104943990707397 0.11046887189149857 0 2
14.350439071655273 -5.312460899353027 -1.7104558944702148 0.11047131568193436 0 2
14.301875114440918 -5.440937519073486 -1.7104167938232422 0.11047366261482239 0 2
14.25209903717041 -5.56896448135376 -1.7103768587112427 0.11047643423080444 0 2
14.201220512390137 -5.696533203125 -1.7103360891342163 0.11047889292240143 0 2
14.14915943145752 -5.82360315322876 -1.7102946043014526 0.11048172414302826 0 2
14.095986366271973 -5.950234413146973 -1.7102525234222412 0.11048433929681778 0 2
14.04166030883789 -6.076376914978027 -1.710209608078003 0.11048709601163864 0 2
13.986201286315918 -6.202002048492432 -1.7101658582687378 0.11048989742994308 0 2
14.323427200317383 -6.506005764007568 -1.7584697008132935 0.1104927584528923 0 2
14.264052391052246 -6.63415002822876 -1.758423089981079 0.11049573123455048 0 2
14.203574180603027 -6.761699199676514 -1.7583760023117065 0.11049865186214447 0 2
14.1419038772583 -6.888730525970459 -1.7583280801773071 0.11050178855657578 0 2
14.079140663146973 -7.015204906463623 -1.7582793235778809 0.110504649579525 0 2
14.015204429626465 -7.141083717346191 -1.7582299709320068 0.11050789058208466 0 2
13.950145721435547 -7.26638650894165 -1.758179783821106 0.11051098257303238 0 2
13.883955001831055 -7.391103267669678 -1.7581287622451782 0.11051427572965622 0 2
13.81663990020752 -7.515224456787109 -1.7580770254135132 0.11051739752292633 0 2
13.748212814331055 -7.63870096206665 -1.7580246925354004 0.11052073538303375 0 2
13.678681373596191 -7.761542797088623 -1.7579716444015503 0.11052417755126953 0 2
13.60806655883789 -7.883779048919678 -1.7579177618026733 0.1105273962020874 0 2
13.536327362060547 -8.005380630493164 -1.7578632831573486 0.11053089797496796 0 2
13.463485717773438 -8.1262788772583 -1.7578080892562866 0.11053447425365448 0 2
13.389589309692383 -8.246552467346191 -1.7577520608901978 0.11053787171840668 0 2
13.314589500427246 -8.36611270904541 -1.7576955556869507 0.11054153740406036 0 2
13.238534927368164 -8.48501968383789 -1.7576382160186768 0.1105450987815857 0 2
13.117704391479492 -8.574677467346191 -1.7517471313476562 0.5467028617858887 0 3
12.865419387817383 -8.575566291809082 -1.7282683849334717 0.5541307330131531 0 3
12.619824409484863 -8.576416015625 -1.7055431604385376 0.5615129470825195 0 3
12.380556106567383 -8.577275276184082 -1.6835439205169678 0.5688502788543701 0 3
12.14736270904541 -8.578095436096191 -1.662240982055664 0.5761417746543884 0 3
11.9199800491333 -8.5789155960083 -1.6415926218032837 0.5833864212036133 0 3
11.698163986206055 -8.579687118530273 -1.6215918064117432 0.5905848145484924 0 3
11.481659889221191 -8.580458641052246 -1.60219144821167 0.5977351665496826 0 3
11.270282745361328 -8.581191062927246 -1.5833806991577148 0.6048373579978943 0 3
11.063769340515137 -8.58193302154541 -1.5651260614395142 0.6118912100791931 0 3
10.86197280883789 -8.582655906677246 -1.547412395477295 0.6188952326774597 0 3
10.664648056030273 -8.583349227905273 -1.5302129983901978 0.6258500814437866 0 3
10.471670150756836 -8.584023475646973 -1.5135188102722168 0.632753849029541 0 3
10.282812118530273 -8.584707260131836 -1.4973026514053345 0.6396071314811707 0 3
10.097968101501465 -8.58536148071289 -1.4815478324890137 0.6464084386825562 0 3
9.916962623596191 -8.586005210876465 -1.4662401676177979 0.6531580686569214 0 3
9.739599227905273 -8.586630821228027 -1.4513611793518066 0.6598555445671082 0 3
9.565849304199219 -8.587236404418945 -1.4368891716003418 0.6664989590644836 0 3
9.395487785339355 -8.587841987609863 -1.4228228330612183 0.6730888485908508 0 3
9.228407859802246 -8.5884370803833 -1.4091368913650513 0.6796243190765381 0 3
9.064520835876465 -8.58902359008789 -1.3958327770233154 0.6861053705215454 0 3
8.903671264648438 -8.589599609375 -1.382883906364441 0.6925308108329773 0 3
8.745771408081055 -8.590155601501465 -1.3702774047851562 0.6989003419876099 0 3
10.04360294342041 10.04360294342041 -1.706369161605835 0.11876708269119263 0 2
10.133681297302246 9.953369140625 -1.7064259052276611 0.11876332759857178 0 2
10.222949028015137 9.862343788146973 -1.7064820528030396 0.11875931918621063 0 2
10.311376571655273 9.770498275756836 -1.7065376043319702 0.11875550448894501 0 2
10.398993492126465 9.677851676940918 -1.706592321395874 0.11875169724225998 0 2
9.333017349243164 8.53076171875 -1.5190266370773315 0.67435622215271 0 20
9.401347160339355 8.439579963684082 -1.5177541971206665 0.7227141261100769 0 20
10.6677827835083 9.404911994934082 -1.7085105180740356 0.11874046176671982 0 2
10.752089500427246 9.309072494506836 -1.708563208580017 0.11873682588338852 0 2
10.83553695678711 9.2124605178833 -1.7086149454116821 0.11873326450586319 0 2
10.91812515258789 9.115087509155273 -1.7086663246154785 0.11872971802949905 0 2
10.9998140335083 9.016982078552246 -1.7087169885635376 0.11872618645429611 0 2
11.080644607543945 8.918164253234863 -1.708767056465149 0.1187225952744484 0 2
11.160566329956055 8.818603515625 -1.7088162899017334 0.1187191754579544 0 2
11.23958969116211 8.7183198928833 -1.7088650465011597 0.11871583759784698 0 2
8.37930679321289 6.380029201507568 -1.2652322053909302 0.8001989126205444 0 6
8.363661766052246 6.250322341918945 -1.254371166229248 0.6760284900665283 0 6
8.43227481842041 6.184413909912109 -1.2562607526779175 0.3916959762573242 0 6
8.597617149353027 6.18777322769165 -1.272559642791748 0.881953239440918 0 6
11.621015548706055 8.206416130065918 -1.7090989351272583 0.11869952082633972 0 2
11.694511413574219 8.101982116699219 -1.7091436386108398 0.11869644373655319 0 2
11.767069816589355 7.996894359588623 -1.7091877460479736 0.11869332939386368 0 2
11.838671684265137 7.891152381896973 -1.7092312574386597 0.1186903789639473 0 2
11.909306526184082 7.784765243530273 -1.7092739343643188 0.1186874583363533 0 2
11.97900390625 7.677743911743164 -1.7093160152435303 0.11868448555469513 0 2
12.047734260559082 7.570107460021973 -1.7093573808670044 0.11868159472942352 0 2
12.115488052368164 7.461835861206055 -1.7093981504440308 0.11867870390415192 0 2
12.182246208190918 7.352949142456055 -1.7094380855560303 0.11867611110210419 0 2
12.248046875 7.243476390838623 -1.7094775438308716 0.11867321282625198 0 2
12.312850952148438 7.13341760635376 -1.7095160484313965 0.11867058277130127 0 2
12.376649856567383 7.022753715515137 -1.7095539569854736 0.1186680793762207 0 2
12.439462661743164 6.911542892456055 -1.7095911502838135 0.11866530776023865 0 2
12.501269340515137 6.799736022949219 -1.709627628326416 0.11866279691457748 0 2
12.5620698928833 6.687402248382568 -1.7096633911132812 0.1186603307723999 0 2
12.621845245361328 6.574511528015137 -1.7096984386444092 0.1186579242348671 0 2
12.680595397949219 6.461083889007568 -1.7097327709197998 0.11865564435720444 0 2
12.738329887390137 6.347128868103027 -1.7097665071487427 0.11865319311618805 0 2
12.795028686523438 6.232646465301514 -1.7097992897033691 0.11865097284317017 0 2
12.850712776184082 6.11767578125 -1.7098314762115479 0.1186487153172493 0 2
12.92236328125 6.010107517242432 -1.7121186256408691 0.43202993273735046 0 2
12.958925247192383 5.886220455169678 -1.7098937034606934 0.11864431947469711 0 2
13.096962928771973 5.807675838470459 -1.7211589813232422 0.41620147228240967 0 2
13.40365219116211 5.800273418426514 -1.7545500993728638 0.4082808494567871 0 2
13.74013614654541 5.800029277801514 -1.7917121648788452 0.38286733627319336 0 2
13.96181583404541 5.746503829956055 -1.8138178586959839 0.11863639950752258 0 1
14.013066291809082 5.621054649353027 -1.8138465881347656 0.11863454431295395 0 1
14.063163757324219 5.495136737823486 -1.8138744831085205 0.11863268166780472 0 1
14.112128257751465 5.368750095367432 -1.813901424407959 0.1186310276389122 0 1
14.1599702835083 5.241943359375 -1.8139278888702393 0.11862916499376297 0 1
14.206649780273438 5.114716529846191 -1.813953161239624 0.11862746626138687 0 1
14.252167701721191 4.987060546875 -1.8139779567718506 0.11862599849700928 0 1
14.29654312133789 4.859004020690918 -1.8140019178390503 0.11862438917160034 0 1
14.339765548706055 4.730536937713623 -1.8140249252319336 0.11862295120954514 0 1
14.381845474243164 4.601699352264404 -1.8140472173690796 0.11862125247716904 0 1
14.422734260559082 4.472470760345459 -1.8140686750411987 0.11862000077962875 0 1
14.462441444396973 4.342880725860596 -1.814089298248291 0.1186186894774437 0 1
14.501005172729492 4.212958812713623 -1.814109206199646 0.11861739307641983 0 1
14.538378715515137 4.082646369934082 -1.8141282796859741 0.11861621588468552 0 1
14.574599266052246 3.9520506858825684 -1.8141465187072754 0.11861492693424225 0 1
14.609619140625 3.8210935592651367 -1.8141639232635498 0.1186138466000557 0 1
14.643465995788574 3.6898436546325684 -1.8141803741455078 0.11861274391412735 0 1
14.676122665405273 3.558281183242798 -1.814196228981018 0.11861172318458557 0 1
14.7075777053833 3.4264354705810547 -1.8142112493515015 0.11861076951026917 0 1
14.737871170043945 3.294316291809082 -1.8142253160476685 0.11860980093479156 0 1
14.76693344116211 3.161914110183716 -1.8142385482788086 0.1186089962720871 0 1
14.794833183288574 3.0292675495147705 -1.8142510652542114 0.11860805004835129 0 1
14.821542739868164 2.896376848220825 -1.8142627477645874 0.11860718578100204 0 1
14.84701156616211 2.7632226943969727 -1.8142735958099365 0.11860661208629608 0 1
14.871317863464355 2.6298632621765137 -1.8142837285995483 0.11860590428113937 0 1
14.894393920898438 2.4962987899780273 -1.8142929077148438 0.11860527843236923 0 1
14.916259765625 2.3625097274780273 -1.8143011331558228 0.11860483884811401 0 1
14.936933517456055 2.2285351753234863 -1.814308762550354 0.11860430985689163 0 1
14.956377029418945 2.0943846702575684 -1.8143154382705688 0.1186039000749588 0 1
14.974628448486328 1.960058569908142 -1.8143212795257568 0.11860355734825134 0 1
14.991669654846191 1.8255761861801147 -1.814326286315918 0.11860308051109314 0 1
15.00747013092041 1.69094717502594 -1.8143304586410522 0.11860291659832001 0 1
15.022099494934082 1.5561718940734863 -1.8143339157104492 0.11860255897045135 0 1
15.035468101501465 1.4212793111801147 -1.8143362998962402 0.11860248446464539 0 1
15.047616958618164 1.286279320716858 -1.8143380880355835 0.11860249191522598 0 1
15.058573722839355 1.1511425971984863 -1.8143389225006104 0.11860233545303345 0 1
15.068309783935547 1.0159374475479126 -1.8143389225006104 0.11860231310129166 0 1
15.076777458190918 0.8806445002555847 -1.814338207244873 0.11860249191522598 0 1
15.084091186523438 0.7452831864356995 -1.8143366575241089 0.11860249191522598 0 1
15.090155601501465 0.6098535060882568 -1.8143342733383179 0.11860259622335434 0 1
15.094980239868164 0.47438475489616394 -1.814330816268921 0.11860297620296478 0 1
15.098612785339355 0.3388671875 -1.8143267631530762 0.11860309541225433 0 1
15.100985527038574 0.20335936546325684 -1.8143218755722046 0.11860353499650955 0 1
15.102177619934082 0.06779296696186066 -1.8143160343170166 0.11860378831624985 0 1
15.102089881896973 -0.06777343899011612 -1.8143094778060913 0.11860436201095581 0 1
15.10081958770752 -0.20332030951976776 -1.8143019676208496 0.11860483884811401 0 1
15.098349571228027 -0.33885741233825684 -1.8142937421798706 0.11860525608062744 0 1
15.094609260559082 -0.47435545921325684 -1.8142846822738647 0.11860594153404236 0 1
15.089638710021973 -0.6098241806030273 -1.8142746686935425 0.11860664933919907 0 1
15.08348560333252 -0.7452245950698853 -1.8142640590667725 0.11860718578100204 0 1
15.076093673706055 -0.8805859088897705 -1.8142523765563965 0.11860799789428711 0 1
15.06747055053711 -1.015869140625 -1.8142400979995728 0.11860885471105576 0 1
15.0576753616333 -1.1510546207427979 -1.814226746559143 0.11860954761505127 0 1
15.046591758728027 -1.2861621379852295 -1.8142127990722656 0.11861051619052887 0 1
15.034306526184082 -1.421142578125 -1.8141978979110718 0.11861157417297363 0 1
15.020819664001465 -1.5560156106948853 -1.8141822814941406 0.1186126247048378 0 1
15.006122589111328 -1.6907812356948853 -1.814165711402893 0.11861361563205719 0 1
14.990195274353027 -1.8253905773162842 -1.8141485452651978 0.11861475557088852 0 1
14.973055839538574 -1.9598437547683716 -1.8141303062438965 0.11861597001552582 0 1
14.954707145690918 -2.0941405296325684 -1.8141114711761475 0.11861712485551834 0 1
14.935155868530273 -2.2282519340515137 -1.8140915632247925 0.11861840635538101 0 1
14.21556568145752 -2.251513719558716 -1.7290763854980469 0.18144863843917847 0 2
14.041377067565918 -2.353320360183716 -1.7103896141052246 0.11862136423587799 0 2
14.01953125 -2.4792284965515137 -1.7103687524795532 0.11862271279096603 0 2
13.996532440185547 -2.6049511432647705 -1.710347056388855 0.118624247610569 0 2
13.97240161895752 -2.7304394245147705 -1.7103246450424194 0.11862567812204361 0 2
13.947138786315918 -2.8556933403015137 -1.7103015184402466 0.11862743645906448 0 2
13.92074203491211 -2.980722665786743 -1.7102775573730469 0.11862911283969879 0 2
13.893241882324219 -3.1054980754852295 -1.7102527618408203 0.11863073706626892 0 2
13.864608764648438 -3.230048656463623 -1.710227370262146 0.11863242089748383 0 2
13.834843635559082 -3.35430645942688 -1.7102010250091553 0.11863431334495544 0 2
13.803955078125 -3.4783201217651367 -1.7101742029190063 0.11863613873720169 0 2
13.771933555603027 -3.602001905441284 -1.710146427154541 0.11863824725151062 0 2
13.7388277053833 -3.72540020942688 -1.710118055343628 0.11864015460014343 0 2
13.704618453979492 -3.848525285720825 -1.7100889682769775 0.11864203959703445 0 2
13.66927719116211 -3.9712986946105957 -1.7100590467453003 0.11864421516656876 0 2
13.632851600646973 -4.093759536743164 -1.7100282907485962 0.11864623427391052 0 2
13.595293045043945 -4.215888500213623 -1.7099969387054443 0.11864849179983139 0 2
13.556650161743164 -4.33767557144165 -1.7099648714065552 0.11865068972110748 0 2
13.516913414001465 -4.459091663360596 -1.7099320888519287 0.11865302175283432 0 2
13.476083755493164 -4.580156326293945 -1.7098984718322754 0.1186552345752716 0 2
13.434149742126465 -4.700810432434082 -1.7098641395568848 0.11865772306919098 0 2
13.391132354736328 -4.821123123168945 -1.7098292112350464 0.11866023391485214 0 2
13.347060203552246 -4.941035270690918 -1.7097935676574707 0.11866257339715958 0 2
13.301884651184082 -5.060517311096191 -1.7097572088241577 0.11866509914398193 0 2
13.255643844604492 -5.179599285125732 -1.7097200155258179 0.11866769194602966 0 2
13.208330154418945 -5.298251628875732 -1.7096821069717407 0.1186702772974968 0 2
13.159931182861328 -5.416454792022705 -1.7096437215805054 0.1186731681227684 0 2
13.110478401184082 -5.534257888793945 -1.7096045017242432 0.11867575347423553 0 2
13.05997085571289 -5.651572227478027 -1.709564447402954 0.11867858469486237 0 2
13.008418083190918 -5.76842737197876 -1.7095239162445068 0.11868126690387726 0 2
12.955820083618164 -5.88479471206665 -1.7094825506210327 0.11868414282798767 0 2
12.902128219604492 -6.000712871551514 -1.7094405889511108 0.1186872348189354 0 2
12.847451210021973 -6.116142272949219 -1.709397792816162 0.11869006603956223 0 2
12.791699409484863 -6.231054782867432 -1.7093545198440552 0.11869312822818756 0 2
13.094999313354492 -6.524843692779541 -1.7576357126235962 0.11869606375694275 0 2
13.03554630279541 -6.641942977905273 -1.7575898170471191 0.11869920790195465 0 2
12.975068092346191 -6.758505821228027 -1.7575430870056152 0.11870231479406357 0 2
12.913524627685547 -6.87451171875 -1.757495641708374 0.11870557069778442 0 2
12.850947380065918 -6.989951133728027 -1.7574477195739746 0.11870881170034409 0 2
12.787353515625 -7.104814529418945 -1.757399082183838 0.11871206015348434 0 2
12.722675323486328 -7.219120979309082 -1.7573496103286743 0.11871542036533356 0 2
12.657031059265137 -7.33279275894165 -1.7572996616363525 0.11871882528066635 0 2
12.590312004089355 -7.445888519287109 -1.7572489976882935 0.11872237175703049 0 2
12.522626876831055 -7.558398246765137 -1.7571974992752075 0.11872567981481552 0 2
12.453906059265137 -7.670273303985596 -1.757145643234253 0.11872917413711548 0 2
12.384169578552246 -7.781513690948486 -1.757092833518982 0.11873279511928558 0 2
12.313456535339355 -7.89211893081665 -1.7570395469665527 0.11873643100261688 0 2
12.241747856140137 -8.002070426940918 -1.7569857835769653 0.11874008178710938 0 2
12.169052124023438 -8.111367225646973 -1.7569310665130615 0.11874376237392426 0 2
12.09536075592041 -8.220019340515137 -1.7568758726119995 0.1187475174665451 0 2
12.020722389221191 -8.327987670898438 -1.7568200826644897 0.11875125020742416 0 2
11.945107460021973 -8.435282707214355 -1.7567635774612427 0.11875496804714203 0 2
11.868535041809082 -8.541865348815918 -1.7567064762115479 0.11875888705253601 0 2
11.698183059692383 -8.579687118530273 -1.7428232431411743 0.590019702911377 0 3
11.48167896270752 -8.58046817779541 -1.7219725847244263 0.5971635580062866 0 3
11.270282745361328 -8.58121109008789 -1.7017500400543213 0.6042589545249939 0 3
11.063769340515137 -8.581953048706055 -1.6821285486221313 0.6113060116767883 0 3
10.86197280883789 -8.582655906677246 -1.6630949974060059 0.6183032989501953 0 3
10.664657592773438 -8.583349227905273 -1.6446212530136108 0.6252514123916626 0 3
10.471659660339355 -8.584033012390137 -1.6266709566116333 0.6321491003036499 0 3
10.282812118530273 -8.584707260131836 -1.6092417240142822 0.6389952898025513 0 3
10.097968101501465 -8.58536148071289 -1.5923088788986206 0.645790696144104 0 3
9.916953086853027 -8.586015701293945 -1.5758544206619263 0.6525336503982544 0 3
9.739619255065918 -8.586640357971191 -1.5598657131195068 0.659224271774292 0 3
9.565839767456055 -8.58724594116211 -1.5443133115768433 0.6658616065979004 0 3
9.395487785339355 -8.587851524353027 -1.5291943550109863 0.6724452376365662 0 3
9.22842788696289 -8.5884370803833 -1.5144901275634766 0.6789746880531311 0 3
9.064520835876465 -8.58902359008789 -1.500180959701538 0.6854493021965027 0 3
8.903671264648438 -8.589609146118164 -1.486269235610962 0.6918684840202332 0 3
8.745780944824219 -8.590155601501465 -1.4727174043655396 0.6982322931289673 0 3
9.396220207214355 9.396220207214355 -1.7076479196548462 0.12695033848285675 0 2
9.480459213256836 9.311777114868164 -1.7077010869979858 0.12694641947746277 0 2
9.563983917236328 9.226611137390137 -1.7077534198760986 0.12694235146045685 0 2
9.646689414978027 9.140673637390137 -1.7078053951263428 0.1269386261701584 0 2
9.728642463684082 9.053984642028809 -1.7078566551208496 0.12693481147289276 0 2
9.332939147949219 8.530693054199219 -1.6248828172683716 0.6736711263656616 0 20
9.401347160339355 8.439579963684082 -1.6235390901565552 0.7219749689102173 0 20
9.969745635986328 8.789521217346191 -1.7080074548721313 0.12692368030548096 0 2
10.048524856567383 8.699931144714355 -1.7080565690994263 0.12692004442214966 0 2
10.126513481140137 8.609638214111328 -1.7081050872802734 0.12691639363765717 0 2
10.2036714553833 8.518622398376465 -1.7081530094146729 0.12691281735897064 0 2
10.279999732971191 8.426933288574219 -1.7082003355026245 0.1269093155860901 0 2
10.355536460876465 8.33456039428711 -1.7082470655441284 0.1269056797027588 0 2
10.430194854736328 8.241484642028809 -1.708293080329895 0.12690243124961853 0 2
10.504023551940918 8.147753715515137 -1.708338737487793 0.12689906358718872 0 2
8.370234489440918 6.373125076293945 -1.3519490957260132 0.800246000289917 0 6
8.353368759155273 6.242626667022705 -1.340114712715149 0.676169216632843 0 6
8.416230201721191 6.172666072845459 -1.3412607908248901 0.39929771423339844 0 6
8.592070579528809 6.183788776397705 -1.360377311706543 0.881618857383728 0 6
10.860390663146973 7.669277191162109 -1.70855712890625 0.12688280642032623 0 2
10.929052352905273 7.571669578552246 -1.7085988521575928 0.12687958776950836 0 2
10.996845245361328 7.473456859588623 -1.7086400985717773 0.1268765926361084 0 2
11.063730239868164 7.374608993530273 -1.7086806297302246 0.12687364220619202 0 2
11.129745483398438 7.275185585021973 -1.7087206840515137 0.12687067687511444 0 2
11.194872856140137 7.17516565322876 -1.7087600231170654 0.1268676370382309 0 2
11.259052276611328 7.074550628662109 -1.7087986469268799 0.12686485052108765 0 2
11.322362899780273 6.973369121551514 -1.7088366746902466 0.12686201930046082 0 2
11.384736061096191 6.871591567993164 -1.708873987197876 0.12685927748680115 0 2
11.446220397949219 6.769277095794678 -1.7089108228683472 0.12685643136501312 0 2
11.50674819946289 6.666396141052246 -1.7089468240737915 0.1268538534641266 0 2
11.566357612609863 6.562978267669678 -1.708982229232788 0.12685130536556244 0 2
11.625048637390137 6.459043025970459 -1.709017038345337 0.126848503947258 0 2
11.682792663574219 6.354560375213623 -1.7090511322021484 0.12684603035449982 0 2
11.739599227905273 6.249560356140137 -1.709084391593933 0.1268436312675476 0 2
11.795438766479492 6.14404296875 -1.7091172933578491 0.12684115767478943 0 2
11.850351333618164 6.038046836853027 -1.7091494798660278 0.12683871388435364 0 2
11.904267311096191 5.931532859802246 -1.7091808319091797 0.12683644890785217 0 2
11.957236289978027 5.824560642242432 -1.7092115879058838 0.1268342137336731 0 2
12.185331344604492 5.800927639007568 -1.7343006134033203 0.44138696789741516 0 2
12.460878372192383 5.795478343963623 -1.7660452127456665 0.4150785505771637 0 2
12.761503219604492 5.796552658081055 -1.8012027740478516 0.40697628259658813 0 2
12.897597312927246 5.719277381896973 -1.8130948543548584 0.12682567536830902 0 1
12.948652267456055 5.60338830947876 -1.8131239414215088 0.12682344019412994 0 1
12.998613357543945 5.487011432647705 -1.8131520748138428 0.12682156264781952 0 1
13.047529220581055 5.370195388793945 -1.8131797313690186 0.1268196702003479 0 1
13.095390319824219 5.252939224243164 -1.813206434249878 0.12681779265403748 0 1
13.142226219177246 5.135273456573486 -1.8132325410842896 0.12681593000888824 0 1
13.187968254089355 5.017168045043945 -1.8132578134536743 0.1268141120672226 0 1
13.232645988464355 4.898671627044678 -1.8132824897766113 0.12681250274181366 0 1
13.276249885559082 4.779755592346191 -1.813306212425232 0.12681086361408234 0 1
13.318788528442383 4.660459041595459 -1.8133292198181152 0.12680919468402863 0 1
13.36026382446289 4.540781021118164 -1.8133515119552612 0.12680763006210327 0 1
13.40062427520752 4.420722484588623 -1.81337308883667 0.12680621445178986 0 1
13.439911842346191 4.300312519073486 -1.8133939504623413 0.12680473923683167 0 1
13.478134155273438 4.179560661315918 -1.8134139776229858 0.12680327892303467 0 1
13.515243530273438 4.058447360992432 -1.813433289527893 0.1268019676208496 0 1
13.55126953125 3.937021493911743 -1.8134517669677734 0.126800537109375 0 1
13.586191177368164 3.815263509750366 -1.813469648361206 0.12679937481880188 0 1
13.62001895904541 3.6932029724121094 -1.8134865760803223 0.1267981380224228 0 1
13.65273380279541 3.5708203315734863 -1.8135029077529907 0.12679709494113922 0 1
13.684374809265137 3.448183536529541 -1.8135185241699219 0.1267959177494049 0 1
13.714872360229492 3.3252344131469727 -1.8135331869125366 0.1267949491739273 0 1
13.744267463684082 3.202021360397339 -1.813547134399414 0.1267940253019333 0 1
13.772558212280273 3.078544855117798 -1.8135602474212646 0.12679307162761688 0 1
13.799726486206055 2.954824209213257 -1.8135727643966675 0.12679214775562286 0 1
13.825780868530273 2.830859422683716 -1.8135844469070435 0.1267913281917572 0 1
13.850722312927246 2.706660032272339 -1.813595175743103 0.12679056823253632 0 1
13.874521255493164 2.5822362899780273 -1.8136054277420044 0.1267898827791214 0 1
13.89720630645752 2.457597494125366 -1.8136147260665894 0.12678933143615723 0 1
13.91878890991211 2.3327929973602295 -1.813623309135437 0.12678870558738708 0 1
13.939228057861328 2.207763671875 -1.8136310577392578 0.12678810954093933 0 1
13.958544731140137 2.082578182220459 -1.8136382102966309 0.12678758800029755 0 1
13.97671890258789 1.9572069644927979 -1.813644528388977 0.12678712606430054 0 1
13.993759155273438 1.8316797018051147 -1.8136498928070068 0.12678681313991547 0 1
14.00966739654541 1.7060058116912842 -1.8136545419692993 0.126786470413208 0 1
14.024442672729492 1.5801855325698853 -1.813658595085144 0.1267862319946289 0 1
14.038105010986328 1.4542382955551147 -1.813661813735962 0.12678594887256622 0 1
14.050615310668945 1.3281835317611694 -1.8136640787124634 0.12678566575050354 0 1
14.061972618103027 1.2020214796066284 -1.813665747642517 0.1267857402563095 0 1
14.072187423706055 1.0757519006729126 -1.8136664628982544 0.12678571045398712 0 1
14.081278800964355 0.9493847489356995 -1.8136664628982544 0.12678569555282593 0 1
14.089238166809082 0.8229687213897705 -1.813665747642517 0.1267857402563095 0 1
14.096044540405273 0.6964746117591858 -1.8136643171310425 0.1267857551574707 0 1
14.10170841217041 0.5699120759963989 -1.813662052154541 0.126786008477211 0 1
14.106240272521973 0.44332030415534973 -1.8136590719223022 0.12678614258766174 0 1
14.10960865020752 0.3166796863079071 -1.8136550188064575 0.12678641080856323 0 1
14.111865043640137 0.19000975787639618 -1.8136504888534546 0.12678657472133636 0 1
14.112958908081055 0.06334960460662842 -1.8136451244354248 0.12678703665733337 0 1
14.112910270690918 -0.06332030892372131 -1.8136389255523682 0.126787468791008 0 1
14.11171817779541 -0.18999023735523224 -1.8136320114135742 0.1267879456281662 0 1
14.109384536743164 -0.316650390625 -1.8136242628097534 0.12678846716880798 0 1
14.105907440185547 -0.4432910084724426 -1.8136157989501953 0.12678904831409454 0 1
14.101279258728027 -0.5698632597923279 -1.8136065006256104 0.12678977847099304 0 1
14.095498085021973 -0.6964355111122131 -1.813596487045288 0.12679056823253632 0 1
14.08861255645752 -0.8229101300239563 -1.813585638999939 0.1267913281917572 0 1
14.08056640625 -0.9493359327316284 -1.8135740756988525 0.1267920732498169 0 1
14.071395874023438 -1.0756542682647705 -1.8135617971420288 0.12679289281368256 0 1
14.061054229736328 -1.2019238471984863 -1.8135486841201782 0.12679389119148254 0 1
14.0496187210083 -1.328066349029541 -1.8135348558425903 0.12679481506347656 0 1
14.03701114654541 -1.4541113376617432 -1.8135201930999756 0.12679581344127655 0 1
14.023271560668945 -1.5800390243530273 -1.813504695892334 0.12679685652256012 0 1
14.008398056030273 -1.7058300971984863 -1.8134886026382446 0.12679800391197205 0 1
13.992392539978027 -1.8314745426177979 -1.8134716749191284 0.12679921090602875 0 1
13.975234031677246 -1.9569823741912842 -1.8134539127349854 0.1268005520105362 0 1
13.956972122192383 -2.0823144912719727 -1.813435435295105 0.12680180370807648 0 1
13.937567710876465 -2.2074902057647705 -1.8134162425994873 0.12680312991142273 0 1
13.422607421875 -2.2496190071105957 -1.748971939086914 0.19169026613235474 0 2
13.101357460021973 -2.3168652057647705 -1.7097539901733398 0.12680597603321075 0 2
13.11122989654541 -2.440175771713257 -1.7138296365737915 0.20936612784862518 0 2
13.057353019714355 -2.5516111850738525 -1.7097127437591553 0.1268089860677719 0 2
13.033759117126465 -2.668691396713257 -1.7096911668777466 0.12681050598621368 0 2
13.00912094116211 -2.785517454147339 -1.7096688747406006 0.12681220471858978 0 2
12.9833984375 -2.902148485183716 -1.7096456289291382 0.12681397795677185 0 2
12.956640243530273 -3.0185155868530273 -1.7096220254898071 0.1268157660961151 0 2
12.928828239440918 -3.134648323059082 -1.7095974683761597 0.12681767344474792 0 2
12.899999618530273 -3.2505176067352295 -1.7095723152160645 0.1268194317817688 0 2
12.87010669708252 -3.3661229610443115 -1.709546446800232 0.12682145833969116 0 2
12.839179039001465 -3.4814844131469727 -1.709519863128662 0.126823291182518 0 2
12.807207107543945 -3.5965232849121094 -1.709492564201355 0.1268252432346344 0 2
12.774188995361328 -3.7112693786621094 -1.7094646692276 0.12682746350765228 0 2
12.740175247192383 -3.8257129192352295 -1.7094359397888184 0.12682944536209106 0 2
12.705087661743164 -3.939824104309082 -1.7094067335128784 0.1268317699432373 0 2
12.6690034866333 -4.053652286529541 -1.7093768119812012 0.12683382630348206 0 2
12.631864547729492 -4.167129039764404 -1.7093461751937866 0.12683622539043427 0 2
12.593720436096191 -4.280263423919678 -1.7093147039413452 0.1268385499715805 0 2
12.554570198059082 -4.393046855926514 -1.7092827558517456 0.12684091925621033 0 2
12.514384269714355 -4.505458831787109 -1.7092499732971191 0.1268434375524521 0 2
12.4732027053833 -4.617529392242432 -1.7092167139053345 0.12684579193592072 0 2
12.431005477905273 -4.729208946228027 -1.7091827392578125 0.12684835493564606 0 2
12.387802124023438 -4.840497970581055 -1.7091479301452637 0.1268509030342102 0 2
12.343612670898438 -4.951386451721191 -1.7091126441955566 0.12685345113277435 0 2
12.298418045043945 -5.061874866485596 -1.7090766429901123 0.12685619294643402 0 2
12.252216339111328 -5.171943187713623 -1.7090400457382202 0.1268588900566101 0 2
12.205018997192383 -5.281591892242432 -1.7090026140213013 0.1268618106842041 0 2
12.156874656677246 -5.390820026397705 -1.7089648246765137 0.12686443328857422 0 2
12.107714653015137 -5.499579906463623 -1.7089260816574097 0.12686742842197418 0 2
12.057587623596191 -5.60791015625 -1.708886981010437 0.12687036395072937 0 2
12.00650405883789 -5.715790748596191 -1.7088470458984375 0.12687312066555023 0 2
11.954423904418945 -5.823193073272705 -1.7088065147399902 0.12687622010707855 0 2
11.9013671875 -5.930126667022705 -1.7087653875350952 0.12687930464744568 0 2
11.847373008728027 -6.036542892456055 -1.708723545074463 0.12688247859477997 0 2
11.792411804199219 -6.142489910125732 -1.708681344985962 0.12688566744327545 0 2
11.736513137817383 -6.247929573059082 -1.708638310432434 0.12688887119293213 0 2
12.009892463684082 -6.532480239868164 -1.7568997144699097 0.12689189612865448 0 2
11.950468063354492 -6.639843463897705 -1.7568540573120117 0.12689514458179474 0 2
11.890058517456055 -6.746660232543945 -1.7568079233169556 0.1268986314535141 0 2
11.828720092773438 -6.852939128875732 -1.7567613124847412 0.12690190970897675 0 2
11.766406059265137 -6.958632469177246 -1.7567138671875 0.1269053965806961 0 2
11.703144073486328 -7.063788890838623 -1.7566659450531006 0.12690889835357666 0 2
11.638964653015137 -7.168368816375732 -1.7566174268722534 0.12691214680671692 0 2
11.573808670043945 -7.27233362197876 -1.7565680742263794 0.12691591680049896 0 2
11.507753372192383 -7.375702857971191 -1.7565182447433472 0.12691953778266907 0 2
11.440741539001465 -7.478476524353027 -1.7564678192138672 0.12692320346832275 0 2
11.372831344604492 -7.580654144287109 -1.756416916847229 0.12692689895629883 0 2
11.304003715515137 -7.682206630706787 -1.7563652992248535 0.12693053483963013 0 2
11.234267234802246 -7.783124923706055 -1.7563130855560303 0.12693436443805695 0 2
11.163613319396973 -7.88341760635376 -1.7562603950500488 0.12693820893764496 0 2
11.092069625854492 -7.983046531677246 -1.7562071084976196 0.12694202363491058 0 2
11.019628524780273 -8.08203125 -1.7561531066894531 0.12694589793682098 0 2
10.946317672729492 -8.180371284484863 -1.7560986280441284 0.1269497573375702 0 2
10.872098922729492 -8.278037071228027 -1.7560436725616455 0.1269538551568985 0 2
10.797011375427246 -8.375039100646973 -1.7559880018234253 0.12695778906345367 0 2
10.721054077148438 -8.471327781677246 -1.7559318542480469 0.12696203589439392 0 2
10.644227981567383 -8.566943168640137 -1.7558751106262207 0.1269661784172058 0 2
10.471670150756836 -8.584033012390137 -1.7400469779968262 0.6315011978149414 0 3
10.282821655273438 -8.584726333618164 -1.7214033603668213 0.638340413570404 0 3
10.09798812866211 -8.58536148071289 -1.7032904624938965 0.6451284289360046 0 3
9.916962623596191 -8.586005210876465 -1.6856849193572998 0.6518648266792297 0 3
9.739619255065918 -8.586640357971191 -1.6685765981674194 0.6585485339164734 0 3
9.565858840942383 -8.58724594116211 -1.651947259902954 0.6651790142059326 0 3
9.395487785339355 -8.587870597839355 -1.6357746124267578 0.671755850315094 0 3
9.22841739654541 -8.588446617126465 -1.6200454235076904 0.6782785654067993 0 3
9.064520835876465 -8.589052200317383 -1.6047414541244507 0.684746503829956 0 3
8.903691291809082 -8.589590072631836 -1.589852213859558 0.691159188747406 0 3
8.745780944824219 -8.5901460647583 -1.5753663778305054 0.6975163221359253 0 3
8.818115234375 8.818115234375 -1.7072280645370483 0.13512498140335083 0 2
8.897177696228027 8.738876342773438 -1.707277774810791 0.1351209133863449 0 2
8.97549819946289 8.658905982971191 -1.707326889038086 0.13511711359024048 0 2
9.05312442779541 8.578231811523438 -1.7073757648468018 0.13511334359645844 0 2
9.130019187927246 8.4968843460083 -1.7074239253997803 0.1351093202829361 0 2
9.206181526184082 8.414834022521973 -1.7074716091156006 0.13510552048683167 0 2
9.281591415405273 8.332079887390137 -1.7075186967849731 0.13510183990001678 0 2
9.3562593460083 8.248661994934082 -1.7075653076171875 0.13509821891784668 0 2
9.430185317993164 8.164560317993164 -1.707611322402954 0.1350945383310318 0 2
9.503349304199219 8.079813957214355 -1.7076568603515625 0.13509085774421692 0 2
9.575722694396973 7.994374752044678 -1.7077018022537231 0.13508744537830353 0 2
9.64736270904541 7.908329963684082 -1.7077462673187256 0.135083869099617 0 2
9.718193054199219 7.821601390838623 -1.7077900171279907 0.1350805014371872 0 2
9.788251876831055 7.734257698059082 -1.707833170890808 0.13507702946662903 0 2
8.342255592346191 6.470908164978027 -1.4453437328338623 0.6588872075080872 0 6
8.36117172241211 6.366220474243164 -1.438661813735962 0.8002386689186096 0 6
8.343066215515137 6.234931468963623 -1.4258493185043335 0.676264226436615 0 6
8.4031343460083 6.163056373596191 -1.4266144037246704 0.7212581038475037 0 6
8.586493492126465 6.179775238037109 -1.4482672214508057 0.8799628615379333 0 6
10.191884994506836 7.197206974029541 -1.7080810070037842 0.13505735993385315 0 2
10.256299018859863 7.10558557510376 -1.7081202268600464 0.13505424559116364 0 2
10.319902420043945 7.013408184051514 -1.7081588506698608 0.1350511759519577 0 2
10.382675170898438 6.920654296875 -1.708196997642517 0.13504824042320251 0 2
10.444589614868164 6.827323913574219 -1.7082343101501465 0.13504531979560852 0 2
10.50570297241211 6.733457088470459 -1.7082712650299072 0.13504230976104736 0 2
10.565927505493164 6.639023303985596 -1.7083076238632202 0.13503943383693695 0 2
10.6253023147583 6.544042587280273 -1.7083431482315063 0.13503670692443848 0 2
10.683837890625 6.448534965515137 -1.7083783149719238 0.13503381609916687 0 2
10.741503715515137 6.352519512176514 -1.708412766456604 0.1350312978029251 0 2
10.798310279846191 6.255966663360596 -1.7084466218948364 0.13502855598926544 0 2
10.854238510131836 6.158915996551514 -1.708479881286621 0.13502590358257294 0 2
10.909296989440918 6.061347484588623 -1.7085124254226685 0.1350233107805252 0 2
10.96346664428711 5.963310241699219 -1.708544373512268 0.13502074778079987 0 2
11.01674747467041 5.864755630493164 -1.70857572555542 0.13501831889152527 0 2
11.136679649353027 5.800917625427246 -1.7190299034118652 0.4738601744174957 0 2
11.372450828552246 5.794540882110596 -1.747323751449585 0.46619024872779846 0 2
11.62523365020752 5.79250955581665 -1.7781025171279907 0.4387025535106659 0 2
11.893407821655273 5.79345703125 -1.8110953569412231 0.430711030960083 0 2
11.953896522521973 5.690742015838623 -1.8124537467956543 0.13500678539276123 0 1
12.0046968460083 5.583300590515137 -1.8124828338623047 0.13500450551509857 0 1
12.054521560668945 5.475429534912109 -1.8125114440917969 0.13500240445137024 0 1
12.103378295898438 5.367089748382568 -1.8125393390655518 0.13500027358531952 0 1
12.151240348815918 5.258310317993164 -1.8125665187835693 0.1349981427192688 0 1
12.198134422302246 5.149111270904541 -1.8125929832458496 0.1349962204694748 0 1
12.244013786315918 5.039482116699219 -1.8126188516616821 0.13499444723129272 0 1
12.288945198059082 4.929443359375 -1.8126440048217773 0.1349923461675644 0 1
12.332860946655273 4.819023132324219 -1.8126684427261353 0.1349906027317047 0 1
12.375771522521973 4.708183288574219 -1.8126921653747559 0.13498878479003906 0 1
12.417685508728027 4.596962928771973 -1.8127150535583496 0.13498727977275848 0 1
12.458602905273438 4.48538064956665 -1.8127375841140747 0.1349855214357376 0 1
12.498515129089355 4.373427867889404 -1.8127591609954834 0.1349838823080063 0 1
12.5374116897583 4.261113166809082 -1.8127801418304443 0.13498231768608093 0 1
12.575302124023438 4.148457050323486 -1.8128002882003784 0.13498082756996155 0 1
12.612157821655273 4.035459041595459 -1.8128198385238647 0.13497944176197052 0 1
12.647988319396973 3.922128915786743 -1.8128386735916138 0.1349780559539795 0 1
12.682822227478027 3.808486223220825 -1.812856674194336 0.13497653603553772 0 1
12.716620445251465 3.694531202316284 -1.8128740787506104 0.1349753737449646 0 1
12.749374389648438 3.580263614654541 -1.812890887260437 0.13497409224510193 0 1
12.781123161315918 3.4657225608825684 -1.8129067420959473 0.13497290015220642 0 1
12.811806678771973 3.3508787155151367 -1.8129220008850098 0.13497184216976166 0 1
12.841474533081055 3.235790967941284 -1.8129366636276245 0.13497082889080048 0 1
12.87010669708252 3.120410203933716 -1.8129503726959229 0.13496971130371094 0 1
12.897685050964355 3.0047948360443115 -1.8129634857177734 0.13496877253055573 0 1
12.92421817779541 2.888916015625 -1.8129758834838867 0.13496780395507812 0 1
12.949716567993164 2.7728123664855957 -1.8129876852035522 0.13496695458889008 0 1
12.974160194396973 2.6564745903015137 -1.8129984140396118 0.13496620953083038 0 1
12.997568130493164 2.5399413108825684 -1.8130086660385132 0.13496527075767517 0 1
13.019902229309082 2.423173666000366 -1.8130183219909668 0.13496460020542145 0 1
13.041210174560547 2.306220769882202 -1.813027024269104 0.13496388494968414 0 1
13.061415672302246 2.189101457595825 -1.8130351305007935 0.1349634975194931 0 1
13.080595016479492 2.07177734375 -1.813042402267456 0.13496282696723938 0 1
