ply
format ascii 1.0
element vertex 598
property float32 x
property float32 y
property float32 z
property float32 CosAngle
property uint32 ObjIdx
property uint32 ObjTag
end_header
6.188437461853027 -4.296796798706055 -1.7474846839904785 0.21967075765132904 0 2
6.170507907867432 -4.325312614440918 -1.74785578250885 0.2196238487958908 0 2
6.152480125427246 -4.353710651397705 -1.7482253313064575 0.21957743167877197 0 2
6.134296894073486 -4.382050514221191 -1.7485946416854858 0.21953098475933075 0 2
6.115937232971191 -4.410254001617432 -1.74896240234375 0.21948501467704773 0 2
6.097519397735596 -4.4384765625 -1.7493298053741455 0.21943873167037964 0 2
6.078925609588623 -4.466562271118164 -1.7496962547302246 0.21939271688461304 0 2
6.06017541885376 -4.494570255279541 -1.7500616312026978 0.2193470150232315 0 2
6.041347503662109 -4.522539138793945 -1.7504266500473022 0.21930111944675446 0 2
6.022343635559082 -4.550410270690918 -1.7507903575897217 0.21925553679466248 0 2
6.00320291519165 -4.578183650970459 -1.7511532306671143 0.21921059489250183 0 2
5.983945369720459 -4.605859279632568 -1.7515149116516113 0.21916510164737701 0 2
5.964570045471191 -4.633476257324219 -1.751875877380371 0.21911990642547607 0 2
5.94509744644165 -4.660995960235596 -1.752236008644104 0.2190748006105423 0 2
5.925429344177246 -4.688437461853027 -1.7525948286056519 0.21903018653392792 0 2
5.905624866485596 -4.7158203125 -1.7529531717300415 0.21898536384105682 0 2
5.885761737823486 -4.743085861206055 -1.7533105611801147 0.2189408540725708 0 2
5.865742206573486 -4.770273208618164 -1.753666639328003 0.2188960760831833 0 2
5.845546722412109 -4.797382831573486 -1.7540218830108643 0.21885161101818085 0 2
5.825273513793945 -4.824374675750732 -1.7543761730194092 0.21880759298801422 0 2
5.804823875427246 -4.851308345794678 -1.7547292709350586 0.2187638133764267 0 2
5.78429651260376 -4.878105163574219 -1.7550817728042603 0.21871936321258545 0 2
5.763613224029541 -4.904882907867432 -1.7554329633712769 0.21867585182189941 0 2
5.742851257324219 -4.931542873382568 -1.7557830810546875 0.21863210201263428 0 2
5.72195291519165 -4.958086013793945 -1.7561321258544922 0.21858881413936615 0 2
5.700878620147705 -4.984550476074219 -1.75648033618927 0.21854528784751892 0 2
5.679609298706055 -5.010976314544678 -1.756827712059021 0.2185019999742508 0 2
5.658359050750732 -5.037226676940918 -1.7571734189987183 0.21845942735671997 0 2
5.636913776397705 -5.063417911529541 -1.7575188875198364 0.21841631829738617 0 2
5.61535120010376 -5.089530944824219 -1.7578625679016113 0.21837390959262848 0 2
5.593691349029541 -5.11550760269165 -1.7582051753997803 0.2183312624692917 0 2
5.571913719177246 -5.141445159912109 -1.758547306060791 0.2182883322238922 0 2
5.549960613250732 -5.16726541519165 -1.7588878870010376 0.21824605762958527 0 2
5.527890682220459 -5.192968845367432 -1.7592272758483887 0.2182040512561798 0 2
5.505761623382568 -5.218593597412109 -1.7595659494400024 0.2181619554758072 0 2
5.483476638793945 -5.244121074676514 -1.7599035501480103 0.21812032163143158 0 2
5.461054801940918 -5.269550800323486 -1.7602394819259644 0.2180785983800888 0 2
5.4384765625 -5.294863224029541 -1.7605745792388916 0.21803736686706543 0 2
5.415859222412109 -5.320116996765137 -1.7609084844589233 0.2179960310459137 0 2
5.393085956573486 -5.345234394073486 -1.7612414360046387 0.21795468032360077 0 2
5.185410022735596 5.185370922088623 -1.7327224016189575 0.23913641273975372 0 1
5.209238052368164 5.162968635559082 -1.7329823970794678 0.23910023272037506 0 1
5.233046531677246 5.140429496765137 -1.7332439422607422 0.23906385898590088 0 1
5.256718635559082 5.117812156677246 -1.7335073947906494 0.23902779817581177 0 1
5.280312538146973 5.095077991485596 -1.7337719202041626 0.23899154365062714 0 1
5.303808689117432 5.072246074676514 -1.73403799533844 0.2389548420906067 0 1
5.327226638793945 5.049335956573486 -1.7343050241470337 0.23891791701316833 0 1
5.350546836853027 5.026269435882568 -1.7345739603042603 0.23888078331947327 0 1
5.373749732971191 5.003105163574219 -1.7348443269729614 0.23884372413158417 0 1
5.396835803985596 4.979843616485596 -1.735115647315979 0.23880617320537567 0 1
5.419921875 4.956484317779541 -1.7353883981704712 0.23876897990703583 0 1
5.442831993103027 4.933046817779541 -1.735662817955017 0.2387309968471527 0 1
5.465624809265137 4.909492015838623 -1.7359384298324585 0.23869335651397705 0 1
5.488359451293945 4.885781288146973 -1.7362151145935059 0.23865525424480438 0 1
5.51101541519165 4.862070083618164 -1.736493468284607 0.2386166900396347 0 1
5.533554553985596 4.838222503662109 -1.7367730140686035 0.23857812583446503 0 1
5.555976390838623 4.81423807144165 -1.7370541095733643 0.23853960633277893 0 1
5.578339576721191 4.790175437927246 -1.7373363971710205 0.2385009080171585 0 1
5.600527286529541 4.766015529632568 -1.737620234489441 0.23846225440502167 0 1
5.622694969177246 4.741796970367432 -1.7379049062728882 0.2384229153394699 0 1
5.644706726074219 4.717421531677246 -1.7381914854049683 0.23838408291339874 0 1
5.666640281677246 4.692968845367432 -1.7384790182113647 0.23834429681301117 0 1
5.688437461853027 4.668378829956055 -1.7387679815292358 0.23830480873584747 0 1
5.710195064544678 4.643769264221191 -1.7390581369400024 0.23826533555984497 0 1
5.731796741485596 4.619003772735596 -1.739349603652954 0.2382248491048813 0 1
5.753339767456055 4.594140529632568 -1.739642858505249 0.23818519711494446 0 1
5.774765491485596 4.569179534912109 -1.7399370670318604 0.2381449043750763 0 1
5.796093463897705 4.544120788574219 -1.7402324676513672 0.23810456693172455 0 1
5.817324161529541 4.519023418426514 -1.740529179573059 0.2380637228488922 0 1
5.838437557220459 4.493789196014404 -1.740826964378357 0.23802271485328674 0 1
5.859433650970459 4.468495845794678 -1.7411260604858398 0.23798151314258575 0 1
5.880312442779541 4.443027019500732 -1.741426944732666 0.23794062435626984 0 1
5.901093482971191 4.417519569396973 -1.7417287826538086 0.23789922893047333 0 1
5.921816349029541 4.39187479019165 -1.7420321702957153 0.2378581464290619 0 1
5.942363262176514 4.366171836853027 -1.7423360347747803 0.23781637847423553 0 1
5.962812423706055 4.340390682220459 -1.7426421642303467 0.23777493834495544 0 1
5.983242034912109 4.314511775970459 -1.7429488897323608 0.23773294687271118 0 1
6.003457069396973 4.288496017456055 -1.7432570457458496 0.237691268324852 0 1
6.023573875427246 4.262421607971191 -1.7435665130615234 0.23764891922473907 0 1
6.043612957000732 4.236269474029541 -1.7438771724700928 0.23760637640953064 0 1
6.06359338760376 4.210000038146973 -1.7441887855529785 0.2375641018152237 0 1
6.083359241485596 4.183671951293945 -1.7445019483566284 0.23752166330814362 0 1
6.103105545043945 4.157207012176514 -1.7448168992996216 0.23747865855693817 0 1
6.122694969177246 4.130663871765137 -1.7451320886611938 0.23743581771850586 0 1
6.142148494720459 4.104043006896973 -1.7454488277435303 0.23739279806613922 0 1
6.161523342132568 4.077343463897705 -1.7457668781280518 0.23734918236732483 0 1
6.180800437927246 4.050546646118164 -1.7460861206054688 0.23730622231960297 0 1
6.199960708618164 4.023691177368164 -1.7464059591293335 0.23726262152194977 0 1
6.21902322769165 3.996718645095825 -1.7467275857925415 0.23721876740455627 0 1
6.237948894500732 3.969609260559082 -1.7470507621765137 0.23717518150806427 0 1
6.256757736206055 3.942499876022339 -1.7473748922348022 0.23713093996047974 0 1
6.275468826293945 3.915273427963257 -1.747699499130249 0.23708684742450714 0 1
6.294023513793945 3.8879101276397705 -1.7480261325836182 0.23704300820827484 0 1
6.3125 3.860546827316284 -1.7483534812927246 0.23699811100959778 0 1
6.33083963394165 3.83306622505188 -1.7486815452575684 0.2369537651538849 0 1
6.34912109375 3.8055076599121094 -1.749011516571045 0.23690880835056305 0 1
6.367207050323486 3.77783203125 -1.7493425607681274 0.23686400055885315 0 1
6.385214805603027 3.750077962875366 -1.749674677848816 0.23681935667991638 0 1
6.403124809265137 3.722245931625366 -1.7500078678131104 0.23677407205104828 0 1
6.420859336853027 3.6943359375 -1.7503423690795898 0.2367289662361145 0 1
6.438515663146973 3.6663670539855957 -1.750677466392517 0.23668357729911804 0 1
6.456093788146973 3.6382811069488525 -1.7510143518447876 0.2366383969783783 0 1
6.473476409912109 3.6101560592651367 -1.7513518333435059 0.23659248650074005 0 1
6.490800857543945 3.581913948059082 -1.7516906261444092 0.2365463376045227 0 1
6.507968425750732 3.553593635559082 -1.752030611038208 0.23650075495243073 0 1
6.525038719177246 3.5252342224121094 -1.7523717880249023 0.23645491898059845 0 1
6.541953086853027 3.496718645095825 -1.7527135610580444 0.2364087998867035 0 1
6.558749675750732 3.4681835174560547 -1.7530568838119507 0.23636241257190704 0 1
6.57546854019165 3.439589738845825 -1.7534011602401733 0.2363157421350479 0 1
6.59207010269165 3.410820245742798 -1.7537468671798706 0.23626962304115295 0 1
6.608593463897705 3.382070302963257 -1.7540929317474365 0.23622283339500427 0 1
6.624921798706055 3.3532421588897705 -1.7544403076171875 0.23617573082447052 0 1
6.641132831573486 3.324296712875366 -1.7547893524169922 0.23612917959690094 0 1
6.657207012176514 3.2952733039855957 -1.7551385164260864 0.23608194291591644 0 1
6.673202991485596 3.26617169380188 -1.755489468574524 0.2360348254442215 0 1
6.689023494720459 3.237011671066284 -1.7558410167694092 0.23598739504814148 0 1
6.704745769500732 3.207773447036743 -1.75619375705719 0.2359401136636734 0 1
6.720351219177246 3.178476572036743 -1.756547451019287 0.23589293658733368 0 1
6.735800743103027 3.149121046066284 -1.7569020986557007 0.23584464192390442 0 1
6.751191139221191 3.1196093559265137 -1.7572585344314575 0.23579728603363037 0 1
6.766406059265137 3.0901172161102295 -1.7576149702072144 0.23574919998645782 0 1
6.781484127044678 3.0604686737060547 -1.757973313331604 0.23570166528224945 0 1
6.796483993530273 3.030839681625366 -1.7583318948745728 0.23565341532230377 0 1
6.811327934265137 3.001093626022339 -1.758691668510437 0.23560480773448944 0 1
6.826054573059082 2.97124981880188 -1.7590527534484863 0.23555678129196167 0 1
6.840663909912109 2.941347599029541 -1.7594146728515625 0.23550839722156525 0 1
6.855136394500732 2.9114062786102295 -1.7597771883010864 0.23545975983142853 0 1
6.869492053985596 2.88140606880188 -1.7601408958435059 0.23541077971458435 0 1
6.883691310882568 2.851308584213257 -1.7605059146881104 0.23536227643489838 0 1
6.897792816162109 2.8211522102355957 -1.7608715295791626 0.2353135198354721 0 1
6.91173791885376 2.7909374237060547 -1.7612380981445312 0.23526445031166077 0 1
6.925546646118164 2.760624885559082 -1.7616057395935059 0.2352154552936554 0 1
6.939316272735596 2.7302539348602295 -1.7619744539260864 0.23516570031642914 0 1
6.952890396118164 2.699843645095825 -1.7623440027236938 0.2351168990135193 0 1
6.966328144073486 2.6693358421325684 -1.762714147567749 0.23506739735603333 0 1
6.97960901260376 2.638788938522339 -1.7630856037139893 0.23501792550086975 0 1
6.992812156677246 2.6081249713897705 -1.7634578943252563 0.2349681556224823 0 1
7.005859375 2.5774998664855957 -1.7638311386108398 0.2349184900522232 0 1
7.018749713897705 2.546699047088623 -1.7642053365707397 0.23486852645874023 0 1
7.031562328338623 2.515937328338623 -1.7645800113677979 0.23481866717338562 0 1
7.044179439544678 2.485038995742798 -1.764955997467041 0.2347688376903534 0 1
7.056718826293945 2.4541015625 -1.7653329372406006 0.23471876978874207 0 1
7.069101333618164 2.423105478286743 -1.765710711479187 0.23466870188713074 0 1
7.081367015838623 2.392031192779541 -1.766088843345642 0.2346179485321045 0 1
7.093495845794678 2.360898494720459 -1.7664685249328613 0.23456767201423645 0 1
7.105507850646973 2.3297460079193115 -1.7668484449386597 0.2345171570777893 0 1
7.117343425750732 2.298515558242798 -1.7672295570373535 0.23446662724018097 0 1
7.129101276397705 2.267206907272339 -1.7676116228103638 0.23441587388515472 0 1
7.140683650970459 2.2358789443969727 -1.7679944038391113 0.2343655526638031 0 1
7.152109146118164 2.2044529914855957 -1.768377661705017 0.23431453108787537 0 1
7.163476467132568 2.172968626022339 -1.7687621116638184 0.23426362872123718 0 1
7.174667835235596 2.1414647102355957 -1.769147276878357 0.23421233892440796 0 1
7.185683250427246 2.10986328125 -1.769533634185791 0.2341616153717041 0 1
7.196601390838623 2.0782811641693115 -1.7699203491210938 0.23411020636558533 0 1
7.207382678985596 2.046562433242798 -1.7703081369400024 0.2340591847896576 0 1
7.21804666519165 2.014843702316284 -1.7706964015960693 0.23400749266147614 0 1
7.228554725646973 1.9830468893051147 -1.7710857391357422 0.23395633697509766 0 1
7.238925457000732 1.9511913061141968 -1.7714757919311523 0.23390448093414307 0 1
7.249159812927246 1.9192577600479126 -1.7718664407730103 0.23385301232337952 0 1
7.25927734375 1.8873437643051147 -1.7722582817077637 0.23380130529403687 0 1
7.269257545471191 1.8553515672683716 -1.7726503610610962 0.2337493747472763 0 1
7.279042720794678 1.823281168937683 -1.773043155670166 0.23369799554347992 0 1
7.288710594177246 1.7911913394927979 -1.7734371423721313 0.2336457222700119 0 1
7.298300743103027 1.7590234279632568 -1.7738317251205444 0.23359398543834686 0 1
7.307656288146973 1.7268164157867432 -1.7742269039154053 0.23354201018810272 0 1
7.316953182220459 1.6945703029632568 -1.7746230363845825 0.2334897667169571 0 1
7.326074123382568 1.6622655391693115 -1.7750197649002075 0.23343759775161743 0 1
7.335038661956787 1.6299413442611694 -1.7754170894622803 0.23338548839092255 0 1
7.343905925750732 1.5975195169448853 -1.7758151292800903 0.23333311080932617 0 1
7.352578163146973 1.5650781393051147 -1.7762140035629272 0.2332810014486313 0 1
7.361152172088623 1.5326366424560547 -1.776613473892212 0.2332284152507782 0 1
7.369570255279541 1.500097632408142 -1.7770137786865234 0.2331760823726654 0 1
7.377851486206055 1.4674999713897705 -1.7774145603179932 0.23312325775623322 0 1
7.386034965515137 1.4349218606948853 -1.7778161764144897 0.23307068645954132 0 1
7.394023418426514 1.4022265672683716 -1.778218388557434 0.23301786184310913 0 1
7.401875019073486 1.369570255279541 -1.7786211967468262 0.23296529054641724 0 1
7.409628868103027 1.336816430091858 -1.779024600982666 0.23291219770908356 0 1
7.417167663574219 1.3040624856948853 -1.7794287204742432 0.23285932838916779 0 1
7.424628734588623 1.2711718082427979 -1.7798336744308472 0.2328062206506729 0 1
7.43191385269165 1.238320231437683 -1.7802386283874512 0.23275333642959595 0 1
7.439042568206787 1.2054296731948853 -1.7806447744369507 0.2327004373073578 0 1
7.44607400894165 1.1725000143051147 -1.7810516357421875 0.23264700174331665 0 1
7.452890396118164 1.139492154121399 -1.7814583778381348 0.23259402811527252 0 1
7.459628582000732 1.1065038442611694 -1.781866431236267 0.2325408160686493 0 1
7.466191291809082 1.0734374523162842 -1.7822747230529785 0.23248779773712158 0 1
7.472617149353027 1.0403515100479126 -1.7826833724975586 0.2324342429637909 0 1
7.478906154632568 1.007226586341858 -1.7830932140350342 0.23238065838813782 0 1
7.485058307647705 0.9740429520606995 -1.7835034132003784 0.23232728242874146 0 1
7.491074085235596 0.9408984184265137 -1.7839138507843018 0.2322741001844406 0 1
7.496894359588623 0.9076562523841858 -1.7843248844146729 0.23222041130065918 0 1
7.502597332000732 0.8744140267372131 -1.7847366333007812 0.23216713964939117 0 1
7.508163928985596 0.8410742282867432 -1.7851488590240479 0.2321133315563202 0 1
7.513593673706055 0.8077734112739563 -1.785561442375183 0.23205921053886414 0 1
7.518906116485596 0.7743945121765137 -1.7859749794006348 0.2320060431957245 0 1
7.52404260635376 0.741015613079071 -1.7863885164260864 0.23195208609104156 0 1
7.528984069824219 0.7076171636581421 -1.786802887916565 0.23189854621887207 0 1
7.533827781677246 0.6741406321525574 -1.7872179746627808 0.2318444699048996 0 1
7.538515567779541 0.6406835913658142 -1.787632703781128 0.23179060220718384 0 1
7.543046474456787 0.6071484088897705 -1.7880486249923706 0.23173688352108002 0 1
7.547421932220459 0.5736523270606995 -1.788464903831482 0.23168261349201202 0 1
7.551679611206055 0.5400976538658142 -1.788881540298462 0.23162902891635895 0 1
7.555819988250732 0.5064843893051147 -1.7892986536026 0.23157458007335663 0 1
7.559726238250732 0.47289061546325684 -1.789716124534607 0.2315206229686737 0 1
7.563554286956787 0.43925780057907104 -1.7901341915130615 0.2314666211605072 0 1
7.567148208618164 0.405585914850235 -1.7905529737472534 0.23141299188137054 0 1
7.570703029632568 0.3719140589237213 -1.7909716367721558 0.2313585877418518 0 1
7.574023246765137 0.3382031321525574 -1.7913908958435059 0.2313043177127838 0 1
7.577245712280273 0.3044531047344208 -1.7918108701705933 0.23125022649765015 0 1
7.580312252044678 0.27070310711860657 -1.7922310829162598 0.2311960607767105 0 1
7.583241939544678 0.23695312440395355 -1.7926512956619263 0.2311418503522873 0 1
7.585976600646973 0.20314452052116394 -1.79307222366333 0.2310875803232193 0 1
7.588593482971191 0.1693163961172104 -1.793493628501892 0.23103292286396027 0 1
7.591054439544678 0.13550780713558197 -1.793915033340454 0.23097875714302063 0 1
7.593358993530273 0.10162109136581421 -1.7943371534347534 0.23092450201511383 0 1
7.595527172088623 0.06775390356779099 -1.7947591543197632 0.23087038099765778 0 1
7.597499847412109 0.03388671949505806 -1.7951821088790894 0.23081618547439575 0 1
7.59939432144165 -1.9531249563442543e-05 -1.795605182647705 0.23076193034648895 0 1
7.601113319396973 -0.03398437425494194 -1.7960283756256104 0.230707049369812 0 1
7.602694988250732 -0.06787109375 -1.7964520454406738 0.23065264523029327 0 1
7.604101181030273 -0.1018359363079071 -1.7968761920928955 0.23059816658496857 0 1
7.605370998382568 -0.1358007788658142 -1.7973003387451172 0.2305435985326767 0 1
7.606484413146973 -0.1697656214237213 -1.7977248430252075 0.23048952221870422 0 1
7.607480525970459 -0.20374999940395355 -1.7981499433517456 0.23043495416641235 0 1
7.608281135559082 -0.23777343332767487 -1.7985748052597046 0.23038066923618317 0 1
7.608906269073486 -0.2717968821525574 -1.799000859260559 0.230326309800148 0 1
7.609394550323486 -0.3058398365974426 -1.7994261980056763 0.2302718311548233 0 1
7.609804630279541 -0.33986327052116394 -1.7998522520065308 0.23021729290485382 0 1
7.60998010635376 -0.3738671839237213 -1.8002783060073853 0.23016248643398285 0 1
7.610058307647705 -0.4079687297344208 -1.8007049560546875 0.23010826110839844 0 1
7.609941005706787 -0.4420117139816284 -1.8011316061019897 0.23005378246307373 0 1
7.609726428985596 -0.47609373927116394 -1.8015581369400024 0.22999919950962067 0 1
7.609316349029541 -0.5101562142372131 -1.8019853830337524 0.2299443632364273 0 1
7.608749866485596 -0.5442187190055847 -1.8024126291275024 0.229889914393425 0 1
7.608046531677246 -0.578320324420929 -1.802840232849121 0.2298353761434555 0 1
7.607245922088623 -0.6123827695846558 -1.8032678365707397 0.22978071868419647 0 1
7.606210708618164 -0.646484375 -1.8036956787109375 0.22972634434700012 0 1
7.605039119720459 -0.6805859208106995 -1.8041237592697144 0.22967182099819183 0 1
7.603769302368164 -0.7146874666213989 -1.8045519590377808 0.22961755096912384 0 1
7.602265357971191 -0.7487499713897705 -1.8049798011779785 0.22956305742263794 0 1
7.60070276260376 -0.7828906178474426 -1.8054085969924927 0.2295083850622177 0 1
7.598866939544678 -0.8170117139816284 -1.8058373928070068 0.22945411503314972 0 1
7.596992015838623 -0.85107421875 -1.8062658309936523 0.22939947247505188 0 1
7.594921588897705 -0.8852148056030273 -1.8066948652267456 0.22934530675411224 0 1
7.592695236206055 -0.9193359017372131 -1.8071240186691284 0.22929076850414276 0 1
7.59033203125 -0.9534375071525574 -1.8075530529022217 0.22923605144023895 0 1
7.587773323059082 -0.9875195026397705 -1.807982087135315 0.2291821390390396 0 1
7.585097312927246 -1.0216015577316284 -1.8084112405776978 0.2291274219751358 0 1
7.582284927368164 -1.055703043937683 -1.8088408708572388 0.2290729433298111 0 1
7.579296588897705 -1.0897655487060547 -1.8092700242996216 0.22901880741119385 0 1
7.576171875 -1.1238280534744263 -1.8096994161605835 0.2289644032716751 0 1
7.572812557220459 -1.1579492092132568 -1.8101290464401245 0.22891023755073547 0 1
7.569413661956787 -1.191992163658142 -1.810558795928955 0.22885575890541077 0 1
7.565820217132568 -1.2260351181030273 -1.8109880685806274 0.22880147397518158 0 1
7.562089443206787 -1.260097622871399 -1.811418056488037 0.2287469506263733 0 1
7.558164119720459 -1.2941405773162842 -1.811847448348999 0.2286926507949829 0 1
7.554101467132568 -1.3281835317611694 -1.8122771978378296 0.2286386340856552 0 1
7.549901962280273 -1.362207055091858 -1.8127068281173706 0.22858475148677826 0 1
7.545585632324219 -1.3962109088897705 -1.8131368160247803 0.22853006422519684 0 1
7.541035175323486 -1.4301953315734863 -1.8135662078857422 0.22847609221935272 0 1
7.536327838897705 -1.4641600847244263 -1.813995599746704 0.22842179238796234 0 1
7.531562328338623 -1.4981640577316284 -1.8144253492355347 0.22836774587631226 0 1
7.526523113250732 -1.532070279121399 -1.8148547410964966 0.22831383347511292 0 1
7.521406173706055 -1.5660741329193115 -1.8152843713760376 0.2282600998878479 0 1
7.516152381896973 -1.5999999046325684 -1.8157137632369995 0.228206068277359 0 1
7.510683536529541 -1.633886694908142 -1.8161431550979614 0.22815221548080444 0 1
7.505097389221191 -1.6677733659744263 -1.8165725469589233 0.22809797525405884 0 1
7.499355316162109 -1.7016797065734863 -1.8170019388198853 0.22804395854473114 0 1
7.49343729019165 -1.7355272769927979 -1.8174307346343994 0.22799058258533478 0 1
7.487401962280273 -1.7693554162979126 -1.817859411239624 0.22793684899806976 0 1
7.481191158294678 -1.8032031059265137 -1.8182885646820068 0.2278827279806137 0 1
7.474843502044678 -1.837011694908142 -1.818717360496521 0.22782878577709198 0 1
7.468320369720459 -1.8707616329193115 -1.8191457986831665 0.2277754843235016 0 1
7.461659908294678 -1.9045116901397705 -1.8195738792419434 0.22772182524204254 0 1
7.454823970794678 -1.9382421970367432 -1.8200024366378784 0.22766833007335663 0 1
7.447890281677246 -1.9719336032867432 -1.8204305171966553 0.2276144027709961 0 1
7.440722465515137 -2.005664110183716 -1.8208587169647217 0.22756116092205048 0 1
7.433456897735596 -2.039316415786743 -1.8212863206863403 0.22750750184059143 0 1
7.426015377044678 -2.072949171066284 -1.821714162826538 0.22745394706726074 0 1
7.41845703125 -2.106562376022339 -1.822141408920288 0.22740107774734497 0 1
7.410703182220459 -2.1401562690734863 -1.822568655014038 0.22734777629375458 0 1
7.402812480926514 -2.173710823059082 -1.8229955434799194 0.22729462385177612 0 1
7.394745826721191 -2.207206964492798 -1.8234221935272217 0.22724154591560364 0 1
7.386601448059082 -2.24072265625 -1.823849081993103 0.22718803584575653 0 1
7.378242015838623 -2.274179697036743 -1.8242751359939575 0.22713519632816315 0 1
7.369726181030273 -2.3076562881469727 -1.8247015476226807 0.22708189487457275 0 1
7.361093521118164 -2.341054677963257 -1.8251272439956665 0.22702868282794952 0 1
7.352284908294678 -2.3744139671325684 -1.8255525827407837 0.22697612643241882 0 1
7.343320369720459 -2.407773494720459 -1.8259780406951904 0.2269231081008911 0 1
7.334218502044678 -2.441093683242798 -1.8264029026031494 0.22687017917633057 0 1
7.324941158294678 -2.474355459213257 -1.8268276453018188 0.22681733965873718 0 1
7.315488338470459 -2.5075976848602295 -1.8272521495819092 0.22676512598991394 0 1
7.305995941162109 -2.540839672088623 -1.8276762962341309 0.2267119139432907 0 1
7.296210765838623 -2.5740039348602295 -1.8280999660491943 0.2266598641872406 0 1
7.286386489868164 -2.607128858566284 -1.8285231590270996 0.2266073375940323 0 1
7.276308536529541 -2.6402342319488525 -1.8289464712142944 0.22655491530895233 0 1
7.266152381896973 -2.6733202934265137 -1.8293691873550415 0.22650253772735596 0 1
7.255839824676514 -2.7063281536102295 -1.82979154586792 0.22645021975040436 0 1
7.245370864868164 -2.739335775375366 -1.8302135467529297 0.22639797627925873 0 1
7.234726428985596 -2.772265672683716 -1.8306353092193604 0.22634583711624146 0 1
7.223945140838623 -2.8051562309265137 -1.8310564756393433 0.22629369795322418 0 1
7.21300745010376 -2.838027238845825 -1.8314772844314575 0.22624166309833527 0 1
7.201972484588623 -2.8708789348602295 -1.8318980932235718 0.22618965804576874 0 1
7.19070291519165 -2.9035937786102295 -1.8323177099227905 0.22613775730133057 0 1
7.179335594177246 -2.936328172683716 -1.8327373266220093 0.22608588635921478 0 1
7.167734146118164 -2.9690234661102295 -1.833156704902649 0.22603461146354675 0 1
7.156074047088623 -3.0016796588897705 -1.8335753679275513 0.22598280012607574 0 1
7.144257545471191 -3.0342772006988525 -1.8339937925338745 0.2259311079978943 0 1
7.132265567779541 -3.0668163299560547 -1.83441162109375 0.225879967212677 0 1
7.120136737823486 -3.0993359088897705 -1.8348290920257568 0.2258283793926239 0 1
7.107831954956055 -3.1317968368530273 -1.835246205329895 0.22577732801437378 0 1
7.095390319824219 -3.164179563522339 -1.8356622457504272 0.22572584450244904 0 1
7.082773208618164 -3.196542978286743 -1.83607816696167 0.22567494213581085 0 1
7.070058345794678 -3.2288475036621094 -1.8364940881729126 0.2256234735250473 0 1
7.057187557220459 -3.2610740661621094 -1.8369088172912598 0.2255726456642151 0 1
7.044179439544678 -3.2933006286621094 -1.8373233079910278 0.22552184760570526 0 1
7.030937194824219 -3.3254687786102295 -1.8377370834350586 0.22547107934951782 0 1
7.017617225646973 -3.357538938522339 -1.8381506204605103 0.22542041540145874 0 1
7.004159927368164 -3.389589786529541 -1.8385632038116455 0.22536978125572205 0 1
6.885917663574219 -3.3703906536102295 -1.8114562034606934 0.1499878615140915 0 2
6.700780868530273 -3.3169336318969727 -1.7666350603103638 0.19555866718292236 0 2
6.564472675323486 -3.286015510559082 -1.7345428466796875 0.22521862387657166 0 2
6.551171779632568 -3.3160154819488525 -1.7349300384521484 0.22516851127147675 0 2
6.537773132324219 -3.3459765911102295 -1.7353167533874512 0.22511817514896393 0 2
6.524277210235596 -3.3758201599121094 -1.7357021570205688 0.22506818175315857 0 2
6.510566234588623 -3.4056639671325684 -1.7360875606536865 0.22501787543296814 0 2
6.550019264221191 -3.4636716842651367 -1.750716209411621 0.2218528389930725 0 2
6.482792854309082 -3.4651756286621094 -1.7368557453155518 0.22492577135562897 0 2
6.468710899353027 -3.4948437213897705 -1.737237811088562 0.22487641870975494 0 2
6.454492092132568 -3.5244531631469727 -1.7376196384429932 0.22482682764530182 0 2
6.440019607543945 -3.5539844036102295 -1.7380003929138184 0.22477805614471436 0 2
6.425507545471191 -3.5834765434265137 -1.7383806705474854 0.22472847998142242 0 2
6.410839557647705 -3.6128904819488525 -1.7387603521347046 0.22467979788780212 0 2
6.39611291885376 -3.642285108566284 -1.7391393184661865 0.22463087737560272 0 2
6.381191253662109 -3.671581983566284 -1.7395178079605103 0.2245817631483078 0 2
6.366093635559082 -3.700820207595825 -1.7398955821990967 0.224532812833786 0 2
6.350898265838623 -3.7300000190734863 -1.7402727603912354 0.22448433935642242 0 2
6.335546970367432 -3.7591404914855957 -1.7406491041183472 0.22443601489067078 0 2
6.32009744644165 -3.788163900375366 -1.7410247325897217 0.22438707947731018 0 2
6.304452896118164 -3.817148447036743 -1.7413997650146484 0.2243388295173645 0 2
6.288730144500732 -3.8460936546325684 -1.7417739629745483 0.22429104149341583 0 2
6.272851467132568 -3.8749217987060547 -1.742147445678711 0.22424300014972687 0 2
6.256855487823486 -3.9037108421325684 -1.7425204515457153 0.22419473528862 0 2
6.240703105926514 -3.932441234588623 -1.7428923845291138 0.22414672374725342 0 2
6.224413871765137 -3.961132764816284 -1.743264079093933 0.2240990400314331 0 2
6.2080078125 -3.989687442779541 -1.7436349391937256 0.22405165433883667 0 2
6.191425800323486 -4.018222332000732 -1.744004487991333 0.2240041345357895 0 2
6.174765586853027 -4.04665994644165 -1.7443737983703613 0.22395634651184082 0 2
6.157929420471191 -4.074999809265137 -1.7447417974472046 0.22390955686569214 0 2
6.141015529632568 -4.103320121765137 -1.7451092004776 0.2238619327545166 0 2
6.123867034912109 -4.131562232971191 -1.7454763650894165 0.22381511330604553 0 2
6.106679439544678 -4.159726619720459 -1.7458422183990479 0.2237682044506073 0 2
6.089335918426514 -4.187792778015137 -1.746207594871521 0.22372154891490936 0 2
6.071855545043945 -4.2158203125 -1.746571660041809 0.22367475926876068 0 2
6.054238319396973 -4.243750095367432 -1.7469353675842285 0.22362840175628662 0 2
6.036484241485596 -4.271601676940918 -1.7472978830337524 0.22358176112174988 0 2
6.018593788146973 -4.299355506896973 -1.7476599216461182 0.22353552281856537 0 2
6.00060510635376 -4.327109336853027 -1.7480212450027466 0.22348955273628235 0 2
5.982480525970459 -4.354745864868164 -1.7483810186386108 0.2234433889389038 0 2
5.964218616485596 -4.382265567779541 -1.748740553855896 0.2233971655368805 0 2
5.94580078125 -4.409765720367432 -1.749098777770996 0.2233518362045288 0 2
5.927324295043945 -4.437167644500732 -1.7494564056396484 0.22330568730831146 0 2
5.908632755279541 -4.464472770690918 -1.749813199043274 0.22326062619686127 0 2
5.889882564544678 -4.491718769073486 -1.750169038772583 0.2232147455215454 0 2
5.870956897735596 -4.518886566162109 -1.7505239248275757 0.22316975891590118 0 2
5.851913928985596 -4.545937538146973 -1.7508776187896729 0.22312484681606293 0 2
5.832734107971191 -4.572929382324219 -1.751231074333191 0.22307957708835602 0 2
5.813437461853027 -4.599823951721191 -1.7515828609466553 0.22303470969200134 0 2
5.794043064117432 -4.626679420471191 -1.7519341707229614 0.2229902148246765 0 2
5.774492263793945 -4.653437614440918 -1.7522845268249512 0.2229452133178711 0 2
5.754765510559082 -4.680058479309082 -1.7526335716247559 0.22290116548538208 0 2
5.734961032867432 -4.706640720367432 -1.7529817819595337 0.22285692393779755 0 2
5.715058326721191 -4.733124732971191 -1.7533293962478638 0.22281254827976227 0 2
5.694980144500732 -4.759511470794678 -1.7536758184432983 0.22276851534843445 0 2
5.6748046875 -4.785780906677246 -1.7540209293365479 0.22272507846355438 0 2
5.654531002044678 -4.812050819396973 -1.7543654441833496 0.2226809412240982 0 2
5.634081840515137 -4.838202953338623 -1.7547087669372559 0.22263766825199127 0 2
5.613534927368164 -4.864199161529541 -1.7550512552261353 0.22259394824504852 0 2
5.592851638793945 -4.890156269073486 -1.7553924322128296 0.22255051136016846 0 2
5.572031021118164 -4.916015625 -1.7557326555252075 0.22250767052173615 0 2
5.551152229309082 -4.941777229309082 -1.7560720443725586 0.2224648892879486 0 2
5.530077934265137 -4.967441082000732 -1.7564104795455933 0.22242191433906555 0 2
5.508944988250732 -4.993027210235596 -1.7567477226257324 0.22237925231456757 0 2
5.487656116485596 -5.0185546875 -1.7570836544036865 0.22233660519123077 0 2
5.466230392456055 -5.0439453125 -1.7574187517166138 0.22229406237602234 0 2
5.444726467132568 -5.069238185882568 -1.7577526569366455 0.2222518026828766 0 2
5.423085689544678 -5.094452857971191 -1.7580856084823608 0.22220978140830994 0 2
5.401308536529541 -5.119570255279541 -1.7584176063537598 0.22216808795928955 0 2
5.379414081573486 -5.144629001617432 -1.7587484121322632 0.22212620079517365 0 2
5.357421875 -5.169531345367432 -1.759078025817871 0.22208458185195923 0 2
5.335292816162109 -5.194316387176514 -1.7594060897827148 0.222042977809906 0 2
5.313007831573486 -5.219101428985596 -1.75973379611969 0.22200167179107666 0 2
5.290702819824219 -5.243750095367432 -1.760060429573059 0.2219603955745697 0 2
5.095448970794678 5.095351219177246 -1.7339260578155518 0.24312163889408112 0 1
5.118866920471191 5.073320388793945 -1.7341821193695068 0.24308593571186066 0 1
5.142207145690918 5.051210880279541 -1.7344390153884888 0.2430495023727417 0 1
5.165468692779541 5.028964519500732 -1.7346981763839722 0.24301324784755707 0 1
5.188612937927246 5.006581783294678 -1.7349584102630615 0.24297714233398438 0 1
5.211659908294678 4.984140396118164 -1.735219955444336 0.24294063448905945 0 1
5.234706878662109 4.961601257324219 -1.7354826927185059 0.24290341138839722 0 1
5.257558345794678 4.938945293426514 -1.73574697971344 0.2428666353225708 0 1
5.280351638793945 4.916191101074219 -1.736012578010559 0.24282947182655334 0 1
5.303105354309082 4.893320083618164 -1.7362796068191528 0.24279211461544037 0 1
5.325664043426514 4.870351314544678 -1.7365480661392212 0.24275466799736023 0 1
5.348203182220459 4.847265720367432 -1.7368175983428955 0.24271681904792786 0 1
5.370644569396973 4.824120998382568 -1.7370883226394653 0.24267907440662384 0 1
5.392949104309082 4.800859451293945 -1.7373608350753784 0.24264094233512878 0 1
5.415175437927246 4.777519226074219 -1.7376341819763184 0.2426023930311203 0 1
5.437304496765137 4.754023551940918 -1.737909197807312 0.24256424605846405 0 1
5.459316253662109 4.73046875 -1.7381856441497803 0.24252595007419586 0 1
5.481269359588623 4.706835746765137 -1.738463044166565 0.24248696863651276 0 1
5.503085613250732 4.683066368103027 -1.7387419939041138 0.2424481362104416 0 1
5.524785041809082 4.659218788146973 -1.739022135734558 0.2424088716506958 0 1
5.546425819396973 4.635273456573486 -1.7393035888671875 0.24237002432346344 0 1
5.567968845367432 4.611230373382568 -1.7395861148834229 0.24233022332191467 0 1
5.589414119720459 4.587128639221191 -1.739870309829712 0.24229085445404053 0 1
5.610761642456055 4.562851428985596 -1.7401561737060547 0.2422512322664261 0 1
5.631972312927246 4.538515567779541 -1.7404425144195557 0.24221132695674896 0 1
5.653124809265137 4.514101505279541 -1.7407305240631104 0.24217115342617035 0 1
5.674140453338623 4.489570140838623 -1.74101984500885 0.24213092029094696 0 1
5.695077896118164 4.464961051940918 -1.7413101196289062 0.24209056794643402 0 1
5.715898513793945 4.440253734588623 -1.7416021823883057 0.24204975366592407 0 1
5.736581802368164 4.415429592132568 -1.741895079612732 0.24200937151908875 0 1
5.757226467132568 4.390566349029541 -1.7421892881393433 0.24196800589561462 0 1
5.777773380279541 4.36550760269165 -1.7424850463867188 0.24192705750465393 0 1
5.798183441162109 4.340429782867432 -1.7427819967269897 0.24188600480556488 0 1
5.81847620010376 4.315273284912109 -1.7430797815322876 0.2418445199728012 0 1
5.838691234588623 4.289980411529541 -1.7433791160583496 0.241803377866745 0 1
5.858749866485596 4.264628887176514 -1.7436797618865967 0.24176165461540222 0 1
5.878769397735596 4.239199161529541 -1.7439812421798706 0.24171997606754303 0 1
5.898652076721191 4.21365213394165 -1.7442842721939087 0.2416776567697525 0 1
5.918437480926514 4.18798828125 -1.7445886135101318 0.24163572490215302 0 1
5.938046932220459 4.162246227264404 -1.7448937892913818 0.24159321188926697 0 1
5.957617282867432 4.136484146118164 -1.7452001571655273 0.24155107140541077 0 1
5.977109432220459 4.110527038574219 -1.745508074760437 0.24150842428207397 0 1
5.996406078338623 4.084609508514404 -1.7458171844482422 0.24146555364131927 0 1
6.015664100646973 4.058495998382568 -1.7461272478103638 0.24142266809940338 0 1
6.034804344177246 4.032343864440918 -1.7464385032653809 0.24137966334819794 0 1
6.053808689117432 4.006034851074219 -1.746751308441162 0.24133650958538055 0 1
6.072695255279541 3.979726552963257 -1.7470650672912598 0.24129316210746765 0 1
6.091523170471191 3.9532811641693115 -1.747380018234253 0.24124978482723236 0 1
6.110214710235596 3.9267966747283936 -1.7476961612701416 0.24120575189590454 0 1
6.128749847412109 3.9001758098602295 -1.7480136156082153 0.2411624938249588 0 1
6.147226333618164 3.8735156059265137 -1.748331904411316 0.24111822247505188 0 1
6.165585994720459 3.846757650375366 -1.748651385307312 0.24107420444488525 0 1
6.18386697769165 3.81988263130188 -1.7489721775054932 0.2410300225019455 0 1
6.201992034912109 3.7929491996765137 -1.7492938041687012 0.2409857213497162 0 1
6.219980239868164 3.765937328338623 -1.7496172189712524 0.24094125628471375 0 1
6.23790979385376 3.738847494125366 -1.749941110610962 0.24089659750461578 0 1
6.255663871765137 3.7116405963897705 -1.750266671180725 0.24085181951522827 0 1
6.273339748382568 3.6843748092651367 -1.7505931854248047 0.24080722033977509 0 1
6.290898323059082 3.6570701599121094 -1.7509204149246216 0.2407616227865219 0 1
6.308359146118164 3.629570245742798 -1.7512493133544922 0.24071672558784485 0 1
6.325664043426514 3.6020898818969727 -1.7515789270401 0.24067118763923645 0 1
6.342851638793945 3.5745115280151367 -1.7519097328186035 0.2406255006790161 0 1
6.359961032867432 3.5468358993530273 -1.7522414922714233 0.24058003723621368 0 1
6.376914024353027 3.5190820693969727 -1.7525750398635864 0.24053481221199036 0 1
6.393788814544678 3.4913084506988525 -1.7529085874557495 0.24048851430416107 0 1
6.410527229309082 3.4633593559265137 -1.7532439231872559 0.2404429316520691 0 1
6.427187442779541 3.435370922088623 -1.7535803318023682 0.2403966784477234 0 1
6.443671703338623 3.40728497505188 -1.7539178133010864 0.2403506338596344 0 1
6.460039138793945 3.3791797161102295 -1.7542558908462524 0.24030399322509766 0 1
6.476308345794678 3.350956916809082 -1.7545956373214722 0.24025757610797882 0 1
6.49246072769165 3.3226561546325684 -1.7549362182617188 0.2402113676071167 0 1
6.508476257324219 3.2943358421325684 -1.7552776336669922 0.24016408622264862 0 1
6.5244140625 3.265859365463257 -1.7556203603744507 0.24011744558811188 0 1
6.54015588760376 3.237382650375366 -1.755963683128357 0.24007058143615723 0 1
6.555898189544678 3.208750009536743 -1.7563085556030273 0.24002307653427124 0 1
6.571464538574219 3.180117130279541 -1.7566540241241455 0.23997579514980316 0 1
6.586835861206055 3.1513867378234863 -1.7570006847381592 0.23992867767810822 0 1
6.60216760635376 3.1225781440734863 -1.7573485374450684 0.23988094925880432 0 1
6.617362976074219 3.0937108993530273 -1.7576974630355835 0.23983339965343475 0 1
6.632382869720459 3.064765453338623 -1.7580468654632568 0.2397860735654831 0 1
6.647343635559082 3.035722494125366 -1.7583978176116943 0.2397376149892807 0 1
6.662168025970459 3.006601572036743 -1.7587496042251587 0.23968979716300964 0 1
6.676855087280273 2.9774608612060547 -1.7591021060943604 0.23964178562164307 0 1
6.69140625 2.9482030868530273 -1.7594561576843262 0.23959393799304962 0 1
6.70583963394165 2.9189648628234863 -1.7598100900650024 0.23954546451568604 0 1
6.720156192779541 2.8895506858825684 -1.7601662874221802 0.2394970804452896 0 1
6.734355449676514 2.860117197036743 -1.760522723197937 0.23944854736328125 0 1
6.748398303985596 2.83062481880188 -1.7608801126480103 0.23940014839172363 0 1
6.762304306030273 2.801015615463257 -1.761238932609558 0.2393515408039093 0 1
6.776171684265137 2.7714061737060547 -1.7615981101989746 0.23930267989635468 0 1
6.789843559265137 2.7416796684265137 -1.7619585990905762 0.23925349116325378 0 1
6.803417682647705 2.7119140625 -1.7623199224472046 0.23920461535453796 0 1
6.816855430603027 2.6820898056030273 -1.7626818418502808 0.23915505409240723 0 1
6.830156326293945 2.6521873474121094 -1.7630449533462524 0.23910605907440186 0 1
6.843300819396973 2.6222264766693115 -1.76340913772583 0.23905682563781738 0 1
6.856367111206055 2.5921874046325684 -1.763774037361145 0.23900732398033142 0 1
6.869316101074219 2.562089681625366 -1.764140009880066 0.23895758390426636 0 1
6.882070064544678 2.5319530963897705 -1.764506459236145 0.2389080822467804 0 1
6.894784927368164 2.501718759536743 -1.7648742198944092 0.23885828256607056 0 1
6.907304763793945 2.471445322036743 -1.7652429342269897 0.23880858719348907 0 1
6.91970682144165 2.4411327838897705 -1.7656121253967285 0.23875874280929565 0 1
6.931972503662109 2.410703182220459 -1.7659826278686523 0.23870863020420074 0 1
6.944140434265137 2.3802733421325684 -1.7663533687591553 0.23865823447704315 0 1
6.95617151260376 2.349745988845825 -1.7667254209518433 0.23860806226730347 0 1
6.96804666519165 2.319160223007202 -1.767098307609558 0.2385575920343399 0 1
6.979804515838623 2.288515567779541 -1.7674719095230103 0.23850730061531067 0 1
6.991445064544678 2.2578516006469727 -1.7678463459014893 0.23845641314983368 0 1
7.0029296875 2.2270703315734863 -1.7682217359542847 0.23840603232383728 0 1
7.014296531677246 2.1962890625 -1.7685977220535278 0.23835551738739014 0 1
7.02550745010376 2.1654491424560547 -1.7689745426177979 0.23830468952655792 0 1
7.036601543426514 2.134531259536743 -1.7693524360656738 0.23825356364250183 0 1
7.047577857971191 2.1035351753234863 -1.769730806350708 0.23820263147354126 0 1
7.058398246765137 2.072519540786743 -1.7701101303100586 0.23815153539180756 0 1
7.069062232971191 2.041445255279541 -1.7704904079437256 0.23810061812400818 0 1
7.079628944396973 2.010312557220459 -1.7708709239959717 0.23804937303066254 0 1
7.090038776397705 1.979101538658142 -1.771252989768982 0.2379983365535736 0 1
7.10037088394165 1.947851538658142 -1.77163565158844 0.23794658482074738 0 1
7.110566139221191 1.916601538658142 -1.7720184326171875 0.2378946840763092 0 1
7.120546817779541 1.8852343559265137 -1.7724026441574097 0.23784378170967102 0 1
7.130429744720459 1.853847622871399 -1.7727874517440796 0.2377922385931015 0 1
7.140156269073486 1.8224217891693115 -1.7731728553771973 0.23774050176143646 0 1
7.149824142456055 1.7909178733825684 -1.7735589742660522 0.23768843710422516 0 1
7.159257888793945 1.7593945264816284 -1.773945927619934 0.2376365214586258 0 1
7.168632507324219 1.7277929782867432 -1.7743334770202637 0.2375849187374115 0 1
7.17785120010376 1.696132779121399 -1.7747219800949097 0.23753295838832855 0 1
7.186913967132568 1.6644725799560547 -1.7751110792160034 0.2374805361032486 0 1
7.195839881896973 1.6327147483825684 -1.775501012802124 0.23742905259132385 0 1
7.204687118530273 1.6009570360183716 -1.7758910655975342 0.23737657070159912 0 1
7.213359355926514 1.5691405534744263 -1.7762823104858398 0.23732420802116394 0 1
7.221874713897705 1.5372655391693115 -1.7766741514205933 0.2372719943523407 0 1
7.23025369644165 1.5053906440734863 -1.7770665884017944 0.23721957206726074 0 1
7.238476276397705 1.47341787815094 -1.7774596214294434 0.23716698586940765 0 1
7.246621131896973 1.44140625 -1.7778536081314087 0.23711420595645905 0 1
7.254570007324219 1.4093554019927979 -1.7782483100891113 0.23706203699111938 0 1
7.262421607971191 1.3773046731948853 -1.7786431312561035 0.23700940608978271 0 1
7.270078182220459 1.345156192779541 -1.779038906097412 0.23695635795593262 0 1
7.277656078338623 1.31298828125 -1.779435396194458 0.23690390586853027 0 1
7.285038948059082 1.280800700187683 -1.779832363128662 0.23685097694396973 0 1
7.292304515838623 1.248574137687683 -1.7802298069000244 0.23679783940315247 0 1
7.299452781677246 1.216249942779541 -1.780627965927124 0.23674504458904266 0 1
7.306464672088623 1.1839648485183716 -1.781026840209961 0.23669180274009705 0 1
7.313320159912109 1.1515820026397705 -1.7814263105392456 0.23663882911205292 0 1
7.320019245147705 1.119179606437683 -1.7818264961242676 0.23658542335033417 0 1
7.326562404632568 1.0867773294448853 -1.7822271585464478 0.2365325540304184 0 1
7.333027362823486 1.0542773008346558 -1.7826281785964966 0.2364795058965683 0 1
7.339296817779541 1.0217968225479126 -1.7830297946929932 0.2364259511232376 0 1
7.345390319824219 0.9892578125 -1.7834322452545166 0.23637297749519348 0 1
7.351406097412109 0.95667964220047 -1.7838348150253296 0.23631951212882996 0 1
7.357285022735596 0.9240624904632568 -1.7842382192611694 0.23626583814620972 0 1
7.362987995147705 0.8914452791213989 -1.7846423387527466 0.23621241748332977 0 1
7.368574142456055 0.8587695360183716 -1.7850466966629028 0.2361593246459961 0 1
7.374003887176514 0.8260351419448853 -1.7854516506195068 0.23610545694828033 0 1
7.379277229309082 0.7933007478713989 -1.7858572006225586 0.23605163395404816 0 1
7.384413719177246 0.7605664134025574 -1.7862627506256104 0.23599807918071747 0 1
7.389413833618164 0.7277538776397705 -1.7866696119308472 0.23594483733177185 0 1
7.394296646118164 0.6949218511581421 -1.7870763540267944 0.23589056730270386 0 1
7.398984432220459 0.6620898246765137 -1.7874834537506104 0.23583710193634033 0 1
7.403573989868164 0.6292187571525574 -1.7878918647766113 0.23578335344791412 0 1
7.40798807144165 0.5963281393051147 -1.788299798965454 0.2357291281223297 0 1
7.412284851074219 0.5633593797683716 -1.7887088060379028 0.2356751710176468 0 1
7.416425704956055 0.5303906202316284 -1.7891180515289307 0.23562146723270416 0 1
7.42041015625 0.49742186069488525 -1.7895278930664062 0.2355675846338272 0 1
7.424257755279541 0.4643945097923279 -1.789937973022461 0.2355136275291443 0 1
7.427968502044678 0.43138670921325684 -1.7903485298156738 0.23545971512794495 0 1
7.431523323059082 0.3982812464237213 -1.790759801864624 0.23540529608726501 0 1
7.434921741485596 0.36521482467651367 -1.7911711931228638 0.23535165190696716 0 1
7.438202857971191 0.33210936188697815 -1.7915829420089722 0.23529751598834991 0 1
7.441328048706055 0.2990038990974426 -1.7919949293136597 0.23524339497089386 0 1
7.444316387176514 0.26585936546325684 -1.792407751083374 0.23518896102905273 0 1
7.447148323059082 0.23267577588558197 -1.7928204536437988 0.23513509333133698 0 1
7.44982385635376 0.1994921863079071 -1.793233871459961 0.23508071899414062 0 1
7.452343463897705 0.1662890613079071 -1.7936477661132812 0.2350265234708786 0 1
7.454765319824219 0.1330859363079071 -1.794061541557312 0.23497219383716583 0 1
7.456972599029541 0.09984374791383743 -1.7944762706756592 0.23491805791854858 0 1
7.45910120010376 0.06652343273162842 -1.7948909997940063 0.23486338555812836 0 1
7.461034774780273 0.03324218839406967 -1.7953060865402222 0.2348092943429947 0 1
7.462812423706055 -5.859374869032763e-05 -1.7957220077514648 0.23475535213947296 0 1
7.464491844177246 -0.03333984315395355 -1.7961373329162598 0.23470070958137512 0 1
7.465995788574219 -0.0666796863079071 -1.7965532541275024 0.23464663326740265 0 1
7.467362880706787 -0.10001952946186066 -1.7969695329666138 0.234592005610466 0 1
7.468574047088623 -0.13333983719348907 -1.7973864078521729 0.2345375418663025 0 1
7.469609260559082 -0.1667187511920929 -1.797803282737732 0.23448345065116882 0 1
7.470546722412109 -0.20011718571186066 -1.7982207536697388 0.2344287931919098 0 1
7.471288681030273 -0.23347656428813934 -1.7986382246017456 0.23437470197677612 0 1
7.471874713897705 -0.2669140696525574 -1.799056053161621 0.2343200296163559 0 1
7.472421646118164 -0.30027341842651367 -1.7994738817214966 0.23426517844200134 0 1
7.472675800323486 -0.33373045921325684 -1.799892544746399 0.2342110127210617 0 1
7.472870826721191 -0.36716794967651367 -1.8003106117248535 0.23415665328502655 0 1
7.47292947769165 -0.4005663990974426 -1.8007292747497559 0.2341023087501526 0 1
7.47277307510376 -0.4340234398841858 -1.8011482954025269 0.2340477705001831 0 1
7.472499847412109 -0.4674609303474426 -1.8015679121017456 0.23399333655834198 0 1
7.472089767456055 -0.5009374618530273 -1.8019869327545166 0.23393870890140533 0 1
7.471503734588623 -0.5343945026397705 -1.802406907081604 0.23388445377349854 0 1
7.470780849456787 -0.56787109375 -1.8028265237808228 0.23382961750030518 0 1
7.469941139221191 -0.6013281345367432 -1.8032463788986206 0.2337752878665924 0 1
7.468945026397705 -0.6348242163658142 -1.803666353225708 0.23372074961662292 0 1
7.467714786529541 -0.6682812571525574 -1.8040869235992432 0.23366671800613403 0 1
7.466444969177246 -0.7017577886581421 -1.8045071363449097 0.23361192643642426 0 1
7.464941024780273 -0.7352929711341858 -1.804927945137024 0.23355750739574432 0 1
7.463359355926514 -0.7687695026397705 -1.805348515510559 0.23350299894809723 0 1
7.461601257324219 -0.8022265434265137 -1.8057695627212524 0.23344887793064117 0 1
7.459687232971191 -0.8357226252555847 -1.8061904907226562 0.23339465260505676 0 1
7.457578182220459 -0.8692382574081421 -1.8066115379333496 0.23334024846553802 0 1
7.455370903015137 -0.9026757478713989 -1.8070324659347534 0.23328562080860138 0 1
7.453046798706055 -0.9361523389816284 -1.8074538707733154 0.2332313507795334 0 1
7.450507640838623 -0.9696288704872131 -1.8078752756118774 0.23317699134349823 0 1
