ply
format ascii 1.0
element vertex 1386
property float32 x
property float32 y
property float32 z
property float32 CosAngle
property uint32 ObjIdx
property uint32 ObjTag
end_header
9.7374 8.4375 2.4182 0.5846 0 3
11.1178 -11.1178 2.8169 0.8848 0 9
14.1944 -12.2996 3.3650 0.5021 0 9
13.7078 -10.2616 3.0678 0.8595 0 9
18.6879 -12.0101 3.9800 0.8393 0 9
20.9147 -11.4204 4.2694 0.9255 0 9
23.4131 -10.6924 4.6115 0.8554 0 9
26.3096 -9.8130 5.0309 0.7043 0 9
13.6408 6.2296 2.6867 0.3386 0 3
12.6800 6.9238 2.5884 0.8572 0 3
12.5781 8.0835 2.6788 0.8656 0 3
11.5675 8.6593 2.5888 0.3984 0 3
9.7379 8.4379 2.3085 0.5855 0 3
11.0966 -11.0967 2.6782 0.8877 0 9
13.9904 -12.1228 3.1593 0.0906 0 9
13.7111 -10.2640 2.9230 0.8605 0 9
18.6351 -11.9761 3.7805 0.8429 0 9
20.8769 -11.3997 4.0595 0.9285 0 9
23.3787 -10.6767 4.3863 0.8579 0 9
26.5367 -9.8977 4.8336 0.6993 0 9
13.6902 6.2521 2.5685 0.3803 0 3
14.1355 7.7186 2.7486 0.4042 0 3
12.5772 8.0829 2.5515 0.8669 0 3
11.5685 8.6601 2.4662 0.3990 0 3
9.7383 8.4383 2.1991 0.5863 0 3
11.0756 -11.0757 2.5404 0.8906 0 9
14.1968 -12.3016 3.0467 0.0894 0 9
14.9945 -11.2248 3.0379 0.9279 0 9
20.2737 -13.0291 3.9087 0.8207 0 9
20.8393 -11.3792 3.8510 0.9314 0 9
23.3445 -10.6611 4.1624 0.8603 0 9
26.7671 -9.9837 4.6335 0.6942 0 9
17.6397 8.0558 3.1452 0.3395 0 3
14.1364 7.7191 2.6123 0.4048 0 3
12.5763 8.0823 2.4247 0.8681 0 3
11.5695 8.6609 2.3440 0.3995 0 3
9.7387 8.4386 2.0900 0.5871 0 3
11.0548 -11.0548 2.4035 0.8935 0 9
14.4088 -12.4854 2.9311 0.0882 0 9
16.2368 -12.1547 3.1182 0.9665 0 9
20.2402 -13.0076 3.6989 0.8232 0 9
23.7600 -12.9740 4.1619 0.5043 0 9
23.3105 -10.6456 3.9398 0.8627 0 9
27.0009 -10.0708 4.4304 0.6891 0 9
17.6411 8.0564 2.9816 0.3399 0 3
14.1373 7.7196 2.4764 0.4053 0 3
12.5754 8.0817 2.2981 0.8693 0 3
11.5705 8.6616 2.2220 0.4000 0 3
9.7391 8.4390 1.9812 0.5878 0 3
14.5055 -14.5056 2.9809 0.8259 0 9
14.6267 -12.6741 2.8123 0.0870 0 9
20.1446 -15.0801 3.6565 0.9033 0 9
20.2069 -12.9862 3.4903 0.8255 0 9
23.2767 -10.6302 3.7183 0.8650 0 9
26.6894 -9.9546 4.1392 0.3967 0 9
17.6424 8.0570 2.8183 0.3403 0 3
14.1382 7.7201 2.3407 0.4058 0 3
12.5744 8.0811 2.1720 0.8705 0 3
11.5716 8.6624 2.1004 0.4004 0 3
9.7396 8.4394 1.8726 0.5885 0 3
14.4490 -14.4490 2.7974 0.8301 0 9
15.1481 -13.1259 2.7440 0.9803 0 9
20.1632 -15.0941 3.4481 0.9035 0 9
20.1737 -12.9649 3.2829 0.8278 0 9
25.4335 -13.8878 3.9671 0.6136 0 9
23.2431 -10.6148 3.4981 0.8672 0 9
27.0518 -10.0898 3.9526 0.2294 0 9
17.5289 6.5379 2.5612 0.3075 0 3
17.6437 8.0576 2.6554 0.3407 0 3
14.1391 7.7205 2.2054 0.4062 0 3
12.5735 8.0805 2.0461 0.8715 0 3
11.5725 8.6631 1.9790 0.4009 0 3
9.7400 8.4397 1.7643 0.5892 0 3
14.3930 -14.3930 2.6157 0.8343 0 9
20.1818 -15.1080 3.2397 0.9036 0 9
20.1408 -12.9437 3.0767 0.8301 0 9
26.6521 -14.5532 3.9023 0.9808 0 9
23.8990 -10.9144 3.3763 0.7097 0 9
25.4784 -9.5030 3.4945 0.9444 0 9
17.6451 8.0582 2.4928 0.3410 0 3
12.6792 6.9233 1.8565 0.7022 0 3
12.5726 8.0799 1.9206 0.8726 0 3
11.5735 8.6638 1.8579 0.4013 0 3
9.8774 8.5588 1.6796 0.1368 0 3
14.3375 -14.3376 2.4359 0.8384 0 9
20.2004 -15.1219 3.0314 0.9037 0 9
20.1080 -12.9227 2.8715 0.8323 0 9
26.7183 -14.5893 3.6571 0.9793 0 9
24.6227 -11.2449 3.2519 0.9497 0 9
25.4342 -9.4865 3.2611 0.9470 0 9
13.6473 6.2325 1.8024 0.3414 0 3
12.6621 6.9140 1.7332 0.9048 0 3
12.5717 8.0794 1.7953 0.8735 0 3
11.5747 8.6647 1.7370 0.4018 0 3
9.8933 8.5726 1.5726 0.5904 0 3
14.2826 -14.2827 2.2578 0.8424 0 9
20.2190 -15.1358 2.8231 0.9038 0 9
20.0754 -12.9017 2.6674 0.8345 0 9
26.7847 -14.6256 3.4112 0.9778 0 9
24.5803 -11.2255 3.0205 0.9522 0 9
25.3902 -9.4701 3.0291 0.9495 0 9
13.6482 6.2329 1.6771 0.3417 0 3
12.6612 6.9136 1.6125 0.9058 0 3
12.5708 8.0788 1.6703 0.8744 0 3
11.8298 8.8557 1.6518 0.1218 0 3
9.8937 8.5729 1.4633 0.5909 0 3
14.2282 -14.2283 2.0813 0.8464 0 9
20.2376 -15.1497 2.6149 0.9037 0 9
21.6254 -13.8979 2.6590 0.8663 0 9
25.1889 -13.7543 2.9686 0.4183 0 9
25.7398 -11.7550 2.9269 0.0514 0 9
25.3464 -9.4538 2.7982 0.9520 0 9
13.6493 6.2334 1.5521 0.3419 0 3
12.6603 6.9131 1.4921 0.9066 0 3
12.5699 8.0782 1.5455 0.8753 0 3
11.8352 8.8597 1.5292 0.3893 0 3
9.8941 8.5733 1.3542 0.5914 0 3
14.1744 -14.1744 1.9065 0.8503 0 9
20.6259 -15.4404 2.4505 0.4825 0 9
21.6151 -13.8912 2.4438 0.8675 0 9
26.9181 -14.6984 2.9170 0.9747 0 9
28.6009 -13.0616 2.9905 0.8835 0 9
28.3338 -10.5680 2.8762 0.8007 0 9
17.5196 6.5345 1.7784 0.2746 0 3
13.6503 6.2339 1.4273 0.3422 0 3
12.6595 6.9126 1.3718 0.9074 0 3
12.5689 8.0776 1.4210 0.8760 0 3
11.8362 8.8605 1.4062 0.3895 0 3
9.8946 8.5737 1.2452 0.5919 0 3
14.8210 -14.8210 1.8193 0.7055 0 9
20.6491 -15.4578 2.2388 0.4823 0 9
22.5685 -14.5039 2.3285 0.9099 0 9
26.8579 -14.6656 2.6561 0.5895 0 9
26.1319 -11.9341 2.4935 0.0577 0 9
17.5212 6.5351 1.6231 0.2748 0 3
13.6513 6.2343 1.3026 0.3424 0 3
12.6586 6.9121 1.2518 0.9082 0 3
12.5680 8.0770 1.2967 0.8768 0 3
11.8372 8.8613 1.2834 0.3898 0 3
9.8950 8.5741 1.1364 0.5923 0 3
14.8095 -14.8095 1.6440 0.7065 0 9
20.6723 -15.4751 2.0269 0.4821 0 9
22.5437 -14.4880 2.1035 0.9115 0 9
27.0524 -14.7718 2.4194 0.9712 0 9
25.6538 -11.7157 2.2137 0.0588 0 9
17.5229 6.5357 1.4680 0.2750 0 3
13.6523 6.2348 1.1781 0.3426 0 3
12.6577 6.9116 1.1320 0.9089 0 3
12.5671 8.0764 1.1726 0.8774 0 3
11.8383 8.8620 1.1608 0.3899 0 3
9.8954 8.5744 1.0278 0.5927 0 3
14.7980 -14.7981 1.4692 0.7075 0 9
22.5190 -14.4721 1.8792 0.9131 0 9
27.1199 -14.8086 2.1692 0.9694 0 9
28.2987 -12.9236 2.1840 0.8948 0 9
17.5245 6.5363 1.3131 0.2751 0 3
13.6533 6.2353 1.0537 0.3428 0 3
12.6568 6.9111 1.0124 0.9095 0 3
12.5662 8.0758 1.0487 0.8780 0 3
11.8393 8.8628 1.0382 0.3901 0 3
9.8958 8.5748 0.9192 0.5930 0 3
26.8548 -17.2586 1.9767 0.6864 0 9
27.1877 -14.8457 1.9181 0.9675 0 9
17.5261 6.5369 1.1583 0.2752 0 3
13.6543 6.2357 0.9295 0.3430 0 3
12.6559 6.9106 0.8929 0.9100 0 3
12.5608 8.0724 0.9246 0.8720 0 3
11.8404 8.8636 0.9158 0.3903 0 3
9.8962 8.5752 0.8108 0.5933 0 3
26.9274 -17.3052 1.7172 0.9827 0 9
27.2558 -14.8828 1.6660 0.9655 0 9
47.2215 13.8655 2.6403 0.5056 0 3
17.5277 6.5375 1.0036 0.2753 0 3
13.6553 6.2362 0.8054 0.3431 0 3
12.6550 6.9102 0.7735 0.9105 0 3
12.6315 8.1178 0.8055 0.8790 0 3
11.8415 8.8644 0.7936 0.3905 0 3
9.8967 8.5755 0.7025 0.5936 0 3
27.1261 -17.4329 1.4633 0.9980 0 9
27.3217 -14.9188 1.4127 0.9511 0 9
46.5924 13.6808 2.2037 0.5126 0 3
17.5495 6.5456 0.8500 0.2776 0 3
13.6563 6.2367 0.6813 0.3432 0 3
12.6541 6.9097 0.6543 0.9110 0 3
12.6306 8.1172 0.6814 0.8795 0 3
11.8425 8.8652 0.6713 0.3906 0 3
9.8971 8.5759 0.5943 0.5938 0 3
49.3688 -7.0982 1.8515 0.7457 0 3
45.9803 13.5011 1.7790 0.5196 0 3
17.5309 6.5387 0.6946 0.2755 0 3
13.6573 6.2371 0.5574 0.3433 0 3
12.6533 6.9092 0.5352 0.9113 0 3
12.6297 8.1166 0.5573 0.8798 0 3
11.8436 8.8660 0.5492 0.3907 0 3
9.8975 8.5763 0.4862 0.5940 0 3
49.0411 -7.0510 1.4303 0.6513 0 3
48.7600 -3.4874 1.4112 0.6593 0 3
45.3844 13.3261 1.3655 0.5266 0 3
17.5325 6.5393 0.5402 0.2755 0 3
13.6584 6.2376 0.4335 0.3434 0 3
12.6524 6.9087 0.4161 0.9117 0 3
12.6288 8.1160 0.4334 0.8801 0 3
11.8446 8.8667 0.4271 0.3908 0 3
9.8979 8.5766 0.3781 0.5941 0 3
48.5944 -6.9868 1.0122 0.6574 0 3
48.3212 -3.4560 0.9988 0.6654 0 3
44.8040 13.1557 0.9627 0.5335 0 3
17.5342 6.5399 0.3858 0.2756 0 3
13.6594 6.2380 0.3096 0.3434 0 3
12.6515 6.9082 0.2972 0.9119 0 3
12.6279 8.1154 0.3095 0.8804 0 3
11.8456 8.8675 0.3051 0.3908 0 3
9.8984 8.5770 0.2700 0.5942 0 3
48.6713 -10.5878 0.6161 0.9611 0 3
48.4288 -6.9630 0.6052 0.9777 0 3
48.1745 -3.4455 0.5974 0.9884 0 3
44.7246 13.1324 0.5766 0.9784 0 3
17.5358 6.5405 0.2315 0.2756 0 3
13.6604 6.2385 0.1857 0.3435 0 3
12.6507 6.9078 0.1783 0.9121 0 3
12.6270 8.1149 0.1857 0.8806 0 3
11.3157 8.4708 0.1748 0.3638 0 3
9.5828 8.3035 0.1568 0.7899 0 3
48.7206 -10.5985 0.2056 0.9604 0 3
48.4770 -6.9699 0.2019 0.9781 0 3
48.2421 -3.4503 0.1994 0.9904 0 3
44.7648 13.1442 0.1923 0.9788 0 3
17.5374 6.5411 0.0772 0.2756 0 3
13.6614 6.2390 0.0619 0.3435 0 3
12.6498 6.9073 0.0594 0.9122 0 3
12.6260 8.1143 0.0619 0.8807 0 3
11.5884 8.6750 0.0597 0.4041 0 3
9.7466 8.4455 0.0532 0.5943 0 3
28.4281 -28.4281 -0.1658 0.7553 0 4
12.3454 -9.2416 -0.0636 0.9957 0 4
19.6005 -8.9513 -0.0888 0.8760 0 4
48.7173 -10.5978 -0.2056 0.9604 0 3
48.4738 -6.9695 -0.2019 0.9781 0 3
48.2390 -3.4501 -0.1994 0.9905 0 3
45.1321 13.2520 -0.1939 0.9770 0 3
17.5390 6.5417 -0.0772 0.2756 0 3
13.6624 6.2394 -0.0619 0.3434 0 3
12.6489 6.9068 -0.0594 0.9123 0 3
12.6251 8.1137 -0.0619 0.8807 0 3
11.5894 8.6757 -0.0597 0.4040 0 3
9.7471 8.4459 -0.0532 0.5942 0 3
28.4272 -28.4271 -0.4973 0.7552 0 4
12.3854 -9.2716 -0.1914 0.9957 0 4
19.6565 -8.9768 -0.2673 0.2353 0 4
48.7141 -10.5971 -0.6166 0.9604 0 3
48.4707 -6.9690 -0.6057 0.9781 0 3
48.2359 -3.4499 -0.5982 0.9905 0 3
45.1292 13.2511 -0.5818 0.9770 0 3
17.5406 6.5423 -0.2316 0.2755 0 3
13.6634 6.2399 -0.1858 0.3434 0 3
12.6480 6.9063 -0.1782 0.9123 0 3
12.6242 8.1131 -0.1856 0.8807 0 3
11.5904 8.6764 -0.1791 0.4040 0 3
9.7475 8.4462 -0.1595 0.5942 0 3
28.4262 -28.4262 -0.8288 0.7552 0 4
12.3846 -9.2710 -0.3190 0.9956 0 4
37.8505 -24.3250 -0.9276 0.7139 272 14
19.6535 -8.9755 -0.4455 0.2353 0 4
48.7109 -10.5964 -1.0278 0.9603 0 3
48.4675 -6.9686 -1.0095 0.9781 0 3
48.2328 -3.4497 -0.9970 0.9904 0 3
45.1263 13.2503 -0.9696 0.9769 0 3
17.5422 6.5429 -0.3860 0.2754 0 3
13.6644 6.2403 -0.3097 0.3433 0 3
12.6471 6.9059 -0.2971 0.9122 0 3
12.6233 8.1125 -0.3094 0.8807 0 3
11.5914 8.6772 -0.2985 0.4039 0 3
9.7479 8.4466 -0.2659 0.5941 0 3
28.4253 -28.4253 -1.1605 0.7550 0 4
10.9486 -9.4870 -0.4182 0.5017 0 4
12.3839 -9.2704 -0.4466 0.9954 0 4
27.8768 -17.9153 -0.9566 0.8043 0 4
19.6511 -8.9744 -0.6236 0.2520 0 4
48.7077 -10.5957 -1.4390 0.9602 0 3
48.4644 -6.9681 -1.4134 0.9779 0 3
48.2298 -3.4495 -1.3958 0.9903 0 3
47.7520 0.0000 -1.3785 0.9732 0 5
46.7549 6.7223 -1.3636 0.9963 0 5
46.5343 10.1229 -1.3748 0.9877 0 5
44.7532 13.1408 -1.3465 0.9787 0 3
17.5438 6.5435 -0.5405 0.2754 0 3
13.6654 6.2408 -0.4337 0.3432 0 3
12.6463 6.9054 -0.4159 0.9121 0 3
12.6224 8.1120 -0.4331 0.8806 0 3
11.5924 8.6779 -0.4180 0.4037 0 3
9.7483 8.4470 -0.3724 0.5939 0 3
28.4244 -28.4243 -1.4922 0.7549 0 4
10.9348 -9.4751 -0.5371 0.9916 0 4
12.3831 -9.2699 -0.5742 0.9952 0 4
27.7372 -17.8256 -1.2240 0.5872 0 4
31.2375 -17.0570 -1.3212 0.9920 0 6
19.6490 -8.9734 -0.8019 0.2519 0 4
48.7045 -10.5950 -1.8503 0.9600 0 3
48.4613 -6.9677 -1.8175 0.9777 0 3
48.2266 -3.4492 -1.7949 0.9901 0 3
46.7519 6.7219 -1.7534 0.9960 0 5
44.7504 13.1399 -1.7314 0.9785 0 3
17.5454 6.5441 -0.6952 0.2753 0 3
13.6664 6.2413 -0.5577 0.3431 0 3
12.6454 6.9049 -0.5349 0.9119 0 3
12.6215 8.1114 -0.5570 0.8804 0 3
11.5934 8.6787 -0.5376 0.4036 0 3
9.7487 8.4473 -0.4789 0.5937 0 3
28.4234 -28.4234 -1.8242 0.7546 0 4
10.9341 -9.4744 -0.6566 0.9914 0 4
12.3823 -9.2693 -0.7019 0.9950 0 4
27.7072 -17.8063 -1.4947 0.8013 0 4
27.5168 -15.0253 -1.4228 0.8416 0 4
19.6470 -8.9725 -0.9802 0.2518 0 4
27.1475 -10.1254 -1.3149 0.6671 0 4
43.3887 -12.7400 -2.0522 0.9365 0 2
45.0652 -9.8033 -2.0930 0.0371 0 0
45.5597 -6.5505 -2.0889 0.0372 0 0
43.5611 -3.1155 -1.9819 0.5881 0 20
43.4354 0.0001 -1.9712 0.0375 0 20
43.0996 3.0826 -1.9609 0.0377 0 20
42.8085 6.1550 -1.9627 0.9972 0 20
43.8290 9.5345 -2.0356 0.0382 0 0
42.6913 12.5353 -2.0192 0.0385 0 0
17.5537 6.5472 -0.8502 0.2767 0 3
13.6675 6.2417 -0.6819 0.3430 0 3
12.6445 6.9044 -0.6538 0.9117 0 3
12.6206 8.1108 -0.6808 0.8802 0 3
11.5943 8.6794 -0.6573 0.4034 0 3
9.7491 8.4477 -0.5854 0.5935 0 3
26.4812 -26.4812 -2.0091 0.0581 0 0
10.9334 -9.4738 -0.7761 0.9910 0 4
12.3816 -9.2687 -0.8297 0.9946 0 4
14.3439 -9.2183 -0.9147 0.4492 0 4
27.5147 -15.0242 -1.6818 0.8413 0 4
19.6449 -8.9715 -1.1586 0.2518 0 4
22.6948 -8.4647 -1.2995 0.4199 0 4
37.9156 -11.1330 -2.1200 0.0453 0 1
38.5864 -8.3939 -2.1185 0.0454 0 1
38.9703 -5.6031 -2.1122 0.9747 0 2
38.7490 -2.7714 -2.0841 0.9876 0 2
38.5279 0.0000 -2.0669 0.9958 0 2
38.3160 2.7404 -2.0608 0.9989 0 2
38.1063 5.4789 -2.0654 0.9968 0 2
37.7159 8.2046 -2.0707 0.0464 0 1
36.7896 10.8024 -2.0570 0.0467 0 1
17.5487 6.5453 -1.0048 0.2750 0 3
13.6684 6.2422 -0.8061 0.3428 0 3
12.6437 6.9040 -0.7728 0.9114 0 3
12.5486 8.0645 -0.8002 0.8745 0 3
11.5954 8.6802 -0.7771 0.4032 0 3
9.7495 8.4480 -0.6921 0.5932 0 3
22.4225 -22.4225 -1.9635 0.0418 0 0
10.9327 -9.4732 -0.8958 0.9906 0 4
12.3808 -9.2681 -0.9576 0.9942 0 4
27.6545 -17.7724 -2.0355 0.0539 0 0
16.6181 -9.0742 -1.1724 0.0545 0 4
19.1329 -8.7378 -1.3024 0.4814 0 4
22.6929 -8.4640 -1.4997 0.4197 0 4
30.2276 -8.8756 -1.9508 0.0535 0 2
32.6420 -7.1008 -2.0685 0.0536 0 1
33.0201 -4.7476 -2.0657 0.0537 0 1
33.2038 -2.3748 -2.0613 0.0538 0 1
33.1926 0.0000 -2.0553 0.0539 0 1
32.9884 2.3594 -2.0479 0.0541 0 1
32.5947 4.6864 -2.0391 0.0544 0 1
32.0169 6.9649 -2.0289 0.0546 0 1
29.4624 8.6510 -1.9014 0.0550 0 2
17.5503 6.5459 -1.1599 0.2749 0 3
13.6695 6.2426 -0.9305 0.3426 0 3
12.6428 6.9035 -0.8920 0.9110 0 3
12.5518 8.0666 -0.9239 0.8795 0 3
11.5967 8.6812 -0.8970 0.4032 0 3
9.7500 8.4484 -0.7989 0.5930 0 3
19.9195 -19.9195 -1.9776 0.0526 0 0
10.9320 -9.4726 -1.0155 0.9901 0 4
12.3800 -9.2676 -1.0857 0.9937 0 4
14.2031 -9.1278 -1.1853 0.4713 0 4
16.3838 -8.9462 -1.3105 0.5437 0 4
19.1324 -8.7375 -1.4766 0.4812 0 4
22.6911 -8.4633 -1.7002 0.4195 0 4
26.1853 -7.6887 -1.9159 0.0618 0 2
26.6548 -5.7984 -1.9150 0.0618 0 2
28.6137 -4.1140 -2.0294 0.0619 0 1
28.7809 -2.0584 -2.0257 0.0620 0 1
28.7823 0.0000 -2.0206 0.0622 0 1
28.6190 2.0469 -2.0143 0.0624 0 1
28.2937 4.0680 -2.0067 0.0626 0 1
26.2097 5.7016 -1.8830 0.0629 0 2
25.6104 7.5199 -1.8738 0.0632 0 2
17.5519 6.5465 -1.3151 0.2747 0 3
13.6705 6.2431 -1.0550 0.3424 0 3
12.6419 6.9030 -1.0112 0.9106 0 3
12.5509 8.0660 -1.0474 0.8791 0 3
11.5986 8.6826 -1.0171 0.4035 0 3
9.7502 8.4486 -0.9057 0.5927 0 3
17.3614 -17.3615 -1.9272 0.0904 0 0
10.8767 -9.4247 -1.1297 0.0707 0 4
12.3595 -9.2522 -1.2119 0.6574 0 4
14.1773 -9.1112 -1.3228 0.6028 0 4
16.3829 -8.9457 -1.4652 0.5434 0 4
19.1317 -8.7372 -1.6509 0.4809 0 4
22.5482 -8.4100 -1.8890 0.0701 0 2
23.0950 -6.7812 -1.8894 0.0700 0 2
23.5104 -5.1144 -1.8886 0.0701 0 2
25.2413 -3.6291 -2.0017 0.0701 0 1
25.3944 -1.8162 -1.9984 0.0702 0 1
25.4030 0.0000 -1.9940 0.0704 0 1
25.2682 1.8072 -1.9885 0.0706 0 1
24.9920 3.5933 -1.9819 0.0708 0 1
23.1629 5.0388 -1.8607 0.0711 0 2
22.6462 6.6495 -1.8526 0.0714 0 2
17.5535 6.5471 -1.4706 0.2745 0 3
13.6715 6.2436 -1.1797 0.3422 0 3
12.6410 6.9025 -1.1305 0.9101 0 3
12.5500 8.0654 -1.1710 0.8786 0 3
11.6004 8.6839 -1.1374 0.4037 0 3
9.7505 8.4488 -1.0127 0.5923 0 3
9.4810 -9.4811 -1.1638 0.5899 0 4
10.8151 -9.3713 -1.2421 0.7087 0 4
12.3590 -9.2518 -1.3400 0.6570 0 4
14.1770 -9.1110 -1.4627 0.6024 0 4
16.3820 -8.9453 -1.6201 0.5431 0 4
19.1312 -8.7369 -1.8255 0.4806 0 4
20.1658 -7.5214 -1.8681 0.0783 0 2
20.6544 -6.0646 -1.8684 0.0783 0 2
21.0267 -4.5741 -1.8677 0.0783 0 2
22.5769 -3.2461 -1.9797 0.0784 0 1
22.7178 -1.6248 -1.9769 0.0785 0 1
22.7309 0.0000 -1.9730 0.0786 0 1
22.6168 1.6176 -1.9681 0.0788 0 1
22.3772 3.2174 -1.9622 0.0791 0 1
20.7479 4.5134 -1.8430 0.0793 0 2
20.2941 5.9589 -1.8358 0.0796 0 2
17.5552 6.5477 -1.6263 0.2743 0 3
13.6725 6.2440 -1.3046 0.3419 0 3
12.6401 6.9020 -1.2500 0.9095 0 3
12.5491 8.0648 -1.2947 0.8781 0 3
11.6014 8.6847 -1.2578 0.4034 0 3
9.7508 8.4491 -1.1199 0.5918 0 3
9.4765 -9.4766 -1.2746 0.7548 0 4
10.8148 -9.3710 -1.3610 0.7082 0 4
12.3585 -9.2514 -1.4683 0.6565 0 4
14.1768 -9.1108 -1.6028 0.6019 0 4
16.3812 -8.9448 -1.7752 0.5427 0 4
17.6933 -8.0802 -1.8500 0.0866 0 2
18.2362 -6.8017 -1.8512 0.0865 0 2
18.6779 -5.4843 -1.8514 0.0865 0 2
20.1742 -4.3886 -1.9636 0.0865 0 1
20.4186 -2.9357 -1.9620 0.0866 0 1
20.5488 -1.4697 -1.9594 0.0867 0 1
20.5646 0.0000 -1.9559 0.0868 0 1
20.4662 1.4638 -1.9515 0.0870 0 1
20.2551 2.9122 -1.9463 0.0873 0 1
18.7864 4.0867 -1.8286 0.0875 0 2
18.3823 5.3975 -1.8221 0.0879 0 2
17.5568 6.5484 -1.7822 0.2740 0 3
13.6735 6.2445 -1.4297 0.3416 0 3
12.6393 6.9015 -1.3697 0.9089 0 3
12.5482 8.0642 -1.4187 0.8775 0 3
8.7399 6.5426 -1.0384 0.2233 0 20
9.7512 8.4495 -1.2272 0.5913 0 3
9.4762 -9.4762 -1.3862 0.7542 0 4
10.8143 -9.3706 -1.4801 0.7077 0 4
12.3580 -9.2511 -1.5968 0.6560 0 4
14.1765 -9.1107 -1.7431 0.6014 0 4
15.5639 -8.4985 -1.8342 0.0949 0 2
16.1468 -7.3740 -1.8361 0.0948 0 2
16.6414 -6.2069 -1.8372 0.0947 0 2
17.0935 -5.0191 -1.8427 0.3662 0 2
18.4099 -4.0048 -1.9488 0.0947 0 1
18.6343 -2.6792 -1.9473 0.0948 0 1
18.7554 -1.3414 -1.9450 0.0949 0 1
18.7727 0.0000 -1.9418 0.0951 0 1
18.6865 1.3365 -1.9378 0.0952 0 1
18.4981 2.6596 -1.9331 0.0955 0 1
17.1614 3.7332 -1.8166 0.0958 0 2
16.7973 4.9322 -1.8108 0.0961 0 2
16.3444 6.0962 -1.8044 0.0964 0 2
13.6745 6.2450 -1.5550 0.3413 0 3
12.6384 6.9011 -1.4895 0.9082 0 3
12.5473 8.0637 -1.5428 0.8768 0 3
8.7033 6.5152 -1.1245 0.7696 0 20
9.7516 8.4499 -1.3347 0.5908 0 3
9.4758 -9.4759 -1.4979 0.7535 0 4
10.8139 -9.3703 -1.5994 0.7071 0 4
12.3575 -9.2507 -1.7255 0.6554 0 4
13.7011 -8.8051 -1.8205 0.1032 0 2
14.3130 -7.8154 -1.8229 0.1030 0 2
14.8469 -6.7804 -1.8244 0.1030 0 2
15.3010 -5.7069 -1.8254 0.1029 0 2
16.5718 -4.8659 -1.9306 0.3561 0 2
16.9271 -3.6822 -1.9363 0.1029 0 1
17.1345 -2.4636 -1.9350 0.1030 0 1
17.2475 -1.2336 -1.9328 0.1031 0 1
17.2656 0.0000 -1.9299 0.1033 0 1
17.1893 1.2294 -1.9263 0.1035 0 1
17.0193 2.4470 -1.9219 0.1037 0 1
15.7930 3.4356 -1.8066 0.1040 0 2
15.4619 4.5401 -1.8013 0.1043 0 2
15.0492 5.6131 -1.7954 0.1046 0 2
13.6755 6.2454 -1.6805 0.3410 0 3
12.6375 6.9006 -1.6095 0.9075 0 3
12.5464 8.0631 -1.6670 0.8761 0 3
8.6958 6.5096 -1.2142 0.7652 0 20
9.7521 8.4502 -1.4424 0.5902 0 3
9.4755 -9.4756 -1.6099 0.7528 0 4
10.8135 -9.3700 -1.7189 0.7064 0 4
12.0479 -9.0189 -1.8080 0.1115 0 2
12.6804 -8.1492 -1.8108 0.1114 0 2
13.2455 -7.2325 -1.8130 0.1112 0 2
13.7392 -6.2745 -1.8145 0.1111 0 2
14.1585 -5.2808 -1.8154 0.1111 0 2
15.3846 -4.5173 -1.9262 0.1111 0 1
15.6632 -3.4073 -1.9257 0.1111 0 1
15.8560 -2.2797 -1.9244 0.1112 0 1
15.9618 -1.1416 -1.9225 0.1113 0 1
15.9804 0.0000 -1.9198 0.1115 0 1
15.9119 1.1381 -1.9165 0.1117 0 1
15.7572 2.2656 -1.9125 0.1119 0 1
14.6247 3.1814 -1.7980 0.1122 0 2
14.3212 4.2051 -1.7931 0.1125 0 2
13.9424 5.2003 -1.7877 0.1128 0 2
13.4910 6.1612 -1.7818 0.1132 0 2
12.6366 6.9001 -1.7297 0.9067 0 3
12.4819 8.0217 -1.7825 0.1140 0 0
8.6578 6.4812 -1.2993 0.8188 0 20
9.7525 8.4506 -1.5503 0.5896 0 3
9.4752 -9.4752 -1.7220 0.7521 0 4
10.5661 -9.1555 -1.7967 0.1200 0 2
11.2123 -8.3934 -1.7999 0.1197 0 2
11.7997 -7.5831 -1.8025 0.1196 0 2
12.3245 -6.7296 -1.8045 0.1194 0 2
12.7831 -5.8378 -1.8059 0.1193 0 2
13.6764 -5.1010 -1.8758 0.4182 0 2
14.3134 -4.2028 -1.9170 0.1193 0 1
14.5729 -3.1701 -1.9165 0.1193 0 1
14.7530 -2.1211 -1.9154 0.1194 0 1
14.8525 -1.0622 -1.9135 0.1195 0 1
14.8712 0.0000 -1.9111 0.1196 0 1
14.8093 1.0592 -1.9080 0.1198 0 1
14.6674 2.1089 -1.9043 0.1201 0 1
13.7517 2.9915 -1.8085 0.1601 0 2
13.3355 3.9157 -1.7861 0.1207 0 2
12.9854 4.8433 -1.7810 0.1210 0 2
12.5679 5.7396 -1.7755 0.1214 0 2
12.0861 6.5995 -1.7696 0.1218 0 2
11.6337 7.4765 -1.7771 0.1222 0 0
8.6959 6.5096 -1.3959 0.7637 0 20
9.7529 8.4509 -1.6584 0.5890 0 3
9.2265 -9.2264 -1.7863 0.1284 0 2
9.8806 -8.5615 -1.7898 0.1281 0 2
10.4836 -7.8479 -1.7928 0.1279 0 2
11.0318 -7.0897 -1.7952 0.1277 0 2
11.5216 -6.2912 -1.7971 0.1276 0 2
11.9498 -5.4573 -1.7984 0.1275 0 2
13.0644 -4.8728 -1.9089 0.1275 0 1
13.3798 -3.9286 -1.9090 0.1275 0 1
13.6227 -2.9634 -1.9085 0.1275 0 1
13.7915 -1.9829 -1.9075 0.1276 0 1
13.8854 -0.9931 -1.9058 0.1277 0 1
13.9041 0.0000 -1.9035 0.1278 0 1
13.8476 0.9904 -1.9006 0.1280 0 1
13.7167 1.9722 -1.8971 0.1283 0 1
13.5126 2.9395 -1.8931 0.1285 0 1
12.4750 3.6630 -1.7799 0.1288 0 2
12.1497 4.5316 -1.7752 0.1292 0 2
11.7614 5.3713 -1.7701 0.1295 0 2
11.3129 6.1773 -1.7646 0.1300 0 2
10.8920 6.9999 -1.7725 0.1304 0 0
8.6959 6.5097 -1.4871 0.7629 0 20
9.7145 8.4176 -1.7597 0.1313 0 0
8.6642 -8.6641 -1.7805 0.1366 0 2
9.2773 -8.0388 -1.7838 0.1363 0 2
9.8426 -7.3680 -1.7865 0.1361 0 2
10.3563 -6.6556 -1.7888 0.1359 0 2
10.8154 -5.9056 -1.7906 0.1358 0 2
11.5363 -5.2684 -1.8429 0.4985 0 2
12.2629 -4.5738 -1.9018 0.1356 0 1
12.5589 -3.6876 -1.9020 0.1356 0 1
12.7870 -2.7816 -1.9015 0.1357 0 1
12.9459 -1.8613 -1.9005 0.1357 0 1
13.0348 -0.9323 -1.8989 0.1358 0 1
13.0533 0.0000 -1.8968 0.1360 0 1
13.0015 0.9299 -1.8941 0.1362 0 1
12.8800 1.8519 -1.8908 0.1364 0 1
12.6899 2.7605 -1.8871 0.1367 0 1
11.7172 3.4405 -1.7745 0.1370 0 2
11.4135 4.2571 -1.7701 0.1373 0 2
11.0507 5.0467 -1.7653 0.1377 0 2
10.6313 5.8051 -1.7601 0.1381 0 2
10.1582 6.5282 -1.7546 0.1386 0 2
8.6960 6.5097 -1.5784 0.7620 0 20
9.1350 7.9155 -1.7564 0.1395 0 0
8.1654 -8.1654 -1.7753 0.1447 0 2
8.7423 -7.5752 -1.7784 0.1445 0 2
9.2741 -6.9424 -1.7810 0.1443 0 2
9.7575 -6.2707 -1.7832 0.1441 0 2
10.1938 -5.5662 -1.7856 0.5588 0 2
11.2115 -5.1201 -1.8949 0.1439 0 1
11.5524 -4.3088 -1.8956 0.1438 0 1
11.8312 -3.4739 -1.8957 0.1438 0 1
12.0462 -2.6205 -1.8953 0.1438 0 1
12.1963 -1.7536 -1.8943 0.1439 0 1
12.2807 -0.8783 -1.8928 0.1440 0 1
12.2989 0.0000 -1.8908 0.1442 0 1
12.2511 0.8762 -1.8883 0.1444 0 1
12.1378 1.7452 -1.8852 0.1446 0 1
11.9601 2.6018 -1.8817 0.1449 0 1
11.0447 3.2430 -1.7697 0.1452 0 2
10.7600 4.0133 -1.7655 0.1455 0 2
10.4196 4.7585 -1.7610 0.1459 0 2
10.0258 5.4745 -1.7562 0.1463 0 2
9.5813 6.1575 -1.7510 0.1467 0 2
8.6960 6.5098 -1.6700 0.7610 0 20
8.6195 7.4688 -1.7534 0.1477 0 0
7.7198 -7.7198 -1.7707 0.1529 0 2
8.2644 -7.1611 -1.7736 0.1526 0 2
8.7665 -6.5625 -1.7761 0.1524 0 2
9.2228 -5.9271 -1.7781 0.1522 0 2
9.8856 -5.3979 -1.8268 0.5599 0 2
10.5962 -4.8391 -1.8893 0.1520 0 1
10.9182 -4.0722 -1.8900 0.1520 0 1
11.1816 -3.2832 -1.8901 0.1519 0 1
11.3850 -2.4766 -1.8897 0.1520 0 1
11.5272 -1.6574 -1.8888 0.1521 0 1
11.6074 -0.8301 -1.8874 0.1522 0 1
11.6253 0.0000 -1.8855 0.1523 0 1
11.5810 0.8283 -1.8831 0.1525 0 1
11.4750 1.6498 -1.8803 0.1527 0 1
11.3080 2.4599 -1.8769 0.1530 0 1
10.4438 3.0666 -1.7654 0.1533 0 2
10.1759 3.7954 -1.7615 0.1537 0 2
9.8553 4.5008 -1.7572 0.1540 0 2
5.7656 3.1483 -1.0655 0.9914 0 6
9.0652 5.8259 -1.7477 0.1549 0 2
8.6010 6.4386 -1.7426 0.1553 0 2
8.1580 7.0690 -1.7508 0.1558 0 0
7.3193 -7.3193 -1.7666 0.1610 0 2
7.8350 -6.7891 -1.7693 0.1608 0 2
8.3104 -6.2210 -1.7717 0.1606 0 2
8.7425 -5.6184 -1.7736 0.1604 0 2
9.6852 -5.2885 -1.8833 0.1602 0 1
10.0436 -4.5868 -1.8844 0.1602 0 1
10.3486 -3.8598 -1.8850 0.1601 0 1
10.5982 -3.1119 -1.8851 0.1601 0 1
10.7911 -2.3475 -1.8847 0.1601 0 1
10.9262 -1.5709 -1.8839 0.1602 0 1
11.0026 -0.7869 -1.8825 0.1603 0 1
11.0202 0.0000 -1.8807 0.1605 0 1
10.9788 0.7852 -1.8785 0.1607 0 1
10.8792 1.5642 -1.8758 0.1609 0 1
10.7220 2.3324 -1.8726 0.1612 0 1
9.9035 2.9079 -1.7615 0.1615 0 2
9.6505 3.5995 -1.7578 0.1618 0 2
9.3477 4.2689 -1.7538 0.1622 0 2
5.7600 3.1452 -1.1200 0.9126 0 6
8.6007 5.5273 -1.7448 0.1630 0 2
8.1615 6.1096 -1.7399 0.1635 0 2
7.7424 6.7088 -1.7484 0.1640 0 0
6.9574 -6.9574 -1.7628 0.1692 0 2
7.4470 -6.4529 -1.7654 0.1689 0 2
7.8983 -5.9126 -1.7677 0.1687 0 2
8.5585 -5.5002 -1.8227 0.5955 0 2
9.2041 -5.0258 -1.8788 0.1684 0 1
9.5444 -4.3587 -1.8799 0.1683 0 1
9.8340 -3.6679 -1.8805 0.1682 0 1
10.0713 -2.9572 -1.8806 0.1682 0 1
10.2547 -2.2307 -1.8802 0.1683 0 1
10.3832 -1.4929 -1.8794 0.1683 0 1
10.4563 -0.7478 -1.8781 0.1684 0 1
10.4734 0.0000 -1.8764 0.1686 0 1
10.4348 0.7463 -1.8743 0.1688 0 1
10.3408 1.4868 -1.8717 0.1690 0 1
10.1922 2.2172 -1.8688 0.1693 0 1
9.4151 2.7645 -1.7580 0.1696 0 2
9.1755 3.4223 -1.7545 0.1699 0 2
8.8886 4.0593 -1.7507 0.1703 0 2
5.7541 3.1420 -1.1746 0.9122 0 6
8.1803 5.2572 -1.7422 0.1711 0 2
7.7637 5.8118 -1.7375 0.1716 0 2
7.3087 6.3331 -1.7327 0.1721 0 2
6.6287 -6.6286 -1.7594 0.1773 0 2
7.0946 -6.1475 -1.7619 0.1770 0 2
7.5242 -5.6325 -1.7640 0.1768 0 2
8.3971 -5.3964 -1.8734 0.1766 0 1
8.7672 -4.7872 -1.8748 0.1765 0 1
9.0912 -4.1518 -1.8758 0.1764 0 1
9.3670 -3.4937 -1.8763 0.1764 0 1
9.5929 -2.8167 -1.8765 0.1764 0 1
9.7677 -2.1248 -1.8761 0.1764 0 1
9.8903 -1.4220 -1.8754 0.1765 0 1
9.9602 -0.7124 -1.8742 0.1766 0 1
9.9770 0.0000 -1.8725 0.1767 0 1
9.9407 0.7110 -1.8705 0.1769 0 1
9.8518 1.4165 -1.8681 0.1771 0 1
9.7110 2.1125 -1.8652 0.1774 0 1
8.9713 2.6342 -1.7549 0.1777 0 2
8.7438 3.2613 -1.7515 0.1781 0 2
8.4713 3.8687 -1.7479 0.1784 0 2
5.7482 3.1388 -1.2292 0.9117 0 6
7.7981 5.0115 -1.7398 0.1793 0 2
7.4018 5.5409 -1.7353 0.1797 0 2
6.9690 6.0387 -1.7307 0.1802 0 2
6.3287 -6.3286 -1.7563 0.1854 0 2
6.7731 -5.8689 -1.7587 0.1851 0 2
7.4617 -5.5857 -1.8291 0.6479 0 2
8.0158 -5.1514 -1.8698 0.1847 0 1
8.3688 -4.5697 -1.8711 0.1846 0 1
8.6779 -3.9630 -1.8721 0.1845 0 1
8.9410 -3.3348 -1.8726 0.1845 0 1
9.1566 -2.6886 -1.8727 0.1845 0 1
9.3235 -2.0282 -1.8724 0.1845 0 1
9.4408 -1.3574 -1.8717 0.1846 0 1
9.5077 -0.6800 -1.8705 0.1847 0 1
9.5241 0.0000 -1.8690 0.1848 0 1
9.4900 0.6787 -1.8670 0.1850 0 1
9.4057 1.3523 -1.8647 0.1853 0 1
9.2718 2.0170 -1.8620 0.1855 0 1
8.8232 2.5907 -1.8045 0.2018 0 2
8.3498 3.1144 -1.7488 0.1862 0 2
8.0903 3.6947 -1.7453 0.1865 0 2
5.7423 3.1355 -1.2839 0.9112 0 6
7.4489 4.7871 -1.7376 0.1874 0 2
7.0712 5.2934 -1.7333 0.1878 0 2
6.6585 5.7696 -1.7289 0.1883 0 2
6.0538 -6.0538 -1.7535 0.1935 0 2
6.5387 -5.6658 -1.7720 0.7234 0 2
7.2890 -5.4564 -1.8648 0.1930 0 1
7.6665 -4.9269 -1.8665 0.1928 0 1
8.0039 -4.3705 -1.8678 0.1927 0 1
8.2993 -3.7902 -1.8687 0.1926 0 1
8.5509 -3.1893 -1.8692 0.1926 0 1
8.7571 -2.5713 -1.8693 0.1926 0 1
8.9167 -1.9397 -1.8690 0.1926 0 1
9.0290 -1.2981 -1.8683 0.1927 0 1
9.0933 -0.6504 -1.8672 0.1928 0 1
9.1093 0.0000 -1.8657 0.1929 0 1
9.0771 0.6492 -1.8638 0.1931 0 1
8.9969 1.2936 -1.8616 0.1933 0 1
8.8694 1.9294 -1.8591 0.1936 0 1
8.6956 2.5533 -1.8561 0.1939 0 1
7.9887 2.9796 -1.7463 0.1943 0 2
7.7410 3.5352 -1.7430 0.1946 0 2
5.7364 3.1323 -1.3386 0.9106 0 6
7.1287 4.5813 -1.7356 0.1955 0 2
6.7679 5.0664 -1.7315 0.1959 0 2
6.3737 5.5228 -1.7273 0.1964 0 2
5.8010 -5.8010 -1.7509 0.2016 0 2
6.5301 -5.6583 -1.8440 0.6966 0 2
6.9839 -5.2280 -1.8619 0.2011 0 1
7.3454 -4.7206 -1.8635 0.2009 0 1
7.6685 -4.1873 -1.8647 0.2008 0 1
7.9513 -3.6312 -1.8655 0.2007 0 1
8.1922 -3.0555 -1.8660 0.2007 0 1
8.3897 -2.4634 -1.8661 0.2006 0 1
8.5428 -1.8583 -1.8658 0.2007 0 1
8.6505 -1.2437 -1.8652 0.2007 0 1
8.7123 -0.6231 -1.8641 0.2009 0 1
8.7279 0.0000 -1.8627 0.2010 0 1
8.6974 0.6221 -1.8609 0.2012 0 1
8.6210 1.2395 -1.8588 0.2014 0 1
8.4993 1.8489 -1.8563 0.2017 0 1
8.3333 2.4469 -1.8536 0.2020 0 1
7.6564 2.8557 -1.7440 0.2023 0 2
7.4196 3.3884 -1.7408 0.2027 0 2
5.7305 3.1291 -1.3934 0.9100 0 6
6.8339 4.3919 -1.7337 0.2035 0 2
6.4887 4.8574 -1.7298 0.2040 0 2
6.1113 5.2955 -1.7258 0.2045 0 2
5.7092 -5.7092 -1.7929 0.7399 0 2
6.3211 -5.4772 -1.8573 0.2094 0 1
6.7024 -5.0173 -1.8591 0.2092 0 1
7.0491 -4.5301 -1.8606 0.2090 0 1
7.3589 -4.0183 -1.8618 0.2089 0 1
7.6302 -3.4846 -1.8626 0.2088 0 1
7.8613 -2.9321 -1.8631 0.2087 0 1
8.0508 -2.3639 -1.8632 0.2087 0 1
8.1977 -1.7833 -1.8629 0.2087 0 1
8.3012 -1.1935 -1.8623 0.2088 0 1
8.3607 -0.5980 -1.8613 0.2089 0 1
8.3760 0.0000 -1.8599 0.2091 0 1
8.3470 0.5970 -1.8582 0.2093 0 1
8.2741 1.1896 -1.8562 0.2095 0 1
8.1578 1.7746 -1.8538 0.2098 0 1
7.9988 2.3487 -1.8512 0.2101 0 1
7.3496 2.7413 -1.7418 0.2104 0 2
7.1228 3.2529 -1.7388 0.2108 0 2
5.7246 3.1259 -1.4483 0.9093 0 6
6.5616 4.2169 -1.7320 0.2116 0 2
6.2307 4.6643 -1.7283 0.2121 0 2
5.8689 5.0854 -1.7244 0.2125 0 2
5.6780 -5.6780 -1.8527 0.2177 0 1
6.0755 -5.2644 -1.8548 0.2174 0 1
6.4418 -4.8223 -1.8566 0.2172 0 1
6.7748 -4.3538 -1.8581 0.2171 0 1
7.0724 -3.8618 -1.8592 0.2169 0 1
7.3330 -3.3488 -1.8600 0.2168 0 1
7.5550 -2.8179 -1.8604 0.2168 0 1
7.7371 -2.2718 -1.8605 0.2168 0 1
7.8784 -1.7138 -1.8602 0.2168 0 1
7.9779 -1.1471 -1.8596 0.2169 0 1
8.0353 -0.5747 -1.8587 0.2170 0 1
8.0502 0.0000 -1.8574 0.2171 0 1
8.0226 0.5738 -1.8557 0.2173 0 1
7.9529 1.1435 -1.8538 0.2176 0 1
7.8414 1.7058 -1.8515 0.2178 0 1
7.6891 2.2577 -1.8490 0.2181 0 1
7.0654 2.6353 -1.7399 0.2185 0 2
6.8479 3.1273 -1.7369 0.2188 0 2
5.7186 3.1226 -1.5033 0.9086 0 6
6.2457 4.0139 -1.7129 0.2197 0 1
5.9916 4.4853 -1.7268 0.2201 0 2
5.6441 4.8907 -1.7231 0.2206 0 2
5.4651 -5.4651 -1.8505 0.2257 0 1
5.8475 -5.0669 -1.8525 0.2255 0 1
6.1998 -4.6411 -1.8542 0.2253 0 1
6.5201 -4.1902 -1.8556 0.2251 0 1
6.8064 -3.7165 -1.8567 0.2250 0 1
7.0570 -3.2229 -1.8575 0.2249 0 1
7.2707 -2.7118 -1.8579 0.2248 0 1
7.4459 -2.1863 -1.8580 0.2248 0 1
7.5819 -1.6493 -1.8577 0.2248 0 1
7.6778 -1.1039 -1.8572 0.2249 0 1
7.7331 -0.5531 -1.8562 0.2250 0 1
7.7476 0.0000 -1.8550 0.2252 0 1
7.7214 0.5522 -1.8534 0.2254 0 1
7.6546 1.1006 -1.8515 0.2256 0 1
7.5477 1.6419 -1.8494 0.2259 0 1
7.4014 2.1732 -1.8469 0.2262 0 1
6.8015 2.5368 -1.7380 0.2265 0 2
6.5925 3.0107 -1.7352 0.2269 0 2
5.7127 3.1194 -1.5584 0.9077 0 6
6.0136 3.8647 -1.7115 0.2277 0 1
5.7694 4.3189 -1.7255 0.2281 0 2
5.4352 4.7097 -1.7219 0.2286 0 2
5.2669 -5.2669 -1.8484 0.2338 0 1
5.6352 -4.8829 -1.8504 0.2335 0 1
5.9745 -4.4725 -1.8520 0.2333 0 1
6.2830 -4.0378 -1.8534 0.2331 0 1
6.5587 -3.5813 -1.8544 0.2330 0 1
6.8002 -3.1055 -1.8552 0.2329 0 1
7.0059 -2.6130 -1.8556 0.2329 0 1
7.1748 -2.1067 -1.8557 0.2328 0 1
7.3058 -1.5893 -1.8554 0.2329 0 1
7.3983 -1.0637 -1.8549 0.2329 0 1
7.4518 -0.5329 -1.8540 0.2331 0 1
7.4660 0.0000 -1.8528 0.2332 0 1
7.4409 0.5322 -1.8513 0.2334 0 1
7.3768 1.0606 -1.8494 0.2336 0 1
7.2740 1.5824 -1.8473 0.2339 0 1
7.1335 2.0946 -1.8450 0.2342 0 1
6.5556 2.4451 -1.7363 0.2345 0 2
6.3545 2.9020 -1.7336 0.2349 0 2
5.7068 3.1162 -1.6136 0.9069 0 6
5.8459 3.7569 -1.7245 0.8573 0 1
5.5623 4.1639 -1.7242 0.2362 0 2
5.2405 4.5409 -1.7208 0.2366 0 2
5.0818 -5.0818 -1.8465 0.2418 0 1
5.4370 -4.7112 -1.8484 0.2415 0 1
5.7642 -4.3150 -1.8500 0.2413 0 1
6.0616 -3.8955 -1.8513 0.2411 0 1
6.3275 -3.4551 -1.8523 0.2410 0 1
6.5604 -2.9960 -1.8530 0.2409 0 1
6.7588 -2.5209 -1.8534 0.2409 0 1
6.9217 -2.0324 -1.8535 0.2409 0 1
7.0482 -1.5332 -1.8533 0.2409 0 1
7.1375 -1.0262 -1.8527 0.2410 0 1
7.1892 -0.5142 -1.8518 0.2411 0 1
7.2030 0.0000 -1.8507 0.2412 0 1
7.1790 0.5135 -1.8492 0.2414 0 1
7.1174 1.0233 -1.8475 0.2416 0 1
7.0186 1.5268 -1.8455 0.2419 0 1
6.8832 2.0211 -1.8432 0.2422 0 1
6.4615 2.4100 -1.7719 0.3180 0 2
6.1323 2.8005 -1.7321 0.2429 0 2
5.7008 3.1129 -1.6689 0.9059 0 6
5.6522 3.6325 -1.7263 0.2437 0 2
5.3688 4.0190 -1.7231 0.2442 0 2
5.0585 4.3832 -1.7197 0.2446 0 2
4.9086 -4.9086 -1.8447 0.2498 0 1
5.2514 -4.5504 -1.8465 0.2495 0 1
5.5673 -4.1676 -1.8481 0.2493 0 1
5.8545 -3.7624 -1.8493 0.2491 0 1
6.1112 -3.3369 -1.8503 0.2490 0 1
6.3360 -2.8935 -1.8510 0.2489 0 1
6.5276 -2.4346 -1.8514 0.2489 0 1
6.6849 -1.9629 -1.8515 0.2488 0 1
6.8071 -1.4808 -1.8512 0.2489 0 1
6.8934 -0.9911 -1.8507 0.2489 0 1
6.9435 -0.4966 -1.8499 0.2491 0 1
6.9570 0.0000 -1.8488 0.2492 0 1
6.9340 0.4959 -1.8473 0.2494 0 1
6.8747 0.9884 -1.8457 0.2496 0 1
6.7795 1.4748 -1.8437 0.2499 0 1
6.6490 1.9523 -1.8415 0.2502 0 1
6.4502 2.4058 -1.8294 0.2655 0 2
5.9242 2.7055 -1.7307 0.2509 0 2
5.6949 3.1096 -1.7243 0.9049 0 6
5.4611 3.5096 -1.7251 0.2517 0 2
5.1875 3.8833 -1.7220 0.2522 0 2
4.8880 4.2355 -1.7188 0.2526 0 2
4.7462 -4.7461 -1.8430 0.2577 0 1
5.0775 -4.3996 -1.8448 0.2575 0 1
5.3828 -4.0294 -1.8463 0.2573 0 1
5.6602 -3.6376 -1.8475 0.2571 0 1
5.9083 -3.2262 -1.8485 0.2570 0 1
6.1256 -2.7974 -1.8491 0.2569 0 1
6.3108 -2.3538 -1.8495 0.2568 0 1
6.4629 -1.8977 -1.8495 0.2568 0 1
6.5810 -1.4316 -1.8493 0.2569 0 1
6.6645 -0.9582 -1.8488 0.2569 0 1
6.7130 -0.4801 -1.8480 0.2570 0 1
6.7262 0.0000 -1.8469 0.2572 0 1
6.7041 0.4795 -1.8456 0.2574 0 1
6.6470 0.9557 -1.8440 0.2576 0 1
6.5552 1.4260 -1.8421 0.2579 0 1
6.4293 1.8878 -1.8399 0.2582 0 1
6.2702 2.3387 -1.8376 0.2585 0 1
5.7289 2.6163 -1.7294 0.2589 0 2
5.5193 3.0138 -1.7267 0.2593 0 2
5.2816 3.3943 -1.7239 0.2597 0 2
5.0173 3.7560 -1.7210 0.2601 0 2
4.7280 4.0969 -1.7178 0.2606 0 2
4.5934 -4.5934 -1.8415 0.2657 0 1
4.9139 -4.2579 -1.8432 0.2654 0 1
5.2092 -3.8996 -1.8446 0.2652 0 1
5.4776 -3.5202 -1.8458 0.2651 0 1
5.7176 -3.1220 -1.8467 0.2649 0 1
5.9278 -2.7071 -1.8473 0.2648 0 1
6.1070 -2.2778 -1.8477 0.2648 0 1
6.2542 -1.8364 -1.8477 0.2648 0 1
6.3685 -1.3854 -1.8475 0.2648 0 1
6.4494 -0.9273 -1.8470 0.2649 0 1
6.4964 -0.4646 -1.8463 0.2650 0 1
6.5093 0.0000 -1.8452 0.2651 0 1
6.4881 0.4641 -1.8439 0.2653 0 1
6.4330 0.9249 -1.8423 0.2656 0 1
6.3443 1.3801 -1.8405 0.2658 0 1
6.2227 1.8272 -1.8385 0.2661 0 1
1.7090 0.6375 -0.5171 0.0144 294 14
1.4411 0.6581 -0.4491 0.1670 294 14
1.4195 0.7751 -0.4585 0.1105 294 14
1.4304 0.9193 -0.4820 0.1051 294 14
1.4229 1.0652 -0.5039 0.1006 294 14
4.5775 3.9664 -1.7170 0.2685 0 2
4.4495 -4.4495 -1.8400 0.2736 0 1
4.7599 -4.1244 -1.8416 0.2734 0 1
5.0458 -3.7772 -1.8430 0.2732 0 1
5.3057 -3.4097 -1.8442 0.2730 0 1
5.5380 -3.0240 -1.8450 0.2729 0 1
5.7416 -2.6221 -1.8456 0.2728 0 1
5.9151 -2.2062 -1.8460 0.2727 0 1
6.0577 -1.7787 -1.8461 0.2727 0 1
6.1684 -1.3419 -1.8459 0.2728 0 1
6.2468 -0.8981 -1.8454 0.2728 0 1
6.2924 -0.4500 -1.8446 0.2729 0 1
6.3050 0.0000 -1.8436 0.2731 0 1
6.2846 0.4495 -1.8424 0.2733 0 1
6.2314 0.8960 -1.8408 0.2735 0 1
1.4798 0.3219 -0.4428 0.1743 294 14
1.4552 0.4273 -0.4435 0.1741 294 14
1.4188 0.5292 -0.4428 0.1743 294 14
1.3711 0.6262 -0.4407 0.1755 294 14
1.3187 0.7201 -0.4393 0.1187 294 14
1.3241 0.8509 -0.4602 0.1133 294 14
1.3128 0.9827 -0.4795 0.1088 294 14
1.2880 1.1161 -0.4983 0.1074 294 14
4.3138 -4.3137 -1.8386 0.2815 0 1
4.6145 -3.9985 -1.8402 0.2813 0 1
4.8916 -3.6618 -1.8415 0.2811 0 1
5.1434 -3.3054 -1.8426 0.2809 0 1
5.3686 -2.9315 -1.8435 0.2808 0 1
5.5659 -2.5418 -1.8441 0.2807 0 1
5.7340 -2.1387 -1.8444 0.2807 0 1
5.8722 -1.7242 -1.8445 0.2806 0 1
5.9796 -1.3008 -1.8443 0.2807 0 1
6.0557 -0.8706 -1.8438 0.2807 0 1
1.7098 -0.1223 -0.5166 0.0271 294 14
1.5820 0.0000 -0.4768 0.0293 294 14
1.4694 0.1051 -0.4440 0.1887 294 14
1.4365 0.2065 -0.4374 0.1916 294 14
1.4105 0.3068 -0.4350 0.1824 294 14
1.3870 0.4073 -0.4357 0.1822 294 14
1.3524 0.5044 -0.4350 0.1824 294 14
1.3073 0.5970 -0.4331 0.1836 294 14
1.2526 0.6839 -0.4301 0.1849 294 14
1.2320 0.7918 -0.4414 0.1215 294 14
1.2182 0.9119 -0.4586 0.1200 294 14
1.1940 1.0346 -0.4761 0.1156 294 14
4.1854 -4.1854 -1.8373 0.2895 0 1
4.4771 -3.8794 -1.8388 0.2892 0 1
4.7458 -3.5527 -1.8401 0.2890 0 1
4.9901 -3.2069 -1.8412 0.2888 0 1
5.2085 -2.8440 -1.8420 0.2887 0 1
5.3998 -2.4660 -1.8426 0.2886 0 1
5.5629 -2.0749 -1.8429 0.2886 0 1
5.6970 -1.6728 -1.8430 0.2886 0 1
5.8012 -1.2620 -1.8428 0.2886 0 1
1.4348 -0.2063 -0.4499 0.1918 294 14
1.4360 -0.1027 -0.4469 0.1926 294 14
1.4261 0.0000 -0.4426 0.1945 294 14
1.4055 0.1005 -0.4374 0.1968 294 14
1.3749 0.1977 -0.4311 0.1996 294 14
1.3472 0.2930 -0.4279 0.1905 294 14
1.3246 0.3889 -0.4285 0.1903 294 14
1.2916 0.4817 -0.4279 0.1905 294 14
1.2489 0.5704 -0.4262 0.1917 294 14
1.1970 0.6536 -0.4233 0.1930 294 14
1.1516 0.7401 -0.4249 0.1296 294 14
1.1377 0.8517 -0.4411 0.1281 294 14
1.1123 0.9638 -0.4568 0.1237 294 14
4.0639 -4.0639 -1.8360 0.2973 0 1
4.3470 -3.7667 -1.8375 0.2971 0 1
4.6078 -3.4493 -1.8388 0.2969 0 1
4.8449 -3.1136 -1.8398 0.2967 0 1
5.0569 -2.7612 -1.8406 0.2966 0 1
5.2426 -2.3942 -1.8412 0.2965 0 1
5.4009 -2.0144 -1.8415 0.2964 0 1
5.5311 -1.6240 -1.8415 0.2964 0 1
1.4175 -0.3083 -0.4634 0.1721 294 14
1.3732 -0.1974 -0.4432 0.1999 294 14
1.3746 -0.0983 -0.4402 0.2007 294 14
1.3656 0.0000 -0.4363 0.2025 294 14
1.3466 0.0963 -0.4313 0.2049 294 14
1.3181 0.1895 -0.4254 0.2077 294 14
1.2890 0.2804 -0.4214 0.1986 294 14
1.2673 0.3721 -0.4219 0.1984 294 14
1.2359 0.4610 -0.4214 0.1990 294 14
1.1953 0.5459 -0.4198 0.1998 294 14
1.1459 0.6257 -0.4171 0.2011 294 14
1.0886 0.6996 -0.4134 0.2029 294 14
1.0669 0.7987 -0.4257 0.1363 294 14
1.0463 0.9067 -0.4423 0.2235 294 14
3.9486 -3.9486 -1.8348 0.3052 0 1
4.2236 -3.6598 -1.8363 0.3050 0 1
4.4770 -3.3514 -1.8375 0.3047 0 1
4.7072 -3.0251 -1.8385 0.3046 0 1
4.9131 -2.6827 -1.8393 0.3045 0 1
5.0935 -2.3261 -1.8398 0.3044 0 1
1.4204 -0.5298 -0.4981 0.1643 294 14
1.3902 -0.4082 -0.4761 0.1719 294 14
1.3506 -0.2938 -0.4541 0.1802 294 14
1.3164 -0.1893 -0.4370 0.2079 294 14
1.3180 -0.0942 -0.4342 0.2093 294 14
1.3098 0.0000 -0.4304 0.2106 294 14
1.2922 0.0924 -0.4257 0.2129 294 14
1.2655 0.1820 -0.4201 0.2158 294 14
1.2353 0.2687 -0.4154 0.2067 294 14
1.2145 0.3566 -0.4159 0.2064 294 14
1.1845 0.4418 -0.4154 0.2071 294 14
1.1458 0.5233 -0.4139 0.2078 294 14
1.0987 0.6000 -0.4113 0.2091 294 14
1.0497 0.6746 -0.4100 0.2875 294 14
1.0286 0.7700 -0.4222 0.2402 294 14
1.0077 0.8731 -0.4381 0.2315 294 14
3.8392 -3.8391 -1.8337 0.3130 0 1
4.1064 -3.5582 -1.8351 0.3128 0 1
4.3526 -3.2583 -1.8363 0.3126 0 1
4.5764 -2.9411 -1.8373 0.3124 0 1
4.7766 -2.6082 -1.8380 0.3123 0 1
1.3656 -0.6236 -0.5070 0.1705 294 14
1.3501 -0.5035 -0.4867 0.1723 294 14
1.3243 -0.3888 -0.4661 0.1799 294 14
1.2894 -0.2804 -0.4456 0.1882 294 14
1.2638 -0.1817 -0.4312 0.2160 294 14
1.2657 -0.0905 -0.4286 0.2173 294 14
1.2583 0.0000 -0.4250 0.2192 294 14
1.2418 0.0888 -0.4204 0.2210 294 14
1.2167 0.1749 -0.4151 0.2238 294 14
1.1856 0.2579 -0.4098 0.2147 294 14
1.1657 0.3423 -0.4103 0.2149 294 14
1.1370 0.4241 -0.4098 0.2151 294 14
1.1000 0.5024 -0.4084 0.2159 294 14
1.0563 0.5768 -0.4065 0.2267 294 14
1.0189 0.6548 -0.4091 0.2953 294 14
0.9930 0.7434 -0.4189 0.2481 294 14
0.9715 0.8418 -0.4342 0.2394 294 14
3.7350 -3.7350 -1.8326 0.3209 0 1
3.9950 -3.4616 -1.8340 0.3206 0 1
4.2344 -3.1698 -1.8351 0.3204 0 1
4.4521 -2.8612 -1.8361 0.3202 0 1
4.6467 -2.5373 -1.8368 0.3201 0 1
1.3002 -0.5938 -0.4959 0.1786 294 14
1.2861 -0.4797 -0.4762 0.1804 294 14
1.2640 -0.3711 -0.4571 0.1880 294 14
1.2331 -0.2682 -0.4378 0.1962 294 14
1.2150 -0.1747 -0.4259 0.2240 294 14
1.2171 -0.0871 -0.4234 0.2254 294 14
1.2104 0.0000 -0.4199 0.2272 294 14
1.1950 0.0855 -0.4156 0.2296 294 14
1.1713 0.1684 -0.4106 0.2324 294 14
1.1402 0.2480 -0.4048 0.2351 294 14
1.1204 0.3290 -0.4051 0.2229 294 14
1.0933 0.4078 -0.4048 0.2331 294 14
1.0590 0.4836 -0.4039 0.2337 294 14
1.0174 0.5555 -0.4021 0.2347 294 14
0.9898 0.6361 -0.4082 0.3032 294 14
0.9596 0.7184 -0.4159 0.2561 294 14
0.9377 0.8126 -0.4305 0.2474 294 14
3.6358 -3.6358 -1.8316 0.3287 0 1
3.8888 -3.3696 -1.8329 0.3284 0 1
4.1218 -3.0855 -1.8340 0.3282 0 1
4.3336 -2.7850 -1.8350 0.3280 0 1
4.5231 -2.4697 -1.8357 0.3279 0 1
1.2404 -0.5665 -0.4858 0.1867 294 14
1.2287 -0.4582 -0.4671 0.1941 294 14
1.2087 -0.3549 -0.4487 0.1960 294 14
1.1814 -0.2570 -0.4306 0.2042 294 14
1.1696 -0.1682 -0.4209 0.2321 294 14
1.1719 -0.0838 -0.4185 0.2334 294 14
1.1657 0.0000 -0.4152 0.2352 294 14
1.1513 0.0824 -0.4111 0.2376 294 14
1.1291 0.1624 -0.4063 0.2404 294 14
1.1001 0.2393 -0.4010 0.2536 294 14
1.0796 0.3170 -0.4008 0.2411 294 14
1.0539 0.3931 -0.4007 0.2412 294 14
1.0209 0.4662 -0.3998 0.2417 294 14
0.9871 0.5390 -0.4006 0.3163 294 14
0.9621 0.6183 -0.4074 0.3110 294 14
0.9310 0.6969 -0.4142 0.3058 294 14
0.9060 0.7851 -0.4270 0.2553 294 14
3.5412 -3.5412 -1.8306 0.3364 0 1
3.7875 -3.2819 -1.8319 0.3362 0 1
4.0145 -3.0052 -1.8330 0.3360 0 1
4.2207 -2.7124 -1.8339 0.3358 0 1
1.1848 -0.6469 -0.4934 0.1880 294 14
1.1857 -0.5415 -0.4764 0.1947 294 14
1.1764 -0.4387 -0.4589 0.2021 294 14
1.1582 -0.3400 -0.4412 0.2102 294 14
1.1335 -0.2465 -0.4240 0.2122 294 14
1.1272 -0.1621 -0.4163 0.2401 294 14
1.1297 -0.0808 -0.4140 0.2414 294 14
1.1240 0.0000 -0.4109 0.2432 294 14
1.1105 0.0794 -0.4070 0.2456 294 14
1.0902 0.1568 -0.4026 0.2584 294 14
1.0634 0.2313 -0.3978 0.2615 294 14
1.0418 0.3059 -0.3969 0.2491 294 14
1.0171 0.3794 -0.3968 0.2491 294 14
0.9853 0.4500 -0.3959 0.2497 294 14
0.9605 0.5245 -0.4000 0.3240 294 14
0.9358 0.6014 -0.4066 0.3188 294 14
0.9050 0.6775 -0.4132 0.3137 294 14
0.8763 0.7593 -0.4238 0.2632 294 14
3.4509 -3.4509 -1.8297 0.3442 0 1
3.6909 -3.1981 -1.8309 0.3439 0 1
3.9119 -2.9284 -1.8320 0.3437 0 1
4.1128 -2.6431 -1.8329 0.3436 0 1
1.1326 -0.6185 -0.4838 0.1961 294 14
1.1352 -0.5184 -0.4679 0.2027 294 14
1.1281 -0.4207 -0.4514 0.2101 294 14
1.1124 -0.3266 -0.4346 0.2182 294 14
1.0892 -0.2369 -0.4179 0.2270 294 14
1.0875 -0.1563 -0.4119 0.2481 294 14
1.0901 -0.0779 -0.4097 0.2494 294 14
1.0853 0.0000 -0.4069 0.2615 294 14
1.0733 0.0768 -0.4034 0.2637 294 14
1.0544 0.1516 -0.3994 0.2664 294 14
1.0289 0.2238 -0.3948 0.2695 294 14
1.0064 0.2955 -0.3932 0.2571 294 14
0.9825 0.3665 -0.3931 0.2571 294 14
0.9539 0.4356 -0.3931 0.3371 294 14
0.9351 0.5106 -0.3994 0.3318 294 14
0.9107 0.5853 -0.4058 0.3266 294 14
0.8804 0.6591 -0.4123 0.3214 294 14
0.8482 0.7350 -0.4208 0.2711 294 14
3.3646 -3.3646 -1.8288 0.3519 0 1
3.5985 -3.1180 -1.8300 0.3517 0 1
3.8139 -2.8551 -1.8310 0.3515 0 1
4.0098 -2.5769 -1.8319 0.3513 0 1
1.0846 -0.5922 -0.4750 0.2041 294 14
1.0886 -0.4971 -0.4599 0.2108 294 14
1.0833 -0.4041 -0.4444 0.2181 294 14
1.0698 -0.3141 -0.4285 0.2262 294 14
1.0565 -0.2298 -0.4156 0.3445 294 14
1.0515 -0.1512 -0.4083 0.2663 294 14
1.0543 -0.0754 -0.4062 0.2676 294 14
1.0500 0.0000 -0.4035 0.2694 294 14
1.0387 0.0743 -0.4002 0.2716 294 14
1.0207 0.1468 -0.3963 0.2743 294 14
0.9964 0.2168 -0.3919 0.2774 294 14
0.9731 0.2857 -0.3898 0.2650 294 14
0.9500 0.3544 -0.3897 0.2651 294 14
0.9296 0.4245 -0.3928 0.3449 294 14
0.9110 0.4974 -0.3989 0.3395 294 14
0.8868 0.5699 -0.4051 0.3343 294 14
0.8570 0.6415 -0.4114 0.3292 294 14
0.8217 0.7120 -0.4179 0.2789 294 14
3.2819 -3.2819 -1.8279 0.3596 0 1
3.5100 -3.0414 -1.8291 0.3594 0 1
3.7201 -2.7848 -1.8301 0.3592 0 1
1.0268 -0.6598 -0.4807 0.3042 294 14
1.0402 -0.5680 -0.4668 0.2121 294 14
1.0462 -0.4778 -0.4530 0.3228 294 14
1.0464 -0.3903 -0.4398 0.3324 294 14
1.0409 -0.3056 -0.4273 0.3422 294 14
1.0303 -0.2241 -0.4153 0.3521 294 14
1.0263 -0.1475 -0.4083 0.3741 294 14
1.0207 -0.0730 -0.4030 0.2756 294 14
1.0167 0.0000 -0.4004 0.2773 294 14
1.0060 0.0720 -0.3972 0.2796 294 14
0.9889 0.1422 -0.3935 0.2822 294 14
0.9657 0.2101 -0.3892 0.2853 294 14
0.9418 0.2765 -0.3866 0.2730 294 14
0.9196 0.3430 -0.3865 0.3579 294 14
0.9064 0.4139 -0.3924 0.3526 294 14
0.8879 0.4848 -0.3984 0.3473 294 14
0.8640 0.5552 -0.4045 0.3421 294 14
0.8346 0.6247 -0.4106 0.3370 294 14
0.7996 0.6929 -0.4167 0.3320 294 14
3.2028 -3.2028 -1.8271 0.3673 0 1
3.4253 -2.9680 -1.8283 0.3671 0 1
3.6303 -2.7176 -1.8293 0.3669 0 1
0.9945 -0.6391 -0.4769 0.2614 294 14
1.0115 -0.5523 -0.4649 0.3211 294 14
1.0185 -0.4651 -0.4516 0.3305 294 14
1.0195 -0.3802 -0.4389 0.3401 294 14
1.0149 -0.2980 -0.4267 0.3499 294 14
1.0052 -0.2187 -0.4150 0.3597 294 14
1.0025 -0.1441 -0.4086 0.3817 294 14
0.9964 -0.0712 -0.4029 0.3870 294 14
0.9855 0.0000 -0.3975 0.3923 294 14
0.9752 0.0698 -0.3944 0.2875 294 14
0.9589 0.1379 -0.3908 0.2901 294 14
0.9367 0.2038 -0.3867 0.2932 294 14
0.9122 0.2679 -0.3835 0.2809 294 14
0.8974 0.3347 -0.3863 0.3656 294 14
0.8842 0.4038 -0.3921 0.3602 294 14
0.8658 0.4728 -0.3979 0.3550 294 14
0.8422 0.5412 -0.4038 0.3498 294 14
0.8132 0.6087 -0.4098 0.3447 294 14
0.7788 0.6748 -0.4157 0.3398 294 14
3.1268 -3.1268 -1.8263 0.3750 0 1
3.3440 -2.8976 -1.8275 0.3747 0 1
3.5441 -2.6530 -1.8284 0.3745 0 1
0.9619 -0.6182 -0.4722 0.2693 294 14
0.9844 -0.5375 -0.4632 0.3288 294 14
0.9920 -0.4530 -0.4504 0.3382 294 14
0.9937 -0.3706 -0.4380 0.3478 294 14
0.9899 -0.2907 -0.4261 0.3575 294 14
0.9812 -0.2134 -0.4147 0.3673 294 14
0.9797 -0.1409 -0.4088 0.3893 294 14
0.9740 -0.0696 -0.4033 0.3946 294 14
0.9637 0.0000 -0.3980 0.3998 294 14
0.9490 0.0679 -0.3930 0.4050 294 14
0.9304 0.1338 -0.3882 0.2980 294 14
0.9092 0.1978 -0.3843 0.3010 294 14
0.8845 0.2597 -0.3807 0.3786 294 14
0.8761 0.3268 -0.3862 0.3732 294 14
0.8629 0.3941 -0.3918 0.3679 294 14
0.8446 0.4612 -0.3974 0.3626 294 14
0.8212 0.5278 -0.4032 0.3575 294 14
3.3159 2.4823 -1.7107 0.3773 0 2
3.1266 2.7093 -1.7087 0.3777 0 2
3.0539 -3.0539 -1.8256 0.3826 0 1
3.2660 -2.8300 -1.8267 0.3824 0 1
0.8921 -0.6679 -0.4711 0.2754 294 14
0.9312 -0.5984 -0.4679 0.2773 294 14
0.9586 -0.5234 -0.4617 0.3365 294 14
0.9667 -0.4415 -0.4492 0.3459 294 14
0.9690 -0.3614 -0.4372 0.3554 294 14
0.9660 -0.2836 -0.4256 0.3651 294 14
0.9584 -0.2085 -0.4146 0.3915 294 14
0.9578 -0.1377 -0.4090 0.3968 294 14
0.9525 -0.0681 -0.4036 0.4021 294 14
0.9427 0.0000 -0.3984 0.4074 294 14
0.9286 0.0664 -0.3935 0.4125 294 14
0.9104 0.1309 -0.3888 0.4175 294 14
0.8885 0.1933 -0.3843 0.4223 294 14
4.1395 1.2154 -1.8236 0.3830 0 1
4.0388 1.5064 -1.8221 0.3833 0 1
3.9175 1.7891 -1.8204 0.3837 0 1
3.7762 2.0620 -1.8186 0.3840 0 1
3.4076 2.1899 -1.7122 0.3845 0 2
3.2391 2.4247 -1.7102 0.3849 0 2
3.0543 2.6466 -1.7082 0.3853 0 2
2.9839 -2.9838 -1.8248 0.3902 0 1
3.1910 -2.7650 -1.8259 0.3900 0 1
0.8642 -0.6469 -0.4668 0.2833 294 14
0.9022 -0.5798 -0.4638 0.2852 294 14
0.9334 -0.5096 -0.4599 0.2876 294 14
0.9425 -0.4304 -0.4481 0.3535 294 14
0.9454 -0.3526 -0.4363 0.3630 294 14
0.9430 -0.2769 -0.4250 0.3726 294 14
0.9370 -0.2038 -0.4147 0.3991 294 14
0.9366 -0.1347 -0.4092 0.4044 294 14
0.9317 -0.0666 -0.4039 0.4096 294 14
0.9224 0.0000 -0.3989 0.4148 294 14
0.9088 0.0650 -0.3940 0.4199 294 14
0.8913 0.1282 -0.3894 0.4249 294 14
0.8700 0.1893 -0.3850 0.4298 294 14
4.0446 1.1876 -1.8229 0.3906 0 1
3.9463 1.4719 -1.8214 0.3909 0 1
3.8279 1.7481 -1.8198 0.3913 0 1
3.6899 2.0148 -1.8181 0.3916 0 1
3.3529 2.1548 -1.7236 0.5769 0 2
3.1652 2.3695 -1.7098 0.3925 0 2
2.9847 2.5862 -1.7078 0.3929 0 2
2.9165 -2.9164 -1.8241 0.3978 0 1
3.1189 -2.7026 -1.8252 0.3975 0 1
0.8377 -0.6271 -0.4628 0.2912 294 14
0.8748 -0.5621 -0.4599 0.2931 294 14
0.9052 -0.4943 -0.4561 0.2955 294 14
0.9193 -0.4198 -0.4470 0.3611 294 14
0.9227 -0.3441 -0.4355 0.3706 294 14
0.9210 -0.2704 -0.4245 0.3802 294 14
0.9163 -0.1993 -0.4147 0.4066 294 14
0.9162 -0.1317 -0.4094 0.4119 294 14
0.9117 -0.0652 -0.4042 0.4171 294 14
0.9028 0.0000 -0.3993 0.4223 294 14
0.8898 0.0637 -0.3945 0.4274 294 14
0.8729 0.1255 -0.3900 0.4324 294 14
4.0289 0.8765 -1.8235 0.3979 0 1
3.9533 1.1608 -1.8222 0.3982 0 1
3.8574 1.4388 -1.8208 0.3985 0 1
3.7417 1.7088 -1.8192 0.3988 0 1
3.6069 1.9695 -1.8175 0.3992 0 1
3.3438 2.1490 -1.7579 0.4319 0 2
3.0941 2.3162 -1.7094 0.4000 0 2
2.9178 2.5282 -1.7075 0.4005 0 2
2.8516 -2.8516 -1.8235 0.4053 0 1
0.7705 -0.6677 -0.4610 0.2978 294 14
0.8127 -0.6084 -0.4590 0.2991 294 14
0.8487 -0.5454 -0.4562 0.3009 294 14
0.8785 -0.4797 -0.4526 0.3033 294 14
0.8971 -0.4097 -0.4459 0.3687 294 14
0.9010 -0.3360 -0.4348 0.3781 294 14
0.8998 -0.2642 -0.4240 0.3877 294 14
0.8964 -0.1950 -0.4148 0.4141 294 14
0.8967 -0.1289 -0.4096 0.4193 294 14
0.8924 -0.0638 -0.4045 0.4246 294 14
0.8839 0.0000 -0.3997 0.4297 294 14
0.8714 0.0623 -0.3950 0.4348 294 14
0.8550 0.1229 -0.3906 0.4397 294 14
3.9394 0.8570 -1.8229 0.4055 0 1
3.8655 1.1350 -1.8216 0.4057 0 1
3.7718 1.4068 -1.8202 0.4061 0 1
3.6587 1.6709 -1.8187 0.4064 0 1
3.5269 1.9259 -1.8170 0.4068 0 1
3.3441 2.1491 -1.7974 0.4303 0 2
3.0257 2.2650 -1.7090 0.4076 0 2
2.8533 2.4724 -1.7071 0.4080 0 2
2.7891 -2.7891 -1.8228 0.4129 0 1
0.7479 -0.6480 -0.4573 0.3057 294 14
0.7889 -0.5905 -0.4554 0.3069 294 14
0.8241 -0.5296 -0.4527 0.3088 294 14
0.8531 -0.4658 -0.4492 0.3112 294 14
0.8758 -0.3999 -0.4449 0.3762 294 14
0.8801 -0.3282 -0.4341 0.3856 294 14
0.8795 -0.2582 -0.4236 0.3952 294 14
0.8773 -0.1908 -0.4149 0.4215 294 14
0.8777 -0.1262 -0.4098 0.4268 294 14
0.8738 -0.0625 -0.4048 0.4320 294 14
0.8657 -0.0000 -0.4001 0.4371 294 14
0.8537 0.0611 -0.3955 0.4422 294 14
3.9053 0.5615 -1.8233 0.4127 0 1
3.8530 0.8382 -1.8222 0.4130 0 1
3.7808 1.1102 -1.8210 0.4133 0 1
3.6892 1.3760 -1.8196 0.4136 0 1
3.5787 1.6343 -1.8181 0.4139 0 1
3.4499 1.8838 -1.8165 0.4143 0 1
3.3035 2.1231 -1.8148 0.4147 0 1
2.9597 2.2156 -1.7086 0.4151 0 2
2.7911 2.4185 -1.7067 0.4156 0 2
0.6812 -0.6812 -0.4549 0.3128 294 14
0.7264 -0.6294 -0.4538 0.3135 294 14
0.7663 -0.5736 -0.4520 0.3148 294 14
0.8006 -0.5145 -0.4494 0.3166 294 14
0.8290 -0.4527 -0.4460 0.3190 294 14
0.8514 -0.3888 -0.4420 0.3219 294 14
0.8600 -0.3207 -0.4334 0.3931 294 14
0.8599 -0.2525 -0.4231 0.4026 294 14
0.8587 -0.1868 -0.4150 0.4290 294 14
0.8594 -0.1236 -0.4099 0.4342 294 14
0.8558 -0.0612 -0.4051 0.4394 294 14
0.8481 0.0000 -0.4004 0.4445 294 14
0.8365 0.0599 -0.3960 0.4495 294 14
3.8209 0.5494 -1.8227 0.4202 0 1
3.7698 0.8201 -1.8216 0.4205 0 1
3.6992 1.0862 -1.8204 0.4208 0 1
3.6096 1.3463 -1.8191 0.4211 0 1
3.5016 1.5991 -1.8176 0.4214 0 1
3.3756 1.8432 -1.8160 0.4218 0 1
3.2325 2.0774 -1.8143 0.4222 0 1
2.8961 2.1680 -1.7082 0.4226 0 2
2.7312 2.3666 -1.7064 0.4230 0 2
