ply
format ascii 1.0
element vertex 1331
property float32 x
property float32 y
property float32 z
property float32 CosAngle
property uint32 ObjIdx
property uint32 ObjTag
end_header
1.2131 -0.0245 -0.4210 0.2266 458 14
1.2129 -0.0218 -0.4209 0.2267 458 14
1.2126 -0.0190 -0.4208 0.2268 458 14
1.2123 -0.0163 -0.4206 0.2268 458 14
1.2120 -0.0136 -0.4205 0.2269 458 14
1.2117 -0.0109 -0.4204 0.2270 458 14
1.2114 -0.0081 -0.4203 0.2270 458 14
1.2110 -0.0054 -0.4202 0.2271 458 14
1.2107 -0.0027 -0.4200 0.2271 458 14
1.2103 -0.0000 -0.4199 0.2272 458 14
1.2100 0.0027 -0.4198 0.2273 458 14
1.2096 0.0054 -0.4197 0.2273 458 14
1.2092 0.0081 -0.4196 0.2274 458 14
1.2089 0.0108 -0.4194 0.2275 458 14
1.2085 0.0135 -0.4193 0.2275 458 14
1.2081 0.0162 -0.4192 0.2276 458 14
1.2077 0.0190 -0.4190 0.2277 458 14
1.2073 0.0217 -0.4189 0.2278 458 14
1.2068 0.0244 -0.4188 0.2278 458 14
1.2064 0.0271 -0.4187 0.2279 458 14
1.2060 0.0298 -0.4185 0.2280 458 14
1.2055 0.0325 -0.4184 0.2280 458 14
1.2051 0.0352 -0.4183 0.2281 458 14
1.2046 0.0379 -0.4181 0.2282 458 14
1.2041 0.0405 -0.4180 0.2283 458 14
1.2037 0.0432 -0.4179 0.2283 458 14
1.2032 0.0459 -0.4177 0.2284 458 14
1.2026 0.0486 -0.4176 0.2285 458 14
1.2021 0.0513 -0.4175 0.2286 458 14
1.2016 0.0539 -0.4173 0.2286 458 14
1.2011 0.0566 -0.4172 0.2287 458 14
1.2006 0.0593 -0.4170 0.2288 458 14
1.2000 0.0620 -0.4169 0.2289 458 14
1.1995 0.0646 -0.4168 0.2289 458 14
1.1989 0.0673 -0.4166 0.2290 458 14
1.1984 0.0700 -0.4165 0.2291 458 14
1.1978 0.0727 -0.4163 0.2292 458 14
1.1972 0.0753 -0.4162 0.2292 458 14
1.1966 0.0780 -0.4160 0.2293 458 14
1.1960 0.0806 -0.4159 0.2294 458 14
1.1954 0.0833 -0.4158 0.2295 458 14
1.1948 0.0859 -0.4156 0.2296 458 14
1.1942 0.0886 -0.4155 0.2297 458 14
1.1936 0.0912 -0.4153 0.2297 458 14
1.1929 0.0939 -0.4152 0.2298 458 14
1.1923 0.0965 -0.4150 0.2299 458 14
1.1916 0.0992 -0.4149 0.2300 458 14
1.1910 0.1018 -0.4147 0.2301 458 14
1.1903 0.1044 -0.4146 0.2302 458 14
1.1896 0.1071 -0.4144 0.2302 458 14
1.1889 0.1097 -0.4142 0.2303 458 14
1.1882 0.1123 -0.4141 0.2304 458 14
1.1875 0.1149 -0.4139 0.2305 458 14
1.1868 0.1176 -0.4138 0.2306 458 14
1.1861 0.1202 -0.4136 0.2307 458 14
1.1854 0.1228 -0.4135 0.2308 458 14
1.1846 0.1254 -0.4133 0.2308 458 14
1.1839 0.1280 -0.4131 0.2309 458 14
1.1832 0.1306 -0.4130 0.2310 458 14
1.1824 0.1332 -0.4128 0.2311 458 14
1.1816 0.1358 -0.4127 0.2312 458 14
1.1809 0.1384 -0.4125 0.2313 458 14
1.1801 0.1410 -0.4123 0.2314 458 14
1.1793 0.1436 -0.4122 0.2315 458 14
1.1785 0.1462 -0.4120 0.2316 458 14
1.1777 0.1488 -0.4118 0.2317 458 14
1.1769 0.1513 -0.4117 0.2318 458 14
1.1761 0.1539 -0.4115 0.2319 458 14
1.1752 0.1565 -0.4113 0.2319 458 14
1.1744 0.1591 -0.4112 0.2320 458 14
1.1736 0.1616 -0.4110 0.2321 458 14
1.1727 0.1642 -0.4108 0.2322 458 14
1.1719 0.1668 -0.4107 0.2323 458 14
1.1710 0.1693 -0.4105 0.2324 458 14
1.1701 0.1719 -0.4103 0.2325 458 14
1.1692 0.1744 -0.4102 0.2326 458 14
1.1684 0.1770 -0.4100 0.2327 458 14
1.1675 0.1795 -0.4098 0.2322 458 14
1.1666 0.1821 -0.4096 0.2323 458 14
1.1657 0.1846 -0.4095 0.2324 458 14
1.1647 0.1871 -0.4093 0.2325 458 14
1.1638 0.1897 -0.4091 0.2326 458 14
1.1629 0.1922 -0.4089 0.2327 458 14
1.1620 0.1947 -0.4088 0.2328 458 14
1.1610 0.1973 -0.4086 0.2329 458 14
1.1601 0.1998 -0.4084 0.2330 458 14
1.1591 0.2023 -0.4082 0.2331 458 14
1.1581 0.2048 -0.4080 0.2332 458 14
1.1572 0.2073 -0.4079 0.2333 458 14
1.1562 0.2098 -0.4077 0.2334 458 14
1.1552 0.2123 -0.4075 0.2336 458 14
1.1542 0.2148 -0.4073 0.2337 458 14
1.1532 0.2173 -0.4071 0.2338 458 14
1.1522 0.2198 -0.4070 0.2339 458 14
1.1512 0.2223 -0.4068 0.2340 458 14
1.1502 0.2247 -0.4066 0.2341 458 14
1.1491 0.2272 -0.4064 0.2342 458 14
1.1481 0.2297 -0.4062 0.2343 458 14
1.1470 0.2322 -0.4060 0.2344 458 14
1.1460 0.2346 -0.4058 0.2345 458 14
1.1449 0.2371 -0.4057 0.2346 458 14
1.1439 0.2396 -0.4055 0.2347 458 14
1.1428 0.2420 -0.4053 0.2348 458 14
1.1417 0.2445 -0.4051 0.2349 458 14
1.1406 0.2469 -0.4049 0.2351 458 14
1.1395 0.2493 -0.4047 0.2352 458 14
1.1389 0.2519 -0.4047 0.2228 458 14
1.1384 0.2545 -0.4047 0.2228 458 14
1.1379 0.2570 -0.4047 0.2227 458 14
1.1374 0.2596 -0.4048 0.2227 458 14
1.1369 0.2622 -0.4048 0.2227 458 14
1.1363 0.2647 -0.4048 0.2227 458 14
1.1358 0.2673 -0.4048 0.2227 458 14
1.1353 0.2699 -0.4048 0.2227 458 14
1.1347 0.2724 -0.4049 0.2227 458 14
1.1342 0.2750 -0.4049 0.2227 458 14
1.1336 0.2775 -0.4049 0.2231 458 14
1.1330 0.2801 -0.4049 0.2231 458 14
1.1325 0.2827 -0.4049 0.2230 458 14
1.1319 0.2852 -0.4050 0.2230 458 14
1.1313 0.2878 -0.4050 0.2230 458 14
1.1307 0.2903 -0.4050 0.2230 458 14
1.1300 0.2929 -0.4050 0.2230 458 14
1.1294 0.2954 -0.4050 0.2230 458 14
1.1288 0.2979 -0.4050 0.2230 458 14
1.1282 0.3005 -0.4051 0.2230 458 14
1.1275 0.3030 -0.4051 0.2230 458 14
1.1269 0.3056 -0.4051 0.2230 458 14
1.1262 0.3081 -0.4051 0.2230 458 14
1.1255 0.3106 -0.4051 0.2230 458 14
1.1249 0.3132 -0.4051 0.2230 458 14
1.1242 0.3157 -0.4051 0.2230 458 14
1.1235 0.3182 -0.4051 0.2229 458 14
1.1228 0.3207 -0.4051 0.2229 458 14
1.1221 0.3233 -0.4051 0.2229 458 14
1.1213 0.3258 -0.4051 0.2229 458 14
1.1206 0.3283 -0.4051 0.2229 458 14
1.1199 0.3308 -0.4051 0.2229 458 14
1.1191 0.3333 -0.4051 0.2229 458 14
1.1184 0.3358 -0.4051 0.2229 458 14
1.1176 0.3383 -0.4051 0.2229 458 14
1.1169 0.3408 -0.4051 0.2229 458 14
1.1161 0.3433 -0.4051 0.2229 458 14
1.1153 0.3458 -0.4051 0.2229 458 14
1.1145 0.3483 -0.4051 0.2229 458 14
1.1137 0.3508 -0.4051 0.2230 458 14
1.1129 0.3533 -0.4051 0.2230 458 14
1.1121 0.3558 -0.4051 0.2230 458 14
1.1112 0.3583 -0.4051 0.2230 458 14
1.1104 0.3608 -0.4051 0.2230 458 14
1.1096 0.3633 -0.4051 0.2230 458 14
1.1087 0.3657 -0.4051 0.2230 458 14
1.1079 0.3682 -0.4050 0.2230 458 14
1.1070 0.3707 -0.4050 0.2230 458 14
1.1061 0.3732 -0.4050 0.2230 458 14
1.1052 0.3756 -0.4050 0.2230 458 14
1.1043 0.3781 -0.4050 0.2230 458 14
1.1035 0.3806 -0.4050 0.2331 458 14
1.1026 0.3830 -0.4050 0.2331 458 14
1.1017 0.3855 -0.4049 0.2331 458 14
1.1008 0.3880 -0.4049 0.2331 458 14
1.0999 0.3904 -0.4049 0.2331 458 14
1.0990 0.3929 -0.4049 0.2331 458 14
1.0981 0.3953 -0.4049 0.2331 458 14
1.0971 0.3978 -0.4049 0.2331 458 14
1.0962 0.4002 -0.4049 0.2331 458 14
1.0953 0.4027 -0.4049 0.2331 458 14
1.0943 0.4051 -0.4048 0.2331 458 14
1.0934 0.4076 -0.4048 0.2331 458 14
1.0924 0.4100 -0.4048 0.2332 458 14
1.0914 0.4124 -0.4048 0.2332 458 14
1.0905 0.4148 -0.4048 0.2332 458 14
1.0895 0.4173 -0.4048 0.2332 458 14
1.0885 0.4197 -0.4047 0.2332 458 14
1.0875 0.4221 -0.4047 0.2332 458 14
1.0865 0.4245 -0.4047 0.2332 458 14
1.0854 0.4269 -0.4047 0.2332 458 14
1.0844 0.4293 -0.4047 0.2332 458 14
1.0834 0.4318 -0.4046 0.2333 458 14
1.0824 0.4342 -0.4046 0.2333 458 14
1.0813 0.4366 -0.4046 0.2333 458 14
1.0803 0.4389 -0.4045 0.2333 458 14
1.0792 0.4413 -0.4045 0.2333 458 14
1.0781 0.4437 -0.4045 0.2333 458 14
1.0771 0.4461 -0.4045 0.2334 458 14
1.0760 0.4485 -0.4044 0.2334 458 14
1.0749 0.4509 -0.4044 0.2334 458 14
1.0738 0.4533 -0.4044 0.2334 458 14
1.0727 0.4556 -0.4043 0.2334 458 14
1.0716 0.4580 -0.4043 0.2334 458 14
1.0704 0.4604 -0.4043 0.2335 458 14
1.0693 0.4627 -0.4042 0.2335 458 14
1.0682 0.4651 -0.4042 0.2335 458 14
1.0670 0.4674 -0.4042 0.2335 458 14
1.0659 0.4698 -0.4041 0.2335 458 14
1.0647 0.4721 -0.4041 0.2336 458 14
1.0636 0.4745 -0.4041 0.2336 458 14
1.0624 0.4768 -0.4040 0.2336 458 14
1.0612 0.4791 -0.4040 0.2336 458 14
1.0600 0.4815 -0.4039 0.2337 458 14
1.0588 0.4838 -0.4039 0.2337 458 14
1.0576 0.4861 -0.4038 0.2337 458 14
1.0564 0.4884 -0.4038 0.2337 458 14
1.0552 0.4908 -0.4038 0.2338 458 14
1.0540 0.4931 -0.4037 0.2338 458 14
1.0528 0.4954 -0.4037 0.2338 458 14
1.0515 0.4977 -0.4036 0.2338 458 14
1.0503 0.5000 -0.4036 0.2339 458 14
1.0490 0.5023 -0.4035 0.2339 458 14
1.0478 0.5046 -0.4035 0.2339 458 14
1.0465 0.5069 -0.4034 0.2340 458 14
1.0452 0.5091 -0.4034 0.2340 458 14
1.0440 0.5114 -0.4033 0.2340 458 14
1.0427 0.5137 -0.4033 0.2340 458 14
1.0414 0.5160 -0.4032 0.2341 458 14
1.0401 0.5182 -0.4032 0.2341 458 14
1.0388 0.5205 -0.4031 0.2341 458 14
1.0375 0.5228 -0.4031 0.2342 458 14
1.0361 0.5250 -0.4030 0.2342 458 14
1.0348 0.5273 -0.4029 0.2342 458 14
1.0335 0.5295 -0.4029 0.2343 458 14
1.0321 0.5317 -0.4028 0.2343 458 14
1.0308 0.5340 -0.4028 0.2343 458 14
1.0294 0.5362 -0.4027 0.2344 458 14
1.0281 0.5384 -0.4026 0.2344 458 14
1.0267 0.5407 -0.4026 0.2344 458 14
1.0253 0.5429 -0.4025 0.2345 458 14
1.0240 0.5451 -0.4025 0.2345 458 14
1.0226 0.5473 -0.4024 0.2346 458 14
1.0212 0.5495 -0.4023 0.2346 458 14
1.0198 0.5517 -0.4023 0.2346 458 14
1.0184 0.5539 -0.4022 0.2347 458 14
1.0169 0.5561 -0.4021 0.2347 458 14
1.0155 0.5583 -0.4021 0.2347 458 14
1.0141 0.5605 -0.4020 0.2348 458 14
1.0127 0.5627 -0.4019 0.2348 458 14
1.0119 0.5652 -0.4021 0.3077 458 14
1.0112 0.5678 -0.4024 0.3076 458 14
1.0105 0.5704 -0.4026 0.3074 458 14
1.0097 0.5729 -0.4028 0.3072 458 14
1.0090 0.5755 -0.4030 0.3071 458 14
1.0083 0.5781 -0.4032 0.3069 458 14
1.0075 0.5807 -0.4034 0.3067 458 14
1.0067 0.5833 -0.4037 0.3066 458 14
1.0060 0.5858 -0.4039 0.3064 458 14
1.0052 0.5884 -0.4041 0.3062 458 14
1.0044 0.5910 -0.4043 0.3061 458 14
1.0037 0.5936 -0.4045 0.3059 458 14
1.0029 0.5961 -0.4048 0.3057 458 14
1.0021 0.5987 -0.4050 0.3056 458 14
1.0013 0.6013 -0.4052 0.3054 458 14
1.0004 0.6038 -0.4054 0.3052 458 14
0.9996 0.6064 -0.4056 0.3051 458 14
0.9988 0.6090 -0.4059 0.3049 458 14
0.9980 0.6116 -0.4061 0.3047 458 14
0.9971 0.6141 -0.4063 0.3046 458 14
0.9963 0.6167 -0.4065 0.3044 458 14
0.9955 0.6193 -0.4067 0.3042 458 14
0.9946 0.6218 -0.4070 0.3041 458 14
0.9937 0.6244 -0.4072 0.3039 458 14
0.9929 0.6270 -0.4074 0.3038 458 14
0.9920 0.6296 -0.4076 0.3036 458 14
0.9911 0.6321 -0.4079 0.3034 458 14
0.9903 0.6347 -0.4081 0.3033 458 14
0.9894 0.6372 -0.4083 0.3031 458 14
0.9885 0.6398 -0.4085 0.3029 458 14
0.9876 0.6424 -0.4087 0.3028 458 14
0.9867 0.6449 -0.4090 0.3026 458 14
0.9857 0.6475 -0.4092 0.3024 458 14
0.9848 0.6501 -0.4094 0.3023 458 14
0.9839 0.6526 -0.4096 0.3021 458 14
0.9829 0.6552 -0.4098 0.3019 458 14
0.9820 0.6578 -0.4101 0.3018 458 14
0.9811 0.6603 -0.4103 0.3016 458 14
0.9801 0.6629 -0.4105 0.3015 458 14
0.9791 0.6654 -0.4107 0.3013 458 14
0.9782 0.6680 -0.4110 0.3011 458 14
0.9772 0.6705 -0.4112 0.3010 458 14
0.9762 0.6731 -0.4114 0.3008 458 14
0.9752 0.6757 -0.4116 0.3006 458 14
0.9742 0.6782 -0.4118 0.3005 458 14
0.9732 0.6808 -0.4121 0.3003 458 14
0.9722 0.6833 -0.4123 0.3002 458 14
0.9712 0.6858 -0.4125 0.3000 458 14
0.9702 0.6884 -0.4127 0.2998 458 14
0.9692 0.6909 -0.4130 0.2997 458 14
0.9682 0.6935 -0.4132 0.2995 458 14
0.9671 0.6960 -0.4134 0.2993 458 14
0.9661 0.6986 -0.4136 0.2992 458 14
0.9650 0.7011 -0.4138 0.2990 458 14
0.9640 0.7037 -0.4141 0.2989 458 14
0.9629 0.7062 -0.4143 0.2987 458 14
0.9618 0.7088 -0.4145 0.2985 458 14
0.9610 0.7114 -0.4148 0.2567 458 14
0.9604 0.7144 -0.4153 0.2564 458 14
0.9598 0.7173 -0.4157 0.2562 458 14
0.9593 0.7203 -0.4162 0.2559 458 14
0.9587 0.7232 -0.4166 0.2556 458 14
0.9581 0.7261 -0.4171 0.2553 458 14
0.9575 0.7291 -0.4175 0.2550 458 14
0.9569 0.7320 -0.4180 0.2548 458 14
0.9563 0.7349 -0.4185 0.2545 458 14
0.9557 0.7379 -0.4189 0.2542 458 14
0.9551 0.7408 -0.4194 0.2539 458 14
0.9545 0.7438 -0.4198 0.2537 458 14
0.9538 0.7467 -0.4203 0.2534 458 14
0.9532 0.7497 -0.4207 0.2531 458 14
0.9525 0.7526 -0.4212 0.2528 458 14
0.9519 0.7556 -0.4216 0.2526 458 14
0.9512 0.7586 -0.4221 0.2523 458 14
0.9505 0.7615 -0.4226 0.2520 458 14
0.9498 0.7645 -0.4230 0.2517 458 14
0.9492 0.7674 -0.4235 0.2515 458 14
0.9485 0.7704 -0.4239 0.2512 458 14
0.9478 0.7734 -0.4244 0.2509 458 14
0.9470 0.7763 -0.4249 0.2507 458 14
0.9463 0.7793 -0.4253 0.2504 458 14
0.9456 0.7823 -0.4258 0.2501 458 14
0.9449 0.7852 -0.4262 0.2498 458 14
0.9441 0.7882 -0.4267 0.2496 458 14
0.9433 0.7912 -0.4272 0.2493 458 14
0.9426 0.7941 -0.4276 0.2490 458 14
0.9418 0.7971 -0.4281 0.2488 458 14
0.9410 0.8001 -0.4285 0.2485 458 14
0.9403 0.8031 -0.4290 0.2482 458 14
0.9395 0.8060 -0.4295 0.2480 458 14
0.9387 0.8090 -0.4299 0.2477 458 14
0.9379 0.8120 -0.4304 0.2474 458 14
0.9371 0.8150 -0.4309 0.2472 458 14
0.9362 0.8180 -0.4313 0.2469 458 14
0.9354 0.8209 -0.4318 0.2466 458 14
0.9346 0.8239 -0.4323 0.2464 458 14
0.9337 0.8269 -0.4327 0.2461 458 14
0.9329 0.8299 -0.4332 0.2458 458 14
0.9320 0.8329 -0.4337 0.2456 458 14
0.9311 0.8359 -0.4341 0.2453 458 14
0.9303 0.8389 -0.4346 0.2450 458 14
0.9294 0.8419 -0.4351 0.2448 458 14
0.9285 0.8448 -0.4355 0.2445 458 14
0.9276 0.8478 -0.4360 0.2443 458 14
0.9267 0.8508 -0.4365 0.2440 458 14
0.9257 0.8538 -0.4369 0.2437 458 14
0.9248 0.8568 -0.4374 0.2435 458 14
0.9239 0.8598 -0.4379 0.2432 458 14
0.9229 0.8628 -0.4383 0.2429 458 14
0.9220 0.8658 -0.4388 0.2427 458 14
0.9210 0.8688 -0.4393 0.2424 458 14
0.9200 0.8718 -0.4397 0.2422 458 14
0.9191 0.8748 -0.4402 0.2419 458 14
0.9181 0.8778 -0.4407 0.2416 458 14
0.9171 0.8808 -0.4412 0.2414 458 14
0.9161 0.8838 -0.4416 0.2411 458 14
0.9151 0.8868 -0.4421 0.2409 458 14
0.9141 0.8898 -0.4426 0.2406 458 14
0.9130 0.8928 -0.4430 0.2404 458 14
0.9120 0.8958 -0.4435 0.2401 458 14
0.9110 0.8988 -0.4440 0.2399 458 14
0.9099 0.9018 -0.4445 0.2396 458 14
0.9088 0.9048 -0.4449 0.2393 458 14
3.5718 -3.5719 -1.7993 0.3364 0 1
3.5798 -3.5638 -1.7993 0.3364 0 1
3.5878 -3.5558 -1.7993 0.3364 0 1
3.5957 -3.5477 -1.7993 0.3364 0 1
3.6037 -3.5396 -1.7993 0.3364 0 1
3.6116 -3.5315 -1.7993 0.3364 0 1
3.6195 -3.5234 -1.7993 0.3364 0 1
3.6274 -3.5152 -1.7993 0.3364 0 1
3.6352 -3.5070 -1.7993 0.3364 0 1
3.6431 -3.4988 -1.7992 0.3364 0 1
3.6509 -3.4906 -1.7992 0.3364 0 1
3.6587 -3.4824 -1.7992 0.3364 0 1
3.6665 -3.4742 -1.7992 0.3364 0 1
3.6742 -3.4659 -1.7992 0.3364 0 1
3.6820 -3.4577 -1.7992 0.3364 0 1
3.6897 -3.4494 -1.7992 0.3364 0 1
3.6974 -3.4411 -1.7992 0.3364 0 1
3.7051 -3.4327 -1.7992 0.3364 0 1
3.7128 -3.4244 -1.7992 0.3364 0 1
3.7204 -3.4160 -1.7992 0.3364 0 1
3.7281 -3.4077 -1.7991 0.3364 0 1
3.7357 -3.3993 -1.7991 0.3364 0 1
3.7433 -3.3909 -1.7991 0.3364 0 1
3.7509 -3.3824 -1.7991 0.3364 0 1
3.7584 -3.3740 -1.7991 0.3364 0 1
3.7660 -3.3655 -1.7991 0.3364 0 1
3.7735 -3.3571 -1.7991 0.3364 0 1
3.7810 -3.3486 -1.7991 0.3364 0 1
3.7885 -3.3401 -1.7991 0.3364 0 1
3.7960 -3.3315 -1.7991 0.3364 0 1
3.8034 -3.3230 -1.7991 0.3364 0 1
3.8108 -3.3144 -1.7990 0.3364 0 1
3.8182 -3.3058 -1.7990 0.3364 0 1
3.8256 -3.2973 -1.7990 0.3364 0 1
3.8330 -3.2886 -1.7990 0.3364 0 1
3.8404 -3.2800 -1.7990 0.3364 0 1
3.8477 -3.2714 -1.7990 0.3364 0 1
3.8550 -3.2627 -1.7990 0.3364 0 1
3.8623 -3.2540 -1.7990 0.3364 0 1
3.8696 -3.2454 -1.7990 0.3364 0 1
3.8768 -3.2366 -1.7990 0.3364 0 1
3.8841 -3.2279 -1.7990 0.3364 0 1
3.8913 -3.2192 -1.7989 0.3364 0 1
3.8985 -3.2104 -1.7989 0.3364 0 1
3.9056 -3.2017 -1.7989 0.3364 0 1
3.9128 -3.1929 -1.7989 0.3364 0 1
3.9199 -3.1840 -1.7989 0.3364 0 1
3.9270 -3.1752 -1.7989 0.3364 0 1
3.9341 -3.1664 -1.7989 0.3364 0 1
3.9412 -3.1576 -1.7989 0.3364 0 1
3.9483 -3.1487 -1.7989 0.3364 0 1
3.9553 -3.1398 -1.7989 0.3364 0 1
3.9623 -3.1309 -1.7989 0.3364 0 1
3.9693 -3.1220 -1.7988 0.3364 0 1
3.9763 -3.1131 -1.7988 0.3364 0 1
3.9833 -3.1041 -1.7988 0.3365 0 1
3.9902 -3.0952 -1.7988 0.3365 0 1
3.9971 -3.0862 -1.7988 0.3365 0 1
4.0040 -3.0772 -1.7988 0.3365 0 1
4.0109 -3.0682 -1.7988 0.3365 0 1
4.0177 -3.0592 -1.7988 0.3365 0 1
4.0246 -3.0501 -1.7988 0.3365 0 1
4.0314 -3.0411 -1.7988 0.3365 0 1
4.0382 -3.0320 -1.7988 0.3365 0 1
4.0450 -3.0229 -1.7988 0.3365 0 1
4.0517 -3.0138 -1.7987 0.3365 0 1
4.0585 -3.0047 -1.7987 0.3365 0 1
4.0652 -2.9956 -1.7987 0.3365 0 1
4.0719 -2.9864 -1.7987 0.3365 0 1
4.0785 -2.9773 -1.7987 0.3365 0 1
4.0852 -2.9681 -1.7987 0.3365 0 1
4.0918 -2.9589 -1.7987 0.3365 0 1
4.0984 -2.9497 -1.7987 0.3365 0 1
4.1050 -2.9405 -1.7987 0.3365 0 1
4.1116 -2.9313 -1.7987 0.3365 0 1
4.1181 -2.9220 -1.7987 0.3365 0 1
4.1247 -2.9128 -1.7987 0.3365 0 1
4.1312 -2.9035 -1.7987 0.3365 0 1
4.1377 -2.8942 -1.7986 0.3365 0 1
4.1441 -2.8849 -1.7986 0.3365 0 1
4.1506 -2.8756 -1.7986 0.3365 0 1
4.1570 -2.8662 -1.7986 0.3365 0 1
4.1634 -2.8569 -1.7986 0.3365 0 1
4.1698 -2.8475 -1.7986 0.3365 0 1
4.1761 -2.8381 -1.7986 0.3365 0 1
4.1825 -2.8287 -1.7986 0.3365 0 1
4.1888 -2.8193 -1.7986 0.3365 0 1
4.1951 -2.8099 -1.7986 0.3365 0 1
4.2014 -2.8005 -1.7986 0.3365 0 1
4.2076 -2.7911 -1.7986 0.3365 0 1
4.2139 -2.7816 -1.7985 0.3365 0 1
4.2201 -2.7721 -1.7985 0.3365 0 1
4.2263 -2.7626 -1.7985 0.3365 0 1
4.2324 -2.7531 -1.7985 0.3365 0 1
4.2386 -2.7436 -1.7985 0.3365 0 1
4.2447 -2.7341 -1.7985 0.3365 0 1
4.2508 -2.7245 -1.7985 0.3365 0 1
4.2569 -2.7150 -1.7985 0.3365 0 1
4.2630 -2.7054 -1.7985 0.3365 0 1
4.2690 -2.6958 -1.7985 0.3365 0 1
4.2750 -2.6862 -1.7985 0.3365 0 1
4.2810 -2.6766 -1.7985 0.3365 0 1
4.2870 -2.6670 -1.7985 0.3365 0 1
4.2930 -2.6573 -1.7985 0.3365 0 1
4.2989 -2.6477 -1.7984 0.3365 0 1
4.3048 -2.6380 -1.7984 0.3365 0 1
4.3107 -2.6284 -1.7984 0.3365 0 1
4.3166 -2.6187 -1.7984 0.3365 0 1
4.3224 -2.6090 -1.7984 0.3365 0 1
4.3283 -2.5993 -1.7984 0.3365 0 1
4.3341 -2.5895 -1.7984 0.3365 0 1
4.3398 -2.5798 -1.7984 0.3365 0 1
4.3456 -2.5700 -1.7984 0.3365 0 1
4.3513 -2.5603 -1.7984 0.3365 0 1
4.3571 -2.5505 -1.7984 0.3365 0 1
4.3628 -2.5407 -1.7984 0.3365 0 1
4.3684 -2.5309 -1.7984 0.3365 0 1
4.3741 -2.5211 -1.7984 0.3365 0 1
4.3797 -2.5112 -1.7983 0.3365 0 1
4.3853 -2.5014 -1.7983 0.3365 0 1
4.3909 -2.4915 -1.7983 0.3365 0 1
4.3965 -2.4816 -1.7983 0.3365 0 1
4.4020 -2.4718 -1.7983 0.3365 0 1
4.4075 -2.4619 -1.7983 0.3365 0 1
4.4130 -2.4520 -1.7983 0.3365 0 1
4.4185 -2.4421 -1.7983 0.3366 0 1
4.4240 -2.4321 -1.7983 0.3366 0 1
4.4294 -2.4222 -1.7983 0.3366 0 1
4.4348 -2.4122 -1.7983 0.3366 0 1
1.2418 -0.6719 -0.5029 0.1803 458 14
1.2419 -0.6683 -0.5024 0.1805 458 14
1.2421 -0.6648 -0.5018 0.1807 458 14
1.2421 -0.6612 -0.5013 0.1809 458 14
1.2422 -0.6577 -0.5007 0.1811 458 14
1.2423 -0.6542 -0.5001 0.1813 458 14
1.2424 -0.6507 -0.4996 0.1815 458 14
1.2424 -0.6471 -0.4990 0.1817 458 14
1.2425 -0.6436 -0.4984 0.1819 458 14
1.2425 -0.6401 -0.4979 0.1821 458 14
1.2425 -0.6366 -0.4973 0.1823 458 14
1.2425 -0.6331 -0.4967 0.1825 458 14
1.2425 -0.6296 -0.4962 0.1827 458 14
1.2425 -0.6261 -0.4956 0.1830 458 14
1.2424 -0.6226 -0.4950 0.1832 458 14
1.2424 -0.6190 -0.4944 0.1834 458 14
1.2423 -0.6155 -0.4939 0.1836 458 14
1.2423 -0.6121 -0.4933 0.1838 458 14
1.2422 -0.6086 -0.4927 0.1840 458 14
1.2421 -0.6051 -0.4922 0.1842 458 14
1.2420 -0.6016 -0.4916 0.1844 458 14
1.2419 -0.5981 -0.4910 0.1847 458 14
1.2418 -0.5946 -0.4904 0.1849 458 14
1.2417 -0.5911 -0.4899 0.1851 458 14
1.2415 -0.5876 -0.4893 0.1853 458 14
1.2414 -0.5842 -0.4887 0.1855 458 14
1.2412 -0.5807 -0.4881 0.1857 458 14
1.2410 -0.5772 -0.4875 0.1860 458 14
1.2409 -0.5737 -0.4870 0.1862 458 14
1.2407 -0.5703 -0.4864 0.1864 458 14
1.2405 -0.5668 -0.4858 0.1866 458 14
1.2403 -0.5634 -0.4852 0.1869 458 14
1.2400 -0.5599 -0.4846 0.1871 458 14
1.2398 -0.5565 -0.4841 0.1873 458 14
1.2396 -0.5530 -0.4835 0.1875 458 14
1.2393 -0.5496 -0.4829 0.1878 458 14
1.2390 -0.5461 -0.4823 0.1880 458 14
1.2387 -0.5427 -0.4817 0.1882 458 14
1.2384 -0.5393 -0.4812 0.1884 458 14
1.2382 -0.5358 -0.4806 0.1887 458 14
1.2378 -0.5324 -0.4800 0.1889 458 14
1.2375 -0.5290 -0.4794 0.1891 458 14
1.2372 -0.5255 -0.4788 0.1894 458 14
1.2369 -0.5221 -0.4782 0.1896 458 14
1.2365 -0.5187 -0.4776 0.1898 458 14
1.2362 -0.5153 -0.4771 0.1901 458 14
1.2358 -0.5119 -0.4765 0.1903 458 14
1.2354 -0.5085 -0.4759 0.1905 458 14
1.2350 -0.5051 -0.4753 0.1908 458 14
1.2346 -0.5017 -0.4747 0.1910 458 14
1.2342 -0.4983 -0.4741 0.1912 458 14
1.2338 -0.4949 -0.4735 0.1915 458 14
1.2334 -0.4916 -0.4729 0.1917 458 14
1.2330 -0.4882 -0.4724 0.1919 458 14
1.2325 -0.4848 -0.4718 0.1922 458 14
1.2321 -0.4814 -0.4712 0.1924 458 14
1.2316 -0.4781 -0.4706 0.1927 458 14
1.2311 -0.4747 -0.4700 0.1929 458 14
1.2306 -0.4713 -0.4694 0.1932 458 14
1.2301 -0.4680 -0.4688 0.1934 458 14
1.2296 -0.4646 -0.4682 0.1936 458 14
1.2291 -0.4613 -0.4676 0.1939 458 14
1.2286 -0.4580 -0.4671 0.1941 458 14
1.2281 -0.4546 -0.4665 0.1944 458 14
1.2275 -0.4513 -0.4659 0.1946 458 14
1.2270 -0.4480 -0.4653 0.1949 458 14
1.2264 -0.4447 -0.4647 0.1951 458 14
1.2258 -0.4413 -0.4641 0.1954 458 14
1.2253 -0.4380 -0.4635 0.1956 458 14
1.2247 -0.4347 -0.4629 0.1959 458 14
1.2241 -0.4314 -0.4623 0.1961 458 14
1.2235 -0.4281 -0.4617 0.1964 458 14
1.2229 -0.4248 -0.4611 0.1966 458 14
1.2223 -0.4216 -0.4606 0.1969 458 14
1.2217 -0.4183 -0.4600 0.1971 458 14
1.2210 -0.4150 -0.4594 0.1974 458 14
1.2204 -0.4117 -0.4588 0.1976 458 14
1.2197 -0.4085 -0.4582 0.1920 458 14
1.2192 -0.4052 -0.4576 0.1922 458 14
1.2186 -0.4020 -0.4571 0.1924 458 14
1.2179 -0.3988 -0.4565 0.1927 458 14
1.2173 -0.3955 -0.4559 0.1929 458 14
1.2167 -0.3923 -0.4554 0.1932 458 14
1.2161 -0.3891 -0.4548 0.1934 458 14
1.2154 -0.3859 -0.4542 0.1936 458 14
1.2148 -0.3827 -0.4537 0.1939 458 14
1.2141 -0.3795 -0.4531 0.1941 458 14
1.2134 -0.3763 -0.4525 0.1944 458 14
1.2128 -0.3731 -0.4520 0.1946 458 14
1.2121 -0.3699 -0.4514 0.1949 458 14
1.2114 -0.3667 -0.4508 0.1951 458 14
1.2107 -0.3636 -0.4503 0.1953 458 14
1.2099 -0.3604 -0.4497 0.1956 458 14
1.2092 -0.3572 -0.4491 0.1958 458 14
1.2085 -0.3541 -0.4486 0.1961 458 14
1.2077 -0.3509 -0.4480 0.1963 458 14
1.2070 -0.3478 -0.4474 0.1966 458 14
1.2062 -0.3446 -0.4469 0.1968 458 14
1.2055 -0.3415 -0.4463 0.1971 458 14
1.2047 -0.3383 -0.4457 0.1973 458 14
1.2039 -0.3352 -0.4452 0.1976 458 14
1.2031 -0.3321 -0.4446 0.1978 458 14
1.2023 -0.3289 -0.4440 0.1981 458 14
1.2015 -0.3258 -0.4435 0.1983 458 14
1.2007 -0.3227 -0.4429 0.1986 458 14
1.1999 -0.3196 -0.4423 0.1989 458 14
1.1991 -0.3165 -0.4417 0.1991 458 14
1.1982 -0.3134 -0.4412 0.1994 458 14
1.1974 -0.3103 -0.4406 0.1996 458 14
1.1965 -0.3072 -0.4400 0.1999 458 14
1.1957 -0.3041 -0.4395 0.2001 458 14
1.1948 -0.3011 -0.4389 0.2004 458 14
1.1939 -0.2980 -0.4383 0.2007 458 14
1.1931 -0.2949 -0.4378 0.2009 458 14
1.1922 -0.2919 -0.4372 0.2012 458 14
1.1913 -0.2888 -0.4366 0.2014 458 14
1.1904 -0.2858 -0.4361 0.2017 458 14
1.1894 -0.2828 -0.4355 0.2020 458 14
1.1885 -0.2797 -0.4349 0.2022 458 14
1.1876 -0.2767 -0.4344 0.2025 458 14
1.1866 -0.2737 -0.4338 0.2028 458 14
1.1857 -0.2706 -0.4332 0.2030 458 14
1.1848 -0.2676 -0.4327 0.2033 458 14
1.1838 -0.2646 -0.4321 0.2036 458 14
1.1828 -0.2616 -0.4315 0.2038 458 14
1.1819 -0.2586 -0.4310 0.2041 458 14
1.1809 -0.2556 -0.4304 0.2044 458 14
1.1799 -0.2527 -0.4298 0.2046 458 14
1.1789 -0.2497 -0.4293 0.2049 458 14
1.1779 -0.2467 -0.4287 0.2052 458 14
1.1769 -0.2437 -0.4281 0.2054 458 14
1.1759 -0.2408 -0.4276 0.2057 458 14
1.1749 -0.2378 -0.4270 0.2060 458 14
1.1739 -0.2349 -0.4264 0.2063 458 14
1.1728 -0.2319 -0.4259 0.2065 458 14
1.1718 -0.2290 -0.4253 0.2068 458 14
1.1707 -0.2261 -0.4247 0.2071 458 14
1.1697 -0.2231 -0.4242 0.2074 458 14
1.1686 -0.2202 -0.4236 0.2076 458 14
1.1675 -0.2173 -0.4230 0.2079 458 14
1.1665 -0.2144 -0.4225 0.2082 458 14
1.1654 -0.2115 -0.4219 0.2085 458 14
1.1654 -0.2088 -0.4217 0.2316 458 14
1.1657 -0.2062 -0.4217 0.2316 458 14
1.1660 -0.2035 -0.4216 0.2317 458 14
1.1663 -0.2009 -0.4216 0.2317 458 14
1.1667 -0.1982 -0.4215 0.2317 458 14
1.1670 -0.1956 -0.4215 0.2317 458 14
1.1672 -0.1929 -0.4214 0.2318 458 14
1.1675 -0.1903 -0.4214 0.2318 458 14
1.1678 -0.1877 -0.4213 0.2318 458 14
1.1681 -0.1850 -0.4213 0.2319 458 14
1.1683 -0.1824 -0.4212 0.2319 458 14
1.1686 -0.1797 -0.4212 0.2319 458 14
1.1688 -0.1771 -0.4211 0.2320 458 14
1.1690 -0.1744 -0.4210 0.2320 458 14
1.1693 -0.1718 -0.4210 0.2320 458 14
1.1695 -0.1691 -0.4209 0.2321 458 14
1.1697 -0.1665 -0.4209 0.2321 458 14
1.1699 -0.1638 -0.4208 0.2321 458 14
1.1701 -0.1612 -0.4207 0.2322 458 14
1.1703 -0.1585 -0.4207 0.2322 458 14
1.1704 -0.1559 -0.4206 0.2322 458 14
1.1706 -0.1532 -0.4205 0.2323 458 14
1.1708 -0.1506 -0.4205 0.2323 458 14
1.1709 -0.1479 -0.4204 0.2323 458 14
1.1711 -0.1453 -0.4203 0.2324 458 14
1.1712 -0.1426 -0.4203 0.2324 458 14
1.1713 -0.1400 -0.4202 0.2325 458 14
1.1714 -0.1373 -0.4201 0.2325 458 14
1.1715 -0.1347 -0.4201 0.2325 458 14
1.1716 -0.1320 -0.4200 0.2326 458 14
1.1717 -0.1294 -0.4199 0.2326 458 14
1.1718 -0.1267 -0.4198 0.2327 458 14
1.1718 -0.1241 -0.4198 0.2327 458 14
1.1719 -0.1214 -0.4197 0.2327 458 14
1.1720 -0.1188 -0.4196 0.2328 458 14
1.1720 -0.1161 -0.4195 0.2328 458 14
1.1720 -0.1135 -0.4194 0.2329 458 14
1.1721 -0.1108 -0.4194 0.2329 458 14
1.1721 -0.1082 -0.4193 0.2330 458 14
1.1721 -0.1055 -0.4192 0.2330 458 14
1.1721 -0.1029 -0.4191 0.2330 458 14
1.1721 -0.1002 -0.4190 0.2331 458 14
1.1721 -0.0976 -0.4190 0.2331 458 14
1.1721 -0.0949 -0.4189 0.2332 458 14
1.1720 -0.0922 -0.4188 0.2332 458 14
1.1720 -0.0896 -0.4187 0.2333 458 14
1.1720 -0.0870 -0.4186 0.2333 458 14
1.1719 -0.0843 -0.4185 0.2334 458 14
1.1718 -0.0817 -0.4184 0.2334 458 14
1.1718 -0.0790 -0.4183 0.2335 458 14
1.1717 -0.0764 -0.4182 0.2335 458 14
1.1716 -0.0737 -0.4182 0.2336 458 14
1.1715 -0.0711 -0.4181 0.2336 458 14
1.1714 -0.0684 -0.4180 0.2337 458 14
1.1713 -0.0658 -0.4179 0.2337 458 14
1.1712 -0.0631 -0.4178 0.2338 458 14
1.1710 -0.0605 -0.4177 0.2339 458 14
1.1709 -0.0579 -0.4176 0.2339 458 14
1.1707 -0.0552 -0.4175 0.2340 458 14
1.1705 -0.0526 -0.4174 0.2340 458 14
1.1704 -0.0499 -0.4173 0.2341 458 14
1.1702 -0.0473 -0.4172 0.2341 458 14
1.1700 -0.0447 -0.4171 0.2342 458 14
1.1699 -0.0420 -0.4170 0.2342 458 14
1.1696 -0.0394 -0.4169 0.2343 458 14
1.1694 -0.0368 -0.4168 0.2344 458 14
1.1692 -0.0341 -0.4167 0.2344 458 14
1.1690 -0.0315 -0.4166 0.2345 458 14
1.1688 -0.0289 -0.4165 0.2345 458 14
1.1685 -0.0262 -0.4164 0.2346 458 14
1.1683 -0.0236 -0.4162 0.2347 458 14
1.1680 -0.0210 -0.4161 0.2347 458 14
1.1678 -0.0184 -0.4160 0.2348 458 14
1.1675 -0.0157 -0.4159 0.2348 458 14
1.1672 -0.0131 -0.4158 0.2349 458 14
1.1669 -0.0105 -0.4157 0.2350 458 14
1.1666 -0.0079 -0.4156 0.2350 458 14
1.1663 -0.0052 -0.4155 0.2351 458 14
1.1660 -0.0026 -0.4153 0.2352 458 14
1.1657 0.0000 -0.4152 0.2352 458 14
1.1654 0.0026 -0.4151 0.2353 458 14
1.1650 0.0052 -0.4150 0.2354 458 14
1.1647 0.0078 -0.4149 0.2354 458 14
1.1643 0.0104 -0.4148 0.2355 458 14
1.1640 0.0130 -0.4146 0.2356 458 14
1.1636 0.0157 -0.4145 0.2356 458 14
1.1632 0.0183 -0.4144 0.2357 458 14
1.1628 0.0209 -0.4143 0.2358 458 14
1.1624 0.0235 -0.4142 0.2358 458 14
1.1620 0.0261 -0.4140 0.2359 458 14
1.1616 0.0287 -0.4139 0.2360 458 14
1.1612 0.0313 -0.4138 0.2361 458 14
1.1608 0.0339 -0.4137 0.2361 458 14
1.1603 0.0365 -0.4135 0.2362 458 14
1.1599 0.0391 -0.4134 0.2363 458 14
1.1595 0.0416 -0.4133 0.2363 458 14
1.1590 0.0442 -0.4131 0.2364 458 14
1.1585 0.0468 -0.4130 0.2365 458 14
1.1580 0.0494 -0.4129 0.2366 458 14
1.1576 0.0520 -0.4128 0.2366 458 14
1.1571 0.0546 -0.4126 0.2367 458 14
1.1566 0.0571 -0.4125 0.2368 458 14
1.1561 0.0597 -0.4124 0.2369 458 14
1.1556 0.0623 -0.4122 0.2369 458 14
1.1550 0.0649 -0.4121 0.2370 458 14
1.1545 0.0674 -0.4120 0.2371 458 14
1.1540 0.0700 -0.4118 0.2372 458 14
1.1534 0.0726 -0.4117 0.2373 458 14
1.1529 0.0751 -0.4115 0.2373 458 14
1.1523 0.0777 -0.4114 0.2374 458 14
1.1517 0.0802 -0.4113 0.2375 458 14
1.1512 0.0828 -0.4111 0.2376 458 14
1.1506 0.0854 -0.4110 0.2377 458 14
1.1500 0.0879 -0.4108 0.2377 458 14
1.1494 0.0904 -0.4107 0.2378 458 14
1.1488 0.0930 -0.4106 0.2379 458 14
1.1482 0.0955 -0.4104 0.2380 458 14
1.1476 0.0981 -0.4103 0.2381 458 14
1.1469 0.1006 -0.4101 0.2382 458 14
1.1463 0.1032 -0.4100 0.2382 458 14
1.1457 0.1057 -0.4098 0.2383 458 14
1.1450 0.1082 -0.4097 0.2384 458 14
1.1443 0.1107 -0.4095 0.2385 458 14
1.1437 0.1133 -0.4094 0.2386 458 14
1.1430 0.1158 -0.4092 0.2387 458 14
1.1423 0.1183 -0.4091 0.2388 458 14
1.1416 0.1208 -0.4089 0.2389 458 14
1.1409 0.1234 -0.4088 0.2389 458 14
1.1402 0.1259 -0.4086 0.2390 458 14
1.1395 0.1284 -0.4085 0.2391 458 14
1.1388 0.1309 -0.4083 0.2392 458 14
1.1381 0.1334 -0.4082 0.2393 458 14
1.1373 0.1359 -0.4080 0.2394 458 14
1.1366 0.1384 -0.4079 0.2395 458 14
1.1358 0.1409 -0.4077 0.2396 458 14
1.1351 0.1434 -0.4075 0.2397 458 14
1.1343 0.1459 -0.4074 0.2398 458 14
1.1335 0.1484 -0.4072 0.2399 458 14
1.1328 0.1509 -0.4071 0.2400 458 14
1.1320 0.1533 -0.4069 0.2400 458 14
1.1312 0.1558 -0.4067 0.2401 458 14
1.1304 0.1583 -0.4066 0.2402 458 14
1.1296 0.1608 -0.4064 0.2403 458 14
1.1287 0.1632 -0.4063 0.2404 458 14
1.1279 0.1657 -0.4061 0.2405 458 14
1.1271 0.1682 -0.4059 0.2406 458 14
1.1263 0.1706 -0.4058 0.2407 458 14
1.1254 0.1731 -0.4056 0.2408 458 14
1.1246 0.1755 -0.4054 0.2409 458 14
1.1237 0.1780 -0.4053 0.2410 458 14
1.1228 0.1804 -0.4051 0.2411 458 14
1.1220 0.1829 -0.4049 0.2412 458 14
1.1211 0.1853 -0.4048 0.2413 458 14
1.1202 0.1877 -0.4046 0.2414 458 14
1.1193 0.1902 -0.4044 0.2415 458 14
1.1184 0.1926 -0.4042 0.2416 458 14
1.1175 0.1950 -0.4041 0.2417 458 14
1.1166 0.1974 -0.4039 0.2418 458 14
1.1156 0.1999 -0.4037 0.2419 458 14
1.1147 0.2023 -0.4036 0.2420 458 14
1.1138 0.2047 -0.4034 0.2421 458 14
1.1128 0.2071 -0.4032 0.2422 458 14
1.1119 0.2095 -0.4030 0.2423 458 14
1.1110 0.2119 -0.4029 0.2524 458 14
1.1100 0.2143 -0.4027 0.2525 458 14
1.1091 0.2167 -0.4026 0.2526 458 14
1.1082 0.2191 -0.4024 0.2527 458 14
1.1073 0.2215 -0.4022 0.2528 458 14
1.1063 0.2239 -0.4021 0.2529 458 14
1.1054 0.2263 -0.4019 0.2530 458 14
1.1044 0.2287 -0.4017 0.2531 458 14
1.1034 0.2311 -0.4016 0.2532 458 14
1.1024 0.2335 -0.4014 0.2533 458 14
1.1015 0.2358 -0.4013 0.2534 458 14
1.1005 0.2382 -0.4011 0.2535 458 14
1.0995 0.2406 -0.4009 0.2536 458 14
1.0985 0.2430 -0.4008 0.2537 458 14
1.0975 0.2453 -0.4006 0.2538 458 14
1.0965 0.2477 -0.4004 0.2539 458 14
1.0955 0.2500 -0.4003 0.2541 458 14
1.0950 0.2525 -0.4003 0.2414 458 14
1.0945 0.2550 -0.4003 0.2414 458 14
1.0940 0.2575 -0.4003 0.2414 458 14
1.0935 0.2599 -0.4004 0.2413 458 14
1.0930 0.2624 -0.4004 0.2413 458 14
1.0925 0.2649 -0.4004 0.2413 458 14
1.0919 0.2673 -0.4004 0.2413 458 14
1.0914 0.2698 -0.4005 0.2413 458 14
1.0908 0.2723 -0.4005 0.2413 458 14
1.0903 0.2747 -0.4005 0.2412 458 14
1.0897 0.2772 -0.4005 0.2412 458 14
1.0892 0.2796 -0.4006 0.2412 458 14
1.0886 0.2821 -0.4006 0.2412 458 14
1.0880 0.2846 -0.4006 0.2412 458 14
1.0874 0.2870 -0.4006 0.2412 458 14
1.0868 0.2895 -0.4006 0.2412 458 14
1.0862 0.2919 -0.4007 0.2412 458 14
1.0856 0.2944 -0.4007 0.2412 458 14
1.0850 0.2968 -0.4007 0.2411 458 14
1.0844 0.2993 -0.4007 0.2411 458 14
1.0837 0.3017 -0.4007 0.2411 458 14
1.0831 0.3041 -0.4007 0.2411 458 14
1.0824 0.3066 -0.4007 0.2411 458 14
1.0818 0.3090 -0.4008 0.2411 458 14
1.0811 0.3114 -0.4008 0.2411 458 14
1.0804 0.3139 -0.4008 0.2411 458 14
1.0797 0.3163 -0.4008 0.2411 458 14
1.0791 0.3187 -0.4008 0.2411 458 14
1.0783 0.3212 -0.4008 0.2411 458 14
1.0776 0.3236 -0.4008 0.2411 458 14
1.0769 0.3260 -0.4008 0.2411 458 14
1.0762 0.3284 -0.4008 0.2411 458 14
1.0755 0.3309 -0.4008 0.2411 458 14
1.0748 0.3333 -0.4008 0.2411 458 14
1.0740 0.3357 -0.4008 0.2411 458 14
1.0733 0.3381 -0.4008 0.2411 458 14
1.0725 0.3405 -0.4008 0.2411 458 14
1.0717 0.3429 -0.4008 0.2411 458 14
1.0710 0.3453 -0.4008 0.2411 458 14
1.0702 0.3477 -0.4008 0.2411 458 14
1.0694 0.3501 -0.4008 0.2411 458 14
1.0686 0.3525 -0.4008 0.2411 458 14
1.0678 0.3549 -0.4008 0.2411 458 14
1.0670 0.3573 -0.4008 0.2411 458 14
1.0662 0.3597 -0.4008 0.2411 458 14
1.0654 0.3621 -0.4008 0.2411 458 14
1.0645 0.3645 -0.4008 0.2411 458 14
1.0637 0.3669 -0.4008 0.2411 458 14
1.0628 0.3692 -0.4008 0.2411 458 14
1.0620 0.3716 -0.4008 0.2411 458 14
1.0611 0.3740 -0.4008 0.2411 458 14
1.0603 0.3763 -0.4008 0.2411 458 14
1.0594 0.3787 -0.4008 0.2411 458 14
1.0585 0.3811 -0.4007 0.2411 458 14
1.0576 0.3834 -0.4007 0.2411 458 14
1.0567 0.3858 -0.4007 0.2411 458 14
1.0558 0.3882 -0.4007 0.2411 458 14
1.0549 0.3905 -0.4007 0.2411 458 14
1.0540 0.3929 -0.4007 0.2412 458 14
1.0530 0.3952 -0.4007 0.2412 458 14
1.0521 0.3976 -0.4006 0.2412 458 14
1.0512 0.3999 -0.4006 0.2412 458 14
1.0502 0.4022 -0.4006 0.2412 458 14
1.0493 0.4046 -0.4006 0.2412 458 14
1.0483 0.4069 -0.4006 0.2412 458 14
1.0473 0.4092 -0.4005 0.2412 458 14
1.0464 0.4116 -0.4005 0.2412 458 14
1.0454 0.4139 -0.4005 0.2413 458 14
1.0444 0.4162 -0.4005 0.2413 458 14
1.0434 0.4185 -0.4005 0.2413 458 14
1.0424 0.4208 -0.4004 0.2413 458 14
1.0414 0.4232 -0.4004 0.2413 458 14
1.0403 0.4255 -0.4004 0.2413 458 14
1.0393 0.4278 -0.4004 0.2413 458 14
1.0383 0.4301 -0.4003 0.2414 458 14
1.0372 0.4324 -0.4003 0.2414 458 14
1.0362 0.4347 -0.4003 0.2414 458 14
1.0351 0.4370 -0.4002 0.2414 458 14
1.0341 0.4393 -0.4002 0.2414 458 14
1.0330 0.4415 -0.4002 0.2415 458 14
1.0319 0.4438 -0.4001 0.2415 458 14
1.0308 0.4461 -0.4001 0.2415 458 14
1.0298 0.4484 -0.4001 0.2415 458 14
1.0287 0.4506 -0.4000 0.2415 458 14
1.0275 0.4529 -0.4000 0.2416 458 14
1.0264 0.4552 -0.4000 0.2416 458 14
1.0253 0.4574 -0.3999 0.2416 458 14
1.0242 0.4597 -0.3999 0.2416 458 14
1.0231 0.4619 -0.3999 0.2416 458 14
1.0219 0.4642 -0.3998 0.2417 458 14
1.0208 0.4664 -0.3998 0.2417 458 14
1.0196 0.4687 -0.3997 0.2417 458 14
1.0185 0.4709 -0.3997 0.2417 458 14
1.0173 0.4731 -0.3996 0.2418 458 14
1.0161 0.4754 -0.3996 0.2418 458 14
1.0149 0.4776 -0.3996 0.2418 458 14
1.0137 0.4798 -0.3995 0.2419 458 14
1.0125 0.4820 -0.3995 0.2419 458 14
1.0114 0.4843 -0.3994 0.2419 458 14
1.0101 0.4865 -0.3994 0.2419 458 14
1.0089 0.4887 -0.3993 0.2420 458 14
1.0077 0.4909 -0.3993 0.2420 458 14
1.0065 0.4931 -0.3992 0.2420 458 14
1.0052 0.4953 -0.3992 0.2421 458 14
1.0040 0.4975 -0.3991 0.2421 458 14
1.0028 0.4996 -0.3991 0.2421 458 14
1.0015 0.5018 -0.3990 0.2421 458 14
1.0002 0.5040 -0.3990 0.2422 458 14
0.9990 0.5062 -0.3989 0.2422 458 14
0.9977 0.5084 -0.3989 0.2422 458 14
0.9964 0.5105 -0.3988 0.2423 458 14
0.9951 0.5127 -0.3988 0.2423 458 14
0.9938 0.5148 -0.3987 0.2423 458 14
0.9928 0.5171 -0.3987 0.3177 458 14
0.9921 0.5196 -0.3990 0.3175 458 14
0.9915 0.5221 -0.3992 0.3174 458 14
0.9908 0.5246 -0.3994 0.3172 458 14
0.9902 0.5271 -0.3996 0.3170 458 14
0.9895 0.5296 -0.3998 0.3169 458 14
0.9889 0.5321 -0.4000 0.3167 458 14
0.9882 0.5346 -0.4002 0.3165 458 14
0.9875 0.5371 -0.4004 0.3164 458 14
0.9868 0.5396 -0.4006 0.3162 458 14
0.9861 0.5421 -0.4009 0.3160 458 14
0.9854 0.5446 -0.4011 0.3159 458 14
0.9847 0.5471 -0.4013 0.3157 458 14
0.9840 0.5496 -0.4015 0.3155 458 14
0.9833 0.5521 -0.4017 0.3154 458 14
0.9826 0.5546 -0.4019 0.3152 458 14
0.9819 0.5571 -0.4021 0.3150 458 14
0.9811 0.5596 -0.4023 0.3149 458 14
0.9804 0.5621 -0.4026 0.3147 458 14
0.9796 0.5646 -0.4028 0.3145 458 14
0.9789 0.5671 -0.4030 0.3144 458 14
0.9781 0.5696 -0.4032 0.3142 458 14
0.9774 0.5721 -0.4034 0.3140 458 14
0.9766 0.5746 -0.4036 0.3139 458 14
0.9758 0.5771 -0.4038 0.3137 458 14
0.9750 0.5796 -0.4040 0.3135 458 14
0.9742 0.5821 -0.4043 0.3134 458 14
0.9734 0.5846 -0.4045 0.3132 458 14
0.9726 0.5871 -0.4047 0.3131 458 14
0.9718 0.5896 -0.4049 0.3129 458 14
0.9710 0.5921 -0.4051 0.3127 458 14
0.9702 0.5945 -0.4053 0.3126 458 14
0.9694 0.5970 -0.4055 0.3124 458 14
0.9686 0.5995 -0.4058 0.3122 458 14
0.9677 0.6020 -0.4060 0.3121 458 14
0.9669 0.6045 -0.4062 0.3119 458 14
0.9660 0.6070 -0.4064 0.3117 458 14
0.9652 0.6095 -0.4066 0.3116 458 14
0.9643 0.6120 -0.4068 0.3114 458 14
0.9634 0.6145 -0.4070 0.3112 458 14
0.9626 0.6169 -0.4073 0.3111 458 14
0.9617 0.6194 -0.4075 0.3109 458 14
0.9608 0.6219 -0.4077 0.3108 458 14
0.9599 0.6244 -0.4079 0.3106 458 14
0.9590 0.6269 -0.4081 0.3104 458 14
0.9581 0.6294 -0.4083 0.3103 458 14
0.9572 0.6318 -0.4085 0.3101 458 14
0.9563 0.6343 -0.4088 0.3099 458 14
0.9554 0.6368 -0.4090 0.3098 458 14
0.9544 0.6393 -0.4092 0.3096 458 14
0.9535 0.6418 -0.4094 0.3094 458 14
0.9525 0.6442 -0.4096 0.3093 458 14
0.9516 0.6467 -0.4098 0.3091 458 14
0.9506 0.6492 -0.4101 0.3090 458 14
0.9497 0.6517 -0.4103 0.3088 458 14
0.9487 0.6541 -0.4105 0.3086 458 14
0.9477 0.6566 -0.4107 0.3085 458 14
0.9467 0.6591 -0.4109 0.3083 458 14
0.9458 0.6615 -0.4111 0.3081 458 14
0.9448 0.6640 -0.4113 0.3080 458 14
0.9438 0.6665 -0.4116 0.3078 458 14
0.9428 0.6689 -0.4118 0.3077 458 14
0.9418 0.6714 -0.4120 0.3075 458 14
0.9407 0.6739 -0.4122 0.3073 458 14
0.9397 0.6763 -0.4124 0.3072 458 14
0.9387 0.6788 -0.4126 0.3070 458 14
0.9377 0.6812 -0.4129 0.3069 458 14
0.9366 0.6837 -0.4131 0.3067 458 14
0.9356 0.6862 -0.4133 0.3065 458 14
0.9345 0.6886 -0.4135 0.3064 458 14
0.9335 0.6911 -0.4137 0.3062 458 14
0.9324 0.6935 -0.4139 0.3061 458 14
0.9313 0.6960 -0.4142 0.3059 458 14
0.9302 0.6985 -0.4144 0.3057 458 14
0.9292 0.7009 -0.4146 0.3056 458 14
0.9281 0.7034 -0.4148 0.3054 458 14
0.9270 0.7058 -0.4150 0.3053 458 14
0.9259 0.7082 -0.4152 0.3051 458 14
0.9249 0.7108 -0.4155 0.2624 458 14
0.9242 0.7136 -0.4159 0.2621 458 14
0.9236 0.7164 -0.4164 0.2618 458 14
0.9229 0.7193 -0.4168 0.2616 458 14
0.9223 0.7221 -0.4172 0.2613 458 14
0.9217 0.7249 -0.4177 0.2610 458 14
0.9210 0.7277 -0.4181 0.2607 458 14
0.9203 0.7306 -0.4186 0.2605 458 14
0.9196 0.7334 -0.4190 0.2602 458 14
0.9190 0.7362 -0.4194 0.2599 458 14
0.9183 0.7391 -0.4199 0.2596 458 14
0.9176 0.7419 -0.4203 0.2594 458 14
0.9169 0.7447 -0.4208 0.2591 458 14
0.9162 0.7476 -0.4212 0.2588 458 14
0.9154 0.7504 -0.4216 0.2586 458 14
0.9147 0.7533 -0.4221 0.2583 458 14
0.9140 0.7561 -0.4225 0.2580 458 14
0.9132 0.7589 -0.4230 0.2577 458 14
0.9125 0.7618 -0.4234 0.2575 458 14
0.9117 0.7646 -0.4239 0.2572 458 14
0.9109 0.7675 -0.4243 0.2569 458 14
0.9102 0.7703 -0.4247 0.2567 458 14
0.9094 0.7732 -0.4252 0.2564 458 14
0.9086 0.7760 -0.4256 0.2561 458 14
0.9078 0.7788 -0.4261 0.2559 458 14
0.9070 0.7817 -0.4265 0.2556 458 14
0.9062 0.7846 -0.4270 0.2553 458 14
0.9054 0.7874 -0.4274 0.2551 458 14
0.9045 0.7903 -0.4279 0.2548 458 14
0.9037 0.7931 -0.4283 0.2545 458 14
0.9028 0.7960 -0.4287 0.2543 458 14
0.9020 0.7988 -0.4292 0.2540 458 14
0.9011 0.8017 -0.4296 0.2537 458 14
0.9003 0.8045 -0.4301 0.2535 458 14
0.8994 0.8074 -0.4305 0.2532 458 14
0.8985 0.8103 -0.4310 0.2530 458 14
0.8976 0.8131 -0.4314 0.2527 458 14
0.8967 0.8160 -0.4319 0.2524 458 14
0.8958 0.8188 -0.4323 0.2522 458 14
0.8949 0.8217 -0.4328 0.2519 458 14
0.8940 0.8246 -0.4332 0.2516 458 14
0.8931 0.8274 -0.4337 0.2514 458 14
0.8921 0.8303 -0.4341 0.2511 458 14
0.8912 0.8331 -0.4346 0.2509 458 14
0.8902 0.8360 -0.4350 0.2506 458 14
0.8893 0.8388 -0.4355 0.2504 458 14
0.8883 0.8417 -0.4359 0.2501 458 14
0.8873 0.8446 -0.4364 0.2498 458 14
0.8864 0.8474 -0.4368 0.2496 458 14
0.8854 0.8503 -0.4373 0.2493 458 14
0.8844 0.8532 -0.4377 0.2491 458 14
0.8833 0.8560 -0.4382 0.2488 458 14
0.8823 0.8589 -0.4386 0.2486 458 14
0.8813 0.8617 -0.4391 0.2483 458 14
0.8803 0.8646 -0.4395 0.2480 458 14
0.8792 0.8675 -0.4400 0.2478 458 14
0.8782 0.8703 -0.4404 0.2475 458 14
0.8771 0.8732 -0.4409 0.2473 458 14
3.4810 -3.4810 -1.7994 0.3441 0 1
3.4887 -3.4732 -1.7994 0.3441 0 1
3.4965 -3.4653 -1.7994 0.3441 0 1
3.5043 -3.4574 -1.7994 0.3441 0 1
3.5120 -3.4496 -1.7994 0.3441 0 1
3.5197 -3.4416 -1.7994 0.3441 0 1
3.5274 -3.4337 -1.7994 0.3441 0 1
3.5351 -3.4258 -1.7994 0.3441 0 1
3.5427 -3.4178 -1.7994 0.3441 0 1
3.5504 -3.4098 -1.7994 0.3441 0 1
3.5580 -3.4019 -1.7993 0.3441 0 1
3.5656 -3.3938 -1.7993 0.3441 0 1
3.5732 -3.3858 -1.7993 0.3441 0 1
3.5808 -3.3778 -1.7993 0.3441 0 1
3.5883 -3.3697 -1.7993 0.3441 0 1
3.5959 -3.3616 -1.7993 0.3441 0 1
3.6034 -3.3535 -1.7993 0.3441 0 1
3.6109 -3.3454 -1.7993 0.3441 0 1
3.6184 -3.3373 -1.7993 0.3441 0 1
3.6258 -3.3291 -1.7993 0.3441 0 1
3.6333 -3.3210 -1.7993 0.3441 0 1
3.6407 -3.3128 -1.7992 0.3441 0 1
3.6481 -3.3046 -1.7992 0.3441 0 1
3.6555 -3.2964 -1.7992 0.3442 0 1
3.6628 -3.2882 -1.7992 0.3442 0 1
3.6702 -3.2799 -1.7992 0.3442 0 1
3.6775 -3.2717 -1.7992 0.3442 0 1
3.6848 -3.2634 -1.7992 0.3442 0 1
3.6921 -3.2551 -1.7992 0.3442 0 1
3.6994 -3.2468 -1.7992 0.3442 0 1
3.7067 -3.2385 -1.7992 0.3442 0 1
3.7139 -3.2301 -1.7992 0.3442 0 1
3.7211 -3.2218 -1.7991 0.3442 0 1
3.7283 -3.2134 -1.7991 0.3442 0 1
3.7355 -3.2050 -1.7991 0.3442 0 1
3.7427 -3.1966 -1.7991 0.3442 0 1
3.7498 -3.1882 -1.7991 0.3442 0 1
3.7570 -3.1797 -1.7991 0.3442 0 1
3.7641 -3.1713 -1.7991 0.3442 0 1
3.7712 -3.1628 -1.7991 0.3442 0 1
3.7782 -3.1543 -1.7991 0.3442 0 1
3.7853 -3.1458 -1.7991 0.3442 0 1
3.7923 -3.1373 -1.7991 0.3442 0 1
3.7993 -3.1288 -1.7991 0.3442 0 1
3.8063 -3.1202 -1.7990 0.3442 0 1
3.8133 -3.1117 -1.7990 0.3442 0 1
3.8202 -3.1031 -1.7990 0.3442 0 1
3.8272 -3.0945 -1.7990 0.3442 0 1
3.8341 -3.0859 -1.7990 0.3442 0 1
3.8410 -3.0772 -1.7990 0.3442 0 1
3.8479 -3.0686 -1.7990 0.3442 0 1
3.8547 -3.0600 -1.7990 0.3442 0 1
3.8616 -3.0513 -1.7990 0.3442 0 1
3.8684 -3.0426 -1.7990 0.3442 0 1
3.8752 -3.0339 -1.7990 0.3442 0 1
3.8820 -3.0252 -1.7990 0.3442 0 1
3.8887 -3.0164 -1.7989 0.3442 0 1
3.8955 -3.0077 -1.7989 0.3442 0 1
3.9022 -2.9989 -1.7989 0.3442 0 1
3.9089 -2.9902 -1.7989 0.3442 0 1
3.9156 -2.9814 -1.7989 0.3442 0 1
3.9222 -2.9726 -1.7989 0.3442 0 1
3.9289 -2.9637 -1.7989 0.3442 0 1
3.9355 -2.9549 -1.7989 0.3442 0 1
3.9421 -2.9461 -1.7989 0.3442 0 1
3.9487 -2.9372 -1.7989 0.3442 0 1
3.9553 -2.9283 -1.7989 0.3442 0 1
3.9618 -2.9194 -1.7989 0.3442 0 1
3.9683 -2.9105 -1.7988 0.3442 0 1
3.9748 -2.9016 -1.7988 0.3442 0 1
3.9813 -2.8926 -1.7988 0.3442 0 1
3.9878 -2.8837 -1.7988 0.3442 0 1
3.9942 -2.8747 -1.7988 0.3442 0 1
4.0006 -2.8657 -1.7988 0.3442 0 1
4.0070 -2.8567 -1.7988 0.3442 0 1
4.0134 -2.8477 -1.7988 0.3442 0 1
4.0198 -2.8387 -1.7988 0.3442 0 1
4.0261 -2.8296 -1.7988 0.3442 0 1
4.0325 -2.8206 -1.7988 0.3442 0 1
4.0387 -2.8115 -1.7988 0.3442 0 1
4.0450 -2.8024 -1.7988 0.3442 0 1
4.0513 -2.7933 -1.7987 0.3442 0 1
4.0575 -2.7842 -1.7987 0.3442 0 1
4.0638 -2.7751 -1.7987 0.3442 0 1
4.0700 -2.7660 -1.7987 0.3442 0 1
4.0761 -2.7568 -1.7987 0.3442 0 1
4.0823 -2.7477 -1.7987 0.3443 0 1
4.0884 -2.7385 -1.7987 0.3443 0 1
4.0946 -2.7293 -1.7987 0.3443 0 1
4.1006 -2.7201 -1.7987 0.3443 0 1
4.1067 -2.7109 -1.7987 0.3443 0 1
4.1128 -2.7016 -1.7987 0.3443 0 1
4.1188 -2.6924 -1.7987 0.3443 0 1
4.1248 -2.6831 -1.7987 0.3443 0 1
4.1308 -2.6738 -1.7986 0.3443 0 1
4.1368 -2.6646 -1.7986 0.3443 0 1
4.1427 -2.6553 -1.7986 0.3443 0 1
4.1487 -2.6460 -1.7986 0.3443 0 1
4.1546 -2.6366 -1.7986 0.3443 0 1
4.1605 -2.6273 -1.7986 0.3443 0 1
4.1663 -2.6179 -1.7986 0.3443 0 1
4.1722 -2.6086 -1.7986 0.3443 0 1
4.1780 -2.5992 -1.7986 0.3443 0 1
4.1838 -2.5898 -1.7986 0.3443 0 1
4.1896 -2.5804 -1.7986 0.3443 0 1
4.1954 -2.5710 -1.7986 0.3443 0 1
4.2011 -2.5615 -1.7986 0.3443 0 1
4.2068 -2.5521 -1.7986 0.3443 0 1
4.2125 -2.5426 -1.7985 0.3443 0 1
4.2182 -2.5332 -1.7985 0.3443 0 1
4.2239 -2.5237 -1.7985 0.3443 0 1
4.2295 -2.5142 -1.7985 0.3443 0 1
4.2351 -2.5047 -1.7985 0.3443 0 1
4.2407 -2.4952 -1.7985 0.3443 0 1
4.2463 -2.4856 -1.7985 0.3443 0 1
4.2518 -2.4761 -1.7985 0.3443 0 1
4.2574 -2.4665 -1.7985 0.3443 0 1
4.2629 -2.4570 -1.7985 0.3443 0 1
4.2684 -2.4474 -1.7985 0.3443 0 1
1.1827 -0.6746 -0.4977 0.1864 458 14
1.1830 -0.6713 -0.4972 0.1866 458 14
1.1833 -0.6679 -0.4967 0.1868 458 14
1.1836 -0.6646 -0.4962 0.1870 458 14
1.1838 -0.6612 -0.4956 0.1872 458 14
1.1841 -0.6579 -0.4951 0.1874 458 14
1.1843 -0.6545 -0.4946 0.1876 458 14
1.1845 -0.6512 -0.4941 0.1878 458 14
1.1847 -0.6479 -0.4936 0.1879 458 14
1.1849 -0.6445 -0.4930 0.1881 458 14
1.1851 -0.6412 -0.4925 0.1883 458 14
1.1853 -0.6378 -0.4920 0.1885 458 14
1.1854 -0.6345 -0.4915 0.1887 458 14
1.1856 -0.6312 -0.4909 0.1890 458 14
1.1857 -0.6278 -0.4904 0.1892 458 14
1.1859 -0.6245 -0.4899 0.1894 458 14
1.1860 -0.6212 -0.4894 0.1896 458 14
1.1861 -0.6178 -0.4888 0.1898 458 14
1.1862 -0.6145 -0.4883 0.1900 458 14
1.1863 -0.6112 -0.4878 0.1902 458 14
1.1863 -0.6078 -0.4872 0.1904 458 14
1.1864 -0.6045 -0.4867 0.1906 458 14
1.1865 -0.6012 -0.4862 0.1908 458 14
1.1865 -0.5979 -0.4857 0.1910 458 14
1.1865 -0.5946 -0.4851 0.1912 458 14
1.1866 -0.5912 -0.4846 0.1914 458 14
1.1866 -0.5879 -0.4840 0.1916 458 14
1.1866 -0.5846 -0.4835 0.1919 458 14
1.1866 -0.5813 -0.4830 0.1921 458 14
1.1866 -0.5780 -0.4824 0.1923 458 14
1.1865 -0.5747 -0.4819 0.1925 458 14
1.1865 -0.5714 -0.4814 0.1927 458 14
1.1864 -0.5681 -0.4808 0.1929 458 14
1.1864 -0.5648 -0.4803 0.1931 458 14
1.1863 -0.5615 -0.4797 0.1934 458 14
1.1862 -0.5582 -0.4792 0.1936 458 14
1.1861 -0.5549 -0.4787 0.1938 458 14
1.1860 -0.5516 -0.4781 0.1940 458 14
1.1859 -0.5483 -0.4776 0.1942 458 14
1.1858 -0.5450 -0.4770 0.1945 458 14
1.1856 -0.5418 -0.4765 0.1947 458 14
1.1855 -0.5385 -0.4759 0.1949 458 14
1.1854 -0.5352 -0.4754 0.1951 458 14
1.1852 -0.5319 -0.4749 0.1954 458 14
1.1850 -0.5287 -0.4743 0.1956 458 14
1.1848 -0.5254 -0.4738 0.1958 458 14
1.1846 -0.5221 -0.4732 0.1960 458 14
1.1845 -0.5189 -0.4727 0.1963 458 14
1.1842 -0.5156 -0.4721 0.1965 458 14
1.1840 -0.5124 -0.4716 0.1967 458 14
1.1838 -0.5091 -0.4710 0.1969 458 14
1.1835 -0.5059 -0.4705 0.1972 458 14
1.1833 -0.5026 -0.4699 0.1974 458 14
1.1830 -0.4994 -0.4694 0.1976 458 14
1.1828 -0.4962 -0.4688 0.1979 458 14
1.1825 -0.4929 -0.4683 0.1981 458 14
1.1822 -0.4897 -0.4677 0.1983 458 14
1.1819 -0.4865 -0.4672 0.1986 458 14
1.1816 -0.4833 -0.4666 0.1988 458 14
1.1813 -0.4800 -0.4661 0.1990 458 14
1.1809 -0.4768 -0.4655 0.1993 458 14
1.1806 -0.4736 -0.4650 0.1995 458 14
1.1803 -0.4704 -0.4644 0.1997 458 14
1.1799 -0.4672 -0.4639 0.2000 458 14
1.1795 -0.4640 -0.4633 0.2002 458 14
1.1792 -0.4608 -0.4628 0.2005 458 14
1.1788 -0.4576 -0.4622 0.2007 458 14
1.1784 -0.4544 -0.4617 0.2009 458 14
1.1780 -0.4512 -0.4611 0.2012 458 14
1.1776 -0.4480 -0.4605 0.2014 458 14
1.1772 -0.4448 -0.4600 0.2017 458 14
1.1767 -0.4417 -0.4594 0.2019 458 14
1.1763 -0.4385 -0.4589 0.2022 458 14
1.1759 -0.4353 -0.4583 0.2024 458 14
1.1754 -0.4322 -0.4578 0.2026 458 14
1.1750 -0.4290 -0.4572 0.2029 458 14
1.1745 -0.4258 -0.4567 0.2031 458 14
1.1740 -0.4227 -0.4561 0.2034 458 14
1.1735 -0.4196 -0.4555 0.2036 458 14
1.1730 -0.4164 -0.4550 0.2039 458 14
1.1725 -0.4133 -0.4544 0.2041 458 14
1.1720 -0.4101 -0.4539 0.2044 458 14
1.1715 -0.4070 -0.4533 0.2046 458 14
1.1710 -0.4039 -0.4528 0.2049 458 14
1.1704 -0.4007 -0.4522 0.2051 458 14
1.1699 -0.3976 -0.4517 0.2054 458 14
1.1693 -0.3945 -0.4511 0.2056 458 14
1.1688 -0.3914 -0.4505 0.2059 458 14
1.1682 -0.3883 -0.4500 0.2062 458 14
1.1676 -0.3852 -0.4494 0.2064 458 14
1.1670 -0.3821 -0.4489 0.2067 458 14
1.1664 -0.3790 -0.4483 0.2069 458 14
1.1658 -0.3759 -0.4478 0.2072 458 14
1.1652 -0.3728 -0.4472 0.2074 458 14
1.1646 -0.3698 -0.4466 0.2077 458 14
1.1640 -0.3667 -0.4461 0.2080 458 14
1.1633 -0.3636 -0.4455 0.2082 458 14
1.1627 -0.3606 -0.4450 0.2085 458 14
1.1620 -0.3575 -0.4444 0.2087 458 14
1.1614 -0.3545 -0.4438 0.2090 458 14
1.1607 -0.3514 -0.4433 0.2093 458 14
1.1600 -0.3484 -0.4427 0.2095 458 14
1.1594 -0.3453 -0.4422 0.2098 458 14
1.1587 -0.3423 -0.4416 0.2101 458 14
1.1580 -0.3392 -0.4411 0.2103 458 14
1.1573 -0.3362 -0.4405 0.2106 458 14
1.1565 -0.3332 -0.4399 0.2109 458 14
1.1558 -0.3302 -0.4394 0.2111 458 14
1.1551 -0.3272 -0.4388 0.2114 458 14
1.1544 -0.3242 -0.4383 0.2117 458 14
1.1536 -0.3212 -0.4377 0.2119 458 14
1.1529 -0.3182 -0.4372 0.2122 458 14
1.1521 -0.3152 -0.4366 0.2061 458 14
1.1514 -0.3122 -0.4361 0.2064 458 14
1.1507 -0.3093 -0.4355 0.2066 458 14
1.1500 -0.3063 -0.4350 0.2069 458 14
1.1493 -0.3034 -0.4345 0.2071 458 14
1.1485 -0.3004 -0.4339 0.2074 458 14
1.1478 -0.2975 -0.4334 0.2076 458 14
1.1470 -0.2945 -0.4329 0.2079 458 14
1.1462 -0.2916 -0.4323 0.2081 458 14
1.1455 -0.2887 -0.4318 0.2084 458 14
1.1447 -0.2857 -0.4313 0.2087 458 14
1.1439 -0.2828 -0.4307 0.2089 458 14
1.1431 -0.2799 -0.4302 0.2092 458 14
1.1423 -0.2770 -0.4297 0.2094 458 14
1.1415 -0.2741 -0.4291 0.2097 458 14
1.1407 -0.2712 -0.4286 0.2100 458 14
1.1399 -0.2683 -0.4280 0.2102 458 14
1.1391 -0.2654 -0.4275 0.2105 458 14
1.1382 -0.2625 -0.4270 0.2108 458 14
1.1374 -0.2596 -0.4264 0.2110 458 14
1.1365 -0.2567 -0.4259 0.2113 458 14
1.1357 -0.2539 -0.4254 0.2116 458 14
1.1348 -0.2510 -0.4248 0.2118 458 14
1.1339 -0.2481 -0.4243 0.2121 458 14
1.1330 -0.2453 -0.4238 0.2124 458 14
1.1322 -0.2424 -0.4232 0.2126 458 14
1.1313 -0.2396 -0.4227 0.2129 458 14
1.1304 -0.2367 -0.4222 0.2132 458 14
1.1295 -0.2339 -0.4216 0.2134 458 14
1.1286 -0.2311 -0.4211 0.2137 458 14
1.1276 -0.2283 -0.4205 0.2140 458 14
1.1267 -0.2254 -0.4200 0.2143 458 14
1.1258 -0.2226 -0.4195 0.2145 458 14
1.1249 -0.2198 -0.4189 0.2148 458 14
1.1239 -0.2170 -0.4184 0.2151 458 14
1.1230 -0.2142 -0.4179 0.2153 458 14
1.1220 -0.2114 -0.4173 0.2156 458 14
1.1220 -0.2088 -0.4172 0.2395 458 14
1.1224 -0.2063 -0.4171 0.2396 458 14
1.1227 -0.2037 -0.4171 0.2396 458 14
1.1230 -0.2012 -0.4170 0.2396 458 14
