ply
format ascii 1.0
element vertex 594
property float32 x
property float32 y
property float32 z
property float32 CosAngle
property uint32 ObjIdx
property uint32 ObjTag
end_header
22.95585823059082 1.7548632621765137 -1.8071569204330444 0.07811601459980011 0 1
22.97068214416504 1.548730492591858 -1.8071589469909668 0.07811598479747772 0 1
22.983652114868164 1.3424804210662842 -1.8071606159210205 0.07811589539051056 0 1
22.99478530883789 1.1361522674560547 -1.8071619272232056 0.07811596244573593 0 1
23.00406265258789 0.9297265410423279 -1.8071632385253906 0.07811589539051056 0 1
23.011484146118164 0.7231640219688416 -1.8071640729904175 0.07811591774225235 0 1
23.01706886291504 0.5166015625 -1.8071649074554443 0.0781157910823822 0 1
23.020780563354492 0.30998045206069946 -1.8071651458740234 0.07811582088470459 0 1
23.02263641357422 0.10332030802965164 -1.807165503501892 0.07811577618122101 0 1
23.022655487060547 -0.10332030802965164 -1.8071653842926025 0.0781157910823822 0 1
23.020780563354492 -0.3099609315395355 -1.8071649074554443 0.07811582833528519 0 1
23.01704978942871 -0.5165820121765137 -1.8071643114089966 0.07811591774225235 0 1
23.011484146118164 -0.72314453125 -1.8071634769439697 0.07811588793992996 0 1
23.00408172607422 -0.9296679496765137 -1.8071624040603638 0.07811592519283295 0 1
22.99480438232422 -1.1361132860183716 -1.8071608543395996 0.07811590284109116 0 1
22.983671188354492 -1.3424608707427979 -1.807159423828125 0.07811589539051056 0 1
22.97068214416504 -1.5487109422683716 -1.8071575164794922 0.0781160220503807 0 1
22.955820083618164 -1.7548046112060547 -1.8071553707122803 0.07811611145734787 0 1
22.93910026550293 -1.9608007669448853 -1.8071529865264893 0.0781162828207016 0 1
22.920507431030273 -2.166620969772339 -1.8071502447128296 0.07811646908521652 0 1
21.959453582763672 -2.2748045921325684 -1.7329152822494507 0.11747165024280548 0 2
21.570507049560547 -2.430410146713257 -1.7038735151290894 0.07811664789915085 0 2
21.547792434692383 -2.6239256858825684 -1.7038702964782715 0.0781167671084404 0 2
21.52328109741211 -2.8172264099121094 -1.7038668394088745 0.07811696827411652 0 2
21.497089385986328 -3.0102930068969727 -1.7038631439208984 0.07811711728572845 0 2
20.727733612060547 -3.0924999713897705 -1.6450169086456299 0.9860642552375793 0 20
20.72769546508789 -3.282949209213257 -1.6472843885421753 0.9847060441970825 0 20
20.7276554107666 -3.473945140838623 -1.6496938467025757 0.9832685589790344 0 20
20.727596282958984 -3.6655077934265137 -1.652242660522461 0.9817518591880798 0 20
21.340078353881836 -3.9716796875 -1.7038410902023315 0.07811819016933441 0 2
21.30355453491211 -4.163027286529541 -1.7038358449935913 0.07811840623617172 0 2
21.26527214050293 -4.354062557220459 -1.7038304805755615 0.07811854779720306 0 2
21.22523307800293 -4.544765472412109 -1.7038248777389526 0.07811886072158813 0 2
21.18355369567871 -4.735058307647705 -1.7038190364837646 0.07811912894248962 0 2
21.140077590942383 -4.925019264221191 -1.7038129568099976 0.07811944931745529 0 2
21.094961166381836 -5.11453104019165 -1.7038065195083618 0.0781196877360344 0 2
21.048105239868164 -5.303652286529541 -1.7037999629974365 0.07812006771564484 0 2
20.999608993530273 -5.492362976074219 -1.7037932872772217 0.07812031358480453 0 2
20.94935417175293 -5.680605411529541 -1.7037862539291382 0.0781206488609314 0 2
20.8974609375 -5.868378639221191 -1.7037789821624756 0.07812090218067169 0 2
20.843828201293945 -6.0556640625 -1.7037714719772339 0.0781213566660881 0 2
20.78853416442871 -6.242480278015137 -1.703763723373413 0.07812173664569855 0 2
21.317752838134766 -6.610585689544678 -1.7519265413284302 0.07812193781137466 0 2
21.2574405670166 -6.801601409912109 -1.7519181966781616 0.07812239229679108 0 2
21.195390701293945 -6.992109298706055 -1.7519094944000244 0.07812292873859406 0 2
21.131698608398438 -7.182050704956055 -1.751900553703308 0.07812309265136719 0 2
20.609804153442383 -7.211679458618164 -1.7139333486557007 0.7435149550437927 0 6
20.9991397857666 -7.560136318206787 -1.7518820762634277 0.07812410593032837 0 2
20.930370330810547 -7.748281002044678 -1.7518725395202637 0.07812429964542389 0 2
20.859844207763672 -7.935800552368164 -1.751862645149231 0.07812481373548508 0 2
20.787616729736328 -8.122636795043945 -1.7518525123596191 0.07812541723251343 0 2
10.701601028442383 -4.292695045471191 -0.9050759077072144 0.9253625273704529 0 20
10.767850875854492 -4.431894302368164 -0.9140056371688843 0.3792361915111542 0 20
10.748496055603027 -4.537168025970459 -0.9157829880714417 0.9185547828674316 0 20
10.748456954956055 -4.651249885559082 -0.91930091381073 0.9150396585464478 0 20
10.74843692779541 -4.766249656677246 -0.9229207634925842 0.9114508032798767 0 20
10.748417854309082 -4.882148265838623 -0.9266429543495178 0.9077886343002319 0 20
10.74837875366211 -4.999003887176514 -0.9304735064506531 0.9040530323982239 0 20
10.748339653015137 -5.116816520690918 -0.9344069957733154 0.9002450704574585 0 20
10.748319625854492 -5.235663890838623 -0.938453733921051 0.8963640332221985 0 20
10.748281478881836 -5.355546951293945 -0.9426087141036987 0.8924111723899841 0 20
10.696308135986328 -5.450038909912109 -0.9423010945320129 0.888386070728302 0 20
10.701289176940918 -5.574140548706055 -0.9471127390861511 0.884289562702179 0 20
19.698925018310547 -10.48666000366211 -1.7517009973526 0.07813204824924469 0 2
19.603788375854492 -10.662968635559082 -1.75168776512146 0.07813280075788498 0 2
19.507186889648438 -10.838457107543945 -1.7516742944717407 0.0781332328915596 0 2
12.617226600646973 -7.159276962280273 -1.1387066841125488 0.9893876910209656 0 6
9.607675552368164 -5.56619119644165 -0.8715683817863464 0.8627453446388245 0 20
9.475625038146973 -5.603847503662109 -0.8641164898872375 0.5072888731956482 0 20
9.284316062927246 -5.603808403015137 -0.8512246608734131 0.5149716138839722 0 20
9.0986328125 -5.603749752044678 -0.838780403137207 0.5226137042045593 0 20
7.498046875 -4.711328029632568 -0.6950945854187012 0.8442565202713013 0 20
7.395234107971191 -4.739824295043945 -0.689480721950531 0.8394633531570435 0 20
7.435078144073486 -4.860077857971191 -0.6972368955612183 0.5452816486358643 0 20
7.439687252044678 -4.958964824676514 -0.7018114924430847 0.8296743035316467 0 20
7.439667701721191 -5.055976390838623 -0.7060620188713074 0.8246797323226929 0 20
7.439648151397705 -5.154179573059082 -0.7104218602180481 0.8196185827255249 0 20
7.439609050750732 -5.253612995147705 -0.714895486831665 0.8144910335540771 0 20
7.439609050750732 -5.354316234588623 -0.7194814085960388 0.8092983961105347 0 20
7.438241958618164 -5.45535135269165 -0.7240685224533081 0.9898503422737122 0 20
7.468105316162109 -5.5810546875 -0.7318105697631836 0.5966101288795471 0 20
7.395039081573486 -5.630566120147705 -0.7295758128166199 0.7933302521705627 0 20
17.630468368530273 -13.675546646118164 -1.7514135837554932 0.07814488559961319 0 2
17.506816864013672 -13.833105087280273 -1.7513962984085083 0.07814572006464005 0 2
17.381757736206055 -13.989511489868164 -1.7513788938522339 0.0781465545296669 0 2
16.044179916381836 -13.152030944824219 -1.628434419631958 0.8162003755569458 0 6
17.127479553222656 -14.299042701721191 -1.7513436079025269 0.0781480073928833 0 2
16.998260498046875 -14.452031135559082 -1.7513256072998047 0.07814891636371613 0 2
16.867694854736328 -14.603886604309082 -1.7513076066970825 0.07814963907003403 0 2
16.735742568969727 -14.754549980163574 -1.7512893676757812 0.07815052568912506 0 2
16.602479934692383 -14.903984069824219 -1.7512707710266113 0.07815127819776535 0 2
16.4678897857666 -15.052265167236328 -1.7512520551681519 0.0781521275639534 0 2
16.33187484741211 -15.199296951293945 -1.7512332201004028 0.07815312594175339 0 2
16.19464874267578 -15.345136642456055 -1.7512141466140747 0.0781538188457489 0 2
16.056093215942383 -15.489706993103027 -1.7511948347091675 0.07815463840961456 0 2
15.916210174560547 -15.633027076721191 -1.7511755228042603 0.07815559208393097 0 2
9.40908145904541 9.40908145904541 -1.154950499534607 0.703636646270752 0 4
9.57974624633789 9.409276962280273 -1.1654837131500244 0.697277307510376 0 4
9.753554344177246 9.409472465515137 -1.176304578781128 0.6908622980117798 0 4
9.930604934692383 9.40966796875 -1.1874276399612427 0.6843919157981873 0 4
10.111074447631836 9.409882545471191 -1.198858380317688 0.6778663396835327 0 4
10.295058250427246 9.410097122192383 -1.2106082439422607 0.6712862849235535 0 4
10.482733726501465 9.41031265258789 -1.2226941585540771 0.6646517515182495 0 4
10.67416000366211 9.41054630279541 -1.2351199388504028 0.6579641103744507 0 4
10.869589805603027 9.410780906677246 -1.24790358543396 0.6512227654457092 0 4
11.069082260131836 9.410995483398438 -1.2610633373260498 0.6444290280342102 0 4
11.27285099029541 9.411230087280273 -1.2746001482009888 0.63758385181427 0 4
11.483925819396973 9.413827896118164 -1.2888630628585815 0.6294203400611877 0 4
11.697245597839355 9.414433479309082 -1.3032680749893188 0.6224632263183594 0 4
11.915390014648438 9.4150390625 -1.3181021213531494 0.6154569387435913 0 4
12.138593673706055 9.415663719177246 -1.3333922624588013 0.6084007024765015 0 4
12.367011070251465 9.416269302368164 -1.3491467237472534 0.6012959480285645 0 4
12.60097599029541 9.416933059692383 -1.3653937578201294 0.5941420197486877 0 4
12.840643882751465 9.417597770690918 -1.3821427822113037 0.5869402289390564 0 4
13.08626937866211 9.418280601501465 -1.3994277715682983 0.5796915292739868 0 4
13.338144302368164 9.4190034866333 -1.4172627925872803 0.5723960399627686 0 4
13.59652328491211 9.419687271118164 -1.4356783628463745 0.5650544762611389 0 4
13.860057830810547 9.419296264648438 -1.454520583152771 0.5576971173286438 0 4
14.132363319396973 9.420058250427246 -1.4741641283035278 0.5502650141716003 0 4
14.4121675491333 9.420839309692383 -1.4944710731506348 0.5427884459495544 0 4
14.699824333190918 9.421621322631836 -1.5154675245285034 0.5352678894996643 0 4
14.995702743530273 9.422460556030273 -1.5371888875961304 0.5277047753334045 0 4
15.30019474029541 9.423300743103027 -1.5596710443496704 0.5200983881950378 0 4
15.61376953125 9.424179077148438 -1.5829461812973022 0.5124503374099731 0 4
15.936874389648438 9.425039291381836 -1.607059121131897 0.5047608613967896 0 4
16.267578125 9.424589157104492 -1.6318094730377197 0.49759307503700256 0 4
16.610820770263672 9.425312042236328 -1.6576855182647705 0.48982563614845276 0 4
16.96513557434082 9.426074028015137 -1.6845332384109497 0.4820190668106079 0 4
17.23714828491211 9.375702857971191 -1.7031186819076538 0.08634993433952332 0 2
17.320703506469727 9.220664024353027 -1.7031301259994507 0.08634945005178452 0 2
17.402929306030273 9.064902305603027 -1.703141450881958 0.08634883165359497 0 2
17.48369026184082 8.908398628234863 -1.7031525373458862 0.08634831011295319 0 2
17.563066482543945 8.751172065734863 -1.7031636238098145 0.08634770661592484 0 2
17.641016006469727 8.593202590942383 -1.7031742334365845 0.08634717762470245 0 2
17.717557907104492 8.4345703125 -1.703184723854065 0.0863465741276741 0 2
17.79265594482422 8.275253295898438 -1.7031949758529663 0.08634605258703232 0 2
17.866308212280273 8.115253448486328 -1.7032052278518677 0.08634550869464874 0 2
17.938535690307617 7.954628944396973 -1.7032151222229004 0.08634515851736069 0 2
18.009315490722656 7.793359279632568 -1.703224778175354 0.0863446444272995 0 2
18.078651428222656 7.631406307220459 -1.703234314918518 0.08634411543607712 0 2
18.146503448486328 7.46886682510376 -1.7032437324523926 0.08634361624717712 0 2
18.212928771972656 7.305741786956787 -1.7032526731491089 0.08634313195943832 0 2
18.277812957763672 7.141972541809082 -1.7032617330551147 0.08634284138679504 0 2
18.341327667236328 6.977714538574219 -1.703270435333252 0.08634231984615326 0 2
18.4033203125 6.812812328338623 -1.7032787799835205 0.08634184300899506 0 2
18.46382713317871 6.647402286529541 -1.703287124633789 0.08634136617183685 0 2
18.522811889648438 6.4814453125 -1.7032952308654785 0.08634106069803238 0 2
18.580350875854492 6.31494140625 -1.7033029794692993 0.08634054660797119 0 2
18.63636589050293 6.14794921875 -1.7033108472824097 0.08634017407894135 0 2
18.719491958618164 5.989609241485596 -1.7059299945831299 0.3157969117164612 0 2
18.743846893310547 5.812441349029541 -1.7033255100250244 0.08633948862552643 0 2
19.244842529296875 5.778964519500732 -1.744067907333374 0.299191415309906 0 2
19.88261604309082 5.776445388793945 -1.7970913648605347 0.2781609892845154 0 2
20.04084014892578 5.627851486206055 -1.8067556619644165 0.08633852005004883 0 1
20.090604782104492 5.447773456573486 -1.8067623376846313 0.0863380953669548 0 1
20.13880729675293 5.267226219177246 -1.8067690134048462 0.08633770793676376 0 1
20.185312271118164 5.086269378662109 -1.8067753314971924 0.0863376259803772 0 1
20.230215072631836 4.904902458190918 -1.8067814111709595 0.08633719384670258 0 1
20.273494720458984 4.72314453125 -1.806787371635437 0.08633698523044586 0 1
20.315135955810547 4.540976524353027 -1.806792974472046 0.086336649954319 0 1
20.35515594482422 4.358476638793945 -1.8067984580993652 0.0863364040851593 0 1
20.39351463317871 4.175605297088623 -1.8068037033081055 0.0863361656665802 0 1
20.430213928222656 3.992382764816284 -1.8068087100982666 0.0863359197974205 0 1
20.465272903442383 3.8088865280151367 -1.8068134784698486 0.08633573353290558 0 1
20.498729705810547 3.62505841255188 -1.8068180084228516 0.08633542060852051 0 1
20.530467987060547 3.44091796875 -1.8068222999572754 0.08633524179458618 0 1
20.560565948486328 3.2565038204193115 -1.8068264722824097 0.08633508533239365 0 1
20.58902359008789 3.0718164443969727 -1.8068302869796753 0.08633486926555634 0 1
20.615800857543945 2.886894464492798 -1.8068338632583618 0.086334727704525 0 1
20.64091682434082 2.701738119125366 -1.8068373203277588 0.08633458614349365 0 1
20.66435432434082 2.516367197036743 -1.806840419769287 0.08633452653884888 0 1
20.68621063232422 2.3307812213897705 -1.8068434000015259 0.08633411675691605 0 1
20.706268310546875 2.1449999809265137 -1.806846022605896 0.08633416146039963 0 1
20.7247257232666 1.959082007408142 -1.8068485260009766 0.08633401989936829 0 1
20.74152374267578 1.772988200187683 -1.8068506717681885 0.08633391559123993 0 1
20.756582260131836 1.5867382287979126 -1.8068526983261108 0.08633392304182053 0 1
20.770057678222656 1.4003710746765137 -1.806854486465454 0.08633363991975784 0 1
20.781795501708984 1.213906168937683 -1.8068560361862183 0.08633362501859665 0 1
20.791854858398438 1.0273046493530273 -1.8068574666976929 0.08633363991975784 0 1
20.800273895263672 0.8406445384025574 -1.8068585395812988 0.08633359521627426 0 1
20.80697250366211 0.6539062261581421 -1.8068592548370361 0.08633355796337128 0 1
20.811992645263672 0.4671289026737213 -1.8068598508834839 0.08633354306221008 0 1
20.815351486206055 0.28029295802116394 -1.806860327720642 0.08633352071046829 0 1
20.81702995300293 0.09343750029802322 -1.8068604469299316 0.08633352071046829 0 1
20.81702995300293 -0.09339843690395355 -1.806860327720642 0.08633354306221008 0 1
20.815332412719727 -0.2802734375 -1.8068599700927734 0.08633355796337128 0 1
20.81201171875 -0.4670703113079071 -1.8068593740463257 0.0863335132598877 0 1
20.80695343017578 -0.6538671851158142 -1.8068586587905884 0.08633355796337128 0 1
20.80025291442871 -0.8405859470367432 -1.8068575859069824 0.08633361756801605 0 1
20.791854858398438 -1.0272655487060547 -1.806856393814087 0.08633361011743546 0 1
20.781776428222656 -1.2138476371765137 -1.8068549633026123 0.08633362501859665 0 1
20.770000457763672 -1.400331974029541 -1.8068532943725586 0.08633381873369217 0 1
20.756582260131836 -1.58669912815094 -1.8068512678146362 0.08633387833833694 0 1
20.741464614868164 -1.77294921875 -1.8068490028381348 0.08633405715227127 0 1
20.724706649780273 -1.9590429067611694 -1.8068467378616333 0.08633410930633545 0 1
20.706289291381836 -2.1449804306030273 -1.8068441152572632 0.08633410930633545 0 1
20.142791748046875 -2.2695508003234863 -1.7593836784362793 0.11132311075925827 0 2
19.483476638793945 -2.3725390434265137 -1.7035850286483765 0.08633448928594589 0 2
19.461366653442383 -2.547304630279541 -1.7035819292068481 0.08633462339639664 0 2
19.43765640258789 -2.721874952316284 -1.7035785913467407 0.08633489906787872 0 2
19.41240119934082 -2.896250009536743 -1.7035748958587646 0.08633506298065186 0 2
19.38558578491211 -3.0703516006469727 -1.703571081161499 0.08633523434400558 0 2
19.357206344604492 -3.2442381381988525 -1.7035671472549438 0.08633532375097275 0 2
19.327245712280273 -3.4178318977355957 -1.70356285572052 0.0863356813788414 0 2
19.29574203491211 -3.591191291809082 -1.7035585641860962 0.08633580803871155 0 2
19.262714385986328 -3.76421856880188 -1.7035539150238037 0.08633605390787125 0 2
19.228065490722656 -3.9369335174560547 -1.7035490274429321 0.08633635193109512 0 2
19.19189453125 -4.109355449676514 -1.703544020652771 0.08633662015199661 0 2
19.154199600219727 -4.281464576721191 -1.7035386562347412 0.08633686602115631 0 2
19.11492156982422 -4.453203201293945 -1.7035331726074219 0.0863371267914772 0 2
19.074100494384766 -4.624570369720459 -1.7035274505615234 0.08633746951818466 0 2
19.031776428222656 -4.795585632324219 -1.7035213708877563 0.08633767813444138 0 2
18.987890243530273 -4.966191291809082 -1.7035152912139893 0.08633802831172943 0 2
18.942461013793945 -5.136425495147705 -1.703508973121643 0.08633831888437271 0 2
18.895488739013672 -5.306210994720459 -1.7035024166107178 0.08633880317211151 0 2
18.847049713134766 -5.4755859375 -1.7034956216812134 0.08633902668952942 0 2
18.797088623046875 -5.644511699676514 -1.7034885883331299 0.08633936196565628 0 2
18.745586395263672 -5.812968730926514 -1.7034814357757568 0.08633971959352493 0 2
18.692596435546875 -5.98095703125 -1.7034740447998047 0.08634007722139359 0 2
18.638046264648438 -6.148476600646973 -1.7034664154052734 0.08634059131145477 0 2
19.107402801513672 -6.494042873382568 -1.7516210079193115 0.0863410085439682 0 2
19.048261642456055 -6.665234088897705 -1.7516127824783325 0.08634135872125626 0 2
18.98759651184082 -6.835917949676514 -1.7516043186187744 0.08634170144796371 0 2
18.925371170043945 -7.006034851074219 -1.7515956163406372 0.08634216338396072 0 2
18.86164093017578 -7.175605297088623 -1.751586675643921 0.08634254336357117 0 2
18.796367645263672 -7.344570159912109 -1.751577615737915 0.08634302020072937 0 2
10.70156192779541 -4.292714595794678 -1.0008002519607544 0.9247333407402039 0 20
10.74007797241211 -4.420468807220459 -1.0080698728561401 0.9213685989379883 0 20
10.748456954956055 -4.537148475646973 -1.0126398801803589 0.9179302453994751 0 20
10.74843692779541 -4.651249885559082 -1.0165290832519531 0.914417564868927 0 20
10.748417854309082 -4.766230583190918 -1.020531415939331 0.9108312129974365 0 20
10.748397827148438 -4.882128715515137 -1.0246493816375732 0.9071713089942932 0 20
10.748358726501465 -4.998984336853027 -1.0288825035095215 0.9034385085105896 0 20
10.748339653015137 -5.116796970367432 -1.033234715461731 0.89963299036026 0 20
10.748319625854492 -5.235644340515137 -1.0377085208892822 0.8957546949386597 0 20
10.748281478881836 -5.355527400970459 -1.0423051118850708 0.891804575920105 0 20
10.6962890625 -5.450019359588623 -1.041966199874878 0.8877821564674377 0 20
10.701269149780273 -5.574120998382568 -1.0472859144210815 0.8836881518363953 0 20
17.812030792236328 -9.482187271118164 -1.7514405250549316 0.08634993433952332 0 2
17.726112365722656 -9.641640663146973 -1.751428484916687 0.08635037392377853 0 2
17.638710021972656 -9.80029296875 -1.7514164447784424 0.08635104447603226 0 2
12.611503601074219 -7.155995845794678 -1.2585731744766235 0.988714873790741 0 6
9.607675552368164 -5.56619119644165 -0.963750958442688 0.8621588349342346 0 20
9.475625038146973 -5.603867053985596 -0.9555113911628723 0.5069430470466614 0 20
9.284316062927246 -5.603827953338623 -0.9412564635276794 0.5146213173866272 0 20
9.098651885986328 -5.603769302368164 -0.9274951219558716 0.522257387638092 0 20
7.498007774353027 -4.711308479309082 -0.7686100006103516 0.8436825275421143 0 20
7.395214557647705 -4.739843845367432 -0.7624037265777588 0.8388923406600952 0 20
7.435078144073486 -4.860097408294678 -0.770976185798645 0.5449107885360718 0 20
7.439667701721191 -4.958964824676514 -0.7760381102561951 0.8291103839874268 0 20
7.439648151397705 -5.055995941162109 -0.7807378172874451 0.8241188526153564 0 20
7.439609050750732 -5.154179573059082 -0.7855596542358398 0.819061279296875 0 20
7.439589500427246 -5.253612995147705 -0.7905049920082092 0.8139374852180481 0 20
7.43956995010376 -5.354316234588623 -0.7955772876739502 0.8087480664253235 0 20
7.438222408294678 -5.455370903015137 -0.8006103038787842 0.9891771674156189 0 20
7.468105316162109 -5.581035137176514 -0.8092131018638611 0.5962032675743103 0 20
7.39501953125 -5.630566120147705 -0.806738018989563 0.7927907109260559 0 20
7.259355068206787 -5.630918025970459 -0.7974196672439575 0.5393614768981934 0 20
7.14611291885376 -5.646543025970459 -0.7905148267745972 0.8897568583488464 0 20
7.079042911529541 -5.697519302368164 -0.788722574710846 0.9937354922294617 0 20
7.038652420043945 -5.769863128662109 -0.7899614572525024 0.8225669860839844 0 20
7.040859222412109 -5.878105163574219 -0.7960963249206543 0.4237040579319 0 20
15.370409965515137 -13.068046569824219 -1.7511011362075806 0.08636652678251266 0 2
15.252363204956055 -13.205350875854492 -1.751084804534912 0.08636739104986191 0 2
15.133085250854492 -13.341620445251465 -1.7510682344436646 0.08636811375617981 0 2
15.012557983398438 -13.476757049560547 -1.7510515451431274 0.08636904507875443 0 2
14.89085865020752 -13.61083984375 -1.7510346174240112 0.08636986464262009 0 2
14.767929077148438 -13.743846893310547 -1.7510175704956055 0.08637069165706635 0 2
14.643847465515137 -13.875682830810547 -1.7510002851486206 0.08637154847383499 0 2
14.518573760986328 -14.006425857543945 -1.7509828805923462 0.08637240529060364 0 2
14.392128944396973 -14.136034965515137 -1.7509653568267822 0.0863732174038887 0 2
9.409101486206055 9.409101486206055 -1.2655818462371826 0.7031075954437256 0 4
9.579765319824219 9.409296989440918 -1.2771230936050415 0.6967530846595764 0 4
9.75357437133789 9.40951156616211 -1.288981318473816 0.6903436183929443 0 4
9.930644035339355 9.409707069396973 -1.3011682033538818 0.6838774085044861 0 4
10.111093521118164 9.409902572631836 -1.3136941194534302 0.6773573756217957 0 4
10.295097351074219 9.410117149353027 -1.3265702724456787 0.6707817316055298 0 4
10.482733726501465 9.410331726074219 -1.3398100137710571 0.6641528606414795 0 4
10.674199104309082 9.41054630279541 -1.353430151939392 0.6574694514274597 0 4
10.869569778442383 9.410780906677246 -1.367440104484558 0.6507338881492615 0 4
11.069101333618164 9.410995483398438 -1.3818566799163818 0.6439446806907654 0 4
11.272890090942383 9.411250114440918 -1.396693229675293 0.6371046304702759 0 4
11.484004020690918 9.41390609741211 -1.412329077720642 0.6289432644844055 0 4
11.697304725646973 9.414491653442383 -1.4281121492385864 0.6219920516014099 0 4
11.915488243103027 9.415117263793945 -1.4443715810775757 0.6149904727935791 0 4
12.138690948486328 9.415722846984863 -1.461124062538147 0.6079394817352295 0 4
12.367128372192383 9.41634750366211 -1.4783902168273926 0.6008396148681641 0 4
12.601093292236328 9.417031288146973 -1.4961891174316406 0.5936912894248962 0 4
12.840761184692383 9.417695045471191 -1.514546513557434 0.5864949226379395 0 4
13.086366653442383 9.41835880279541 -1.5334867238998413 0.5792518854141235 0 4
13.338241577148438 9.419042587280273 -1.55303156375885 0.5719619989395142 0 4
13.596640586853027 9.41976547241211 -1.5732097625732422 0.5646259188652039 0 4
13.860038757324219 9.419296264648438 -1.5938401222229004 0.5572797656059265 0 4
14.132363319396973 9.420039176940918 -1.6153686046600342 0.5498531460762024 0 4
14.412187576293945 9.420839309692383 -1.637619137763977 0.5423817038536072 0 4
14.699824333190918 9.421640396118164 -1.6606279611587524 0.5348673462867737 0 4
14.995702743530273 9.422460556030273 -1.684428334236145 0.5273092985153198 0 4
15.24453067779541 9.388983726501465 -1.702843189239502 0.09456556290388107 0 2
15.328300476074219 9.25185489654541 -1.7028547525405884 0.09456485509872437 0 2
15.410839080810547 9.113965034484863 -1.7028660774230957 0.09456423670053482 0 2
15.492128372192383 8.975312232971191 -1.702877163887024 0.0945635735988617 0 2
15.57216739654541 8.835956573486328 -1.7028882503509521 0.09456302225589752 0 2
15.6509370803833 8.695878982543945 -1.7028990983963013 0.09456243366003036 0 2
15.728476524353027 8.555097579956055 -1.7029098272323608 0.09456181526184082 0 2
15.804726600646973 8.4136323928833 -1.7029201984405518 0.09456121921539307 0 2
15.87972640991211 8.271484375 -1.7029305696487427 0.09456059336662292 0 2
15.953417778015137 8.128652572631836 -1.702940583229065 0.09456004947423935 0 2
16.025800704956055 7.985195159912109 -1.7029505968093872 0.09455959498882294 0 2
16.096933364868164 7.841054439544678 -1.7029603719711304 0.09455907344818115 0 2
16.166776657104492 7.696308612823486 -1.7029699087142944 0.09455838799476624 0 2
16.235292434692383 7.550937175750732 -1.7029794454574585 0.09455784410238266 0 2
16.302499771118164 7.404960632324219 -1.7029885053634644 0.09455731511116028 0 2
16.368417739868164 7.258359432220459 -1.7029976844787598 0.0945567861199379 0 2
16.43294906616211 7.111171722412109 -1.7030065059661865 0.09455649554729462 0 2
16.49622917175293 6.963437557220459 -1.7030150890350342 0.09455592185258865 0 2
16.558124542236328 6.815116882324219 -1.7030236721038818 0.0945555567741394 0 2
16.618730545043945 6.666269302368164 -1.7030320167541504 0.09455495327711105 0 2
16.677988052368164 6.51687479019165 -1.7030401229858398 0.09455450624227524 0 2
16.73583984375 6.366913795471191 -1.7030481100082397 0.09455420821905136 0 2
16.792421340942383 6.216484069824219 -1.7030558586120605 0.09455366432666779 0 2
16.847637176513672 6.065527439117432 -1.7030633687973022 0.09455312043428421 0 2
16.901426315307617 5.914082050323486 -1.7030707597732544 0.09455294162034988 0 2
17.02974510192871 5.787929534912109 -1.7106969356536865 0.3339977264404297 0 2
17.51187515258789 5.776991844177246 -1.7538459300994873 0.31208696961402893 0 2
18.054628372192383 5.77685546875 -1.8029372692108154 0.3035893142223358 0 2
18.141464233398438 5.625644207000732 -1.8064929246902466 0.09455132484436035 0 1
18.191287994384766 5.462616920471191 -1.806499719619751 0.09455100446939468 0 1
18.239648818969727 5.299120903015137 -1.8065062761306763 0.09455066174268723 0 1
18.286561965942383 5.135234355926514 -1.8065128326416016 0.094550222158432 0 1
18.331972122192383 4.970898151397705 -1.8065190315246582 0.09454993903636932 0 1
18.37593650817871 4.80615234375 -1.8065248727798462 0.09454958140850067 0 1
18.418359756469727 4.641035079956055 -1.8065307140350342 0.09454935044050217 0 1
18.459335327148438 4.475566387176514 -1.806536316871643 0.0945490226149559 0 1
18.49882698059082 4.309687614440918 -1.8065416812896729 0.0945487916469574 0 1
18.536815643310547 4.143476486206055 -1.806546926498413 0.09454843401908875 0 1
18.573301315307617 3.9769530296325684 -1.8065519332885742 0.09454832226037979 0 1
18.608301162719727 3.8100974559783936 -1.8065567016601562 0.09454794973134995 0 1
18.641796112060547 3.6429295539855957 -1.8065612316131592 0.09454769641160965 0 1
18.67378807067871 3.4754490852355957 -1.806565523147583 0.09454745799303055 0 1
18.704315185546875 3.307734251022339 -1.8065698146820068 0.09454722702503204 0 1
18.733261108398438 3.1396875381469727 -1.8065736293792725 0.0945470780134201 0 1
18.760761260986328 2.971445322036743 -1.806577444076538 0.09454680979251862 0 1
18.786699295043945 2.802910089492798 -1.806580901145935 0.09454658627510071 0 1
18.811113357543945 2.6341795921325684 -1.806584119796753 0.09454651176929474 0 1
18.834022521972656 2.4652342796325684 -1.8065873384475708 0.09454638510942459 0 1
18.855390548706055 2.296074151992798 -1.80659019947052 0.09454629570245743 0 1
18.87533187866211 2.126757860183716 -1.8065928220748901 0.09454602003097534 0 1
18.893632888793945 1.9572460651397705 -1.8065953254699707 0.09454596787691116 0 1
18.91046905517578 1.78759765625 -1.8065975904464722 0.09454591572284698 0 1
18.925762176513672 1.617773413658142 -1.806599497795105 0.09454575926065445 0 1
18.9395694732666 1.4478319883346558 -1.8066014051437378 0.09454570710659027 0 1
18.95181655883789 1.277773380279541 -1.8066030740737915 0.0945456326007843 0 1
18.96255874633789 1.1076171398162842 -1.8066043853759766 0.09454543888568878 0 1
18.971717834472656 0.9373828172683716 -1.8066056966781616 0.09454543143510818 0 1
18.979413986206055 0.7670312523841858 -1.8066065311431885 0.09454529732465744 0 1
18.98552703857422 0.5966601371765137 -1.8066073656082153 0.09454532712697983 0 1
18.990097045898438 0.4262109398841858 -1.806607961654663 0.09454532712697983 0 1
18.993202209472656 0.2557617127895355 -1.8066082000732422 0.09454520046710968 0 1
18.994726181030273 0.08525390177965164 -1.8066084384918213 0.09454523026943207 0 1
18.994707107543945 -0.08521483838558197 -1.8066084384918213 0.09454531222581863 0 1
18.993144989013672 -0.25572264194488525 -1.8066080808639526 0.094545379281044 0 1
18.990116119384766 -0.42619138956069946 -1.8066074848175049 0.09454530477523804 0 1
18.98552703857422 -0.5966210961341858 -1.8066068887710571 0.09454529732465744 0 1
18.979394912719727 -0.7670117020606995 -1.8066059350967407 0.09454545378684998 0 1
18.971717834472656 -0.9373242259025574 -1.8066047430038452 0.09454549103975296 0 1
18.96253776550293 -1.1075975894927979 -1.8066033124923706 0.09454549103975296 0 1
18.95181655883789 -1.2777538299560547 -1.806601881980896 0.09454558044672012 0 1
18.939531326293945 -1.4478124380111694 -1.8065999746322632 0.09454582631587982 0 1
18.92574119567871 -1.6177538633346558 -1.80659818649292 0.09454597532749176 0 1
18.91048812866211 -1.787539005279541 -1.8065959215164185 0.09454593807458878 0 1
18.893651962280273 -1.9572069644927979 -1.806593418121338 0.09454607218503952 0 1
18.875253677368164 -2.126718759536743 -1.8065907955169678 0.09454631060361862 0 1
18.634843826293945 -2.2691991329193115 -1.7854578495025635 0.12011455744504929 0 2
17.757753372192383 -2.324335813522339 -1.7033463716506958 0.0945463553071022 0 2
17.736112594604492 -2.483632802963257 -1.7033432722091675 0.09454667568206787 0 2
17.71306610107422 -2.642714738845825 -1.7033400535583496 0.09454686939716339 0 2
17.6885929107666 -2.8016014099121094 -1.7033365964889526 0.09454695135354996 0 2
17.662694931030273 -2.9602344036102295 -1.7033329010009766 0.09454724937677383 0 2
17.6353702545166 -3.11865234375 -1.703329086303711 0.09454754739999771 0 2
17.606639862060547 -3.276796817779541 -1.7033251523971558 0.09454768151044846 0 2
17.57646369934082 -3.4347264766693115 -1.703320860862732 0.09454785287380219 0 2
17.54488182067871 -3.5923047065734863 -1.7033164501190186 0.09454818069934845 0 2
17.511913299560547 -3.749648332595825 -1.7033116817474365 0.09454824775457382 0 2
17.477441787719727 -3.906679630279541 -1.703307032585144 0.09454882144927979 0 2
17.441659927368164 -4.063398361206055 -1.7033019065856934 0.09454887360334396 0 2
17.4044132232666 -4.219746112823486 -1.7032967805862427 0.09454935044050217 0 2
17.365781784057617 -4.375800609588623 -1.7032912969589233 0.0945495143532753 0 2
17.325742721557617 -4.531484127044678 -1.7032856941223145 0.09454983472824097 0 2
17.28431510925293 -4.686777114868164 -1.7032798528671265 0.09455020725727081 0 2
17.241464614868164 -4.841738224029541 -1.703273892402649 0.09455056488513947 0 2
17.197303771972656 -4.996288776397705 -1.7032678127288818 0.09455078095197678 0 2
17.15167999267578 -5.150390625 -1.703261375427246 0.09455125033855438 0 2
17.104705810546875 -5.304121017456055 -1.7032548189163208 0.09455162286758423 0 2
17.056346893310547 -5.457421779632568 -1.7032479047775269 0.0945519432425499 0 2
17.006582260131836 -5.610273361206055 -1.7032411098480225 0.09455233067274094 0 2
16.955507278442383 -5.762656211853027 -1.7032339572906494 0.09455269575119019 0 2
16.90298843383789 -5.914609432220459 -1.7032265663146973 0.09455318003892899 0 2
16.84912109375 -6.066054344177246 -1.7032190561294556 0.09455369412899017 0 2
16.7939453125 -6.217011451721191 -1.7032113075256348 0.09455405920743942 0 2
17.21062469482422 -6.547538757324219 -1.7513586282730103 0.09455431997776031 0 2
17.151092529296875 -6.701679706573486 -1.7513504028320312 0.09455478936433792 0 2
10.70156192779541 -4.292695045471191 -1.09666109085083 0.9240411520004272 0 20
10.767850875854492 -4.431894302368164 -1.1074857711791992 0.3786933422088623 0 20
10.748476028442383 -4.537148475646973 -1.1096354722976685 0.917243242263794 0 20
10.74843692779541 -4.651230335235596 -1.1138975620269775 0.913733184337616 0 20
10.748417854309082 -4.766211032867432 -1.1182823181152344 0.9101495146751404 0 20
10.74837875366211 -4.88210916519165 -1.122795820236206 0.9064923524856567 0 20
10.748358726501465 -4.998964786529541 -1.1274334192276 0.9027622938156128 0 20
10.748319625854492 -5.116816520690918 -1.1322039365768433 0.8989596366882324 0 20
10.748281478881836 -5.235644340515137 -1.1371058225631714 0.8950842618942261 0 20
10.748261451721191 -5.355527400970459 -1.142142415046692 0.8911370038986206 0 20
10.696269035339355 -5.450019359588623 -1.1417698860168457 0.8871178030967712 0 20
10.701269149780273 -5.574101448059082 -1.1475977897644043 0.8830268979072571 0 20
16.253026962280273 -8.652284622192383 -1.751225233078003 0.09456157684326172 0 2
16.17462921142578 -8.797773361206055 -1.7512143850326538 0.09456215798854828 0 2
16.094921112060547 -8.94253921508789 -1.7512032985687256 0.09456274658441544 0 2
12.61148452758789 -7.155995845794678 -1.3791227340698242 0.9879748225212097 0 6
9.607675552368164 -5.566171646118164 -1.0560616254806519 0.8615138530731201 0 20
9.475605010986328 -5.603867053985596 -1.0470390319824219 0.5065634846687317 0 20
9.284316062927246 -5.603808403015137 -1.0314127206802368 0.5142351984977722 0 20
9.098651885986328 -5.60378885269165 -1.0163347721099854 0.5218655467033386 0 20
7.498007774353027 -4.711308479309082 -0.8422318696975708 0.8430511355400085 0 20
7.395214557647705 -4.739824295043945 -0.8354294300079346 0.8382648229598999 0 20
7.435097694396973 -4.860058307647705 -0.8448399901390076 0.5445017218589783 0 20
7.439648151397705 -4.958964824676514 -0.8503710031509399 0.8284898400306702 0 20
7.439628601074219 -5.055976390838623 -0.8555210828781128 0.8235023617744446 0 20
7.439609050750732 -5.154179573059082 -0.86080402135849 0.8184484243392944 0 20
7.439589500427246 -5.253612995147705 -0.8662229180335999 0.8133283853530884 0 20
7.439550399780273 -5.354316234588623 -0.8717820048332214 0.808142900466919 0 20
7.438241958618164 -5.45535135269165 -0.8773178458213806 0.988436222076416 0 20
7.433574199676514 -5.555195331573486 -0.8826205730438232 0.7975777983665466 0 20
7.394999980926514 -5.630566120147705 -0.8840098977088928 0.7921975255012512 0 20
7.234414100646973 -5.61160135269165 -0.8708009123802185 0.5408143401145935 0 20
7.131191253662109 -5.634765625 -0.8644292950630188 0.8909481167793274 0 20
7.069355487823486 -5.689706802368164 -0.8630877733230591 0.9943513870239258 0 20
7.034374713897705 -5.766347408294678 -0.8651031851768494 0.8224493265151978 0 20
7.049120903015137 -5.884999752044678 -0.8733757734298706 0.4228895306587219 0 20
14.025351524353027 -11.92447280883789 -1.750915765762329 0.0945783257484436 0 2
13.91763687133789 -12.049784660339355 -1.7509008646011353 0.09457911550998688 0 2
13.808788299560547 -12.174120903015137 -1.7508857250213623 0.09458000212907791 0 2
13.69888687133789 -12.297460556030273 -1.7508704662322998 0.09458063542842865 0 2
13.587812423706055 -12.419804573059082 -1.7508550882339478 0.09458162635564804 0 2
13.475664138793945 -12.54117202758789 -1.7508394718170166 0.09458237886428833 0 2
13.362421989440918 -12.66146469116211 -1.750823736190796 0.0945834144949913 0 2
13.248125076293945 -12.7808198928833 -1.7508078813552856 0.09458411484956741 0 2
13.132753372192383 -12.899101257324219 -1.7507919073104858 0.09458494931459427 0 2
9.409120559692383 9.409101486206055 -1.3763877153396606 0.7025308012962341 0 4
9.579765319824219 9.409316062927246 -1.3889389038085938 0.6961821913719177 0 4
9.753554344177246 9.409491539001465 -1.401837944984436 0.6897771954536438 0 4
9.930644035339355 9.409707069396973 -1.415088176727295 0.6833170652389526 0 4
10.111112594604492 9.409921646118164 -1.4287105798721313 0.6768016815185547 0 4
10.295136451721191 9.410136222839355 -1.4427149295806885 0.6702314615249634 0 4
10.48275375366211 9.410351753234863 -1.4571173191070557 0.6636080145835876 0 4
10.674238204956055 9.410585403442383 -1.4719281196594238 0.656930148601532 0 4
10.869608879089355 9.41080093383789 -1.4871625900268555 0.6501994729042053 0 4
11.069140434265137 9.411054611206055 -1.5028443336486816 0.6434171795845032 0 4
11.272910118103027 9.411269187927246 -1.5189772844314575 0.6365820169448853 0 4
11.484101295471191 9.413984298706055 -1.5359911918640137 0.6284233331680298 0 4
11.69742202758789 9.414589881896973 -1.5531575679779053 0.6214778423309326 0 4
11.9155855178833 9.415175437927246 -1.570840835571289 0.6144822239875793 0 4
12.138789176940918 9.415800094604492 -1.5890603065490723 0.607437014579773 0 4
12.367226600646973 9.416444778442383 -1.6078346967697144 0.6003431081771851 0 4
12.601191520690918 9.417089462280273 -1.627197027206421 0.5932006239891052 0 4
12.840859413146973 9.417753219604492 -1.6471624374389648 0.5860103964805603 0 4
13.0864839553833 9.41845703125 -1.6677587032318115 0.578772783279419 0 4
13.338358879089355 9.419140815734863 -1.6890161037445068 0.5714889764785767 0 4
13.530390739440918 9.373886108398438 -1.702606201171875 0.1027749627828598 0 2
13.61410140991211 9.252128601074219 -1.7026176452636719 0.10277413576841354 0 2
13.696660041809082 9.129609107971191 -1.7026290893554688 0.10277355462312698 0 2
13.77816390991211 9.006386756896973 -1.702640175819397 0.10277282446622849 0 2
13.858534812927246 8.882402420043945 -1.7026513814926147 0.10277225077152252 0 2
13.937772750854492 8.757695198059082 -1.7026621103286743 0.10277165472507477 0 2
14.015917778015137 8.632304191589355 -1.7026729583740234 0.10277099162340164 0 2
14.092909812927246 8.50619125366211 -1.7026835680007935 0.1027703806757927 0 2
14.168807983398438 8.379413604736328 -1.702694058418274 0.10276960581541061 0 2
14.243515014648438 8.251933097839355 -1.7027043104171753 0.10276906192302704 0 2
14.317109107971191 8.123808860778809 -1.7027143239974976 0.1027684286236763 0 2
14.389531135559082 7.995038986206055 -1.7027242183685303 0.10276789218187332 0 2
14.46078109741211 7.865585803985596 -1.7027342319488525 0.1027672290802002 0 2
14.530898094177246 7.735507488250732 -1.7027437686920166 0.10276670753955841 0 2
14.599823951721191 7.604824066162109 -1.7027533054351807 0.10276610404253006 0 2
14.667577743530273 7.473495960235596 -1.7027626037597656 0.10276548564434052 0 2
14.734140396118164 7.34158182144165 -1.7027716636657715 0.1027650535106659 0 2
14.79955005645752 7.209081649780273 -1.7027807235717773 0.10276439785957336 0 2
14.863710403442383 7.075976371765137 -1.7027894258499146 0.10276398062705994 0 2
14.926718711853027 6.942324161529541 -1.7027981281280518 0.10276331007480621 0 2
14.988495826721191 6.80810546875 -1.7028067111968994 0.10276276618242264 0 2
15.04906177520752 6.673320293426514 -1.7028149366378784 0.10276240855455399 0 2
15.108417510986328 6.538007736206055 -1.7028231620788574 0.10276192426681519 0 2
15.166582107543945 6.402167797088623 -1.7028310298919678 0.10276138037443161 0 2
15.223495483398438 6.265800476074219 -1.7028388977050781 0.102760910987854 0 2
15.279218673706055 6.128925800323486 -1.7028465270996094 0.10276035964488983 0 2
15.333671569824219 5.991562366485596 -1.7028539180755615 0.10276005417108536 0 2
15.386874198913574 5.853710651397705 -1.7028613090515137 0.10275958478450775 0 2
15.626659393310547 5.784902095794678 -1.7235777378082275 0.3602263331413269 0 2
16.047069549560547 5.777304649353027 -1.764158844947815 0.3371499478816986 0 2
16.482519149780273 5.767480373382568 -1.8062635660171509 0.1027582436800003 0 1
16.533672332763672 5.619335651397705 -1.806270718574524 0.10275788605213165 0 1
16.583477020263672 5.470722675323486 -1.8062773942947388 0.102757528424263 0 1
16.63201141357422 5.321679592132568 -1.8062841892242432 0.10275700688362122 0 1
16.679121017456055 5.172187328338623 -1.8062905073165894 0.10275676101446152 0 1
16.725000381469727 5.022304534912109 -1.8062968254089355 0.1027563139796257 0 1
16.769433975219727 4.871972560882568 -1.8063029050827026 0.10275599360466003 0 1
16.812519073486328 4.721269607543945 -1.8063087463378906 0.10275576263666153 0 1
16.854276657104492 4.570195198059082 -1.806314468383789 0.10275539755821228 0 1
16.89470672607422 4.418769359588623 -1.8063199520111084 0.10275493562221527 0 1
16.9337100982666 4.266933441162109 -1.8063253164291382 0.10275477916002274 0 1
16.971385955810547 4.114804744720459 -1.8063305616378784 0.10275439918041229 0 1
17.007694244384766 3.9623045921325684 -1.80633544921875 0.10275425016880035 0 1
17.0425968170166 3.8094921112060547 -1.8063400983810425 0.10275397449731827 0 1
17.076152801513672 3.656367063522339 -1.806344747543335 0.1027536541223526 0 1
17.108280181884766 3.5029492378234863 -1.8063491582870483 0.10275351256132126 0 1
17.139101028442383 3.3492772579193115 -1.806353211402893 0.10275319963693619 0 1
17.168495178222656 3.1952929496765137 -1.8063572645187378 0.10275304317474365 0 1
17.196542739868164 3.04107403755188 -1.8063610792160034 0.10275278985500336 0 1
17.223203659057617 2.886601448059082 -1.80636465549469 0.10275242477655411 0 1
17.248437881469727 2.7318944931030273 -1.806368112564087 0.10275229811668396 0 1
17.27226448059082 2.5769920349121094 -1.8063714504241943 0.10275224596261978 0 1
17.29476547241211 2.4218358993530273 -1.806374430656433 0.1027519479393959 0 1
17.315799713134766 2.2665038108825684 -1.8063771724700928 0.10275184363126755 0 1
17.335527420043945 2.1109960079193115 -1.8063799142837524 0.10275158286094666 0 1
17.353729248046875 1.9552929401397705 -1.806382417678833 0.10275160521268845 0 1
17.370624542236328 1.7994921207427979 -1.806384563446045 0.10275143384933472 0 1
17.386133193969727 1.6435155868530273 -1.8063867092132568 0.10275120288133621 0 1
17.40019416809082 1.4873632192611694 -1.8063884973526 0.10275109857320786 0 1
17.412870407104492 1.3311327695846558 -1.8063901662826538 0.10275103896856308 0 1
17.424100875854492 1.1747655868530273 -1.806391716003418 0.10275100916624069 0 1
17.433963775634766 1.0183398723602295 -1.8063931465148926 0.10275086015462875 0 1
17.442401885986328 0.8617968559265137 -1.806394100189209 0.10275095701217651 0 1
17.449453353881836 0.70521479845047 -1.8063949346542358 0.10275081545114517 0 1
17.455078125 0.5485546588897705 -1.8063956499099731 0.10275068879127502 0 1
17.459335327148438 0.3918749988079071 -1.8063961267471313 0.10275068879127502 0 1
17.462127685546875 0.23515623807907104 -1.8063966035842896 0.10275065898895264 0 1
17.46355438232422 0.07837890088558197 -1.806396722793579 0.10275065153837204 0 1
17.46355438232422 -0.0783398449420929 -1.8063966035842896 0.1027507334947586 0 1
17.462108612060547 -0.23511718213558197 -1.806396245956421 0.10275070369243622 0 1
17.459335327148438 -0.39183592796325684 -1.8063958883285522 0.10275067389011383 0 1
17.455116271972656 -0.5485156178474426 -1.806395173072815 0.10275064408779144 0 1
17.449453353881836 -0.7051953077316284 -1.806394338607788 0.10275083780288696 0 1
17.442401885986328 -0.8617773056030273 -1.8063933849334717 0.10275091230869293 0 1
17.43392562866211 -1.0183203220367432 -1.8063920736312866 0.10275100916624069 0 1
17.424081802368164 -1.1747655868530273 -1.806390643119812 0.1027510017156601 0 1
17.412851333618164 -1.331093668937683 -1.8063889741897583 0.10275110602378845 0 1
17.400156021118164 -1.487343668937683 -1.806387186050415 0.1027512401342392 0 1
17.386093139648438 -1.6434569358825684 -1.8063851594924927 0.10275141149759293 0 1
17.37060546875 -1.7994335889816284 -1.8063830137252808 0.10275159031152725 0 1
17.353769302368164 -1.9552929401397705 -1.8063806295394897 0.10275159031152725 0 1
17.335487365722656 -2.110956907272339 -1.8063780069351196 0.10275175422430038 0 1
17.315780639648438 -2.2665038108825684 -1.8063750267028809 0.10275198519229889 0 1
16.306406021118164 -2.2834179401397705 -1.7031457424163818 0.10275212675333023 0 2
16.285215377807617 -2.4296875 -1.703142762184143 0.10275232046842575 0 2
16.262714385986328 -2.575761556625366 -1.7031396627426147 0.10275251418352127 0 2
16.23894500732422 -2.721621036529541 -1.7031362056732178 0.10275257378816605 0 2
16.213808059692383 -2.86724591255188 -1.7031327486038208 0.10275298357009888 0 2
16.187362670898438 -3.0126757621765137 -1.7031289339065552 0.1027531772851944 0 2
16.15962791442871 -3.157851457595825 -1.7031251192092896 0.10275352001190186 0 2
16.130624771118164 -3.3027539253234863 -1.7031209468841553 0.1027536615729332 0 2
16.100292205810547 -3.447382688522339 -1.703116774559021 0.10275385528802872 0 2
16.06865119934082 -3.5917773246765137 -1.703112244606018 0.10275411605834961 0 2
16.035722732543945 -3.73583984375 -1.7031075954437256 0.10275435447692871 0 2
16.001502990722656 -3.8796093463897705 -1.7031028270721436 0.10275469720363617 0 2
15.965995788574219 -4.023086071014404 -1.703097939491272 0.10275492072105408 0 2
15.929160118103027 -4.166191101074219 -1.7030928134918213 0.10275540500879288 0 2
15.891093254089355 -4.309003829956055 -1.7030874490737915 0.10275565832853317 0 2
15.851737976074219 -4.45144510269165 -1.7030819654464722 0.10275586694478989 0 2
15.8110933303833 -4.593515396118164 -1.7030761241912842 0.10275627672672272 0 2
15.769160270690918 -4.735273361206055 -1.7030702829360962 0.10275664925575256 0 2
15.725956916809082 -4.876582145690918 -1.703064203262329 0.102757029235363 0 2
15.681523323059082 -5.017519474029541 -1.703058123588562 0.1027572974562645 0 2
15.635781288146973 -5.158066272735596 -1.7030516862869263 0.10275772958993912 0 2
15.58876895904541 -5.298163890838623 -1.703045129776001 0.10275823622941971 0 2
15.54052734375 -5.437870979309082 -1.7030384540557861 0.10275857150554657 0 2
15.49105453491211 -5.577109336853027 -1.7030315399169922 0.10275890678167343 0 2
15.440312385559082 -5.715878963470459 -1.7030243873596191 0.10275938361883163 0 2
15.388319969177246 -5.854238033294678 -1.703017234802246 0.10275976359844208 0 2
15.335078239440918 -5.992109298706055 -1.7030097246170044 0.10276022553443909 0 2
10.701542854309082 -4.292675495147705 -1.1926740407943726 0.9232861399650574 0 20
10.767850875854492 -4.43191385269165 -1.2044479846954346 0.3783833384513855 0 20
10.696464538574219 -4.515234470367432 -1.2009501457214355 0.9164937138557434 0 20
10.69644546508789 -4.628769397735596 -1.205561637878418 0.9129865169525146 0 20
10.696406364440918 -4.743183612823486 -1.210308313369751 0.9094057679176331 0 20
10.696386337280273 -4.858534812927246 -1.2151920795440674 0.9057517051696777 0 20
10.696367263793945 -4.974823951721191 -1.2202125787734985 0.9020245671272278 0 20
10.6963472366333 -5.09207010269165 -1.2253749370574951 0.8982250094413757 0 20
10.696308135986328 -5.210331916809082 -1.2306796312332153 0.8943530321121216 0 20
10.70132827758789 -5.332148551940918 -1.236717700958252 0.5569479465484619 0 20
10.707655906677246 -5.455820083618164 -1.243053674697876 0.554108202457428 0 20
10.701250076293945 -5.574081897735596 -1.248069405555725 0.8823056817054749 0 20
14.943085670471191 -7.954921722412109 -1.7510443925857544 0.10276701301336288 0 2
14.87099552154541 -8.08871078491211 -1.7510344982147217 0.10276754200458527 0 2
14.797675132751465 -8.221816062927246 -1.7510242462158203 0.10276826471090317 0 2
12.61148452758789 -7.155976295471191 -1.4998654127120972 0.9871672987937927 0 6
9.607656478881836 -5.566152095794678 -1.14851975440979 0.8608099222183228 0 20
8.542890548706055 -5.05224609375 -1.026617407798767 0.8563013672828674 0 20
