ply
format ascii 1.0
element vertex 610
property float32 x
property float32 y
property float32 z
property float32 CosAngle
property uint32 ObjIdx
property uint32 ObjTag
end_header
10.501269340515137 -7.921464443206787 5.93527889251709 0.6668273210525513 0 3
7.866913795471191 -5.989882469177246 4.461511611938477 0.6696104407310486 0 3
7.807694911956787 -6.000331878662109 4.443141937255859 0.6723783612251282 0 3
7.748945236206055 -6.010683536529541 4.425015926361084 0.6751329898834229 0 3
7.690644264221191 -6.020937442779541 4.40712308883667 0.6778744459152222 0 3
7.632851600646973 -6.031132698059082 4.389461040496826 0.6806016564369202 0 3
7.575507640838623 -6.041230201721191 4.372025012969971 0.6833153963088989 0 3
7.518613338470459 -6.05126953125 4.354820251464844 0.6860153675079346 0 3
7.466347694396973 -6.064648151397705 4.340275287628174 0.5964000821113586 0 3
7.477890491485596 -6.129902362823486 4.362932205200195 0.5933023691177368 0 3
7.451503753662109 -6.164374828338623 4.363627910614014 0.694032609462738 0 3
7.395566463470459 -6.174238204956055 4.347065448760986 0.6966770887374878 0 3
7.340058326721191 -6.184042930603027 4.330713272094727 0.6993072628974915 0 3
7.284999847412109 -6.193730354309082 4.314572811126709 0.7019237279891968 0 3
7.230312347412109 -6.203378677368164 4.298634052276611 0.7045257091522217 0 3
7.176034927368164 -6.212949275970459 4.28290319442749 0.7071138620376587 0 3
7.122167587280273 -6.222421646118164 4.267371654510498 0.7096872925758362 0 3
7.068671703338623 -6.231855392456055 4.2520365715026855 0.7122468948364258 0 3
7.015566349029541 -6.241230487823486 4.2368974685668945 0.7147920727729797 0 3
6.962812423706055 -6.250527381896973 4.221948146820068 0.7173229455947876 0 3
6.91042947769165 -6.259746074676514 4.207190036773682 0.7198392748832703 0 3
6.7626953125 -6.181347370147705 4.134061813354492 0.7284491062164307 0 3
6.712245941162109 -6.190781116485596 4.120165824890137 0.7309054732322693 0 3
6.662109375 -6.200097560882568 4.1064453125 0.7322765588760376 0 3
6.612030982971191 -6.20910120010376 4.092711925506592 0.7347341775894165 0 3
6.562304496765137 -6.218027114868164 4.0791473388671875 0.7371768355369568 0 3
6.512870788574219 -6.226913928985596 4.065756320953369 0.7396054267883301 0 3
6.463749885559082 -6.235742092132568 4.052531719207764 0.7420186400413513 0 3
6.414960861206055 -6.244492053985596 4.039474964141846 0.744417130947113 0 3
6.366503715515137 -6.25320291519165 4.026580810546875 0.7468001246452332 0 3
6.318339824676514 -6.26183557510376 4.013847351074219 0.7491695284843445 0 3
24.3179874420166 17.667987823486328 12.966042518615723 0.9690581560134888 0 9
24.405818939208984 17.565000534057617 12.970712661743164 0.9687090516090393 0 9
24.49361228942871 17.46187400817871 12.975590705871582 0.968345046043396 0 9
24.58136749267578 17.35855484008789 12.98066520690918 0.9679664373397827 0 9
24.669023513793945 17.255077362060547 12.985940933227539 0.9675731658935547 0 9
24.75666046142578 17.151426315307617 12.991424560546875 0.9671651124954224 0 9
24.751405715942383 16.98388671875 12.948531150817871 0.23652617633342743 0 9
24.074609756469727 16.361034393310547 12.555936813354492 0.49456989765167236 0 9
24.040878295898438 16.18083953857422 12.500349044799805 0.21095579862594604 0 9
23.976287841796875 15.981523513793945 12.429327011108398 0.24640637636184692 0 9
24.834003448486328 16.39273452758789 12.835701942443848 0.48379039764404297 0 9
25.09453010559082 16.40349578857422 12.932178497314453 0.4801808297634125 0 9
25.358964920043945 16.41437530517578 13.030349731445312 0.4765632748603821 0 9
25.456249237060547 16.315683364868164 13.042576789855957 0.9633710980415344 0 9
25.543514251708984 16.210371017456055 13.049896240234375 0.9628310203552246 0 9
25.39029312133789 15.953749656677246 12.934903144836426 0.9720162153244019 0 9
25.67121124267578 15.969999313354492 13.041369438171387 0.8108313679695129 0 9
25.71595573425293 15.838202476501465 13.027867317199707 0.8116713762283325 0 9
25.760683059692383 15.706718444824219 13.014684677124023 0.8124936819076538 0 9
25.805370330810547 15.57552719116211 13.001813888549805 0.8132980465888977 0 9
25.850038528442383 15.444628715515137 12.98925495147705 0.8140846490859985 0 9
25.894628524780273 15.313983917236328 12.976987838745117 0.8148534893989563 0 9
22.707557678222656 13.291953086853027 11.349793434143066 0.965411901473999 0 9
22.76396369934082 13.188163757324219 11.348295211791992 0.944861114025116 0 9
22.840389251708984 13.095878601074219 11.356961250305176 0.944139838218689 0 9
22.916854858398438 13.00341796875 11.36586856842041 0.9434003829956055 0 9
22.989295959472656 12.908475875854492 11.372947692871094 0.9634466767311096 0 9
23.05988311767578 12.812304496765137 11.37928581237793 0.9629100561141968 0 9
23.130449295043945 12.715995788574219 11.385846138000488 0.962355375289917 0 9
23.201112747192383 12.619550704956055 11.392621040344238 0.961782693862915 0 9
23.27179718017578 12.5230073928833 11.399627685546875 0.9611918926239014 0 9
23.342538833618164 12.426308631896973 11.40684986114502 0.9605831503868103 0 9
23.413358688354492 12.32949161529541 11.414301872253418 0.9599563479423523 0 9
23.48421859741211 12.2324800491333 11.421971321105957 0.9593114256858826 0 9
23.55517578125 12.135351181030273 11.4298677444458 0.958648681640625 0 9
23.62615203857422 12.038065910339355 11.437989234924316 0.9579678773880005 0 9
23.69724464416504 11.940605163574219 11.446341514587402 0.957269012928009 0 9
23.76839828491211 11.843027114868164 11.454913139343262 0.956552267074585 0 9
23.839628219604492 11.745234489440918 11.463728904724121 0.955817461013794 0 9
23.91093635559082 11.64730453491211 11.472761154174805 0.9550648927688599 0 9
23.080448150634766 11.114882469177246 11.050246238708496 0.3139488995075226 0 9
22.703807830810547 10.808241844177246 10.846572875976562 0.3106380105018616 0 9
23.000350952148438 10.823065757751465 10.964936256408691 0.3072848320007324 0 9
23.303085327148438 10.83804702758789 11.08596134185791 0.30392998456954956 0 9
23.612245559692383 10.853202819824219 11.20975399017334 0.3005739450454712 0 9
23.928007125854492 10.86855411529541 11.336379051208496 0.29721638560295105 0 9
23.923534393310547 10.737245559692383 11.311333656311035 0.5412675142288208 0 9
23.88166046142578 10.589941024780273 11.268940925598145 0.5433036684989929 0 9
23.840234756469727 10.443788528442383 11.227156639099121 0.545325756072998 0 9
23.799257278442383 10.298789024353027 11.185978889465332 0.5473331809043884 0 9
23.758710861206055 10.154882431030273 11.145387649536133 0.5493266582489014 0 9
23.597597122192383 9.9609956741333 11.048724174499512 0.5766359567642212 0 9
23.52583885192871 9.806581497192383 10.994420051574707 0.4621977210044861 0 9
23.63603401184082 9.728202819824219 11.025395393371582 0.4608989357948303 0 9
23.646093368530273 9.608476638793945 11.009871482849121 0.42467182874679565 0 9
23.611738204956055 9.471288681030273 10.973957061767578 0.4260617196559906 0 9
23.649335861206055 9.363378524780273 10.971805572509766 0.3989638090133667 0 9
24.085643768310547 9.41128921508789 11.154497146606445 0.45556432008743286 0 9
24.20033073425293 9.331132888793945 11.188103675842285 0.45419609546661377 0 9
24.315937042236328 9.250585556030273 11.22224235534668 0.4528142213821411 0 9
24.412967681884766 9.16226577758789 11.247941970825195 0.5664227604866028 0 9
19.27457046508789 -6.2626953125 8.742111206054688 0.4309611916542053 0 3
19.085371017456055 -6.296034812927246 8.669007301330566 0.43459510803222656 0 3
18.89923858642578 -6.328847408294678 8.59728717803955 0.4382210373878479 0 3
18.716171264648438 -6.361093521118164 8.5269136428833 0.4418376386165619 0 3
18.548086166381836 -6.396953105926514 8.463321685791016 0.4900721609592438 0 3
18.38472557067871 -6.433085918426514 8.401865005493164 0.46561992168426514 0 3
18.214218139648438 -6.465351581573486 8.33713150024414 0.4499979615211487 0 3
18.09830093383789 -6.515780925750732 8.29737377166748 0.47038954496383667 0 3
17.93423843383789 -6.547773361206055 8.235541343688965 0.4739212095737457 0 3
17.765625 -6.576718807220459 8.171573638916016 0.4455581307411194 0 3
17.595722198486328 -6.603769302368164 8.106992721557617 0.44909876585006714 0 3
17.42851448059082 -6.630410194396973 8.043587684631348 0.4526388347148895 0 3
17.263944625854492 -6.656620979309082 7.9813361167907715 0.4561692774295807 0 3
17.10187530517578 -6.682480335235596 7.920197486877441 0.45969057083129883 0 3
16.942264556884766 -6.707929611206055 7.8601531982421875 0.4632023572921753 0 3
16.785137176513672 -6.732988357543945 7.801177024841309 0.466703861951828 0 3
16.630292892456055 -6.757695198059082 7.743236541748047 0.47019627690315247 0 3
16.437734603881836 -6.765566349029541 7.667642593383789 0.5507323741912842 0 3
16.3057804107666 -6.796953201293945 7.620227336883545 0.5541592836380005 0 3
16.175331115722656 -6.827988147735596 7.5735297203063965 0.5575763583183289 0 3
16.046483993530273 -6.858593463897705 7.527527809143066 0.5609834790229797 0 3
15.921113014221191 -6.889687538146973 7.483150005340576 0.6161600351333618 0 3
15.808124542236328 -6.925175666809082 7.444574356079102 0.6193527579307556 0 3
15.69619083404541 -6.960273265838623 7.406508445739746 0.6225363612174988 0 3
15.58535099029541 -6.994999885559082 7.368940830230713 0.6257098913192749 0 3
15.475565910339355 -7.029316425323486 7.33186674118042 0.6288737058639526 0 3
15.34994125366211 -7.055566310882568 7.287290573120117 0.5224192142486572 0 3
15.219609260559082 -7.078515529632568 7.240402698516846 0.5258020162582397 0 3
15.090859413146973 -7.10119104385376 7.194253444671631 0.5291751027107239 0 3
14.938652038574219 -7.111660003662109 7.136834144592285 0.4052019715309143 0 3
14.796269416809082 -7.125507831573486 7.084017753601074 0.4874366521835327 0 3
14.66429615020752 -7.14318323135376 7.036098480224609 0.4907561242580414 0 3
14.539355278015137 -7.163241863250732 6.991517066955566 0.5504730939865112 0 3
14.420136451721191 -7.185136795043945 6.949629783630371 0.5537906885147095 0 3
14.302363395690918 -7.206718444824219 6.908377647399902 0.5570977926254272 0 3
14.185917854309082 -7.228085994720459 6.867744445800781 0.5603939294815063 0 3
14.070878982543945 -7.249179363250732 6.82772159576416 0.5636788010597229 0 3
13.957109451293945 -7.27001953125 6.788297176361084 0.566952645778656 0 3
13.844706535339355 -7.29064416885376 6.749459743499756 0.5702148079872131 0 3
13.74072265625 -7.314843654632568 6.714704513549805 0.6785316467285156 0 3
13.518632888793945 -7.274667739868164 6.622067928314209 0.5764397978782654 0 3
13.41128921508789 -7.294726371765137 6.585456848144531 0.5796444416046143 0 3
13.307538986206055 -7.315878868103027 6.550565719604492 0.7150478363037109 0 3
13.3228120803833 -7.402304649353027 6.57435417175293 0.7124586701393127 0 3
13.246073722839355 -7.437675476074219 6.55291748046875 0.5816464424133301 0 3
13.1406831741333 -7.456249713897705 6.5172553062438965 0.5848287343978882 0 3
13.036405563354492 -7.474648475646973 6.482112407684326 0.5879994034767151 0 3
12.933241844177246 -7.492812156677246 6.447470664978027 0.5911583304405212 0 3
12.831171989440918 -7.510800838470459 6.413337707519531 0.5943018198013306 0 3
12.730175971984863 -7.528613090515137 6.379682540893555 0.5974370837211609 0 3
12.630253791809082 -7.546210765838623 6.3465094566345215 0.6005600094795227 0 3
12.531367301940918 -7.563652038574219 6.313803672790527 0.6036705374717712 0 3
12.43343734741211 -7.580898284912109 6.281561851501465 0.606769323348999 0 3
12.194043159484863 -7.510195255279541 6.177576541900635 0.6104019284248352 0 3
12.098671913146973 -7.526562213897705 6.1463141441345215 0.6075506210327148 0 3
12.00380802154541 -7.542460918426514 6.115245342254639 0.6106372475624084 0 3
12.00658130645752 -7.619589805603027 6.1340155601501465 0.6775108575820923 0 3
11.944550514221191 -7.655644416809082 6.119825839996338 0.6220793724060059 0 3
11.85244083404541 -7.671875 6.09021520614624 0.6251041889190674 0 3
11.76123046875 -7.687949180603027 6.061013221740723 0.6281158924102783 0 3
11.670878410339355 -7.703866958618164 6.032210350036621 0.6311150193214417 0 3
11.58138656616211 -7.719648361206055 6.0037970542907715 0.6341015696525574 0 3
11.4927339553833 -7.735273361206055 5.975778102874756 0.6370750069618225 0 3
11.404902458190918 -7.750741958618164 5.9481329917907715 0.6400356888771057 0 3
11.31787109375 -7.766093730926514 5.920862197875977 0.6429839134216309 0 3
11.231620788574219 -7.781289100646973 5.893954753875732 0.6459192037582397 0 3
11.146191596984863 -7.796328067779541 5.86741304397583 0.6488410234451294 0 3
11.061484336853027 -7.811249732971191 5.841227054595947 0.6517497301101685 0 3
10.863027572631836 -7.74441385269165 5.7547221183776855 0.6615537405014038 0 3
10.781289100646973 -7.75939416885376 5.729822158813477 0.6572632193565369 0 3
10.69960880279541 -7.773730278015137 5.704901695251465 0.6601346731185913 0 3
10.645800590515137 -7.807870864868164 5.694854736328125 0.6343242526054382 0 3
10.660820007324219 -7.89269495010376 5.721752643585205 0.6313409805297852 0 3
10.580976486206055 -7.90734338760376 5.697895526885986 0.6689254641532898 0 3
10.501191139221191 -7.921425819396973 5.674012184143066 0.6717411279678345 0 3
7.866855144500732 -5.989843845367432 4.265120029449463 0.6745443940162659 0 3
7.807636737823486 -6.00027322769165 4.247560501098633 0.6773331761360168 0 3
7.748906135559082 -6.010644435882568 4.230231761932373 0.6801076531410217 0 3
7.690605163574219 -6.020898342132568 4.2131242752075195 0.6828691363334656 0 3
7.632792949676514 -6.031093597412109 4.196239948272705 0.685676634311676 0 3
7.57546854019165 -6.041191101074219 4.179576873779297 0.6884099245071411 0 3
7.5185546875 -6.051230430603027 4.163127899169922 0.6911298632621765 0 3
7.466015338897705 -6.064394474029541 4.149078845977783 0.6008146405220032 0 3
7.477578163146973 -6.129628658294678 4.170741081237793 0.5976943373680115 0 3
7.451464653015137 -6.16433572769165 4.171546459197998 0.699146032333374 0 3
7.395527362823486 -6.174199104309082 4.155710220336914 0.7018099427223206 0 3
7.340019226074219 -6.184003829956055 4.14008092880249 0.7044593691825867 0 3
7.284921646118164 -6.193691253662109 4.124647617340088 0.7070956230163574 0 3
7.23025369644165 -6.203339576721191 4.109414577484131 0.709716796875 0 3
7.176015377044678 -6.212890625 4.094372272491455 0.7123233675956726 0 3
7.122109413146973 -6.222382545471191 4.079526424407959 0.714916467666626 0 3
7.068613052368164 -6.231816291809082 4.064863681793213 0.7174943089485168 0 3
7.015507698059082 -6.241191387176514 4.050392150878906 0.720058798789978 0 3
6.962753772735596 -6.250468730926514 4.0361008644104 0.7226083278656006 0 3
6.91042947769165 -6.259706974029541 4.0219926834106445 0.7251424789428711 0 3
6.763007640838623 -6.181621074676514 3.9522862434387207 0.7337788939476013 0 3
6.71251916885376 -6.191054344177246 3.9390110969543457 0.7362529635429382 0 3
6.662441253662109 -6.200390338897705 3.9258928298950195 0.7387121915817261 0 3
6.612656116485596 -6.209667682647705 3.9129490852355957 0.741156816482544 0 3
6.563183307647705 -6.218925476074219 3.9001598358154297 0.7435864210128784 0 3
6.520859241485596 -6.234570026397705 3.8915793895721436 0.5428609848022461 0 3
6.532890319824219 -6.302402019500732 3.9155845642089844 0.5395339727401733 0 3
6.514062404632568 -6.340956687927246 3.9213383197784424 0.7448901534080505 0 3
6.464687347412109 -6.349648475646973 3.908738851547241 0.7472918033599854 0 3
6.415663719177246 -6.358281135559082 3.896296977996826 0.7496780157089233 0 3
24.76824188232422 17.657636642456055 12.525592803955078 0.9643420577049255 0 9
24.85706901550293 17.553241729736328 12.530546188354492 0.9639607071876526 0 9
24.945838928222656 17.448671340942383 12.535696983337402 0.9635645747184753 0 9
25.034589767456055 17.343944549560547 12.541048049926758 0.9631537199020386 0 9
25.118026733398438 17.235429763793945 12.543976783752441 0.810383677482605 0 9
25.163339614868164 17.10091781616211 12.528139114379883 0.8114079236984253 0 9
24.514745712280273 16.49980354309082 12.168231964111328 0.49059274792671204 0 9
24.771230697631836 16.51140594482422 12.258646011352539 0.48697447776794434 0 9
25.031503677368164 16.52310562133789 12.350630760192871 0.4833478331565857 0 9
25.295644760131836 16.53495979309082 12.444206237792969 0.4797131419181824 0 9
25.38880729675293 16.433671951293945 12.453628540039062 0.8162623643875122 0 9
25.4337100982666 16.301250457763672 12.439653396606445 0.8171797394752502 0 9
25.478553771972656 16.169179916381836 12.425971031188965 0.8180793523788452 0 9
25.523359298706055 16.037343978881836 12.412590026855469 0.8189612627029419 0 9
25.568105697631836 15.905858993530273 12.399518013000488 0.8198249936103821 0 9
25.612831115722656 15.774686813354492 12.386727333068848 0.8206710815429688 0 9
25.657480239868164 15.64378833770752 12.37424087524414 0.8214991688728333 0 9
23.727108001708984 14.321151733398438 11.412150382995605 0.38433802127838135 0 9
24.014217376708984 14.347792625427246 11.519156455993652 0.3807676136493683 0 9
23.968769073486328 14.175058364868164 11.4667329788208 0.3598920702934265 0 9
24.269922256469727 14.206522941589355 11.580178260803223 0.3563661575317383 0 9
22.848398208618164 13.237070083618164 10.873441696166992 0.9687367677688599 0 9
22.892168045043945 13.125566482543945 10.866132736206055 0.9486273527145386 0 9
22.96888542175293 13.032909393310547 10.874666213989258 0.9478827118873596 0 9
23.04570198059082 12.940116882324219 10.883424758911133 0.9471198916435242 0 9
23.122577667236328 12.847147941589355 10.89240550994873 0.9463388919830322 0 9
23.199628829956055 12.754003524780273 10.901612281799316 0.9455398917198181 0 9
23.27308464050293 12.658730506896973 10.90932846069336 0.9655495882034302 0 9
23.34404182434082 12.561874389648438 10.916059494018555 0.964954674243927 0 9
23.415077209472656 12.464921951293945 10.92300033569336 0.9643415212631226 0 9
23.48613166809082 12.367793083190918 10.930150985717773 0.963710367679596 0 9
23.55730438232422 12.270546913146973 10.937522888183594 0.9630609154701233 0 9
23.628515243530273 12.173144340515137 10.945113182067871 0.9623934626579285 0 9
23.699745178222656 12.075546264648438 10.952908515930176 0.9617078304290771 0 9
23.71171760559082 11.947890281677246 10.933542251586914 0.4111000895500183 0 9
23.670839309692383 11.794413566589355 10.890180587768555 0.4127372205257416 0 9
23.558046340942383 11.6065034866333 10.814193725585938 0.34420233964920044 0 9
23.59078025817871 11.491347312927246 10.80544662475586 0.4159727692604065 0 9
23.551639556884766 11.341796875 10.764095306396484 0.4175710678100586 0 9
23.51302719116211 11.193476676940918 10.723388671875 0.4191563129425049 0 9
23.474960327148438 11.046405792236328 10.683295249938965 0.42072901129722595 0 9
23.437421798706055 10.900507926940918 10.643855094909668 0.4222882091999054 0 9
23.400409698486328 10.755859375 10.605026245117188 0.4238342046737671 0 9
23.422069549560547 10.638750076293945 10.593084335327148 0.3972478210926056 0 9
23.602792739868164 10.593300819396973 10.653213500976562 0.5524808168411255 0 9
23.56267547607422 10.448476791381836 10.61383056640625 0.5545312166213989 0 9
23.522968292236328 10.304784774780273 10.574992179870605 0.5565674304962158 0 9
25.340723037719727 10.9658203125 11.369954109191895 0.3821617662906647 0 9
24.68083953857422 10.549023628234863 11.052518844604492 0.7316228151321411 0 9
24.711191177368164 10.431074142456055 11.045039176940918 0.7321180105209351 0 9
24.741268157958984 10.313183784484863 11.037687301635742 0.7326053977012634 0 9
24.771093368530273 10.195390701293945 11.030466079711914 0.7330851554870605 0 9
24.80062484741211 10.077616691589355 11.02337646484375 0.7335569858551025 0 9
24.82992172241211 9.959940910339355 11.016408920288086 0.7340207695960999 0 9
24.851131439208984 9.839179039001465 11.006108283996582 0.40873539447784424 0 9
24.674062728881836 9.641210556030273 10.908421516418457 0.4123958349227905 0 9
24.499921798706055 9.446640014648438 10.812583923339844 0.4160509407520294 0 9
24.66130828857422 9.381953239440918 10.86510944366455 0.36191093921661377 0 9
24.972265243530273 9.372167587280273 10.983478546142578 0.7362215518951416 0 9
24.99995994567871 9.25478458404541 10.977269172668457 0.7366380095481873 0 9
25.027381896972656 9.137441635131836 10.971187591552734 0.737046480178833 0 9
25.05449104309082 9.020097732543945 10.965228080749512 0.7374469041824341 0 9
25.08138656616211 8.902851104736328 10.959390640258789 0.73783940076828 0 9
25.108007431030273 8.785605430603027 10.95368480682373 0.7382240295410156 0 9
25.134355545043945 8.668397903442383 10.948098182678223 0.7386007905006409 0 9
14.246444702148438 0.8321288824081421 5.876417636871338 0.5370245575904846 0 6
14.209609031677246 0.7660155892372131 5.859737396240234 0.7222027778625488 0 6
14.172245979309082 0.7002148032188416 5.842983722686768 0.9122170805931091 0 6
14.161171913146973 0.6359765529632568 5.837179660797119 0.9861595630645752 0 6
14.164687156677246 0.5724413990974426 5.837515830993652 0.9874821305274963 0 6
14.173457145690918 0.509082019329071 5.840121746063232 0.9493861198425293 0 6
14.19417953491211 0.4460546672344208 5.84777307510376 0.9481438994407654 0 6
14.219452857971191 0.3829687535762787 5.857418060302734 0.89482581615448 0 6
14.264726638793945 0.3201367259025574 5.87542200088501 0.5235000848770142 0 6
14.291776657104492 0.2566015422344208 5.886028289794922 0.3834429681301117 0 6
14.320839881896973 0.1928125023841858 5.89758825302124 0.3675433099269867 0 6
14.350703239440918 0.12880858778953552 5.909578323364258 0.366797536611557 0 6
14.380507469177246 0.06453125178813934 5.921683311462402 0.3485400974750519 0 6
14.31386661529541 -0.7716601490974426 5.902720928192139 0.5824860334396362 0 6
14.2998046875 -0.835253894329071 5.898423194885254 0.8632269501686096 0 6
14.294648170471191 -0.8993359208106995 5.897902488708496 0.9937295913696289 0 6
14.296523094177246 -0.9638866782188416 5.900392532348633 0.7761721014976501 0 6
19.6109561920166 -6.274824142456055 8.478715896606445 0.020404160022735596 0 3
19.27406120300293 -6.262519359588623 8.345136642456055 0.4330935478210449 0 3
19.141035079956055 -6.314414024353027 8.299725532531738 0.43674981594085693 0 3
18.955272674560547 -6.347597599029541 8.231443405151367 0.4558211863040924 0 3
18.77814483642578 -6.382167816162109 8.166881561279297 0.45942458510398865 0 3
18.603769302368164 -6.416152000427246 8.103487014770508 0.4630187153816223 0 3
18.43208885192871 -6.449667930603027 8.041229248046875 0.4666036367416382 0 3
18.2587890625 -6.481152057647705 7.978245735168457 0.43870747089385986 0 3
18.081035614013672 -6.509589672088623 7.913267135620117 0.442310094833374 0 3
17.906190872192383 -6.537558555603027 7.849503517150879 0.44590309262275696 0 3
17.734140396118164 -6.565097332000732 7.786914348602295 0.4494868516921997 0 3
17.564823150634766 -6.592187404632568 7.72548246383667 0.4530521333217621 0 3
17.362655639648438 -6.605351448059082 7.649515151977539 0.5306892991065979 0 3
17.219003677368164 -6.639316082000732 7.599276065826416 0.5341981053352356 0 3
17.0771484375 -6.672792911529541 7.549816131591797 0.5376976728439331 0 3
16.937108993530273 -6.705859184265137 7.501129150390625 0.5411877036094666 0 3
16.80937385559082 -6.742714881896973 7.457890033721924 0.5943388342857361 0 3
16.687108993530273 -6.78076171875 7.417065143585205 0.5976098775863647 0 3
16.5660343170166 -6.818359375 7.376796245574951 0.6008726358413696 0 3
16.44624900817871 -6.855507850646973 7.337070941925049 0.6041258573532104 0 3
16.31245994567871 -6.88585901260376 7.2911057472229 0.5019540786743164 0 3
16.169336318969727 -6.911074161529541 7.240908145904541 0.5054339170455933 0 3
16.028085708618164 -6.935976505279541 7.191537857055664 0.5089035034179688 0 3
15.888808250427246 -6.960507869720459 7.14298152923584 0.512363076210022 0 3
15.75136661529541 -6.984726428985596 7.095215320587158 0.5158122777938843 0 3
15.615800857543945 -7.008613109588623 7.0482330322265625 0.5192506313323975 0 3
15.316171646118164 -6.956913948059082 6.92702579498291 0.5273010730743408 0 3
15.18636703491211 -6.980351448059082 6.882424354553223 0.5307183265686035 0 3
15.057226181030273 -7.002988338470459 6.838069915771484 0.5233228206634521 0 3
15.031874656677246 -7.073456764221191 6.840910911560059 0.7550594806671143 0 3
14.9453706741333 -7.11486291885376 6.816011905670166 0.42280542850494385 0 3
14.791933059692383 -7.123378753662109 6.760529518127441 0.5472666025161743 0 3
14.669628143310547 -7.145800590515137 6.719229698181152 0.5506303310394287 0 3
14.548828125 -7.167910099029541 6.678574085235596 0.5539824366569519 0 3
14.429491996765137 -7.189765453338623 6.638529300689697 0.5573239326477051 0 3
14.311542510986328 -7.211367130279541 6.599095821380615 0.5606542825698853 0 3
14.194999694824219 -7.23269510269165 6.560258865356445 0.5639737248420715 0 3
14.07982349395752 -7.253808498382568 6.522006511688232 0.5672813057899475 0 3
13.965956687927246 -7.274628639221191 6.484319686889648 0.5705781579017639 0 3
13.85341739654541 -7.295234203338623 6.447196006774902 0.5738636255264282 0 3
13.747206687927246 -7.318300724029541 6.412995338439941 0.6829808354377747 0 3
13.51943302154541 -7.275077819824219 6.321897506713867 0.5804597735404968 0 3
13.412050247192383 -7.295136451721191 6.286946773529053 0.5836873650550842 0 3
13.307050704956055 -7.315624713897705 6.253065586090088 0.7201009392738342 0 3
13.3223237991333 -7.402070045471191 6.275784015655518 0.7174937725067139 0 3
13.245976448059082 -7.437636375427246 6.255474090576172 0.5857408046722412 0 3
13.140565872192383 -7.456210613250732 6.221436023712158 0.5889454483985901 0 3
13.03628921508789 -7.474589824676514 6.1878862380981445 0.5921387076377869 0 3
12.933144569396973 -7.492753505706787 6.154821872711182 0.5953196287155151 0 3
12.8310546875 -7.5107421875 6.122229099273682 0.5984854102134705 0 3
12.730097770690918 -7.528554439544678 6.090105056762695 0.6016424894332886 0 3
12.630136489868164 -7.546152114868164 6.05843448638916 0.6047877073287964 0 3
12.53125 -7.56359338760376 6.027218341827393 0.6079200506210327 0 3
12.433359146118164 -7.58083963394165 5.996435642242432 0.6110407114028931 0 3
12.194062232971191 -7.510234355926514 5.897228240966797 0.6146925687789917 0 3
12.099335670471191 -7.526991844177246 5.867697238922119 0.6177866458892822 0 3
12.0044527053833 -7.542910099029541 5.8380351066589355 0.6148974299430847 0 3
12.006113052368164 -7.619296550750732 5.855412483215332 0.6823012232780457 0 3
11.944453239440918 -7.655585765838623 5.842045307159424 0.6264586448669434 0 3
11.852362632751465 -7.671835899353027 5.813778400421143 0.6295042037963867 0 3
11.761152267456055 -7.687910079956055 5.785900592803955 0.6325370669364929 0 3
11.67080020904541 -7.703808307647705 5.758406639099121 0.6355573534965515 0 3
11.581308364868164 -7.719589710235596 5.731287002563477 0.6385648250579834 0 3
11.492636680603027 -7.735214710235596 5.704535961151123 0.6415596604347229 0 3
11.404824256896973 -7.750683307647705 5.678146839141846 0.6445408463478088 0 3
11.317792892456055 -7.766035079956055 5.6521148681640625 0.6475093960762024 0 3
11.231562614440918 -7.781210899353027 5.626429080963135 0.6504655480384827 0 3
11.146093368530273 -7.796288967132568 5.601092338562012 0.653407871723175 0 3
11.06136703491211 -7.811210632324219 5.576093673706055 0.6563373804092407 0 3
10.863574028015137 -7.744804382324219 5.493830680847168 0.6661723852157593 0 3
10.781347274780273 -7.75939416885376 5.469794273376465 0.6618831157684326 0 3
10.699647903442383 -7.773749828338623 5.446010112762451 0.6647745966911316 0 3
10.645370483398438 -7.807538986206055 5.4361677169799805 0.6388105750083923 0 3
10.660390853881836 -7.89236307144165 5.4618425369262695 0.635806679725647 0 3
10.580937385559082 -7.907285213470459 5.439270973205566 0.6736332774162292 0 3
10.501112937927246 -7.921367168426514 5.416467189788818 0.676469087600708 0 3
7.866855144500732 -5.989824295043945 4.071537971496582 0.6793491244316101 0 3
7.8076171875 -6.000253677368164 4.0547776222229 0.682157576084137 0 3
7.748867034912109 -6.010624885559082 4.038234710693359 0.6849523186683655 0 3
7.690585613250732 -6.020878791809082 4.021909713745117 0.6877326369285583 0 3
7.632792949676514 -6.031074047088623 4.005792140960693 0.6904991865158081 0 3
7.575448989868164 -6.041191101074219 3.989884614944458 0.6932522058486938 0 3
7.518535137176514 -6.051230430603027 3.9741783142089844 0.6959915161132812 0 3
7.465722560882568 -6.064101219177246 3.96059250831604 0.6050660610198975 0 3
7.477265357971191 -6.129374980926514 3.981285333633423 0.6019229888916016 0 3
7.451406002044678 -6.164296627044678 3.9821996688842773 0.7040669918060303 0 3
7.395488262176514 -6.174160003662109 3.9670867919921875 0.706748902797699 0 3
7.33996057510376 -6.183964729309082 3.9521617889404297 0.7094178795814514 0 3
7.284882545471191 -6.193652153015137 3.937429666519165 0.7120718955993652 0 3
7.230214595794678 -6.203280925750732 3.9228875637054443 0.7147114872932434 0 3
7.175956726074219 -6.212851524353027 3.908533811569214 0.7173370122909546 0 3
7.1220703125 -6.222343444824219 3.894359588623047 0.7199475169181824 0 3
7.068593502044678 -6.231777191162109 3.8803629875183105 0.722544252872467 0 3
7.015488147735596 -6.241132736206055 3.8665482997894287 0.7251260280609131 0 3
6.962753772735596 -6.250429630279541 3.8529045581817627 0.727693498134613 0 3
6.910370826721191 -6.259648323059082 3.839440107345581 0.7302461266517639 0 3
6.763280868530273 -6.18191385269165 3.7730889320373535 0.73890620470047 0 3
6.712831974029541 -6.191308498382568 3.7604057788848877 0.7413979768753052 0 3
6.662734031677246 -6.200664043426514 3.7478833198547363 0.7438740730285645 0 3
6.612929344177246 -6.2099609375 3.7355291843414307 0.7463356852531433 0 3
6.563496112823486 -6.219179630279541 3.7233190536499023 0.7487822771072388 0 3
6.520566463470459 -6.234277248382568 3.714789390563965 0.5467044115066528 0 3
6.532538890838623 -6.302109241485596 3.737704277038574 0.5433533787727356 0 3
6.514023303985596 -6.34093713760376 3.743351459503174 0.7501327395439148 0 3
6.464667797088623 -6.349628925323486 3.731325626373291 0.7525505423545837 0 3
6.415624618530273 -6.358261585235596 3.719447612762451 0.7549542188644409 0 3
31.066015243530273 25.466033935546875 15.765501022338867 0.3523998260498047 0 9
31.379961013793945 25.48876953125 15.86661434173584 0.39508455991744995 0 9
31.67445182800293 25.492910385131836 15.957503318786621 0.39283427596092224 0 9
31.97265625 25.497323989868164 16.049924850463867 0.39057213068008423 0 9
32.27468490600586 25.502050399780273 16.143924713134766 0.38829803466796875 0 9
32.580623626708984 25.507108688354492 16.239530563354492 0.38601142168045044 0 9
25.15410041809082 18.97456932067871 12.366045951843262 0.18056620657444 0 9
30.495389938354492 22.78972625732422 14.941451072692871 0.9103758931159973 0 9
30.56216812133789 22.62660026550293 14.924277305603027 0.9114241600036621 0 9
30.628631591796875 22.46371078491211 14.9073486328125 0.9124587178230286 0 9
30.69478416442871 22.30107307434082 14.890687942504883 0.9134794473648071 0 9
30.760683059692383 22.138690948486328 14.874286651611328 0.9144866466522217 0 9
30.826229095458984 21.97652244567871 14.858146667480469 0.9154800176620483 0 9
21.01087760925293 14.837186813354492 10.094980239868164 0.03154832124710083 0 9
30.651405334472656 21.4395694732666 14.680534362792969 0.6453293561935425 0 9
24.97245979309082 17.3008975982666 11.923274993896484 0.8180387616157532 0 9
25.01775360107422 17.1666202545166 11.908007621765137 0.819087564945221 0 9
25.063026428222656 17.032752990722656 11.893035888671875 0.82011878490448 0 9
25.108182907104492 16.89923858642578 11.878361701965332 0.8211318254470825 0 9
25.153261184692383 16.766035079956055 11.863988876342773 0.8221269845962524 0 9
25.198299407958984 16.633222579956055 11.849897384643555 0.8231045007705688 0 9
25.2432804107666 16.500741958618164 11.83609676361084 0.8240640759468079 0 9
22.209335327148438 14.375663757324219 10.383171081542969 0.48369109630584717 0 9
22.189374923706055 14.22183609008789 10.343899726867676 0.48552781343460083 0 9
25.377832412719727 16.105215072631836 11.796431541442871 0.8268349766731262 0 9
25.422557830810547 15.97402286529541 11.783783912658691 0.8277224898338318 0 9
25.46724510192871 15.84310531616211 11.77140998840332 0.8285923004150391 0 9
23.66146469116211 14.572851181030273 10.906411170959473 0.38587144017219543 0 9
23.662343978881836 14.427324295043945 10.87686538696289 0.3640422224998474 0 9
23.95976448059082 14.461543083190918 10.983633995056152 0.36050379276275635 0 9
24.26283073425293 14.496288299560547 11.092617988586426 0.35696136951446533 0 9
24.571699142456055 14.531620979309082 11.203898429870605 0.35341617465019226 0 9
22.875898361206055 13.39046859741211 10.403158187866211 0.8330849409103394 0 9
22.925214767456055 13.28158187866211 10.398390769958496 0.8334668278694153 0 9
22.94349479675293 13.154999732971191 10.379792213439941 0.952852725982666 0 9
23.020429611206055 13.06216812133789 10.38796615600586 0.9521029591560364 0 9
23.073299407958984 12.9556245803833 10.385485649108887 0.8345025777816772 0 9
22.658632278442383 12.589374542236328 10.173299789428711 0.030389845371246338 0 9
23.17203140258789 12.738847732543945 10.378035545349121 0.8351017832756042 0 9
23.221385955810547 12.63060474395752 10.374654769897461 0.8353737592697144 0 9
23.270780563354492 12.522480010986328 10.371502876281738 0.8356276154518127 0 9
23.320194244384766 12.414413452148438 10.368581771850586 0.8358631134033203 0 9
23.36958885192871 12.306445121765137 10.365894317626953 0.836080014705658 0 9
23.222694396972656 12.0962495803833 10.276551246643066 0.4196670651435852 0 9
23.18355369567871 11.9439058303833 10.235401153564453 0.42135345935821533 0 9
23.18845558166504 11.815038681030273 10.2140474319458 0.39530256390571594 0 9
23.567440032958984 11.875214576721191 10.35740852355957 0.8367649912834167 0 9
23.616952896118164 11.767539024353027 10.355857849121094 0.8368902802467346 0 9
23.618026733398438 11.636054039001465 10.333325386047363 0.5465143918991089 0 9
23.576053619384766 11.484198570251465 10.29229736328125 0.5486927032470703 0 9
23.47249984741211 11.303690910339355 10.224844932556152 0.3492969274520874 0 9
23.26611328125 11.075937271118164 10.11319637298584 0.353153258562088 0 9
23.452890396118164 11.03603458404541 10.172741889953613 0.5551414489746094 0 9
23.4127140045166 10.889022827148438 10.134012222290039 0.5572631359100342 0 9
23.372968673706055 10.743203163146973 10.095833778381348 0.5593702793121338 0 9
23.128007888793945 10.505175590515137 9.96956729888916 0.511828601360321 0 9
23.337615966796875 10.47427749633789 10.039548873901367 0.5082605481147766 0 9
23.55013656616211 10.4429292678833 10.11071491241455 0.5046831369400024 0 9
23.765682220458984 10.4111328125 10.183088302612305 0.5010963678359985 0 9
23.984296798706055 10.378867149353027 10.256698608398438 0.4974999725818634 0 9
24.206092834472656 10.34609317779541 10.331588745117188 0.49389412999153137 0 9
24.43111228942871 10.312850952148438 10.407764434814453 0.49027910828590393 0 9
24.659414291381836 10.279062271118164 10.485270500183105 0.48665499687194824 0 9
24.89111328125 10.24478530883789 10.564132690429688 0.4830220341682434 0 9
25.12630844116211 10.209940910339355 10.644401550292969 0.4793795347213745 0 9
25.365097045898438 10.174609184265137 10.72609806060791 0.4757280945777893 0 9
25.25925636291504 10.000781059265137 10.662263870239258 0.4048280119895935 0 9
25.075605392456055 9.798124313354492 10.566080093383789 0.4085131287574768 0 9
24.895076751708984 9.59902286529541 10.471750259399414 0.4121929407119751 0 9
24.71759796142578 9.4033784866333 10.379232406616211 0.41586703062057495 0 9
24.543046951293945 9.21109390258789 10.288474082946777 0.41953569650650024 0 9
24.371366500854492 9.022069931030273 10.199423789978027 0.42319852113723755 0 9
25.5845890045166 9.3408784866333 10.689515113830566 0.7258286476135254 0 9
25.612051010131836 9.220839500427246 10.683578491210938 0.7262317538261414 0 9
25.639179229736328 9.100820541381836 10.677770614624023 0.7266270518302917 0 9
25.6661319732666 8.980897903442383 10.672086715698242 0.7270141839981079 0 9
36.448848724365234 11.66234302520752 15.019549369812012 0.3506016135215759 0 9
36.854217529296875 11.609960556030273 15.164976119995117 0.34723997116088867 0 9
14.306991577148438 -1.1582812070846558 5.633434772491455 0.9162372350692749 0 6
14.296210289001465 -1.2220312356948853 5.631302833557129 0.7993211150169373 0 6
14.313554763793945 -1.677832007408142 5.656110763549805 0.6124891638755798 0 6
14.29525375366211 -1.7407811880111694 5.651915550231934 0.9900995492935181 0 6
14.302206993103027 -2.728281259536743 5.714409828186035 0.39461976289749146 0 6
20.064218521118164 -6.12332010269165 8.233174324035645 0.42167335748672485 0 3
19.861347198486328 -6.158945083618164 8.161174774169922 0.42539334297180176 0 3
19.682811737060547 -6.200566291809082 8.099167823791504 0.8252901434898376 0 3
19.522441864013672 -6.246503829956055 8.044642448425293 0.43234825134277344 0 3
19.3291015625 -6.280429363250732 7.97650671005249 0.4360393285751343 0 3
19.13900375366211 -6.313730239868164 7.909670829772949 0.43972355127334595 0 3
18.953319549560547 -6.346933364868164 7.844626426696777 0.45892518758773804 0 3
18.77568244934082 -6.381328105926514 7.782883644104004 0.4315046966075897 0 3
18.5894718170166 -6.411230087280273 7.717533588409424 0.43515855073928833 0 3
18.372461318969727 -6.428808212280273 7.639354705810547 0.5098727345466614 0 3
18.215253829956055 -6.465683460235596 7.5859694480896 0.513460636138916 0 3
18.0601749420166 -6.502050399780273 7.533459186553955 0.5170395374298096 0 3
17.908594131469727 -6.538398265838623 7.482398986816406 0.5683982372283936 0 3
17.77408218383789 -6.579882621765137 7.43847131729126 0.5717554092407227 0 3
17.641094207763672 -6.620820045471191 7.395171165466309 0.5751029253005981 0 3
17.50956916809082 -6.661230087280273 7.352485179901123 0.578441858291626 0 3
17.373319625854492 -6.698827743530273 7.307833194732666 0.48052096366882324 0 3
17.215097427368164 -6.726698875427246 7.253895282745361 0.48409417271614075 0 3
17.059160232543945 -6.75417947769165 7.2008891105651855 0.48765742778778076 0 3
16.905487060546875 -6.781269550323486 7.148797988891602 0.4912106692790985 0 3
16.754003524780273 -6.807968616485596 7.097596168518066 0.4947543144226074 0 3
16.604705810546875 -6.83425760269165 7.047264099121094 0.49828797578811646 0 3
16.281328201293945 -6.786777019500732 6.922881126403809 0.5062468647956848 0 3
16.138710021972656 -6.8125 6.875171184539795 0.5097601413726807 0 3
15.998026847839355 -6.837871074676514 6.828245639801025 0.5132631659507751 0 3
15.859296798706055 -6.862890243530273 6.782096862792969 0.5167557001113892 0 3
15.722343444824219 -6.887617111206055 6.736696720123291 0.5202382206916809 0 3
15.603866577148438 -6.919355392456055 6.6991705894470215 0.36656978726387024 0 3
15.57275390625 -6.989355087280273 6.699215412139893 0.366567462682724 0 3
15.499882698059082 -7.040390491485596 6.6813788414001465 0.5261867046356201 0 3
15.188905715942383 -6.981523513793945 6.560780048370361 0.523348867893219 0 3
15.058124542236328 -7.00341796875 6.517793655395508 0.5268005728721619 0 3
15.031386375427246 -7.073222637176514 6.519894123077393 0.7601484060287476 0 3
14.9590425491333 -7.121347427368164 6.502308368682861 0.42525267601013184 0 3
14.801542282104492 -7.128026962280273 6.447696208953857 0.5505782961845398 0 3
14.67910099029541 -7.150410175323486 6.408279895782471 0.5539644956588745 0 3
14.558202743530273 -7.172519207000732 6.369473934173584 0.5573391318321228 0 3
14.438691139221191 -7.194375038146973 6.3312668800354 0.5607030391693115 0 3
14.32064437866211 -7.215956687927246 6.293636322021484 0.5640556216239929 0 3
14.20394515991211 -7.237285137176514 6.256568431854248 0.5673971176147461 0 3
14.088651657104492 -7.258359432220459 6.220064163208008 0.5707272291183472 0 3
13.974687576293945 -7.279179573059082 6.184103488922119 0.5740458965301514 0 3
13.861991882324219 -7.299785137176514 6.148679733276367 0.5773536562919617 0 3
13.75357437133789 -7.321699142456055 6.115105628967285 0.6872411966323853 0 3
13.52017593383789 -7.27550745010376 6.025773048400879 0.5843194127082825 0 3
13.412558555603027 -7.295429706573486 5.992347717285156 0.5795916318893433 0 3
13.306581497192383 -7.315331935882568 5.959620952606201 0.7249560356140137 0 3
13.321855545043945 -7.401777267456055 5.981266498565674 0.7223308086395264 0 3
13.245878219604492 -7.437577724456787 5.962080478668213 0.5896735787391663 0 3
13.140487670898438 -7.456151962280273 5.929634094238281 0.5928998589515686 0 3
13.0361909866333 -7.474531173706055 5.897664546966553 0.5961140394210815 0 3
12.933066368103027 -7.492695331573486 5.866148471832275 0.5993163585662842 0 3
12.830976486206055 -7.510703086853027 5.835083961486816 0.602503776550293 0 3
12.729999542236328 -7.528476238250732 5.804468631744385 0.6056817770004272 0 3
12.630078315734863 -7.546113014221191 5.774285793304443 0.6088476777076721 0 3
12.53115177154541 -7.563515663146973 5.744531631469727 0.6120015382766724 0 3
12.43326187133789 -7.580780982971191 5.7151923179626465 0.6151430606842041 0 3
12.194120407104492 -7.510234355926514 5.620696067810059 0.6188132166862488 0 3
12.099374771118164 -7.527011394500732 5.592545509338379 0.6219281554222107 0 3
12.005078315734863 -7.543320178985596 5.564566612243652 0.6189876198768616 0 3
12.005682945251465 -7.619023323059082 5.580617427825928 0.6869019269943237 0 3
11.944375038146973 -7.65554666519165 5.568043231964111 0.6306644678115845 0 3
11.85228443145752 -7.671757698059082 5.541102886199951 0.6337307095527649 0 3
11.761054039001465 -7.687851428985596 5.5145368576049805 0.6367838382720947 0 3
11.670682907104492 -7.703769207000732 5.48832893371582 0.639824390411377 0 3
11.58121109008789 -7.719531059265137 5.462482929229736 0.6428519487380981 0 3
11.492558479309082 -7.735156059265137 5.436988830566406 0.6458665132522583 0 3
11.404746055603027 -7.750624656677246 5.411832809448242 0.6488680839538574 0 3
11.317694664001465 -7.765976428985596 5.387025833129883 0.651856541633606 0 3
11.063769340515137 -7.664999961853027 5.28248405456543 0.6543785929679871 0 3
10.979589462280273 -7.67980432510376 5.25868558883667 0.6578823328018188 0 3
10.89615249633789 -7.694550514221191 5.235225200653076 0.6608307361602783 0 3
10.797616958618164 -7.69775390625 5.204399108886719 0.5419263243675232 0 3
10.714609146118164 -7.711367130279541 5.181041240692139 0.7488341331481934 0 3
10.647753715515137 -7.736015319824219 5.165437698364258 0.7512303590774536 0 3
10.60732364654541 -7.779667854309082 5.162731170654297 0.3661547005176544 0 3
10.572461128234863 -7.82726526260376 5.162786960601807 0.3664212226867676 0 3
10.537323951721191 -7.874706745147705 5.162837028503418 0.36641764640808105 0 3
10.488261222839355 -7.911679744720459 5.15615177154541 0.653354287147522 0 3
7.86681604385376 -5.989804744720459 3.8805949687957764 0.6839068531990051 0 3
7.807578086853027 -6.000234127044678 3.8646202087402344 0.6867341995239258 0 3
7.748867034912109 -6.010605335235596 3.8488543033599854 0.6895467638969421 0 3
7.690566062927246 -6.020878791809082 3.8332903385162354 0.6923465132713318 0 3
7.632734298706055 -6.031074047088623 3.81792950630188 0.6951322555541992 0 3
7.575429439544678 -6.041171550750732 3.8027684688568115 0.697903037071228 0 3
7.518515586853027 -6.051210880279541 3.7878081798553467 0.7006604075431824 0 3
7.465409755706787 -6.063847541809082 3.7747044563293457 0.6091496348381042 0 3
7.476913928985596 -6.129140377044678 3.7943975925445557 0.605986475944519 0 3
7.451366901397705 -6.164257526397705 3.795428991317749 0.7087928056716919 0 3
7.395429611206055 -6.174120903015137 3.781026601791382 0.7114933729171753 0 3
7.339921474456787 -6.183925628662109 3.7668066024780273 0.7141798734664917 0 3
7.284843444824219 -6.193593502044678 3.752763032913208 0.7168520092964172 0 3
7.230195045471191 -6.20324182510376 3.7389068603515625 0.7195091843605042 0 3
7.17589807510376 -6.212812423706055 3.7252197265625 0.7221522927284241 0 3
7.122050762176514 -6.222304344177246 3.7117114067077637 0.7247803211212158 0 3
7.068534851074219 -6.231738090515137 3.698375701904297 0.7273944020271301 0 3
7.015429496765137 -6.241093635559082 3.6852030754089355 0.7299936413764954 0 3
6.96267557144165 -6.250410079956055 3.672206401824951 0.7325780987739563 0 3
6.910312175750732 -6.259628772735596 3.659365653991699 0.7351478338241577 0 3
6.763554573059082 -6.182168006896973 3.596303701400757 0.7438294291496277 0 3
6.713124752044678 -6.191581726074219 3.5842204093933105 0.7463375926017761 0 3
6.663007736206055 -6.200937271118164 3.5722837448120117 0.7488300204277039 0 3
6.613222599029541 -6.210214614868164 3.5605039596557617 0.7513089179992676 0 3
6.563515663146973 -6.219218730926514 3.5487279891967773 0.747900128364563 0 3
6.520253658294678 -6.233984470367432 3.5404350757598877 0.550395667552948 0 3
6.532246112823486 -6.301816463470459 3.5622692108154297 0.5470221638679504 0 3
6.513984203338623 -6.340878963470459 3.5677897930145264 0.7551677823066711 0 3
6.464609146118164 -6.349589824676514 3.556323766708374 0.7576025724411011 0 3
6.415585994720459 -6.358202934265137 3.5450048446655273 0.7600215673446655 0 3
23.460351943969727 19.94609260559082 11.49860954284668 0.9547942280769348 0 9
23.55531120300293 19.84539031982422 11.501378059387207 0.9545642137527466 0 9
23.65019416809082 19.744531631469727 11.5043306350708 0.9543193578720093 0 9
23.745038986206055 19.643535614013672 11.507461547851562 0.9540594816207886 0 9
23.83984375 19.542402267456055 11.510781288146973 0.953784704208374 0 9
23.9345703125 19.441112518310547 11.514280319213867 0.9534950256347656 0 9
24.02925682067871 19.33968734741211 11.517951011657715 0.9531900882720947 0 9
24.123926162719727 19.23808479309082 11.521824836730957 0.9528706669807434 0 9
24.218515396118164 19.1363468170166 11.52586841583252 0.9525362253189087 0 9
24.313045501708984 19.034452438354492 11.530094146728516 0.9521868228912354 0 9
24.407577514648438 18.932382583618164 11.534512519836426 0.9518225789070129 0 9
24.502050399780273 18.830156326293945 11.539112091064453 0.9514435529708862 0 9
24.350936889648438 18.540781021118164 11.428632736206055 0.1870756596326828 0 9
24.009628295898438 18.111249923706055 11.230182647705078 0.19038155674934387 0 9
23.68035125732422 17.696680068969727 11.03890609741211 0.19368025660514832 0 9
24.055936813354492 17.8096866607666 11.176617622375488 0.2512924373149872 0 9
23.857519149780273 17.49755859375 11.047831535339355 0.25422197580337524 0 9
25.06833839416504 18.213144302368164 11.57056713104248 0.9488561749458313 0 9
25.162635803222656 18.10968780517578 11.576460838317871 0.9483730792999268 0 9
20.061758041381836 14.302285194396973 9.200094223022461 0.8696271181106567 0 9
20.166229248046875 14.240702629089355 9.218609809875488 0.8678802847862244 0 9
20.271074295043945 14.178808212280273 9.237345695495605 0.8661197423934937 0 9
20.376230239868164 14.116621017456055 9.256304740905762 0.864345908164978 0 9
20.481718063354492 14.054081916809082 9.27548599243164 0.8625584840774536 0 9
20.587615966796875 13.991250038146973 9.294893264770508 0.8607574105262756 0 9
20.69380760192871 13.928085327148438 9.314526557922363 0.8589431047439575 0 9
20.800350189208984 13.864550590515137 9.334386825561523 0.857115626335144 0 9
20.907283782958984 13.800722122192383 9.354479789733887 0.8552744388580322 0 9
21.014551162719727 13.736522674560547 9.374807357788086 0.853420078754425 0 9
21.12222671508789 13.671992301940918 9.395367622375488 0.8515524864196777 0 9
21.230253219604492 13.607109069824219 9.416163444519043 0.8496716022491455 0 9
21.33867073059082 13.541874885559082 9.437201499938965 0.8477773666381836 0 9
20.572832107543945 12.926698684692383 9.072752952575684 0.5247322916984558 0 9
