ply
format ascii 1.0
element vertex 1395
property float32 x
property float32 y
property float32 z
property float32 CosAngle
property uint32 ObjIdx
property uint32 ObjTag
end_header
19.5564 -4.2543 10.0628 0.3326 0 9
21.2798 -3.0597 10.8094 0.9768 0 9
8.4876 -8.4876 5.9117 0.9913 0 9
12.3340 -10.6876 8.0378 0.8443 0 9
18.2684 -13.6757 11.2390 0.6147 0 9
18.6248 -11.9696 10.9038 0.7848 0 9
18.2578 -9.9696 10.2453 0.2634 0 9
21.6415 -9.8835 11.7175 0.6347 0 9
18.6997 -6.9747 9.8294 0.7011 0 9
16.8742 -4.9548 8.6615 0.4633 0 9
19.6954 -4.2846 9.9270 0.9570 0 9
21.3309 -3.0670 10.6136 0.9785 0 9
8.5229 -8.5231 5.8133 0.9912 0 9
12.3310 -10.6849 7.8694 0.8479 0 9
18.4421 -13.8057 11.1108 0.6114 0 9
19.1234 -12.2900 10.9637 0.4414 0 9
21.1328 -11.5395 11.6129 0.8348 0 9
21.5135 -9.8249 11.4067 0.6410 0 9
18.6477 -6.9553 9.5990 0.7059 0 9
17.1368 -5.0319 8.6140 0.4580 0 9
19.7549 -4.2975 9.7506 0.7014 0 9
21.1151 -3.0360 10.2885 0.4451 0 9
8.5584 -8.5585 5.7149 0.9910 0 9
13.0983 -11.3498 8.1836 0.8760 0 9
18.4173 -13.7871 10.8629 0.5225 0 9
19.3397 -12.4290 10.8550 0.6972 0 9
21.1945 -11.5732 11.4023 0.8356 0 9
16.4695 -7.5215 8.5491 0.7488 0 9
18.5963 -6.9362 9.3716 0.7106 0 9
17.4054 -5.1108 8.5654 0.4527 0 9
19.7445 -4.2953 9.5409 0.7045 0 9
21.4327 -3.0817 10.2241 0.9816 0 9
8.5938 -8.5939 5.6165 0.9907 0 9
13.1359 -11.3823 8.0324 0.8768 0 9
18.1383 -13.5782 10.4707 0.5788 0 9
19.2607 -12.3782 10.5806 0.7027 0 9
21.2562 -11.6068 11.1922 0.8364 0 9
16.6299 -7.5947 8.4487 0.7445 0 9
16.5707 -6.1807 8.1732 0.7696 0 9
17.6804 -5.1915 8.5156 0.4474 0 9
19.7342 -4.2930 9.3331 0.7076 0 9
21.4833 -3.0890 10.0302 0.9831 0 9
35.7852 -2.5595 16.5797 0.9018 0 9
8.6292 -8.6293 5.5180 0.9903 0 9
13.1733 -11.4148 7.8816 0.8776 0 9
18.2615 -13.6704 10.3145 0.5842 0 9
19.1829 -12.3282 10.3105 0.7083 0 9
20.9378 -11.4330 10.7867 0.8268 0 9
16.7922 -7.6688 8.3471 0.7401 0 9
16.7271 -6.2390 8.0723 0.7653 0 9
16.6306 -4.8833 7.8372 0.7882 0 9
19.7239 -4.2908 9.1270 0.7107 0 9
21.5337 -3.0962 9.8369 0.9845 0 9
35.9325 -2.5700 16.2888 0.8827 0 9
8.6647 -8.6648 5.4195 0.9899 0 9
13.2107 -11.4473 7.7310 0.8784 0 9
18.2855 -13.6884 10.1020 0.6680 0 9
18.2591 -11.7345 9.5992 0.8682 0 9
21.2757 -11.6175 10.7210 0.5550 0 9
16.9564 -7.7438 8.2443 0.7356 0 9
16.8853 -6.2980 7.9704 0.7609 0 9
16.7833 -4.9281 7.7361 0.7839 0 9
19.5269 -4.2479 8.8381 0.6885 0 9
21.5841 -3.1034 9.6441 0.9858 0 9
36.1438 -2.5852 16.0261 0.8808 0 9
8.7002 -8.7003 5.3208 0.9894 0 9
16.8146 -14.5700 9.6214 0.8946 0 9
18.2361 -13.6514 9.8510 0.6722 0 9
18.2526 -11.7304 9.3827 0.8717 0 9
21.1731 -11.5615 10.4323 0.5597 0 9
23.4987 -10.7316 11.1714 0.9722 0 9
16.5702 -6.1804 7.6479 0.4713 0 9
16.9376 -4.9734 7.6338 0.7796 0 9
19.7037 -4.2864 8.7201 0.7166 0 9
21.6343 -3.1106 9.4518 0.9871 0 9
35.6807 -2.5520 15.4694 0.9048 0 9
12.5787 4.6916 5.8056 0.9884 0 6
8.7358 -8.7358 5.2221 0.9889 0 9
16.8793 -14.6261 9.4406 0.8944 0 9
18.1384 -13.5784 9.5772 0.0640 0 9
18.2463 -11.7263 9.1679 0.8750 0 9
15.1164 -8.2543 7.2801 0.5668 0 9
15.4889 -7.0737 7.1975 0.8169 0 9
16.5359 -6.1677 7.4599 0.1947 0 9
17.0936 -5.0192 7.5304 0.7752 0 9
19.6938 -4.2842 8.5191 0.7195 0 9
21.6844 -3.1178 9.2601 0.9883 0 9
34.7413 -2.4848 14.7224 0.2298 0 9
8.7714 -8.7714 5.1232 0.9883 0 9
16.9440 -14.6822 9.2597 0.8940 0 9
18.1391 -13.5788 9.3581 0.6805 0 9
18.2399 -11.7222 8.9547 0.8784 0 9
15.1748 -8.2862 7.1408 0.5666 0 9
15.5944 -7.1218 7.0804 0.8142 0 9
16.2284 -6.0530 7.1535 0.1990 0 9
17.2514 -5.0656 7.4258 0.7708 0 9
19.6839 -4.2821 8.3197 0.7223 0 9
21.8114 -3.1361 9.1009 0.6600 0 9
34.9840 -2.5022 14.4855 0.8072 0 9
8.8069 -8.8071 5.0242 0.9876 0 9
17.0088 -14.7384 9.0786 0.8936 0 9
17.8400 -13.3550 8.9895 0.2077 0 9
18.2336 -11.7182 8.7431 0.8816 0 9
15.2333 -8.3181 7.0013 0.5663 0 9
15.7005 -7.1703 6.9626 0.8114 0 9
15.9341 -5.9432 6.8601 0.2034 0 9
17.4111 -5.1125 7.3199 0.7663 0 9
20.1843 -4.3909 8.3325 0.3430 0 9
21.2040 -3.0488 8.6413 0.8868 0 9
35.3159 -2.5259 14.2824 0.8024 0 9
8.8427 -8.8428 4.9250 0.9869 0 9
17.0737 -14.7945 8.8973 0.8932 0 9
18.0444 -13.5079 8.8771 0.6886 0 9
14.5844 -9.3729 6.8276 0.9243 0 9
15.2918 -8.3501 6.8617 0.5660 0 9
15.8074 -7.2191 6.8439 0.8086 0 9
17.5960 -6.5630 7.3962 0.4500 0 9
17.5727 -5.1599 7.2128 0.7617 0 9
20.1005 -4.3727 8.1014 0.2885 0 9
21.1845 -3.0460 8.4289 0.8906 0 9
34.5347 -2.4701 13.6356 0.4221 0 9
12.5591 -12.5592 6.8263 0.8977 0 9
17.1386 -14.8508 8.7159 0.8926 0 9
17.9979 -13.4731 8.6407 0.6926 0 9
14.6813 -9.4352 6.7073 0.9212 0 9
15.3504 -8.3821 6.7220 0.5657 0 9
15.9150 -7.2683 6.7244 0.8057 0 9
16.5898 -6.1878 6.8051 0.9343 0 9
17.7362 -5.2079 7.1045 0.7571 0 9
20.2710 -4.4098 7.9731 0.2870 0 9
21.1651 -3.0432 8.2182 0.8942 0 9
34.4156 -2.4615 13.2610 0.4249 0 9
12.2317 5.5860 5.1681 0.4303 0 6
12.5594 -12.5595 6.6589 0.9005 0 9
17.2036 -14.9071 8.5342 0.8920 0 9
17.0425 -12.7580 7.9812 0.9063 0 9
14.7789 -9.4979 6.5862 0.9180 0 9
15.4091 -8.4141 6.5820 0.5653 0 9
16.0235 -7.3178 6.6040 0.8027 0 9
16.6498 -6.2102 6.6621 0.9338 0 9
17.7992 -5.2264 6.9547 0.5584 0 9
20.4433 -4.4472 7.8435 0.2854 0 9
21.1459 -3.0404 8.0092 0.8979 0 9
34.2678 -2.4510 12.8799 0.3970 0 9
35.9886 -0.0001 13.4922 0.5410 0 9
12.5597 -12.5598 6.4926 0.9032 0 9
17.2687 -14.9636 8.3522 0.8914 0 9
17.0369 -12.7537 7.7791 0.9094 0 9
14.8771 -9.5611 6.4642 0.9147 0 9
15.4678 -8.4462 6.4419 0.5648 0 9
16.1326 -7.3677 6.4828 0.7997 0 9
16.7100 -6.2326 6.5190 0.9333 0 9
17.6591 -5.1853 6.7274 0.5831 0 9
20.5730 -4.4755 7.6959 0.3408 0 9
22.1062 -3.1785 8.1635 0.9851 0 9
34.1185 -2.4403 12.5031 0.3999 0 9
14.5731 12.6277 7.0485 0.1643 0 3
9.8471 -9.8472 4.9605 0.7908 0 9
25.8025 -22.3580 12.1615 0.7341 0 9
17.0313 -12.7496 7.5782 0.9124 0 9
14.9761 -9.6247 6.3413 0.9113 0 9
15.5267 -8.4783 6.3015 0.5644 0 9
16.2427 -7.4179 6.3606 0.7967 0 9
16.7702 -6.2551 6.3757 0.9327 0 9
17.7016 -5.1977 6.5716 0.5834 0 9
20.6710 -4.4968 7.5354 0.3402 0 9
22.1488 -3.1846 7.9707 0.9862 0 9
33.9713 -2.4298 12.1318 0.4029 0 9
14.2233 12.3246 6.7039 0.3572 0 3
9.8605 -9.8606 4.8381 0.7920 0 9
25.6949 -22.2648 11.7958 0.7393 0 9
17.0258 -12.7454 7.3787 0.9153 0 9
15.0759 -9.6887 6.2174 0.9079 0 9
15.5856 -8.5105 6.1609 0.5639 0 9
15.8196 -7.2247 6.0338 0.4337 0 9
16.8305 -6.2776 6.2322 0.9321 0 9
17.7440 -5.2102 6.4161 0.5837 0 9
20.9809 -4.5642 7.4494 0.9013 0 9
22.1914 -3.1907 7.7783 0.9871 0 9
33.9542 -2.4285 11.8103 0.4359 0 9
14.8963 12.9077 6.8385 0.3114 0 3
9.8739 -9.8740 4.7160 0.7932 0 9
24.5355 -21.2601 10.9645 0.1612 0 9
17.0203 -12.7413 7.1805 0.9182 0 9
15.1763 -9.7533 6.0927 0.9045 0 9
15.2947 -8.3516 5.8854 0.8210 0 9
16.0639 -7.3362 5.9643 0.4284 0 9
16.8909 -6.3001 6.0885 0.9314 0 9
17.7864 -5.2227 6.2606 0.5840 0 9
21.8316 -4.7493 7.5456 0.9933 0 9
32.1013 -4.6156 10.9531 0.8445 0 9
35.6134 -2.5472 12.0585 0.9459 0 9
34.8527 -0.0001 11.7708 0.5523 0 9
14.8893 12.9016 6.6538 0.3124 0 3
9.8873 -9.8874 4.5943 0.7943 0 9
24.6794 -21.3848 10.7296 0.1607 0 9
18.8325 -14.0979 7.7295 0.8039 0 9
15.2776 -9.8184 5.9670 0.9010 0 9
15.3954 -8.4066 5.7635 0.8179 0 9
16.3145 -7.4506 5.8930 0.4229 0 9
16.9514 -6.3226 5.9445 0.9306 0 9
19.7820 -5.8086 6.7742 0.6597 0 9
21.8730 -4.7583 7.3549 0.9942 0 9
32.0353 -4.6061 10.6341 0.8486 0 9
35.6748 -2.5516 11.7516 0.9468 0 9
32.0146 -0.0001 10.5190 0.8875 0 9
14.8823 12.8956 6.4702 0.3134 0 3
9.9006 -9.9007 4.4729 0.7954 0 9
24.8241 -21.5103 10.4933 0.1601 0 9
18.7694 -14.0507 7.4900 0.8088 0 9
15.3796 -9.8840 5.8403 0.8974 0 9
15.7632 -8.6074 5.7375 0.5621 0 9
16.5715 -7.5680 5.8198 0.4175 0 9
17.0120 -6.3453 5.8003 0.9298 0 9
19.7223 -5.7911 6.5665 0.6635 0 9
21.9144 -4.7673 7.1645 0.9950 0 9
34.4422 -4.9521 11.1160 0.7626 0 9
32.1336 -0.0001 10.2653 0.8866 0 9
14.8754 12.8896 6.2879 0.3144 0 3
9.9139 -9.9140 4.3519 0.7964 0 9
24.9698 -21.6365 10.2554 0.1596 0 9
18.7071 -14.0040 7.2533 0.8136 0 9
14.5018 -9.3199 5.3507 0.0350 0 9
15.8226 -8.6399 5.5957 0.5615 0 9
16.8063 -7.6753 5.7348 0.7806 0 9
17.0727 -6.3679 5.6559 0.9289 0 9
19.6633 -5.7738 6.3611 0.6672 0 9
21.9558 -4.7763 6.9744 0.9957 0 9
31.8509 -4.5796 9.9881 0.0217 0 9
32.2528 -0.0001 10.0111 0.8856 0 9
14.8686 12.8837 6.1067 0.3153 0 3
9.9272 -9.9273 4.2311 0.7973 0 9
25.1165 -21.7636 10.0160 0.1591 0 9
14.6614 -10.9755 5.5195 0.8448 0 9
15.4438 -9.9253 5.5327 0.8428 0 9
15.8821 -8.6724 5.4536 0.5608 0 9
16.9219 -7.7281 5.6065 0.7772 0 9
17.1335 -6.3905 5.5111 0.9279 0 9
19.6050 -5.7566 6.1579 0.6709 0 9
22.7241 -4.9434 7.0087 0.7304 0 9
34.2227 -4.9206 10.4200 0.7714 0 9
36.6672 -2.6226 11.0789 0.9893 0 9
32.3723 -0.0001 9.7563 0.8845 0 9
14.8617 12.8777 5.9266 0.3163 0 3
9.9404 -9.9405 4.1106 0.7982 0 9
25.2272 -21.8595 9.7606 0.8631 0 9
14.6214 -10.9456 5.3406 0.8492 0 9
15.4017 -9.8982 5.3534 0.8472 0 9
16.4694 -8.9931 5.4869 0.9894 0 9
17.0385 -7.7813 5.4771 0.7738 0 9
17.1944 -6.4133 5.3661 0.9269 0 9
22.1690 -6.5095 6.7560 0.1367 0 9
22.7032 -4.9389 6.7938 0.7329 0 9
34.1149 -4.9051 10.0780 0.7758 0 9
32.9585 -2.3573 9.6618 0.9370 0 9
32.4920 -0.0001 9.5008 0.8834 0 9
14.8549 12.8718 5.7475 0.3172 0 3
9.9536 -9.9537 3.9904 0.7990 0 9
14.0809 -12.2013 5.2817 0.9832 0 9
14.5819 -10.9160 5.1635 0.8535 0 9
15.3600 -9.8713 5.1758 0.8515 0 9
16.4951 -9.0072 5.3277 0.9902 0 9
17.1561 -7.8350 5.3465 0.7703 0 9
17.2555 -6.4361 5.2207 0.9258 0 9
21.7733 -6.3933 6.4328 0.1395 0 9
22.6825 -4.9344 6.5803 0.7353 0 9
34.0082 -4.8897 9.7396 0.7800 0 9
32.9380 -2.3559 9.3610 0.9398 0 9
32.5679 -0.0001 9.2322 0.4636 0 9
14.8482 12.8660 5.5695 0.3181 0 3
13.0872 -13.0873 5.0821 0.6062 0 9
14.0938 -12.2125 5.1208 0.9845 0 9
14.5428 -10.8867 4.9882 0.8578 0 9
15.3187 -9.8448 5.0001 0.8558 0 9
16.5208 -9.0211 5.1687 0.9910 0 9
17.3798 -7.9372 5.2464 0.9107 0 9
19.4320 -7.2479 5.6949 0.8937 0 9
21.3934 -6.2818 6.1224 0.1423 0 9
22.6619 -4.9299 6.3682 0.7376 0 9
34.1910 -4.9160 9.4850 0.3272 0 9
30.0183 -2.1470 8.2637 0.7677 0 9
30.6978 -0.0001 8.4293 0.1189 0 9
14.8415 12.8602 5.3924 0.3190 0 3
13.0140 -13.0141 4.8909 0.3315 0 9
14.1067 -12.2236 4.9603 0.9858 0 9
14.5041 -10.8577 4.8146 0.8620 0 9
15.2778 -9.8185 4.8260 0.8600 0 9
16.5464 -9.0351 5.0099 0.9917 0 9
17.3973 -7.9452 5.0825 0.9397 0 9
19.4072 -7.2387 5.5044 0.8968 0 9
21.0281 -6.1745 5.8239 0.1451 0 9
22.6414 -4.9255 6.1575 0.7400 0 9
38.2966 -5.5063 10.2816 0.4518 0 9
30.2775 -2.1656 8.0665 0.7629 0 9
32.8377 -0.0001 8.7263 0.4470 0 9
14.8348 12.8544 5.2163 0.3198 0 3
12.7715 -12.7715 4.6406 0.5044 0 9
14.1196 -12.2348 4.8003 0.9871 0 9
14.4657 -10.8290 4.6427 0.8661 0 9
15.2373 -9.7925 4.6537 0.8641 0 9
16.9719 -9.2674 4.9684 0.8913 0 9
17.3944 -7.9439 4.9132 0.9419 0 9
19.3826 -7.2295 5.3151 0.8999 0 9
22.8489 -6.7091 6.1184 0.5556 0 9
22.6211 -4.9210 5.9480 0.7422 0 9
34.9590 -5.0264 9.0744 0.7731 0 9
30.5401 -2.1843 7.8668 0.7579 0 9
29.9795 -0.0001 7.7027 0.7741 0 9
17.4686 11.2264 5.3352 0.9375 0 3
16.8570 12.6190 5.4102 0.9245 0 3
14.9553 12.9589 5.0844 0.2712 0 3
11.7127 -11.7128 4.1106 0.5625 0 9
14.1324 -12.2459 4.6406 0.9882 0 9
26.4747 -19.8188 8.2069 0.8504 0 9
15.1971 -9.7667 4.4830 0.8682 0 9
16.9412 -9.2507 4.7901 0.8948 0 9
17.3912 -7.9424 4.7446 0.9034 0 9
19.3582 -7.2204 5.1272 0.9029 0 9
21.4624 -6.3020 5.5510 0.9025 0 9
22.6009 -4.9166 5.7398 0.7444 0 9
29.4654 -4.2366 7.3873 0.5502 0 9
30.0322 -2.1480 7.4718 0.9589 0 9
30.2352 -0.0001 7.5032 0.7691 0 9
17.8121 11.4471 5.2544 0.2512 0 3
16.9401 12.6811 5.2513 0.9219 0 3
15.0953 13.0801 4.9567 0.3215 0 3
11.7786 -11.7787 3.9882 0.8764 0 9
14.1452 -12.2571 4.4813 0.9893 0 9
26.4593 -19.8073 7.9134 0.8526 0 9
15.1574 -9.7411 4.3139 0.8722 0 9
16.9109 -9.2341 4.6132 0.8982 0 9
17.3603 -7.9283 4.5694 0.9068 0 9
19.3340 -7.2113 4.9405 0.9058 0 9
18.6953 -5.4895 4.6651 0.4599 0 9
22.2082 -4.8312 5.4416 0.7777 0 9
27.9614 -4.0203 6.7635 0.8269 0 9
30.0787 -2.1514 7.2200 0.9593 0 9
30.4941 -0.0001 7.3010 0.7641 0 9
18.4340 11.8468 5.2464 0.2433 0 3
17.0077 12.7318 5.0867 0.9353 0 3
15.0886 13.0744 4.7801 0.3223 0 3
11.7642 -11.7643 3.8386 0.8791 0 9
14.1580 -12.2681 4.3223 0.9903 0 9
26.4440 -19.7958 7.6214 0.8547 0 9
15.1180 -9.7159 4.1463 0.8762 0 9
16.8807 -9.2177 4.4376 0.9015 0 9
17.3296 -7.9143 4.3956 0.9102 0 9
19.3099 -7.2023 4.7550 0.9087 0 9
18.7117 -5.4944 4.4995 0.4604 0 9
22.3867 -4.8700 5.2859 0.7730 0 9
28.1595 -4.0488 6.5639 0.8227 0 9
28.8742 -2.0652 6.6790 0.5247 0 9
30.7565 -0.0001 7.0962 0.7591 0 9
19.0983 12.2737 5.2379 0.2353 0 3
17.0066 12.7310 4.9015 0.9372 0 3
15.0820 13.0686 4.6044 0.3230 0 3
11.7498 -11.7499 3.6898 0.8819 0 9
25.7157 -22.2828 7.5558 0.7885 0 9
16.9620 -12.6977 4.7049 0.9845 0 9
16.7815 -10.7849 4.4296 0.4947 0 9
16.8508 -9.2013 4.2633 0.9048 0 9
17.2992 -7.9004 4.2230 0.9135 0 9
19.2859 -7.1934 4.5707 0.9115 0 9
18.7281 -5.4992 4.3342 0.4609 0 9
22.5674 -4.9093 5.1284 0.7682 0 9
28.3597 -4.0776 6.3622 0.8184 0 9
29.1632 -2.0859 6.4924 0.5205 0 9
31.0224 -0.0001 6.8887 0.7540 0 9
19.8094 12.7308 5.2288 0.2272 0 3
17.0054 12.7301 4.7170 0.9390 0 3
15.0753 13.0628 4.4295 0.3238 0 3
11.7355 -11.7356 3.5420 0.8845 0 9
25.6369 -22.2145 7.2397 0.7923 0 9
16.9792 -12.7105 4.5265 0.9852 0 9
17.1343 -11.0117 4.3468 0.7887 0 9
17.0767 -9.3247 4.1524 0.9347 0 9
17.2690 -7.8866 4.0517 0.9167 0 9
19.2621 -7.1845 4.3875 0.9143 0 9
18.7444 -5.5040 4.1693 0.4613 0 9
22.7503 -4.9491 4.9689 0.7634 0 9
28.5620 -4.1067 6.1583 0.8141 0 9
29.4569 -2.1069 6.3027 0.5162 0 9
30.8017 -0.0001 6.5736 0.7757 0 9
20.5726 13.2212 5.2191 0.2192 0 3
17.0043 12.7292 4.5332 0.9408 0 3
15.0687 13.0571 4.2553 0.3245 0 3
11.7213 -11.7214 3.3951 0.8871 0 9
33.8029 -29.2904 9.1608 0.7061 0 9
16.9963 -12.7234 4.3484 0.9859 0 9
17.2667 -11.0967 4.2038 0.7840 0 9
17.0738 -9.3231 3.9843 0.9365 0 9
24.3410 -11.1163 5.4806 0.7294 0 9
19.2384 -7.1757 4.2054 0.9170 0 9
18.7608 -5.5087 4.0047 0.4617 0 9
22.9356 -4.9894 4.8074 0.7585 0 9
23.0838 -3.3190 4.7765 0.9375 0 9
29.2539 -2.0923 6.0069 0.5637 0 9
30.8480 -0.0001 6.3180 0.7759 0 9
27.8634 6.0613 5.8402 0.4130 0 6
21.3940 13.7491 5.2086 0.2111 0 3
17.0019 12.7275 4.3498 0.9577 0 3
15.0621 13.0514 4.0819 0.3252 0 3
11.7072 -11.7073 3.2490 0.8897 0 9
28.0358 -24.2932 7.2797 0.9891 0 9
17.0135 -12.7362 4.1705 0.9866 0 9
17.4007 -11.1829 4.0590 0.7792 0 9
17.6129 -9.6175 3.9380 0.9013 0 9
24.3871 -11.1373 5.2610 0.7292 0 9
19.2149 -7.1669 4.0244 0.9197 0 9
20.5195 -6.0252 4.1966 0.2249 0 9
23.0068 -5.0050 4.6203 0.2723 0 9
23.0897 -3.3199 4.5776 0.9388 0 9
29.5725 -2.1151 5.8180 0.5585 0 9
35.6004 -0.0001 6.9861 0.8528 0 9
22.2805 14.3188 5.1973 0.2031 0 3
17.0006 12.7265 4.1673 0.9594 0 3
15.0556 13.0458 3.9093 0.3259 0 3
11.6932 -11.6933 3.1037 0.8921 0 9
28.0479 -24.3037 6.9655 0.9903 0 9
23.6171 -17.6796 5.5370 0.8195 0 9
17.4462 -11.2121 3.8923 0.3420 0 9
17.5842 -9.6018 3.7602 0.7687 0 9
24.4331 -11.1583 5.0413 0.7290 0 9
19.1915 -7.1582 3.8444 0.9222 0 9
20.9484 -6.1511 4.0977 0.2206 0 9
22.7154 -4.9416 4.3631 0.3103 0 9
23.0955 -3.3207 4.3793 0.9401 0 9
29.8971 -2.1384 5.6256 0.5533 0 9
35.5735 -0.0001 6.6766 0.8548 0 9
23.2404 14.9357 5.1850 0.1950 0 3
16.9993 12.7255 3.9855 0.9610 0 3
15.0491 13.0401 3.7374 0.3265 0 3
28.9428 -28.9429 7.3334 0.8056 0 9
28.0601 -24.3143 6.6521 0.9913 0 9
23.5582 -17.6354 5.2724 0.8228 0 9
17.1551 -11.0250 3.6535 0.3483 0 9
17.5554 -9.5861 3.5836 0.7711 0 9
24.4792 -11.1794 4.8215 0.7287 0 9
19.6648 -7.3347 3.7603 0.8459 0 9
21.1624 -6.2139 3.9516 0.9283 0 9
23.2153 -5.0503 4.2566 0.3040 0 9
23.1013 -3.3215 4.1814 0.9413 0 9
30.2279 -2.1621 5.4295 0.5481 0 9
35.5467 -0.0001 6.3686 0.8567 0 9
23.4771 15.0878 4.9999 0.1917 0 3
16.9980 12.7246 3.8042 0.9625 0 3
14.4322 12.5056 3.4214 0.3278 0 3
20.2935 -20.2935 4.8980 0.8737 0 9
27.6511 -23.9599 6.2442 0.6840 0 9
23.4998 -17.5917 5.0098 0.8260 0 9
17.8129 -11.4478 3.6137 0.7647 0 9
17.5269 -9.5705 3.4081 0.7735 0 9
24.5253 -11.2005 4.6014 0.7284 0 9
23.9101 -8.9181 4.3552 0.9680 0 9
21.1260 -6.2033 3.7577 0.9312 0 9
23.4072 -5.0920 4.0882 0.9184 0 9
24.1261 -3.4689 4.1598 0.4987 0 9
30.2552 -2.1640 5.1767 0.4460 0 9
35.5199 -0.0001 6.0620 0.8586 0 9
23.4600 15.0768 4.7593 0.1921 0 3
16.9967 12.7236 3.6235 0.9639 0 3
14.7635 12.7926 3.3339 0.3278 0 3
20.3007 -20.3008 4.6564 0.8746 0 9
27.6719 -23.9779 5.9386 0.6844 0 9
23.4418 -17.5483 4.7493 0.8292 0 9
17.8312 -11.4595 3.4378 0.6109 0 9
17.4985 -9.5550 3.2336 0.7758 0 9
22.0424 -10.0666 3.9302 0.7101 0 9
23.9574 -8.9357 4.1471 0.5996 0 9
21.0899 -6.1926 3.5650 0.9341 0 9
23.4132 -5.0933 3.8862 0.9194 0 9
28.9350 -4.1603 4.7412 0.8015 0 9
30.1597 -2.1571 4.9041 0.4480 0 9
35.4934 -0.0001 5.7567 0.8605 0 9
23.4429 15.0658 4.5197 0.1925 0 3
16.9954 12.7226 3.4433 0.9653 0 3
14.7572 12.7872 3.1670 0.3284 0 3
20.3080 -20.3081 4.4154 0.8754 0 9
27.6927 -23.9959 5.6334 0.6848 0 9
25.0308 -18.7378 4.8070 0.6008 0 9
18.1313 -11.6523 3.3135 0.2043 0 9
17.4703 -9.5396 3.0602 0.7781 0 9
22.0145 -10.0538 3.7207 0.7119 0 9
23.9419 -8.9300 3.9285 0.6008 0 9
21.0539 -6.1821 3.3735 0.9369 0 9
22.0516 -4.7971 3.4695 0.4862 0 9
28.8542 -4.1487 4.4816 0.8048 0 9
30.0651 -2.1504 4.6340 0.4500 0 9
35.0505 -0.0001 5.3886 0.6615 0 9
23.4258 15.0548 4.2811 0.1929 0 3
16.9942 12.7217 3.2636 0.9667 0 3
14.7509 12.7817 3.0007 0.3290 0 3
20.3153 -20.3154 4.1747 0.8762 0 9
27.7134 -24.0139 5.3285 0.6851 0 9
25.2893 -18.9313 4.5903 0.5954 0 9
19.1648 -12.3166 3.3103 0.7911 0 9
17.4423 -9.5243 2.8877 0.7803 0 9
24.6640 -11.2638 3.9399 0.7272 0 9
22.5538 -8.4122 3.4978 0.7493 0 9
21.0182 -6.1716 3.1831 0.9396 0 9
21.3136 -4.6366 3.1695 0.9437 0 9
28.7741 -4.1372 4.2241 0.8081 0 9
32.3361 -2.3128 4.7107 0.8408 0 9
35.3767 -0.0001 5.1405 0.6562 0 9
23.9169 15.3705 4.1312 0.1933 0 3
16.9929 12.7207 3.0844 0.9679 0 3
14.7446 12.7763 2.8350 0.3295 0 3
20.3225 -20.3226 3.9345 0.8769 0 9
27.7341 -24.0318 5.0239 0.6854 0 9
25.5526 -19.1285 4.3697 0.5899 0 9
19.2610 -12.3784 3.1344 0.7010 0 9
18.3415 -10.0153 2.8609 0.7214 0 9
24.7104 -11.2850 3.7189 0.7266 0 9
23.9111 -8.9185 3.4937 0.6030 0 9
20.9828 -6.1612 2.9938 0.9423 0 9
24.3365 -5.2942 3.4096 0.8771 0 9
28.6947 -4.1258 3.9687 0.8112 0 9
32.2931 -2.3097 4.4322 0.8429 0 9
35.7081 -0.0001 4.8884 0.6509 0 9
23.8996 15.3593 3.8892 0.1937 0 3
16.9917 12.7198 2.9057 0.9691 0 3
14.7384 12.7708 2.6698 0.3300 0 3
21.8667 -21.8668 3.9740 0.9287 0 9
27.7402 -24.0371 4.7170 0.8171 0 9
25.8208 -19.3293 4.1449 0.5844 0 9
19.2801 -12.3907 2.9452 0.7011 0 9
19.6505 -10.7301 2.8772 0.8290 0 9
21.4947 -9.8164 3.0367 0.5443 0 9
24.2148 -9.0318 3.3212 0.9336 0 9
20.9474 -6.1508 2.8056 0.9449 0 9
24.3488 -5.2969 3.2022 0.8776 0 9
30.7222 -4.4173 3.9886 0.5112 0 9
32.2504 -2.3067 4.1550 0.8450 0 9
36.0451 -0.0001 4.6321 0.6455 0 9
23.8824 15.3483 3.6482 0.1940 0 3
16.9904 12.7188 2.7274 0.9703 0 3
14.7321 12.7654 2.5051 0.3305 0 3
21.8822 -21.8823 3.7177 0.9290 0 9
27.6885 -23.9923 4.4014 0.8194 0 9
25.7952 -19.3101 3.8710 0.1457 0 9
19.2993 -12.4030 2.7560 0.7011 0 9
19.6274 -10.7175 2.6866 0.8308 0 9
21.9683 -10.0327 2.9014 0.4412 0 9
24.2744 -9.0540 3.1124 0.9322 0 9
20.9123 -6.1405 2.6184 0.9475 0 9
24.3610 -5.2995 2.9950 0.8781 0 9
30.6494 -4.4068 3.7199 0.5130 0 9
32.2078 -2.3037 3.8792 0.8469 0 9
35.8706 -0.0001 4.3093 0.2898 0 9
17.5529 11.2806 2.5066 0.9723 0 3
16.9918 12.7199 2.5499 0.9558 0 3
14.7259 12.7601 2.3409 0.3310 0 3
27.4975 -27.4976 4.3468 0.8859 0 9
25.8917 -22.4354 3.8295 0.8772 0 9
26.0051 -19.4672 3.6311 0.7560 0 9
19.3185 -12.4153 2.5669 0.7011 0 9
19.6044 -10.7049 2.4968 0.8326 0 9
21.9407 -10.0201 2.6961 0.4422 0 9
24.3342 -9.0763 2.9031 0.9308 0 9
20.8774 -6.1303 2.4322 0.9500 0 9
30.4340 -6.6206 3.4814 0.5949 0 9
30.5770 -4.3964 3.4530 0.5147 0 9
32.1655 -2.3006 3.6046 0.8489 0 9
35.3193 -0.0001 3.9479 0.2946 0 9
17.5518 11.2798 2.3321 0.9733 0 3
16.9907 12.7190 2.3724 0.9568 0 3
14.7197 12.7547 2.1771 0.3315 0 3
27.4469 -27.4469 4.0150 0.8883 0 9
26.0093 -22.5372 3.5598 0.8740 0 9
26.5918 -19.9064 3.4359 0.7675 0 9
19.3377 -12.4276 2.3777 0.7010 0 9
19.5815 -10.6924 2.3077 0.8343 0 9
21.9132 -10.0075 2.4918 0.4432 0 9
24.3942 -9.0987 2.6931 0.9294 0 9
25.2181 -7.4048 2.7186 0.8811 0 9
31.1352 -6.7731 3.2959 0.8394 0 9
30.5052 -4.3861 3.1878 0.5164 0 9
35.9196 -2.5691 3.7249 0.6226 0 9
34.3118 -0.0001 3.5491 0.9479 0 9
17.5506 11.2791 2.1580 0.9742 0 3
16.9896 12.7182 2.1952 0.9577 0 3
14.7135 12.7493 2.0138 0.3319 0 3
27.3965 -27.3966 3.6850 0.8906 0 9
31.5756 -27.3605 3.9738 0.9776 0 9
26.8491 -20.0990 3.1899 0.7884 0 9
19.3568 -12.4400 2.1884 0.7009 0 9
19.5587 -10.6799 2.1195 0.8359 0 9
21.8859 -9.9950 2.2884 0.4441 0 9
24.4544 -9.1211 2.4824 0.9278 0 9
25.1288 -7.3786 2.4909 0.8850 0 9
30.9854 -6.7406 3.0159 0.2742 0 9
30.4338 -4.3758 2.9243 0.5180 0 9
38.4892 -2.7529 3.6701 0.8830 0 9
34.2555 -0.0001 3.2580 0.9503 0 9
17.5495 11.2784 1.9841 0.9751 0 3
16.9884 12.7174 2.0184 0.9585 0 3
14.7073 12.7439 1.8509 0.3323 0 3
27.3464 -27.3465 3.3567 0.8929 0 9
27.3877 -20.5021 2.9694 0.9424 0 9
19.3761 -12.4523 1.9991 0.7007 0 9
30.3828 -16.5903 3.0047 0.9617 0 9
21.8585 -9.9826 2.0857 0.4450 0 9
24.5147 -9.1436 2.2710 0.9262 0 9
32.3386 -7.0349 2.8725 0.3622 0 9
30.6209 -4.4027 2.6851 0.7710 0 9
38.3560 -2.7434 3.3377 0.8868 0 9
34.1995 -0.0001 2.9684 0.9525 0 9
17.5484 11.2776 1.8106 0.9759 0 3
16.9873 12.7165 1.8418 0.9593 0 3
14.7012 12.7387 1.6884 0.3327 0 3
30.8038 -30.8038 3.4195 0.8433 0 9
27.3622 -20.4831 2.6829 0.9439 0 9
32.1504 -20.6618 2.9998 0.9686 0 9
30.3378 -16.5657 2.7132 0.9637 0 9
21.8314 -9.9702 1.8839 0.4458 0 9
24.5753 -9.1662 2.0588 0.9246 0 9
32.4012 -7.0486 2.6028 0.3618 0 9
40.4666 -5.8183 3.2091 0.6326 0 9
38.2238 -2.7339 3.0080 0.8904 0 9
17.5473 11.2770 1.6373 0.9766 0 3
16.9862 12.7157 1.6655 0.9600 0 3
14.6950 12.7333 1.5263 0.3331 0 3
30.6883 -30.6883 3.0468 0.8470 0 9
27.3369 -20.4641 2.3973 0.9454 0 9
32.2246 -20.7095 2.6892 0.9669 0 9
43.1119 -23.5409 3.4484 0.9156 0 9
21.8043 -9.9578 1.6828 0.4466 0 9
24.6361 -9.1889 1.8459 0.9229 0 9
32.4640 -7.0622 2.3324 0.3613 0 9
36.5773 -5.2591 2.5942 0.2628 0 9
38.0928 -2.7245 2.6811 0.8940 0 9
17.5461 11.2762 1.4642 0.9772 0 3
16.9851 12.7149 1.4895 0.9607 0 3
14.9602 12.9631 1.3897 0.3334 0 3
31.4823 -31.4823 2.7569 0.7711 0 9
31.5285 -23.6019 2.4387 0.9664 0 9
32.2990 -20.7573 2.3774 0.9652 0 9
21.7773 -9.9455 1.4824 0.4474 0 9
32.5270 -7.0759 2.0612 0.3608 0 9
37.9628 -2.7152 2.3567 0.8976 0 9
17.5450 11.2755 1.2914 0.9778 0 3
16.9840 12.7141 1.3137 0.9613 0 3
14.9540 12.9577 1.2252 0.3337 0 3
37.9858 -28.4359 2.5456 0.8503 0 9
32.3737 -20.8054 2.0645 0.9635 0 9
21.7505 -9.9332 1.2828 0.4482 0 9
32.5902 -7.0897 1.7893 0.3603 0 9
17.5439 11.2748 1.1188 0.9784 0 3
16.9829 12.7132 1.1381 0.9618 0 3
14.9478 12.9523 1.0611 0.3340 0 3
21.7237 -9.9210 1.0838 0.4489 0 9
17.5428 11.2740 0.9464 0.9788 0 3
16.9818 12.7124 0.9627 0.9622 0 3
14.9415 12.9469 0.8972 0.3343 0 3
21.6970 -9.9088 0.8855 0.4497 0 9
17.5417 11.2733 0.7741 0.9792 0 3
16.9795 12.7107 0.7874 0.9571 0 3
14.9353 12.9415 0.7336 0.3346 0 3
21.6704 -9.8966 0.6877 0.4503 0 9
17.5405 11.2726 0.6019 0.9796 0 3
16.9754 12.7076 0.6121 0.9787 0 3
14.9291 12.9362 0.5703 0.3348 0 3
21.6438 -9.8845 0.4906 0.4510 0 9
17.5394 11.2719 0.4298 0.9798 0 3
16.9741 12.7067 0.4371 0.9790 0 3
14.9230 12.9308 0.4071 0.3350 0 3
10.6489 -7.9716 0.1645 0.8531 0 4
12.9611 -7.0773 0.1827 0.7593 0 4
21.6174 -9.8724 0.2940 0.4516 0 9
17.5383 11.2712 0.2579 0.9800 0 3
16.9729 12.7057 0.2622 0.9792 0 3
14.9168 12.9255 0.2441 0.3352 0 3
10.6855 -7.9991 0.0550 0.8490 0 4
13.0049 -7.1012 0.0611 0.7640 0 4
21.5910 -9.8604 0.0979 0.4522 0 9
39.2918 -8.5474 0.1658 0.0594 0 4
38.3111 -5.5084 0.1596 0.4855 0 4
17.5372 11.2705 0.0859 0.9801 0 3
16.9716 12.7048 0.0874 0.9793 0 3
14.9106 12.9201 0.0813 0.3353 0 3
10.6874 -8.0005 -0.0550 0.8488 0 4
13.0075 -7.1026 -0.0611 0.7639 0 4
21.5646 -9.8483 -0.0977 0.4527 0 9
38.4022 -5.5214 -0.1600 0.4853 0 4
26.4337 -1.8906 -0.1093 0.4277 0 4
17.5361 11.2697 -0.0859 0.9802 0 3
16.9704 12.7038 -0.0874 0.9794 0 3
14.2999 12.3909 -0.0780 0.3361 0 3
34.4951 -34.4950 -0.6034 0.9140 0 4
10.6957 -8.0067 -0.1653 0.8478 0 4
13.0100 -7.1040 -0.1833 0.7637 0 4
21.5384 -9.8363 -0.2929 0.4532 0 9
23.1086 -3.3226 -0.2888 0.7186 0 4
26.4372 -1.8909 -0.3278 0.4260 0 4
17.5350 11.2690 -0.2578 0.9802 0 3
16.9692 12.7029 -0.2622 0.9794 0 3
14.6282 12.6754 -0.2394 0.3356 0 3
34.5005 -34.5005 -1.0059 0.9137 0 4
10.6973 -8.0080 -0.2755 0.8476 0 4
13.0125 -7.1054 -0.3057 0.7634 0 4
21.5121 -9.8244 -0.4876 0.4537 0 9
39.3724 -8.5650 -0.8307 0.6087 0 4
23.0885 -3.3197 -0.4809 0.9884 0 4
26.4465 -1.8915 -0.5466 0.4258 0 4
17.5338 11.2683 -0.4297 0.9801 0 3
16.9679 12.7020 -0.4370 0.9793 0 3
14.6221 12.6702 -0.3989 0.3357 0 3
26.6543 -26.6544 -1.0882 0.0823 0 0
29.0630 -25.1832 -1.1101 0.1063 0 0
10.6989 -8.0092 -0.3858 0.8473 0 4
39.5459 -25.4146 -1.3570 0.0380 0 0
13.0151 -7.1068 -0.4281 0.7631 0 4
21.4841 -9.8116 -0.6818 0.4045 0 9
46.4028 -17.3074 -1.4297 0.0344 0 2
39.3122 -8.5519 -1.1614 0.8381 0 4
23.0896 -3.3199 -0.6734 0.9882 0 4
26.4557 -1.8922 -0.7657 0.4256 0 4
17.5327 11.2676 -0.6016 0.9800 0 3
16.9667 12.7011 -0.6118 0.9792 0 3
14.6161 12.6649 -0.5583 0.3358 0 3
24.2161 -24.2162 -1.2713 0.1007 0 0
24.8667 -21.5471 -1.2215 0.0662 0 0
10.7006 -8.0104 -0.4962 0.8469 0 4
30.1127 -19.3522 -1.3288 0.0491 0 0
13.0176 -7.1082 -0.5506 0.7628 0 4
21.4680 -9.8042 -0.8761 0.7391 0 9
38.5430 -14.3758 -1.5271 0.0310 0 0
18.0053 -5.2870 -0.6966 0.5201 0 4
39.3089 -8.5512 -1.4934 0.8379 0 4
23.0907 -3.3200 -0.8660 0.9879 0 4
26.4649 -1.8929 -0.9850 0.4253 0 4
31.3507 -0.0000 -1.1638 0.3617 0 4
48.7647 3.4877 -1.8149 0.0348 0 2
45.1876 20.6365 -1.8441 0.3625 0 20
17.5316 11.2669 -0.7736 0.9798 0 3
16.9654 12.7002 -0.7867 0.9790 0 3
14.6100 12.6596 -0.7176 0.3358 0 3
20.2016 -20.2017 -1.2966 0.1323 0 0
21.4814 -18.6138 -1.2899 0.0958 0 0
10.7022 -8.0115 -0.6067 0.8465 0 4
11.9150 -7.6573 -0.6428 0.6916 0 4
13.0201 -7.1096 -0.6732 0.7624 0 4
21.4684 -9.8044 -1.0711 0.7388 0 9
32.7739 -12.2241 -1.5875 0.0871 0 0
34.5374 -10.1411 -1.6336 0.0496 0 0
36.1108 -7.8554 -1.6771 0.0483 0 0
22.8709 -3.2884 -1.0486 0.4911 0 4
26.4742 -1.8935 -1.2045 0.4250 0 4
31.3620 -0.0001 -1.4233 0.3614 0 4
41.8096 2.9902 -1.9023 0.0431 0 1
42.7791 6.1506 -1.9614 0.0418 0 1
43.5664 9.4773 -2.0234 0.0405 0 1
44.0090 12.9222 -2.0815 0.9954 0 2
42.8232 15.9722 -2.0742 0.9992 0 2
42.0512 19.2041 -2.0980 0.0368 0 2
41.8745 22.8652 -2.1652 0.0357 0 2
17.5305 11.2662 -0.9457 0.9795 0 3
16.9648 12.6997 -0.9617 0.9584 0 3
14.6040 12.6545 -0.8770 0.3358 0 3
18.9402 -18.9402 -1.4370 0.1284 0 0
19.9733 -17.3071 -1.4178 0.1334 0 0
10.7037 -8.0128 -0.7173 0.8460 0 4
23.7501 -15.2633 -1.5146 0.0540 0 0
13.0227 -7.1110 -0.7960 0.7619 0 4
21.4686 -9.8045 -1.2662 0.7385 0 9
27.8590 -10.3909 -1.5952 0.0908 0 0
17.8582 -5.2437 -0.9985 0.4698 0 4
20.0930 -4.3710 -1.1032 0.5509 0 4
22.8780 -3.2894 -1.2400 0.4907 0 4
26.4834 -1.8942 -1.4244 0.4247 0 4
31.3734 -0.0000 -1.6831 0.3611 0 4
33.0818 2.3660 -1.7793 0.0513 0 2
33.6824 4.8428 -1.8256 0.0500 0 2
36.1885 7.8723 -1.9868 0.0487 0 1
36.4740 10.7097 -2.0394 0.0475 0 1
36.5596 13.6360 -2.0933 0.0463 0 1
36.4283 16.6362 -2.1485 0.0451 0 1
36.0638 19.6923 -2.2044 0.0439 0 1
17.5294 11.2654 -1.1179 0.9792 0 3
16.9686 12.7025 -1.1371 0.9626 0 3
14.5979 12.6491 -1.0363 0.3359 0 3
16.2523 -16.2524 -1.4232 0.1097 0 0
17.8626 -15.4781 -1.4636 0.1270 0 0
10.7054 -8.0139 -0.8281 0.8455 0 4
20.9898 -13.4893 -1.5450 0.0738 0 0
13.0252 -7.1123 -0.9189 0.7614 0 4
14.4051 -6.5786 -0.9806 0.7135 0 4
15.9904 -5.9641 -1.0568 0.6632 0 4
17.8540 -5.2425 -1.1522 0.6065 0 4
20.0980 -4.3721 -1.2736 0.5505 0 4
22.8851 -3.2905 -1.4316 0.4904 0 4
26.4927 -1.8948 -1.6447 0.4259 0 4
27.9527 -0.0000 -1.7309 0.0609 0 2
28.4955 2.0380 -1.7690 0.0596 0 2
30.6565 4.4077 -1.9178 0.0582 0 1
30.9435 6.7313 -1.9609 0.0570 0 1
31.0686 9.1226 -2.0050 0.0557 0 1
31.0199 11.5698 -2.0500 0.0545 0 1
29.0269 13.2561 -1.9760 0.0533 0 2
28.6210 15.6282 -2.0192 0.0522 0 2
17.5282 11.2647 -1.2902 0.9788 0 3
16.9675 12.7017 -1.3124 0.9622 0 3
14.5914 12.6436 -1.1955 0.3359 0 3
8.8555 -8.8556 -0.8792 0.0844 0 4
9.7247 -8.4266 -0.9034 0.6819 0 4
10.7070 -8.0152 -0.9389 0.8449 0 4
11.8084 -7.5888 -0.9854 0.8051 0 4
13.0278 -7.1137 -1.0421 0.7608 0 4
14.4081 -6.5799 -1.1120 0.7130 0 4
15.9935 -5.9653 -1.1983 0.6627 0 4
17.8580 -5.2437 -1.3066 0.6060 0 4
20.1031 -4.3732 -1.4443 0.5501 0 4
22.8922 -3.2915 -1.6236 0.4899 0 4
24.0895 -1.7229 -1.6955 0.0704 0 2
24.6109 -0.0000 -1.7278 0.0691 0 2
25.0229 1.7896 -1.7612 0.0678 0 2
26.8470 3.8600 -1.9041 0.0665 0 1
27.0230 5.8785 -1.9415 0.0652 0 1
27.0550 7.9441 -1.9795 0.0639 0 1
26.9345 10.0460 -2.0181 0.0627 0 1
25.1304 11.4766 -1.9395 0.0615 0 2
24.7062 13.4906 -1.9762 0.0604 0 2
17.5271 11.2640 -1.4626 0.9783 0 3
16.9664 12.7009 -1.4879 0.9617 0 3
14.5852 12.6381 -1.3548 0.3358 0 3
8.7668 -8.7669 -0.9732 0.9112 0 4
9.6990 -8.4043 -1.0074 0.8803 0 4
10.7086 -8.0164 -1.0500 0.8443 0 4
11.8103 -7.5900 -1.1020 0.8045 0 4
13.0304 -7.1151 -1.1654 0.7602 0 4
14.4111 -6.5813 -1.2436 0.7124 0 4
15.9966 -5.9665 -1.3401 0.6621 0 4
17.8621 -5.2449 -1.4613 0.6055 0 4
20.1081 -4.3743 -1.6153 0.5496 0 4
21.0429 -3.0255 -1.6687 0.0799 0 2
21.5584 -1.5419 -1.6965 0.0786 0 2
21.9803 0.0000 -1.7253 0.0773 0 2
23.6504 1.6915 -1.8612 0.0760 0 1
23.8766 3.4329 -1.8935 0.0747 0 1
23.9811 5.2167 -1.9264 0.0734 0 1
23.9567 7.0343 -1.9598 0.0722 0 1
23.7967 8.8757 -1.9936 0.0709 0 1
22.1530 10.1169 -1.9116 0.0698 0 2
21.7305 11.8657 -1.9434 0.0686 0 2
17.5260 11.2633 -1.6353 0.9778 0 3
16.9653 12.7000 -1.6635 0.9612 0 3
14.5791 12.6329 -1.5142 0.3357 0 3
8.7683 -8.7683 -1.0763 0.9104 0 4
9.7007 -8.4058 -1.1141 0.8795 0 4
10.7102 -8.0176 -1.1612 0.8436 0 4
11.8121 -7.5912 -1.2187 0.8038 0 4
13.0329 -7.1165 -1.2889 0.7595 0 4
14.4141 -6.5827 -1.3754 0.7118 0 4
15.9998 -5.9676 -1.4822 0.6615 0 4
17.8662 -5.2461 -1.6162 0.6050 0 4
18.5505 -4.0354 -1.6478 0.0894 0 2
19.0684 -2.7417 -1.6721 0.0881 0 2
19.5051 -1.3951 -1.6973 0.0868 0 2
20.2398 0.0000 -1.7567 0.3707 0 2
21.3279 1.5254 -1.8559 0.0842 0 1
21.4952 3.0905 -1.8849 0.0829 0 1
21.5518 4.6883 -1.9144 0.0816 0 1
21.4921 6.3106 -1.9442 0.0804 0 1
21.3109 7.9486 -1.9742 0.0792 0 1
19.8037 9.0440 -1.8897 0.0780 0 2
19.3918 10.5887 -1.9177 0.0768 0 2
17.5249 11.2626 -1.8081 0.9772 0 3
13.6417 10.2121 -1.4791 0.8592 0 20
14.5731 12.6277 -1.6737 0.3356 0 3
8.7698 -8.7698 -1.1796 0.9096 0 4
9.7024 -8.4072 -1.2210 0.8787 0 4
10.7119 -8.0188 -1.2726 0.8428 0 4
11.8140 -7.5924 -1.3357 0.8031 0 4
13.0354 -7.1179 -1.4126 0.7588 0 4
14.4171 -6.5841 -1.5074 0.7111 0 4
15.8661 -5.9178 -1.6106 0.1002 0 2
16.4552 -4.8317 -1.6311 0.0989 0 2
16.9784 -3.6935 -1.6526 0.0976 0 2
17.4306 -2.5062 -1.6749 0.0963 0 2
17.8068 -1.2736 -1.6979 0.0950 0 2
19.1968 0.0000 -1.8258 0.0937 0 1
19.4182 1.3888 -1.8516 0.0924 0 1
19.5432 2.8099 -1.8779 0.0911 0 1
19.5670 4.2565 -1.9045 0.0899 0 1
19.4848 5.7212 -1.9314 0.0886 0 1
19.2927 7.1958 -1.9584 0.0874 0 1
17.9025 8.1758 -1.8719 0.0862 0 2
17.5052 9.5585 -1.8970 0.0851 0 2
16.9967 10.9231 -1.9216 0.0840 0 2
16.5036 12.3544 -1.9608 0.0829 0 0
14.5671 12.6224 -1.8333 0.3355 0 3
8.7712 -8.7713 -1.2831 0.9087 0 4
9.7041 -8.4087 -1.3282 0.8778 0 4
10.7135 -8.0200 -1.3843 0.8420 0 4
11.8159 -7.5936 -1.4528 0.8023 0 4
13.0380 -7.1193 -1.5366 0.7581 0 4
14.0665 -6.4240 -1.5996 0.1096 0 2
14.6538 -5.4657 -1.6178 0.1084 0 2
15.1831 -4.4582 -1.6368 0.1071 0 2
15.6500 -3.4045 -1.6567 0.1058 0 2
16.0499 -2.3076 -1.6772 0.1045 0 2
17.0964 -1.2228 -1.7729 0.4250 0 2
17.6371 0.0000 -1.8243 0.1019 0 1
17.8202 1.2745 -1.8480 0.1006 0 1
17.9140 2.5756 -1.8720 0.0993 0 1
17.9145 3.8970 -1.8964 0.0981 0 1
17.8179 5.2318 -1.9208 0.0968 0 1
17.6213 6.5724 -1.9454 0.0956 0 1
16.3321 7.4586 -1.8572 0.0944 0 2
15.9509 8.7098 -1.8799 0.0933 0 2
15.4697 9.9417 -1.9021 0.0922 0 2
15.0040 11.2319 -1.9387 0.0911 0 0
14.3179 12.4065 -1.9596 0.0902 0 0
8.7727 -8.7727 -1.3868 0.9077 0 4
9.7057 -8.4101 -1.4355 0.8769 0 4
10.7151 -8.0212 -1.4961 0.8411 0 4
11.8177 -7.5949 -1.5702 0.8014 0 4
12.4906 -6.8204 -1.5908 0.1190 0 2
13.0769 -5.9721 -1.6069 0.1178 0 2
13.6121 -5.0771 -1.6239 0.1166 0 2
14.0919 -4.1378 -1.6417 0.1153 0 2
14.5126 -3.1571 -1.6601 0.1140 0 2
14.8700 -2.1380 -1.6792 0.1127 0 2
16.0773 -1.1499 -1.8017 0.1114 0 1
16.3097 -0.0000 -1.8231 0.1101 0 1
16.4630 1.1774 -1.8449 0.1088 0 1
16.5332 2.3771 -1.8671 0.1075 0 1
16.5171 3.5931 -1.8894 0.1063 0 1
16.4116 4.8189 -1.9119 0.1050 0 1
16.2142 6.0476 -1.9344 0.1038 0 1
15.0130 6.8562 -1.8448 0.1026 0 2
14.6480 7.9984 -1.8655 0.1015 0 2
14.1925 9.1209 -1.8858 0.1004 0 2
13.6463 10.2154 -1.9054 0.0993 0 2
13.1116 11.3612 -1.9393 0.0984 0 0
8.7742 -8.7742 -1.4907 0.9067 0 4
9.7074 -8.4116 -1.5431 0.8759 0 4
10.4633 -7.8328 -1.5702 0.1295 0 2
11.0905 -7.1275 -1.5838 0.1284 0 2
11.6759 -6.3756 -1.5982 0.1272 0 2
12.2160 -5.5789 -1.6134 0.1260 0 2
12.7070 -4.7395 -1.6293 0.1248 0 2
13.1454 -3.8599 -1.6459 0.1235 0 2
13.5276 -2.9428 -1.6631 0.1222 0 2
14.6877 -2.1118 -1.7827 0.1209 0 1
14.9624 -1.0701 -1.8021 0.1196 0 1
15.1662 0.0000 -1.8220 0.1183 0 1
15.2959 1.0940 -1.8423 0.1170 0 1
15.3481 2.2067 -1.8628 0.1157 0 1
15.3200 3.3327 -1.8835 0.1145 0 1
15.2090 4.4658 -1.9043 0.1132 0 1
15.0131 5.5996 -1.9250 0.1120 0 1
13.8890 6.3429 -1.8343 0.1108 0 2
13.5401 7.3934 -1.8533 0.1097 0 2
13.1082 8.4241 -1.8719 0.1086 0 2
12.5937 9.4275 -1.8899 0.1076 0 2
12.0910 10.4769 -1.9220 0.1066 0 0
8.5566 -8.5567 -1.5551 0.1397 0 2
9.2112 -7.9816 -1.5663 0.1387 0 2
9.8320 -7.3602 -1.5783 0.1376 0 2
10.4160 -6.6940 -1.5911 0.1365 0 2
10.9598 -5.9845 -1.6047 0.1354 0 2
11.4600 -5.2337 -1.6190 0.1342 0 2
11.9134 -4.4435 -1.6340 0.1329 0 2
12.3165 -3.6165 -1.6496 0.1317 0 2
12.9547 -2.8181 -1.7037 0.5465 0 2
13.7431 -1.9760 -1.7843 0.1291 0 1
13.9903 -1.0006 -1.8025 0.1278 0 1
14.1708 0.0000 -1.8211 0.1265 0 1
14.2814 1.0214 -1.8400 0.1252 0 1
14.3196 2.0588 -1.8591 0.1239 0 1
14.2827 3.1070 -1.8784 0.1226 0 1
14.1687 4.1603 -1.8977 0.1214 0 1
13.9758 5.2127 -1.9169 0.1202 0 1
12.9199 5.9003 -1.8253 0.1190 0 2
12.4603 6.8038 -1.8244 0.1179 0 1
12.1761 7.8251 -1.8600 0.1168 0 2
11.6902 8.7512 -1.8766 0.1157 0 2
11.2163 9.7189 -1.9072 0.1148 0 0
8.0756 -8.0756 -1.5635 0.1478 0 2
8.6898 -7.5298 -1.5741 0.1468 0 2
9.2715 -6.9406 -1.5855 0.1458 0 2
9.8176 -6.3094 -1.5976 0.1447 0 2
10.3250 -5.6380 -1.6105 0.1435 0 2
10.7907 -4.9280 -1.6240 0.1423 0 2
11.2116 -4.1818 -1.6381 0.1411 0 2
11.5845 -3.4016 -1.6529 0.1399 0 2
12.6267 -2.7468 -1.7690 0.1386 0 1
12.9110 -1.8563 -1.7857 0.1373 0 1
13.1351 -0.9395 -1.8028 0.1360 0 1
13.2961 -0.0000 -1.8202 0.1347 0 1
13.3914 0.9578 -1.8380 0.1334 0 1
13.4185 1.9293 -1.8559 0.1321 0 1
13.3752 2.9096 -1.8739 0.1308 0 1
13.2598 3.8934 -1.8919 0.1296 0 1
13.0708 4.8751 -1.9098 0.1284 0 1
12.0755 5.5147 -1.8174 0.1272 0 2
11.7562 6.4194 -1.8337 0.1260 0 2
11.3662 7.3046 -1.8497 0.1250 0 2
10.9062 8.1642 -1.8650 0.1239 0 2
10.3773 8.9920 -1.8798 0.1230 0 2
7.6448 -7.6449 -1.5710 0.1560 0 2
8.2233 -7.1256 -1.5811 0.1550 0 2
8.7703 -6.5654 -1.5919 0.1539 0 2
9.2831 -5.9659 -1.6035 0.1528 0 2
9.7586 -5.3287 -1.6156 0.1517 0 2
10.1941 -4.6556 -1.6285 0.1505 0 2
10.6124 -3.9583 -1.6459 0.6283 0 2
11.5144 -3.3809 -1.7438 0.6024 0 2
11.9107 -2.5910 -1.7712 0.1467 0 1
12.1723 -1.7501 -1.7869 0.1454 0 1
12.3768 -0.8852 -1.8031 0.1441 0 1
12.5216 -0.0000 -1.8195 0.1428 0 1
12.6041 0.9015 -1.8362 0.1415 0 1
12.6224 1.8148 -1.8530 0.1403 0 1
12.5745 2.7354 -1.8699 0.1390 0 1
12.4588 3.6582 -1.8868 0.1377 0 1
12.2741 4.5780 -1.9036 0.1365 0 1
11.3331 5.1757 -1.8104 0.1354 0 2
11.0274 6.0214 -1.8257 0.1342 0 2
10.6558 6.8481 -1.8406 0.1331 0 2
10.2192 7.6500 -1.8549 0.1321 0 2
9.7188 8.4214 -1.8687 0.1311 0 2
7.2568 -7.2569 -1.5778 0.1641 0 2
7.8034 -6.7617 -1.5874 0.1631 0 2
8.3196 -6.2280 -1.5977 0.1621 0 2
8.8027 -5.6572 -1.6087 0.1610 0 2
9.2500 -5.0509 -1.6203 0.1598 0 2
9.6587 -4.4111 -1.6325 0.1586 0 2
10.3172 -3.8481 -1.6929 0.6566 0 2
10.9760 -3.2229 -1.7587 0.1562 0 1
11.2700 -2.4517 -1.7732 0.1549 0 1
11.5121 -1.6552 -1.7881 0.1536 0 1
11.6998 -0.8368 -1.8033 0.1523 0 1
11.8307 0.0000 -1.8188 0.1510 0 1
11.9027 0.8513 -1.8346 0.1497 0 1
11.9139 1.7129 -1.8505 0.1484 0 1
11.8626 2.5805 -1.8664 0.1471 0 1
11.7474 3.4493 -1.8823 0.1459 0 1
11.5675 4.3144 -1.8980 0.1447 0 1
10.9384 4.9954 -1.8487 0.0582 0 2
10.3822 5.6691 -1.8186 0.1424 0 2
10.0276 6.4443 -1.8325 0.1413 0 2
9.6123 7.1957 -1.8460 0.1403 0 2
9.1377 7.9178 -1.8588 0.1393 0 2
6.9054 -6.9055 -1.5839 0.1723 0 2
7.4233 -6.4324 -1.5931 0.1713 0 2
7.9119 -5.9228 -1.6030 0.1702 0 2
8.3685 -5.3782 -1.6134 0.1691 0 2
8.7906 -4.8001 -1.6245 0.1680 0 2
9.2983 -4.2465 -1.6579 0.7064 0 2
10.0971 -3.7660 -1.7479 0.1655 0 1
10.4188 -3.0593 -1.7612 0.1643 0 1
10.6934 -2.3262 -1.7749 0.1630 0 1
10.9184 -1.5698 -1.7891 0.1617 0 1
11.0915 -0.7933 -1.8035 0.1604 0 1
11.2106 -0.0000 -1.8183 0.1591 0 1
11.2737 0.8063 -1.8332 0.1578 0 1
11.2792 1.6217 -1.8482 0.1566 0 1
11.2254 2.4419 -1.8632 0.1553 0 1
11.1114 3.2626 -1.8782 0.1541 0 1
10.9362 4.0790 -1.8931 0.1528 0 1
10.6995 4.8863 -1.9078 0.1517 0 1
9.8070 5.3550 -1.8123 0.1505 0 2
9.4680 6.0847 -1.8254 0.1495 0 2
9.0721 6.7913 -1.8380 0.1484 0 2
8.6208 7.4699 -1.8501 0.1475 0 2
6.5857 -6.5857 -1.5895 0.1804 0 2
7.0777 -6.1329 -1.5983 0.1794 0 2
7.5413 -5.6454 -1.6077 0.1783 0 2
7.9742 -5.1247 -1.6177 0.1772 0 2
8.4195 -4.5974 -1.6372 0.7263 0 2
9.2660 -4.2317 -1.7385 0.1749 0 1
9.6115 -3.5849 -1.7507 0.1737 0 1
9.9141 -2.9111 -1.7634 0.1724 0 1
10.1716 -2.2127 -1.7765 0.1712 0 1
10.3816 -1.4927 -1.7900 0.1699 0 1
10.5420 -0.7540 -1.8037 0.1686 0 1
10.6509 -0.0000 -1.8177 0.1673 0 1
10.7064 0.7657 -1.8319 0.1660 0 1
10.7072 1.5394 -1.8461 0.1647 0 1
10.6518 2.3171 -1.8604 0.1634 0 1
10.5392 3.0946 -1.8746 0.1622 0 1
10.3689 3.8674 -1.8887 0.1610 0 1
10.1403 4.6309 -1.9025 0.1598 0 1
9.2908 5.0731 -1.8066 0.1587 0 2
8.9662 5.7622 -1.8190 0.1576 0 2
8.5882 6.4290 -1.8309 0.1566 0 2
8.1581 7.0690 -1.8423 0.1556 0 2
6.2935 -6.2935 -1.5946 0.1885 0 2
6.7620 -5.8594 -1.6030 0.1875 0 2
7.2031 -5.3922 -1.6121 0.1864 0 2
7.6358 -4.9073 -1.6262 0.7665 0 2
8.4133 -4.5941 -1.7174 0.7512 0 2
8.8426 -4.0383 -1.7417 0.1830 0 1
9.1693 -3.4200 -1.7533 0.1818 0 1
9.4549 -2.7762 -1.7655 0.1805 0 1
9.6971 -2.1095 -1.7780 0.1793 0 1
9.8938 -1.4225 -1.7908 0.1780 0 1
10.0430 -0.7183 -1.8039 0.1767 0 1
10.1430 0.0000 -1.8172 0.1754 0 1
10.1921 0.7289 -1.8307 0.1741 0 1
10.1890 1.4649 -1.8443 0.1728 0 1
10.1325 2.2042 -1.8578 0.1716 0 1
10.0217 2.9427 -1.8713 0.1703 0 1
9.8561 3.6761 -1.8847 0.1691 0 1
9.6354 4.4004 -1.8978 0.1679 0 1
8.8250 4.8188 -1.8015 0.1668 0 2
8.5138 5.4715 -1.8132 0.1657 0 2
8.1522 6.1026 -1.8245 0.1647 0 2
7.7414 6.7080 -1.8352 0.1638 0 2
6.0253 -6.0254 -1.5993 0.1966 0 2
6.4724 -5.6084 -1.6074 0.1956 0 2
6.9245 -5.1836 -1.6234 0.8031 0 2
7.6270 -4.9016 -1.7016 0.7930 0 2
8.1078 -4.4272 -1.7338 0.1923 0 1
8.4550 -3.8613 -1.7445 0.1911 0 1
8.7649 -3.2691 -1.7557 0.1899 0 1
9.0351 -2.6529 -1.7673 0.1886 0 1
9.2636 -2.0152 -1.7793 0.1874 0 1
9.4484 -1.3585 -1.7916 0.1861 0 1
9.5878 -0.6858 -1.8041 0.1848 0 1
9.6801 0.0000 -1.8168 0.1835 0 1
9.7237 0.6954 -1.8297 0.1822 0 1
9.7174 1.3971 -1.8426 0.1809 0 1
9.6602 2.1014 -1.8555 0.1797 0 1
9.5513 2.8045 -1.8683 0.1784 0 1
9.3903 3.5024 -1.8810 0.1772 0 1
9.1771 4.1910 -1.8935 0.1761 0 1
8.4025 4.5881 -1.7968 0.1749 0 2
8.1037 5.2079 -1.8080 0.1739 0 2
7.7571 5.8069 -1.8187 0.1728 0 2
7.3642 6.3811 -1.8289 0.1719 0 2
5.7784 -5.7784 -1.6036 0.2046 0 2
6.2700 -5.4331 -1.6281 0.8360 0 2
6.9183 -5.1790 -1.6959 0.8306 0 2
7.4037 -4.7581 -1.7270 0.2015 0 1
7.7684 -4.2419 -1.7369 0.2004 0 1
8.0990 -3.6987 -1.7472 0.1992 0 1
8.3935 -3.1306 -1.7579 0.1980 0 1
8.6498 -2.5398 -1.7691 0.1967 0 1
8.8661 -1.9287 -1.7805 0.1955 0 1
9.0403 -1.2998 -1.7923 0.1942 0 1
9.1709 -0.6559 -1.8042 0.1929 0 1
9.2563 -0.0000 -1.8164 0.1916 0 1
9.2951 0.6648 -1.8287 0.1903 0 1
9.2862 1.3352 -1.8410 0.1890 0 1
9.2287 2.0076 -1.8534 0.1878 0 1
9.1219 2.6784 -1.8656 0.1865 0 1
8.9654 3.3439 -1.8777 0.1853 0 1
8.7591 4.0001 -1.8896 0.1842 0 1
8.0175 4.3779 -1.7926 0.1831 0 2
7.7302 4.9679 -1.8032 0.1820 0 2
7.3976 5.5377 -1.8134 0.1810 0 2
7.0210 6.0837 -1.8231 0.1800 0 2
5.6677 -5.6677 -1.6416 0.8941 0 2
6.2699 -5.4330 -1.6992 0.8638 0 2
6.7279 -5.0364 -1.7213 0.2107 0 1
7.1070 -4.5674 -1.7303 0.2096 0 1
7.4553 -4.0709 -1.7397 0.2084 0 1
7.7707 -3.5488 -1.7497 0.2073 0 1
8.0513 -3.0030 -1.7600 0.2060 0 1
8.2950 -2.4357 -1.7706 0.2048 0 1
8.5001 -1.8491 -1.7816 0.2035 0 1
8.6648 -1.2458 -1.7929 0.2023 0 1
8.7875 -0.6285 -1.8044 0.2010 0 1
8.8668 -0.0000 -1.8160 0.1997 0 1
8.9015 0.6366 -1.8278 0.1984 0 1
8.8905 1.2782 -1.8396 0.1971 0 1
8.8329 1.9214 -1.8514 0.1959 0 1
8.7282 2.5628 -1.8631 0.1946 0 1
8.5760 3.1986 -1.8747 0.1934 0 1
8.3763 3.8254 -1.8860 0.1923 0 1
7.6651 4.1854 -1.7887 0.1912 0 2
7.3885 4.7483 -1.7988 0.1901 0 2
7.0689 5.2917 -1.8085 0.1891 0 2
6.7074 5.8120 -1.8178 0.1881 0 2
5.6615 -5.6615 -1.7088 0.2208 0 1
6.0781 -5.2667 -1.7164 0.2198 0 1
6.4690 -4.8427 -1.7246 0.2187 0 1
6.8322 -4.3907 -1.7333 0.2176 0 1
7.1655 -3.9127 -1.7424 0.2165 0 1
7.4670 -3.4101 -1.7519 0.2153 0 1
7.7348 -2.8850 -1.7618 0.2141 0 1
7.9671 -2.3394 -1.7721 0.2129 0 1
8.1621 -1.7756 -1.7827 0.2116 0 1
8.3181 -1.1960 -1.7935 0.2103 0 1
8.4337 -0.6032 -1.8045 0.2090 0 1
8.5077 0.0000 -1.8157 0.2078 0 1
8.5387 0.6107 -1.8270 0.2065 0 1
8.5259 1.2258 -1.8383 0.2052 0 1
8.4684 1.8422 -1.8496 0.2040 0 1
8.3658 2.4564 -1.8608 0.2027 0 1
8.2179 3.0651 -1.8719 0.2015 0 1
8.0245 3.6647 -1.8827 0.2004 0 1
7.3413 4.0087 -1.7852 0.1992 0 2
7.0748 4.5467 -1.7948 0.1982 0 2
6.7671 5.0658 -1.8041 0.1972 0 2
6.4197 5.5627 -1.8129 0.1962 0 2
5.4529 -5.4529 -1.7124 0.2288 0 1
5.8532 -5.0718 -1.7198 0.2278 0 1
6.2286 -4.6627 -1.7277 0.2268 0 1
6.5770 -4.2268 -1.7360 0.2257 0 1
6.8965 -3.7658 -1.7448 0.2245 0 1
7.1852 -3.2814 -1.7540 0.2234 0 1
7.4413 -2.7755 -1.7636 0.2222 0 1
7.6631 -2.2501 -1.7735 0.2209 0 1
7.8488 -1.7074 -1.7836 0.2197 0 1
7.9970 -1.1498 -1.7940 0.2184 0 1
8.1063 -0.5798 -1.8046 0.2171 0 1
8.1754 -0.0000 -1.8154 0.2158 0 1
8.2032 0.5867 -1.8262 0.2145 0 1
8.1888 1.1773 -1.8371 0.2133 0 1
8.1317 1.7689 -1.8479 0.2120 0 1
8.0312 2.3581 -1.8587 0.2108 0 1
7.8873 2.9418 -1.8693 0.2096 0 1
7.7000 3.5165 -1.8797 0.2084 0 1
7.0428 3.8457 -1.7819 0.2073 0 2
6.7856 4.3608 -1.7911 0.2062 0 2
6.4892 4.8577 -1.8000 0.2052 0 2
6.1548 5.3332 -1.8084 0.2043 0 2
5.2584 -5.2585 -1.7158 0.2368 0 1
5.6436 -4.8902 -1.7229 0.2358 0 1
6.0045 -4.4949 -1.7306 0.2348 0 1
6.3393 -4.0740 -1.7386 0.2337 0 1
6.6461 -3.6291 -1.7471 0.2326 0 1
6.9230 -3.1616 -1.7560 0.2314 0 1
7.1683 -2.6737 -1.7652 0.2302 0 1
7.3804 -2.1671 -1.7747 0.2289 0 1
7.5577 -1.6441 -1.7845 0.2277 0 1
7.6988 -1.1069 -1.7946 0.2264 0 1
7.8022 -0.5580 -1.8048 0.2251 0 1
7.8670 -0.0000 -1.8151 0.2239 0 1
7.8919 0.5645 -1.8255 0.2226 0 1
7.8764 1.1324 -1.8360 0.2213 0 1
7.8196 1.7010 -1.8464 0.2201 0 1
7.7213 2.2672 -1.8567 0.2188 0 1
7.5813 2.8277 -1.8669 0.2176 0 1
7.3996 3.3793 -1.8769 0.2165 0 1
6.7667 3.6949 -1.7788 0.2154 0 2
6.5182 4.1890 -1.7877 0.2143 0 2
6.2322 4.6654 -1.7962 0.2133 0 2
5.9100 5.1210 -1.8043 0.2123 0 2
5.0767 -5.0767 -1.7190 0.2448 0 1
5.4477 -4.7206 -1.7259 0.2438 0 1
5.7953 -4.3383 -1.7332 0.2428 0 1
6.1174 -3.9314 -1.7410 0.2417 0 1
6.4123 -3.5014 -1.7492 0.2406 0 1
6.6783 -3.0499 -1.7578 0.2394 0 1
6.9137 -2.5787 -1.7667 0.2382 0 1
7.1169 -2.0897 -1.7759 0.2370 0 1
7.2864 -1.5851 -1.7854 0.2357 0 1
7.4209 -1.0670 -1.7950 0.2344 0 1
7.5191 -0.5378 -1.8049 0.2332 0 1
7.5799 -0.0000 -1.8148 0.2319 0 1
7.6024 0.5437 -1.8249 0.2306 0 1
7.5858 1.0907 -1.8349 0.2293 0 1
7.5296 1.6380 -1.8449 0.2281 0 1
7.4334 2.1826 -1.8549 0.2269 0 1
7.2971 2.7217 -1.8647 0.2257 0 1
7.1208 3.2520 -1.8743 0.2245 0 1
6.5104 3.5549 -1.7760 0.2234 0 2
6.2701 4.0295 -1.7845 0.2224 0 2
5.9940 4.4870 -1.7927 0.2213 0 2
5.6831 4.9245 -1.8004 0.2204 0 2
4.9065 -4.9065 -1.7219 0.2528 0 1
5.2644 -4.5616 -1.7286 0.2518 0 1
5.5994 -4.1917 -1.7358 0.2508 0 1
5.9097 -3.7980 -1.7433 0.2497 0 1
6.1936 -3.3820 -1.7512 0.2486 0 1
6.4495 -2.9454 -1.7595 0.2474 0 1
6.6757 -2.4899 -1.7681 0.2462 0 1
6.8706 -2.0174 -1.7770 0.2450 0 1
7.0330 -1.5300 -1.7861 0.2437 0 1
7.1614 -1.0296 -1.7955 0.2424 0 1
7.2548 -0.5189 -1.8050 0.2412 0 1
7.3121 -0.0000 -1.8146 0.2399 0 1
7.3323 0.5244 -1.8242 0.2386 0 1
7.3149 1.0517 -1.8339 0.2374 0 1
7.2593 1.5792 -1.8436 0.2361 0 1
7.1652 2.1039 -1.8532 0.2349 0 1
7.0324 2.6229 -1.8626 0.2337 0 1
6.8612 3.1334 -1.8718 0.2326 0 1
6.2720 3.4247 -1.7734 0.2314 0 2
6.0394 3.8813 -1.7816 0.2304 0 2
5.7725 4.3212 -1.7894 0.2294 0 2
5.4722 4.7417 -1.7969 0.2284 0 2
4.7466 -4.7467 -1.7247 0.2608 0 1
5.0922 -4.4125 -1.7312 0.2598 0 1
5.4156 -4.0541 -1.7381 0.2588 0 1
5.7149 -3.6728 -1.7454 0.2577 0 1
5.9886 -3.2701 -1.7531 0.2565 0 1
6.2350 -2.8474 -1.7611 0.2554 0 1
6.4526 -2.4067 -1.7694 0.2542 0 1
6.6399 -1.9497 -1.7780 0.2530 0 1
6.7956 -1.4783 -1.7869 0.2517 0 1
6.9185 -0.9948 -1.7959 0.2504 0 1
7.0075 -0.5012 -1.8051 0.2492 0 1
7.0615 -0.0000 -1.8143 0.2479 0 1
7.0798 0.5063 -1.8237 0.2466 0 1
7.0617 1.0153 -1.8330 0.2454 0 1
7.0067 1.5242 -1.8424 0.2441 0 1
6.9146 2.0303 -1.8516 0.2429 0 1
6.7853 2.5308 -1.8607 0.2417 0 1
6.6190 3.0228 -1.8696 0.2406 0 1
6.0975 3.3295 -1.7850 0.2401 0 2
5.8242 3.7430 -1.7788 0.2384 0 2
5.5659 4.1666 -1.7864 0.2374 0 2
5.2756 4.5713 -1.7936 0.2364 0 2
4.5963 -4.5963 -1.7274 0.2687 0 1
4.9304 -4.2722 -1.7336 0.2677 0 1
5.2427 -3.9247 -1.7403 0.2667 0 1
5.5318 -3.5551 -1.7474 0.2656 0 1
5.7959 -3.1648 -1.7549 0.2645 0 1
6.0334 -2.7554 -1.7626 0.2633 0 1
6.2430 -2.3286 -1.7707 0.2621 0 1
6.4233 -1.8861 -1.7790 0.2609 0 1
6.5729 -1.4299 -1.7875 0.2597 0 1
6.6907 -0.9620 -1.7963 0.2584 0 1
6.7755 -0.4846 -1.8051 0.2571 0 1
6.8266 0.0000 -1.8141 0.2559 0 1
6.8431 0.4894 -1.8231 0.2546 0 1
6.8244 0.9812 -1.8322 0.2533 0 1
6.7701 1.4728 -1.8412 0.2521 0 1
6.6800 1.9614 -1.8501 0.2509 0 1
6.5540 2.4445 -1.8589 0.2497 0 1
6.3923 2.9193 -1.8675 0.2486 0 1
5.8414 3.1896 -1.7686 0.2475 0 2
5.6230 3.6137 -1.7763 0.2464 0 2
5.3729 4.0220 -1.7835 0.2454 0 2
5.0919 4.4121 -1.7905 0.2444 0 2
4.4546 -4.4546 -1.7298 0.2767 0 1
4.7778 -4.1400 -1.7359 0.2757 0 1
5.0799 -3.8028 -1.7424 0.2747 0 1
5.3593 -3.4442 -1.7493 0.2736 0 1
5.6144 -3.0657 -1.7565 0.2725 0 1
5.8437 -2.6688 -1.7640 0.2713 0 1
6.0459 -2.2550 -1.7718 0.2701 0 1
6.2195 -1.8262 -1.7799 0.2689 0 1
6.3634 -1.3843 -1.7882 0.2676 0 1
6.4764 -0.9312 -1.7966 0.2664 0 1
6.5575 -0.4690 -1.8052 0.2651 0 1
6.6059 -0.0000 -1.8139 0.2638 0 1
6.6208 0.4735 -1.8226 0.2626 0 1
6.6016 0.9492 -1.8314 0.2613 0 1
6.5480 1.4244 -1.8401 0.2601 0 1
6.4599 1.8968 -1.8487 0.2589 0 1
6.3370 2.3636 -1.8572 0.2577 0 1
6.1797 2.8222 -1.8655 0.2565 0 1
5.6463 3.0831 -1.7665 0.2554 0 2
5.4345 3.4925 -1.7738 0.2544 0 2
5.1920 3.8866 -1.7809 0.2534 0 2
4.9198 4.2630 -1.7875 0.2524 0 2
4.3207 -4.3208 -1.7322 0.2846 0 1
4.6338 -4.0152 -1.7381 0.2836 0 1
4.9262 -3.6878 -1.7444 0.2826 0 1
5.1965 -3.3396 -1.7511 0.2815 0 1
5.4432 -2.9722 -1.7581 0.2804 0 1
5.6648 -2.5871 -1.7654 0.2792 0 1
5.8600 -2.1857 -1.7729 0.2780 0 1
6.0274 -1.7698 -1.7808 0.2768 0 1
6.1660 -1.3413 -1.7888 0.2756 0 1
6.2746 -0.9021 -1.7970 0.2743 0 1
6.3522 -0.4543 -1.8053 0.2730 0 1
6.3980 -0.0000 -1.8137 0.2718 0 1
6.4115 0.4585 -1.8222 0.2705 0 1
6.3920 0.9190 -1.8306 0.2693 0 1
6.3392 1.3790 -1.8390 0.2680 0 1
6.2529 1.8360 -1.8474 0.2668 0 1
1.7090 0.6374 -0.5171 0.0144 294 14
1.4411 0.6581 -0.4491 0.1670 294 14
1.4194 0.7750 -0.4585 0.1105 294 14
1.4303 0.9192 -0.4820 0.1051 294 14
1.4229 1.0652 -0.5039 0.1006 294 14
4.7583 4.1231 -1.7848 0.2604 0 2
4.1941 -4.1942 -1.7344 0.2925 0 1
4.4976 -3.8971 -1.7401 0.2915 0 1
4.7809 -3.5790 -1.7463 0.2905 0 1
5.0427 -3.2407 -1.7527 0.2894 0 1
5.2814 -2.8839 -1.7595 0.2883 0 1
5.4957 -2.5098 -1.7666 0.2871 0 1
5.6843 -2.1202 -1.7740 0.2859 0 1
5.8460 -1.7165 -1.7816 0.2847 0 1
5.9796 -1.3008 -1.7894 0.2835 0 1
6.0840 -0.8748 -1.7973 0.2822 0 1
6.1584 -0.4405 -1.8054 0.2810 0 1
6.2021 0.0000 -1.8135 0.2797 0 1
6.2142 0.4444 -1.8217 0.2784 0 1
6.1944 0.8906 -1.8299 0.2772 0 1
1.4798 0.3219 -0.4428 0.1743 294 14
1.4552 0.4273 -0.4435 0.1741 294 14
1.4187 0.5292 -0.4428 0.1743 294 14
1.3710 0.6261 -0.4407 0.1755 294 14
1.3187 0.7201 -0.4393 0.1187 294 14
1.3240 0.8509 -0.4602 0.1133 294 14
