ply
format ascii 1.0
element vertex 613
property float32 x
property float32 y
property float32 z
property float32 CosAngle
property uint32 ObjIdx
property uint32 ObjTag
end_header
40.64617919921875 1.2774022817611694 5.909162998199463 0.9738385677337646 0 3
40.72370910644531 0.9140039086341858 5.919003009796143 0.9722196459770203 0 3
40.69971466064453 0.548046886920929 5.914565086364746 0.9706919193267822 0 3
40.89104080200195 0.1835351586341858 5.941883563995361 0.9687469601631165 0 3
40.96942901611328 -0.1838671863079071 5.953273296356201 0.9668934941291809 0 3
41.03660583496094 -0.5525586009025574 5.963517189025879 0.9649621844291687 0 3
41.11559295654297 -0.9227734208106995 5.975969314575195 0.9629530310630798 0 3
41.0923957824707 -1.291347622871399 5.974032878875732 0.9608876705169678 0 3
41.171878814697266 -1.6639257669448853 5.987517356872559 0.9587236046791077 0 3
40.3021240234375 -1.9912694692611694 5.863386631011963 0.2541860342025757 0 3
39.026180267333984 -2.279550790786743 5.680510520935059 0.4646288752555847 0 3
39.0802001953125 -2.634843587875366 5.691585540771484 0.9517683386802673 0 3
39.260169982910156 -3.001230478286743 5.721489906311035 0.9492748379707336 0 3
39.33725357055664 -3.362539052963257 5.736888408660889 0.9467263221740723 0 3
39.426475524902344 -3.7268943786621094 5.75454568862915 0.9441017508506775 0 3
39.50444793701172 -4.092382907867432 5.771057605743408 0.9414010047912598 0 3
39.5828742980957 -4.459921836853027 5.788129806518555 0.9386242032051086 0 3
39.64998245239258 -4.828300476074219 5.804049491882324 0.9357720613479614 0 3
39.72934341430664 -5.200253963470459 5.822266578674316 0.9328442215919495 0 3
39.80921173095703 -5.574648380279541 5.841067314147949 0.9298413991928101 0 3
39.78333282470703 -5.935585975646973 5.844851970672607 0.9236859083175659 0 3
39.982421875 -6.332597732543945 5.882214069366455 0.923610508441925 0 3
40.063941955566406 -6.714667797088623 5.902834415435791 0.9203855991363525 0 3
12.844949722290039 -2.2715234756469727 1.8954441547393799 0.7232481241226196 0 6
40.21611022949219 -7.484785079956055 5.944094181060791 0.9640539884567261 0 3
40.28642654418945 -7.872636318206787 5.96469783782959 0.9129683375358582 0 3
40.36984634399414 -8.265800476074219 5.987793922424316 0.9094471335411072 0 3
40.46537399291992 -8.66445255279541 6.013253688812256 0.8314180970191956 0 3
40.44664764404297 -9.040898323059082 6.022289276123047 0.8997824192047119 0 3
40.651954650878906 -9.4707612991333 6.065270900726318 0.8957348465919495 0 3
40.73868942260742 -9.877225875854492 6.091184139251709 0.8919246792793274 0 3
40.70584487915039 -10.257011413574219 6.099797248840332 0.892264723777771 0 3
40.902278900146484 -10.697851181030273 6.143383026123047 0.884084165096283 0 3
40.99132537841797 -11.11513614654541 6.171494483947754 0.8800570964813232 0 3
40.97148513793945 -11.505546569824219 6.183788776397705 0.8718517422676086 0 3
41.18414306640625 -11.965116500854492 6.23185920715332 0.8717911839485168 0 3
41.27577209472656 -12.394609451293945 6.262304782867432 0.8675524592399597 0 3
41.35601043701172 -12.824433326721191 6.29169225692749 0.8632439970970154 0 3
41.4494514465332 -13.26244068145752 6.323762893676758 0.8588658571243286 0 3
41.43424606323242 -13.668671607971191 6.339903831481934 0.8544399738311768 0 3
36.270408630371094 -15.310565948486328 5.720727443695068 0.8708112239837646 0 6
35.47210693359375 -15.350116729736328 5.616327285766602 0.6374431848526001 0 6
15.172616958618164 15.17259693145752 2.937480926513672 0.9188176393508911 0 9
15.407923698425293 15.1337890625 2.9566166400909424 0.9696942567825317 0 9
15.546074867248535 14.997694969177246 2.9571757316589355 0.9695111513137817 0 9
15.684310913085938 14.861581802368164 2.957975387573242 0.9692488312721252 0 9
15.82265853881836 14.725390434265137 2.959019184112549 0.9689072370529175 0 9
15.961127281188965 14.58910083770752 2.9603044986724854 0.9684863686561584 0 9
16.099748611450195 14.4526948928833 2.961832284927368 0.9679862260818481 0 9
16.238542556762695 14.31615161895752 2.9636070728302 0.9674068093299866 0 9
21.133134841918945 18.296815872192383 3.826763868331909 0.906408429145813 0 9
21.21183967590332 18.034433364868164 3.8115508556365967 0.9100263714790344 0 9
21.289920806884766 17.77408218383789 3.7967565059661865 0.9135717153549194 0 9
20.22813606262207 16.581796646118164 3.580717086791992 0.9212688207626343 0 9
20.3008975982666 16.33902359008789 3.5674870014190674 0.9246838688850403 0 9
16.109710693359375 12.729179382324219 2.810776948928833 0.8116387724876404 0 9
16.11652946472168 12.501269340515137 2.7922754287719727 0.856865644454956 0 9
16.30506134033203 12.414726257324219 2.8055224418640137 0.852820873260498 0 9
16.49542999267578 12.327284812927246 2.8191254138946533 0.8487057685852051 0 9
16.687686920166016 12.23910140991211 2.8330938816070557 0.8445214033126831 0 9
16.881908416748047 12.150019645690918 2.8474364280700684 0.8402674794197083 0 9
17.078144073486328 12.060077667236328 2.8621580600738525 0.835944414138794 0 9
17.27647590637207 11.969179153442383 2.877275228500366 0.8315523862838745 0 9
17.37151336669922 11.805644035339355 2.8753411769866943 0.5809981226921082 0 9
18.95793342590332 12.636542320251465 3.119025230407715 0.9555646777153015 0 9
19.03101921081543 12.440019607543945 3.112551212310791 0.9575515985488892 0 9
19.10382080078125 12.244277000427246 3.106358528137207 0.959460973739624 0 9
19.17635154724121 12.04931640625 3.1004412174224854 0.9612923264503479 0 9
19.24862289428711 11.8550386428833 3.094796657562256 0.9630456566810608 0 9
19.32065200805664 11.661542892456055 3.0894224643707275 0.9647208452224731 0 9
21.432479858398438 12.675097465515137 3.4087791442871094 0.06233368068933487 0 9
22.154823303222656 12.83529281616211 3.505199432373047 0.7096098065376282 0 9
22.076322555541992 12.52652359008789 3.4748504161834717 0.7158074378967285 0 9
21.999156951904297 12.22298812866211 3.445298910140991 0.7219482064247131 0 9
21.92327880859375 11.924570083618164 3.416511058807373 0.7280306220054626 0 9
21.9553165435791 11.687870979309082 3.4050183296203613 0.3965073525905609 0 9
23.067167282104492 12.015312194824219 3.5605828762054443 0.6035460233688354 0 9
23.42496681213379 11.9356050491333 3.5991289615631104 0.5970820188522339 0 9
23.586069107055664 11.752206802368164 3.607530355453491 0.9250797629356384 0 9
23.741817474365234 11.5649995803833 3.6153295040130615 0.9230842590332031 0 9
39.05366516113281 18.591777801513672 5.921319484710693 0.9637393355369568 0 3
39.043880462646484 18.159082412719727 5.894886493682861 0.9658058285713196 0 3
39.230010986328125 17.819101333618164 5.898599624633789 0.9677102565765381 0 3
39.312469482421875 17.432655334472656 5.887232303619385 0.969577431678772 0 3
39.290103912353516 17.002344131469727 5.8607964515686035 0.9698167443275452 0 3
39.45491409301758 16.654804229736328 5.862836837768555 0.9756252765655518 0 3
39.536643981933594 16.27275276184082 5.853043556213379 0.9772582650184631 0 3
39.61809158325195 15.891913414001465 5.843743801116943 0.9788127541542053 0 3
39.61503219604492 15.479472160339355 5.82256555557251 0.979502260684967 0 3
39.80123519897461 15.14183521270752 5.829727649688721 0.9791429042816162 0 3
39.881832122802734 14.764042854309082 5.821878433227539 0.9804610013961792 0 3
39.96221923828125 14.387304306030273 5.8145294189453125 0.9817008376121521 0 3
39.93619918823242 13.97427749633789 5.792268753051758 0.9819747805595398 0 3
40.11170196533203 13.6328706741333 5.799732685089111 0.983942985534668 0 3
40.19152069091797 13.258729934692383 5.793830394744873 0.9849451780319214 0 3
40.17496109008789 12.854589462280273 5.774580478668213 0.9870394468307495 0 3
40.36146926879883 12.51601505279541 5.785008430480957 0.9867112040519714 0 3
40.44087219238281 12.143847465515137 5.780533313751221 0.9874751567840576 0 3
40.41330337524414 11.741132736206055 5.761293411254883 0.9882482290267944 0 3
40.588523864746094 11.3980073928833 5.771458148956299 0.9887641668319702 0 3
40.66759490966797 11.027382850646973 5.768392086029053 0.9892892241477966 0 3
40.65016555786133 10.6318941116333 5.7521538734436035 0.9897547960281372 0 3
38.73453903198242 9.760293006896973 5.46846866607666 0.9901203513145447 0 3
38.90614318847656 9.43294906616211 5.4805192947387695 0.990385890007019 0 3
38.98114013671875 9.081425666809082 5.479376316070557 0.9905920028686523 0 3
38.958892822265625 8.70839786529541 5.465051174163818 0.9907581210136414 0 3
39.14203643798828 8.381093978881836 5.479959011077881 0.9907646179199219 0 3
39.21701431274414 8.02968692779541 5.480148792266846 0.9907311201095581 0 3
39.18310546875 7.656972408294678 5.465582847595215 0.9906638860702515 0 3
39.35596466064453 7.324648380279541 5.48030424118042 0.9904249310493469 0 3
39.43098831176758 6.973027229309082 5.481817722320557 0.99015212059021 0 3
39.50605773925781 6.621171951293945 5.483767986297607 0.9897994995117188 0 3
39.48252487182617 6.253437519073486 5.472490310668945 0.9890884160995483 0 3
39.66751480102539 5.918222427368164 5.49054479598999 0.9888548851013184 0 3
39.742820739746094 5.565292835235596 5.493837356567383 0.9882630705833435 0 3
39.8182258605957 5.211855411529541 5.49757194519043 0.9875922203063965 0 3
39.882545471191406 4.856562614440918 5.500208854675293 0.9868409633636475 0 3
35.20278549194336 3.9664061069488525 4.849719047546387 0.6363129019737244 0 6
40.02980422973633 4.14675760269165 5.50936222076416 0.9876357316970825 0 3
40.1055793762207 3.791093587875366 5.5148844718933105 0.9866465926170349 0 3
40.18584060668945 3.4350390434265137 5.521457195281982 0.98304283618927 0 3
40.27335739135742 3.078691244125366 5.529462814331055 0.9818946719169617 0 3
40.34978103637695 2.7204883098602295 5.536383628845215 0.9806679487228394 0 3
40.42640686035156 2.361328125 5.543765068054199 0.9793626666069031 0 3
40.391029357910156 1.9956640005111694 5.536231994628906 0.9779285192489624 0 3
40.56892395019531 1.6395506858825684 5.558371543884277 0.9765141010284424 0 3
40.646202087402344 1.277382731437683 5.56716775894165 0.9749718308448792 0 3
40.72372817993164 0.9140039086341858 5.576435565948486 0.973351001739502 0 3
40.699851989746094 0.5480273365974426 5.572264671325684 0.9718186855316162 0 3
40.891056060791016 0.18355467915534973 5.597996711730957 0.969874382019043 0 3
40.969444274902344 -0.1838671863079071 5.6087260246276855 0.9680187106132507 0 3
41.03662109375 -0.552539050579071 5.618373870849609 0.9660851955413818 0 3
41.11561584472656 -0.9227734208106995 5.630098342895508 0.9640737175941467 0 3
41.09246826171875 -1.2913671731948853 5.628283500671387 0.9620046615600586 0 3
41.17194366455078 -1.6639257669448853 5.640998363494873 0.9598380923271179 0 3
40.303707122802734 -1.9913671016693115 5.524260520935059 0.25447165966033936 0 3
39.02709197998047 -2.279589891433716 5.351929664611816 0.4651588201522827 0 3
39.08026885986328 -2.634882688522339 5.362187385559082 0.9528746008872986 0 3
39.26018142700195 -3.001230478286743 5.390352725982666 0.9503796100616455 0 3
39.3372688293457 -3.362558603286743 5.404866695404053 0.9478281140327454 0 3
39.426490783691406 -3.7269139289855957 5.421499729156494 0.9452006220817566 0 3
39.50446319580078 -4.092402458190918 5.437056064605713 0.9424962997436523 0 3
39.582889556884766 -4.459941387176514 5.45313835144043 0.9397165179252625 0 3
39.64999771118164 -4.828320026397705 5.468133926391602 0.9368609189987183 0 3
39.7293586730957 -5.200253963470459 5.485301494598389 0.9339300394058228 0 3
39.809226989746094 -5.574648380279541 5.50301456451416 0.930923581123352 0 3
39.78406524658203 -5.935644626617432 5.506660461425781 0.9247441291809082 0 3
39.98243713378906 -6.332597732543945 5.541781902313232 0.9246853590011597 0 3
40.06395721435547 -6.714687347412109 5.561208248138428 0.9214565753936768 0 3
12.8447847366333 -2.271484375 1.7857205867767334 0.7241001129150391 0 6
40.216800689697266 -7.484921932220459 5.600178241729736 0.9147719740867615 0 3
40.29386520385742 -7.874082088470459 5.620520114898682 0.9138625264167786 0 3
40.37732696533203 -8.267343521118164 5.642282962799072 0.9103372097015381 0 3
40.46862030029297 -8.665156364440918 5.665685176849365 0.9041945934295654 0 3
40.4467887878418 -9.04091739654541 5.6737565994262695 0.9008267521858215 0 3
40.65196990966797 -9.4707612991333 5.714242458343506 0.8967770934104919 0 3
40.738704681396484 -9.877206802368164 5.738656044006348 0.8929628729820251 0 3
40.70632553100586 -10.257108688354492 5.746836185455322 0.8888576030731201 0 3
40.90230178833008 -10.697890281677246 5.787829875946045 0.8851128220558167 0 3
40.99134063720703 -11.115156173706055 5.814308166503906 0.8810814619064331 0 3
40.972328186035156 -11.505781173706055 5.826033115386963 0.8728487491607666 0 3
41.18415832519531 -11.965097427368164 5.871191501617432 0.872805655002594 0 3
41.27579116821289 -12.3945894241333 5.899866580963135 0.8685621023178101 0 3
41.35602951049805 -12.824413299560547 5.927557945251465 0.8642485737800598 0 3
41.449462890625 -13.262401580810547 5.957773208618164 0.8598654866218567 0 3
41.43431854248047 -13.668710708618164 5.972990989685059 0.8554331660270691 0 3
36.2762565612793 -15.3130464553833 5.390507698059082 0.9707638621330261 0 6
35.47945785522461 -15.353300094604492 5.292365550994873 0.760503888130188 0 6
42.13581085205078 -24.4112491607666 6.666475772857666 0.5270625948905945 0 3
42.12347412109375 -24.911787033081055 6.6996307373046875 0.834298312664032 0 3
15.255443572998047 15.255410194396973 2.772486448287964 0.9717752933502197 0 9
15.393407821655273 15.119491577148438 2.772783041000366 0.9716713428497314 0 9
15.531426429748535 14.983573913574219 2.773305654525757 0.9714882373809814 0 9
15.669530868530273 14.84755802154541 2.7740581035614014 0.9712256193161011 0 9
15.8077392578125 14.7114839553833 2.7750322818756104 0.9708836674690247 0 9
15.946073532104492 14.575312614440918 2.7762370109558105 0.9704621434211731 0 9
16.08455467224121 14.4390230178833 2.777669668197632 0.9699615240097046 0 9
16.223215103149414 14.302656173706055 2.7793309688568115 0.9693816304206848 0 9
21.13821029663086 18.301191329956055 3.593071222305298 0.9071831107139587 0 9
21.2169132232666 18.03874969482422 3.5787811279296875 0.9108052849769592 0 9
21.294992446899414 17.77828025817871 3.5648882389068604 0.9143542051315308 0 9
21.372465133666992 17.519882202148438 3.551393985748291 0.9178298115730286 0 9
20.328258514404297 16.361053466796875 3.3533451557159424 0.9244503974914551 0 9
16.079893112182617 12.705663681030273 2.633615732192993 0.814034104347229 0 9
16.283863067626953 12.631054878234863 2.648343563079834 0.8095061779022217 0 9
18.395572662353516 14.0064058303833 2.971219301223755 0.6463562846183777 0 9
18.35051155090332 13.713651657104492 2.9439384937286377 0.11087282747030258 0 9
18.578632354736328 13.6259765625 2.9607958793640137 0.9459667205810547 0 9
18.65333366394043 13.424941062927246 2.953378200531006 0.9483426213264465 0 9
18.727685928344727 13.22494125366211 2.946235179901123 0.9506415128707886 0 9
18.09373664855957 12.535370826721191 2.8286876678466797 0.132479727268219 0 9
18.875375747680664 12.827675819396973 2.932765483856201 0.955007791519165 0 9
18.94874382019043 12.6304292678833 2.92642879486084 0.957074761390686 0 9
19.02181053161621 12.434003829956055 2.920360565185547 0.9590638875961304 0 9
19.0945987701416 12.2383394241333 2.9145543575286865 0.9609752893447876 0 9
19.167110443115234 12.043496131896973 2.909003734588623 0.9628088474273682 0 9
19.239362716674805 11.849335670471191 2.903705358505249 0.9645640850067139 0 9
19.311376571655273 11.65591812133789 2.898671865463257 0.9662411212921143 0 9
19.38315200805664 11.463163375854492 2.8938822746276855 0.9678396582603455 0 9
22.151880264282227 12.833574295043945 3.289919853210449 0.3004183769226074 0 9
22.080923080444336 12.52914047241211 3.2625482082366943 0.7164422869682312 0 9
21.965457916259766 12.204297065734863 3.2291691303253174 0.6253823637962341 0 9
21.92776870727539 11.927069664001465 3.2077598571777344 0.7286782264709473 0 9
22.22888946533203 11.83349609375 3.236140727996826 0.7899851202964783 0 9
22.988285064697266 11.974199295043945 3.330916166305542 0.6062796115875244 0 9
23.3439884185791 11.894354820251465 3.366851806640625 0.5998089909553528 0 9
23.5477237701416 11.733124732971191 3.380908727645874 0.9276005029678345 0 9
38.97022247314453 18.983007431030273 5.570536136627197 0.9626900553703308 0 3
39.05368423461914 18.591777801513672 5.558387756347656 0.9647940397262573 0 3
39.044010162353516 18.159120559692383 5.533583641052246 0.9668599367141724 0 3
39.23002624511719 17.819101333618164 5.5370588302612305 0.968769371509552 0 3
39.31248474121094 17.432655334472656 5.526385307312012 0.9706385731697083 0 3
39.290775299072266 17.00259780883789 5.5016608238220215 0.9724779725074768 0 3
39.46171951293945 16.65767478942871 5.504443645477295 0.9765250086784363 0 3
39.54344940185547 16.27556610107422 5.495240211486816 0.9781596660614014 0 3
39.624908447265625 15.894667625427246 5.486508846282959 0.9797159433364868 0 3
39.61575698852539 15.47972583770752 5.465783596038818 0.980556845664978 0 3
39.80125427246094 15.141796112060547 5.4724016189575195 0.9802146553993225 0 3
39.88185119628906 14.764042854309082 5.465047359466553 0.9815341234207153 0 3
39.96223449707031 14.387324333190918 5.4581451416015625 0.982775092124939 0 3
39.93693542480469 13.974550247192383 5.437338352203369 0.9830318689346313 0 3
40.11172103881836 13.632831573486328 5.444253444671631 0.9850199222564697 0 3
40.19153594970703 13.258749961853027 5.438714981079102 0.9860231280326843 0 3
40.17568588256836 12.854843139648438 5.420735836029053 0.9881022572517395 0 3
40.36147689819336 12.516054153442383 5.430431365966797 0.9877911806106567 0 3
40.44089126586914 12.143866539001465 5.426232814788818 0.988555908203125 0 3
40.4134407043457 11.741171836853027 5.408188819885254 0.9893269538879395 0 3
40.58853530883789 11.397988319396973 5.4177093505859375 0.9898462891578674 0 3
40.66761016845703 11.027382850646973 5.414836883544922 0.9903719425201416 0 3
40.650230407714844 10.631933212280273 5.399596214294434 0.9908367991447449 0 3
38.734561920166016 9.760272979736328 5.133290767669678 0.9911289215087891 0 3
38.90382766723633 9.432421684265137 5.144298553466797 0.9799557328224182 0 3
38.97870635986328 9.080859184265137 5.143209934234619 0.9801624417304993 0 3
39.053592681884766 8.729511260986328 5.142549991607666 0.9802892804145813 0 3
39.12849426269531 8.378164291381836 5.14229679107666 0.9803363084793091 0 3
39.20342254638672 8.026894569396973 5.14247465133667 0.9803037643432617 0 3
39.27839279174805 7.675585746765137 5.143060684204102 0.9801916480064392 0 3
39.353355407714844 7.324140548706055 5.144064426422119 0.9804127812385559 0 3
39.42813491821289 6.972519397735596 5.145448684692383 0.9801486730575562 0 3
39.502994537353516 6.620702743530273 5.147251605987549 0.9798046946525574 0 3
39.577964782714844 6.268574237823486 5.149482727050781 0.9793434143066406 0 3
39.653770446777344 5.916210651397705 5.152229309082031 0.9783632159233093 0 3
39.72970962524414 5.563457012176514 5.155401706695557 0.977761447429657 0 3
39.805320739746094 5.210155963897705 5.158932209014893 0.9771753549575806 0 3
39.88106155395508 4.856367111206055 5.162888526916504 0.976426362991333 0 3
35.41733169555664 3.9905662536621094 4.580209732055664 0.8479771018028259 0 6
40.03299331665039 4.147070407867432 5.172089576721191 0.9746899604797363 0 3
40.10921859741211 3.7914257049560547 5.17733097076416 0.9737030267715454 0 3
40.18544006347656 3.4350390434265137 5.182981967926025 0.9728593230247498 0 3
40.24144744873047 3.076249837875366 5.18643856048584 0.1272473931312561 0 3
40.27106475830078 2.7151756286621094 5.186896800994873 0.12723594903945923 0 3
40.297386169433594 2.353808641433716 5.1873602867126465 0.12751035392284393 0 3
40.34408187866211 1.9933397769927979 5.19085693359375 0.8425890207290649 0 3
40.42333221435547 1.6336913108825684 5.198962211608887 0.9775604605674744 0 3
40.500389099121094 1.2727733850479126 5.207191467285156 0.9760152101516724 0 3
40.57768630981445 0.9107031226158142 5.215871334075928 0.9743914008140564 0 3
40.62893295288086 0.547070324420929 5.221616744995117 0.8366516828536987 0 3
40.69989776611328 0.1826757788658142 5.230312347412109 0.8352602124214172 0 3
40.77078628540039 -0.18296875059604645 5.239424705505371 0.8338080048561096 0 3
40.8894157409668 -0.5505468845367432 5.255090713500977 0.9669401049613953 0 3
40.96819305419922 -0.9194726347923279 5.266066074371338 0.9651288390159607 0 3
41.04723358154297 -1.2899608612060547 5.27750301361084 0.9630374908447266 0 3
41.12662887573242 -1.6620702743530273 5.289416313171387 0.9608682990074158 0 3
40.3054313659668 -1.9914453029632568 5.185883045196533 0.25473925471305847 0 3
39.0279541015625 -2.279667854309082 5.023946285247803 0.4652033746242523 0 3
39.08021545410156 -2.6348631381988525 5.0335211753845215 0.9538425207138062 0 3
39.24948501586914 -3.000429630279541 5.058588981628418 0.9400340914726257 0 3
39.32753372192383 -3.3616795539855957 5.072325229644775 0.9374870657920837 0 3
39.40604019165039 -3.724980354309082 5.086564064025879 0.934863805770874 0 3
39.48502731323242 -4.09033203125 5.101293087005615 0.9321644902229309 0 3
39.56451416015625 -4.457890510559082 5.116524696350098 0.9293891191482544 0 3
39.64451217651367 -4.827617168426514 5.132269382476807 0.9265385866165161 0 3
39.72473907470703 -5.199667930603027 5.1484904289245605 0.9242717623710632 0 3
39.805442810058594 -5.574081897735596 5.165225028991699 0.9212769865989685 0 3
39.88675308227539 -5.950995922088623 5.182497024536133 0.9170879125595093 0 3
39.96953201293945 -6.33056640625 5.200427055358887 0.9139260053634644 0 3
39.973289489746094 -6.699472427368164 5.208530902862549 0.12695223093032837 0 3
12.844318389892578 -2.2714061737060547 1.6762076616287231 0.7245805859565735 0 6
40.06391906738281 -7.456406116485596 5.236940860748291 0.9155283570289612 0 3
40.146995544433594 -7.845390319824219 5.256793022155762 0.9123169779777527 0 3
40.23060989379883 -8.237265586853027 5.277205467224121 0.9087874293327332 0 3
40.31488800048828 -8.632285118103027 5.298218250274658 0.9051842093467712 0 3
40.36347579956055 -9.022343635559082 5.315028667449951 0.9591339230537415 0 3
40.6519889831543 -9.470742225646973 5.36400032043457 0.8977588415145874 0 3
40.73872375488281 -9.877264976501465 5.386917591094971 0.893939733505249 0 3
40.70647048950195 -10.257147789001465 5.3946146965026855 0.8898273706436157 0 3
40.90231704711914 -10.697871208190918 5.4330854415893555 0.8860815763473511 0 3
40.991355895996094 -11.115156173706055 5.457942962646484 0.8820455074310303 0 3
40.97291946411133 -11.505976676940918 5.4690117835998535 0.8782698512077332 0 3
41.18417739868164 -11.965116500854492 5.5113205909729 0.8737608194351196 0 3
41.27581024169922 -12.394609451293945 5.538244724273682 0.8695126175880432 0 3
41.35604476928711 -12.824433326721191 5.564237594604492 0.8651944994926453 0 3
41.44948196411133 -13.262421607971191 5.5926032066345215 0.8608065247535706 0 3
41.43439865112305 -13.668749809265137 5.606896877288818 0.8563680648803711 0 3
36.27584457397461 -15.312850952148438 5.060050010681152 0.9718378782272339 0 6
42.969764709472656 -24.381914138793945 6.348970413208008 0.5200906991958618 0 3
42.13663101196289 -24.4117374420166 6.257999897003174 0.5276292562484741 0 3
41.90668487548828 -24.783544540405273 6.256627559661865 0.5600816011428833 0 3
41.665096282958984 -25.148221969604492 6.254012107849121 0.8134832978248596 0 3
41.66886520385742 -25.66355323791504 6.288901329040527 0.8089680671691895 0 3
41.67246627807617 -26.184579849243164 6.324662208557129 0.8043954372406006 0 3
41.67589569091797 -26.711503982543945 6.361319541931152 0.7997603416442871 0 3
15.24111557006836 15.241093635559082 2.589407205581665 0.9736865162849426 0 9
15.378939628601074 15.105331420898438 2.5896849632263184 0.9735826253890991 0 9
15.516833305358887 14.969491958618164 2.5901684761047363 0.9733992218971252 0 9
15.654802322387695 14.833613395690918 2.590867757797241 0.9731363654136658 0 9
15.79287338256836 14.69765567779541 2.5917840003967285 0.9727938771247864 0 9
15.931072235107422 14.561601638793945 2.592905282974243 0.9723721742630005 0 9
16.069425582885742 14.425429344177246 2.594242572784424 0.9718707799911499 0 9
16.207937240600586 14.289179801940918 2.5957934856414795 0.9712904095649719 0 9
21.14327049255371 18.305604934692383 3.359769105911255 0.9078959822654724 0 9
21.22197723388672 18.043027877807617 3.3463988304138184 0.9115219712257385 0 9
21.30005645751953 17.782499313354492 3.3334100246429443 0.9150746464729309 0 9
21.37752914428711 17.524023056030273 3.320784330368042 0.91855388879776 0 9
20.355640411376953 16.383085250854492 3.1390745639801025 0.9241539239883423 0 9
20.427833557128906 16.141191482543945 3.1277360916137695 0.9275033473968506 0 9
20.499479293823242 15.901054382324219 3.116727828979492 0.930779218673706 0 9
20.570600509643555 15.662480354309082 3.1060400009155273 0.9339820146560669 0 9
18.49448013305664 13.821249961853027 2.7737138271331787 0.9449452757835388 0 9
18.56954002380371 13.619355201721191 2.7665252685546875 0.9474003911018372 0 9
18.64423179626465 13.418397903442383 2.7596001625061035 0.94977867603302 0 9
18.673147201538086 13.186386108398438 2.746250629425049 0.12769635021686554 0 9
18.792560577392578 13.019511222839355 2.7465105056762695 0.954304039478302 0 9
18.866228103637695 12.821464538574219 2.7403509616851807 0.9564506411552429 0 9
18.939579010009766 12.624335289001465 2.7344322204589844 0.958519697189331 0 9
19.012630462646484 12.428007125854492 2.7287633419036865 0.9605109095573425 0 9
19.08540153503418 12.232440948486328 2.7233409881591797 0.9624244570732117 0 9
19.157894134521484 12.037714958190918 2.718156099319458 0.964259684085846 0 9
19.230131149291992 11.84365177154541 2.7132134437561035 0.9660166501998901 0 9
19.302120208740234 11.650370597839355 2.708503246307373 0.9676953554153442 0 9
22.062280654907227 13.047577857971191 3.079256534576416 0.3003653585910797 0 9
22.051286697387695 12.775312423706055 3.061591625213623 0.38780421018600464 0 9
21.872127532958984 12.410683631896973 3.021129608154297 0.3929981291294098 0 9
22.008230209350586 12.228066444396973 3.024646043777466 0.723181426525116 0 9
21.9322452545166 11.929471969604492 2.999363899230957 0.7292769551277161 0 9
22.221376419067383 11.82949161529541 3.0242631435394287 0.7910625338554382 0 9
22.910123825073242 11.933515548706055 3.103299379348755 0.6089721322059631 0 9
23.26375961303711 11.853495597839355 3.1366589069366455 0.6024946570396423 0 9
23.509599685668945 11.714139938354492 3.1555027961730957 0.9300577044487 0 9
38.837181091308594 18.918163299560547 5.189803123474121 0.9636771082878113 0 3
38.92035675048828 18.5283203125 5.1784844398498535 0.9657832980155945 0 3
38.99614334106445 18.13687515258789 5.166698455810547 0.828977108001709 0 3
39.08988952636719 17.75554656982422 5.157795429229736 0.11949457973241806 0 3
39.25141143798828 17.405487060546875 5.1582818031311035 0.11949700862169266 0 3
39.32878494262695 17.019081115722656 5.148170471191406 0.973471999168396 0 3
39.46510314941406 16.659120559692383 5.146231174468994 0.9642357230186462 0 3
39.546043395996094 16.276639938354492 5.137529373168945 0.9658694267272949 0 3
39.626739501953125 15.89540958404541 5.129268169403076 0.9674245715141296 0 3
39.70702362060547 15.515312194824219 5.121425151824951 0.9689863324165344 0 3
39.787384033203125 15.136523246765137 5.114064693450928 0.9703488349914551 0 3
39.8675422668457 14.7587890625 5.107128620147705 0.9716179966926575 0 3
39.94742965698242 14.38199234008789 5.100620746612549 0.9728579521179199 0 3
39.97559356689453 13.988104820251465 5.087982654571533 0.98506098985672 0 3
40.10670471191406 13.631152153015137 5.088892936706543 0.9751007556915283 0 3
40.18612289428711 13.256972312927246 5.0836663246154785 0.9761032462120056 0 3
40.26540756225586 12.883554458618164 5.078858375549316 0.9770265221595764 0 3
40.344581604003906 12.510781288146973 5.074480056762695 0.9778704047203064 0 3
40.42365264892578 12.138671875 5.070515155792236 0.9786347150802612 0 3
40.45249557495117 11.752519607543945 5.060693740844727 0.9903384447097778 0 3
40.581539154052734 11.396035194396973 5.063838481903076 0.9799248576164246 0 3
40.6610107421875 11.025566101074219 5.061199188232422 0.9928222298622131 0 3
40.65618133544922 10.633496284484863 5.048516273498535 0.9966568946838379 0 3
38.73443603515625 9.76025390625 4.79880952835083 0.9921486973762512 0 3
38.903053283691406 9.432226181030273 4.809016227722168 0.9898298978805542 0 3
38.96026611328125 9.076640129089355 4.805822849273682 0.990487277507782 0 3
39.030189514160156 8.724296569824219 4.804602146148682 0.9818829298019409 0 3
39.10504913330078 8.373222351074219 4.804367542266846 0.9819302558898926 0 3
39.179931640625 8.02212905883789 4.804524898529053 0.9818975925445557 0 3
39.25484848022461 7.67101526260376 4.805073261260986 0.981785237789154 0 3
39.3298225402832 7.31982421875 4.80601692199707 0.9815929532051086 0 3
39.40485763549805 6.968417644500732 4.807346820831299 0.9813210964202881 0 3
39.47996139526367 6.616835594177246 4.809072017669678 0.9809693694114685 0 3
39.554908752441406 6.26492166519165 4.8111572265625 0.9809194207191467 0 3
39.63019943237305 5.912675857543945 4.813663959503174 0.9804081916809082 0 3
39.70586013793945 5.560097694396973 4.816596031188965 0.9793521761894226 0 3
39.781394958496094 5.207070350646973 4.819896221160889 0.978766143321991 0 3
39.8570671081543 4.853456974029541 4.823596000671387 0.9780161380767822 0 3
35.50804138183594 4.000781059265137 4.292763710021973 0.9672510027885437 0 6
40.00886917114258 4.144570350646973 4.832182884216309 0.9762780666351318 0 3
40.08502197265625 3.789140462875366 4.837075233459473 0.9752899408340454 0 3
40.16132354736328 3.4329686164855957 4.842371940612793 0.9744420647621155 0 3
40.23784637451172 3.075976610183716 4.8480706214904785 0.9731612801551819 0 3
40.3146858215332 2.718085765838623 4.854194164276123 0.9718506932258606 0 3
40.391685485839844 2.3592772483825684 4.860719680786133 0.9705460667610168 0 3
40.46891403198242 1.9994921684265137 4.86765718460083 0.9691627621650696 0 3
40.54640197753906 1.638671875 4.8750152587890625 0.9677003622055054 0 3
40.62416076660156 1.2766796350479126 4.882783889770508 0.9661596417427063 0 3
40.702205657958984 0.9135156273841858 4.890983581542969 0.9645403027534485 0 3
40.78054428100586 0.5491015315055847 4.899612903594971 0.962842583656311 0 3
40.85919952392578 0.18339844048023224 4.908668041229248 0.961066484451294 0 3
40.93817138671875 -0.18371093273162842 4.918148517608643 0.9592124819755554 0 3
41.01749801635742 -0.5522851347923279 4.928077697753906 0.9572804570198059 0 3
41.100669860839844 -0.9224218726158142 4.938863277435303 0.9545696973800659 0 3
41.10587692260742 -1.2917968034744263 4.9406890869140625 0.9688661098480225 0 3
41.18482208251953 -1.6644140481948853 4.9517693519592285 0.9666974544525146 0 3
40.30710983276367 -1.9915038347244263 4.8481950759887695 0.2549900412559509 0 3
39.02880096435547 -2.2796874046325684 4.696710109710693 0.46567031741142273 0 3
39.08008575439453 -2.6348631381988525 4.705535888671875 0.9548241496086121 0 3
39.2448616027832 -3.0000391006469727 4.728426933288574 0.9653908610343933 0 3
39.30289840698242 -3.359609365463257 4.738864421844482 0.9390368461608887 0 3
39.38128662109375 -3.72265625 4.752150535583496 0.9364109039306641 0 3
39.46015167236328 -4.087753772735596 4.765902519226074 0.9337089657783508 0 3
39.539512634277344 -4.455058574676514 4.780128479003906 0.9309308528900146 0 3
39.6193733215332 -4.824550628662109 4.794828414916992 0.9280771017074585 0 3
39.69977951049805 -5.196406364440918 4.810005187988281 0.9251479506492615 0 3
39.780723571777344 -5.570624828338623 4.825676918029785 0.9221433997154236 0 3
39.86195373535156 -5.947304725646973 4.841814041137695 0.9194359183311462 0 3
39.94401168823242 -6.326523303985596 4.858483791351318 0.9162814021110535 0 3
40.02702713012695 -6.708535194396973 4.875702857971191 0.9126814603805542 0 3
12.843793869018555 -2.271308660507202 1.5669275522232056 0.7253542542457581 0 6
40.194313049316406 -7.480702877044678 4.911655902862549 0.9060021638870239 0 3
40.2789421081543 -7.871152400970459 4.930431365966797 0.9025517106056213 0 3
40.364261627197266 -8.2646484375 4.949753761291504 0.8990278840065002 0 3
40.45029067993164 -8.661269187927246 4.969635963439941 0.8954310417175293 0 3
40.53691482543945 -9.061074256896973 4.990068435668945 0.8918437957763672 0 3
40.62455368041992 -9.464335441589355 5.0111188888549805 0.8878882527351379 0 3
40.712860107421875 -9.871015548706055 5.0327372550964355 0.884204626083374 0 3
40.80194854736328 -10.281190872192383 5.05495023727417 0.8803184628486633 0 3
40.89188003540039 -10.695136070251465 5.07778787612915 0.8763602375984192 0 3
40.982666015625 -11.11279296875 5.10123872756958 0.8723312020301819 0 3
41.07432556152344 -11.534472465515137 5.125325679779053 0.8682308793067932 0 3
41.16690444946289 -11.960058212280273 5.150063514709473 0.8640601634979248 0 3
41.260414123535156 -12.389960289001465 5.175469875335693 0.8598188161849976 0 3
41.35489273071289 -12.824101448059082 5.2015557289123535 0.8555077910423279 0 3
41.36134719848633 -13.234140396118164 5.217098712921143 0.11860719323158264 0 3
41.38606262207031 -13.652792930603027 5.23546028137207 0.8572272658348083 0 3
36.27543258666992 -15.312694549560547 4.7303009033203125 0.9728456139564514 0 6
42.97062301635742 -24.38239288330078 5.935416221618652 0.5206135511398315 0 3
42.137451171875 -24.412216186523438 5.850357532501221 0.5281819105148315 0 3
42.09885787963867 -24.897226333618164 5.875796794891357 0.5357077121734619 0 3
41.85016632080078 -25.25990104675293 5.872493267059326 0.7932688593864441 0 3
42.08047866821289 -25.91706085205078 5.937210559844971 0.8263153433799744 0 3
15.226840019226074 15.226816177368164 2.4070310592651367 0.9755316376686096 0 9
15.364541053771973 15.091171264648438 2.407285451889038 0.9754275679588318 0 9
15.502294540405273 14.955449104309082 2.407740592956543 0.9752440452575684 0 9
15.640132904052734 14.819686889648438 2.4083900451660156 0.9749807715415955 0 9
15.778071403503418 14.683847427368164 2.4092371463775635 0.9746381044387817 0 9
15.916130065917969 14.547929763793945 2.4102814197540283 0.9742158651351929 0 9
16.054340362548828 14.411913871765137 2.4115233421325684 0.9737141728401184 0 9
16.192712783813477 14.275839805603027 2.4129621982574463 0.9731331467628479 0 9
21.148326873779297 18.309961318969727 3.1268107891082764 0.9085474014282227 0 9
21.227025985717773 18.047304153442383 3.114367723464966 0.9121764898300171 0 9
21.30510711669922 17.78675651550293 3.102276563644409 0.9157326221466064 0 9
21.38258171081543 17.52814483642578 3.0905182361602783 0.9192151427268982 0 9
20.383039474487305 16.40509796142578 2.9246513843536377 0.9237946271896362 0 9
20.45522689819336 16.162851333618164 2.9140758514404297 0.9271470308303833 0 9
19.11659812927246 14.82835865020752 2.704301595687866 0.5811488628387451 0 9
19.646581649780273 14.958945274353027 2.7601678371429443 0.5958644151687622 0 9
18.19587516784668 13.598105430603027 2.539108991622925 0.026146121323108673 0 9
18.56048011779785 13.612714767456055 2.572831869125366 0.9487696290016174 0 9
18.635156631469727 13.411835670471191 2.5663914680480957 0.9511501789093018 0 9
18.222232818603516 12.86800765991211 2.493515968322754 0.13098180294036865 0 9
18.783458709716797 13.0132417678833 2.554226875305176 0.9556798934936523 0 9
18.85710906982422 12.81527328491211 2.5484988689422607 0.9578285217285156 0 9
18.930444717407227 12.618242263793945 2.542996406555176 0.9598997235298157 0 9
19.003482818603516 12.421972274780273 2.537728786468506 0.9618927836418152 0 9
19.076234817504883 12.226542472839355 2.532689332962036 0.963808000087738 0 9
19.148712158203125 12.031952857971191 2.5278706550598145 0.9656450152397156 0 9
19.220932006835938 11.837968826293945 2.5232748985290527 0.9674038290977478 0 9
22.3303165435791 13.478105545043945 2.9154694080352783 0.698743462562561 0 9
21.92144203186035 12.964296340942383 2.846775531768799 0.38842809200286865 0 9
21.743778228759766 12.59716796875 2.8089044094085693 0.3936649262905121 0 9
22.090089797973633 12.53433609008789 2.8389952182769775 0.7175650000572205 0 9
22.012758255004883 12.230566024780273 2.8148295879364014 0.7237243056297302 0 9
21.936717987060547 11.931894302368164 2.791301727294922 0.7298256754875183 0 9
22.213891983032227 11.825507164001465 2.812950372695923 0.7920858263969421 0 9
22.8326358795166 11.893144607543945 2.877666473388672 0.6116234660148621 0 9
23.184249877929688 11.812968254089355 2.908500909805298 0.6051396131515503 0 9
23.471670150756836 11.695253372192383 2.9312689304351807 0.9324519634246826 0 9
38.94963836669922 18.972929000854492 4.842782020568848 0.9542921781539917 0 3
39.03213119506836 18.58150291442871 4.8321099281311035 0.9565594792366028 0 3
39.11437225341797 18.191875457763672 4.821875095367432 0.9587840437889099 0 3
39.19654083251953 17.80386734008789 4.812114238739014 0.9606571197509766 0 3
39.27845001220703 17.417558670043945 4.802784442901611 0.9622401595115662 0 3
39.359901428222656 17.032577514648438 4.793851852416992 0.9640321135520935 0 3
39.44108963012695 16.648944854736328 4.785347938537598 0.9657458662986755 0 3
39.52201843261719 16.2667179107666 4.777257442474365 0.9673811197280884 0 3
39.60271072387695 15.885781288146973 4.76957893371582 0.9689376950263977 0 3
39.68312072753906 15.506053924560547 4.76231575012207 0.970497190952301 0 3
39.76337814331055 15.127363204956055 4.755457878112793 0.9718964695930481 0 3
39.84346389770508 14.749882698059082 4.7490105628967285 0.9731351137161255 0 3
39.923336029052734 14.373300552368164 4.7429609298706055 0.9743763208389282 0 3
40.00303268432617 13.997694969177246 4.737312316894531 0.9755383729934692 0 3
40.08256912231445 13.62294864654541 4.73206090927124 0.9766212105751038 0 3
40.16196060180664 13.248964309692383 4.72720193862915 0.9776246547698975 0 3
40.2412223815918 12.875800132751465 4.722739219665527 0.9785490036010742 0 3
40.32036590576172 12.503300666809082 4.718661308288574 0.979393482208252 0 3
40.399410247802734 12.1314058303833 4.714977741241455 0.9801586866378784 0 3
40.47836685180664 11.760058403015137 4.711686134338379 0.9808441996574402 0 3
40.56516647338867 11.391464233398438 4.709694862365723 0.993655264377594 0 3
40.66100311279297 11.025566101074219 4.709138870239258 0.9937721490859985 0 3
40.67361068725586 10.63802719116211 4.699355125427246 0.9971827268600464 0 3
38.73436737060547 9.760233879089355 4.464995861053467 0.9931488037109375 0 3
38.906185150146484 9.432968139648438 4.474863052368164 0.9934353232383728 0 3
38.9733772277832 9.079628944396973 4.47303581237793 0.9974976778030396 0 3
39.03709030151367 8.725839614868164 4.471180438995361 0.9992116689682007 0 3
39.11205291748047 8.374687194824219 4.470979690551758 0.9992573857307434 0 3
39.18699264526367 8.023554801940918 4.471131324768066 0.9992229342460632 0 3
39.26191711425781 7.672382831573486 4.471640586853027 0.9991087317466736 0 3
39.33683776855469 7.321113109588623 4.472504615783691 0.9989148378372192 0 3
39.41176986694336 6.969628810882568 4.473729610443115 0.9986411333084106 0 3
39.48672103881836 6.61794900894165 4.475315570831299 0.998287558555603 0 3
39.56170654296875 6.265995979309082 4.477259635925293 0.9978541135787964 0 3
39.636741638183594 5.913632869720459 4.4795660972595215 0.997340977191925 0 3
39.71182632446289 5.560937404632568 4.4822306632995605 0.9967482686042786 0 3
39.7869873046875 5.207734107971191 4.485252380371094 0.9960757493972778 0 3
39.85944366455078 4.853749752044678 4.488337993621826 0.9984623789787292 0 3
35.50748062133789 4.00076150894165 3.9941046237945557 0.9681915044784546 0 6
39.99884033203125 4.143574237823486 4.4949259757995605 0.9881338477134705 0 3
40.07466125488281 3.788203001022339 4.499443054199219 0.9871416091918945 0 3
40.16196823120117 3.4330272674560547 4.505608558654785 0.9647433161735535 0 3
40.24007797241211 3.076113224029541 4.511086463928223 0.9903715252876282 0 3
40.31605911254883 2.718203067779541 4.516693115234375 0.989143431186676 0 3
40.392215728759766 2.359316349029541 4.522670269012451 0.9878360629081726 0 3
40.46855545043945 1.99951171875 4.5290207862854 0.9864498972892761 0 3
40.54508590698242 1.638613224029541 4.535760879516602 0.984984815120697 0 3
40.621826171875 1.2766211032867432 4.542877674102783 0.983441174030304 0 3
40.69878387451172 0.9134570360183716 4.550386428833008 0.9818189144134521 0 3
40.77597427368164 0.5490429401397705 4.558283805847168 0.9801180958747864 0 3
40.85342025756836 0.1833789050579071 4.566567420959473 0.9783390760421753 0 3
40.93111801147461 -0.18367187678813934 4.575255870819092 0.9764819741249084 0 3
41.01145935058594 -0.5522069931030273 4.584609508514404 0.9653040170669556 0 3
41.10471725463867 -0.9225195050239563 4.595771312713623 0.9629586935043335 0 3
41.12302780151367 -1.292324185371399 4.598927021026611 0.9649466872215271 0 3
41.20256805419922 -1.6651562452316284 4.609311580657959 0.962773323059082 0 3
40.30880355834961 -1.9916014671325684 4.511141777038574 0.25522342324256897 0 3
39.02963638305664 -2.2797656059265137 4.370102882385254 0.4660412669181824 0 3
39.08006286621094 -2.634843587875366 4.378218173980713 0.955788254737854 0 3
39.26022720336914 -3.0012500286102295 4.401243209838867 0.953305721282959 0 3
39.325252532958984 -3.3614842891693115 4.411735534667969 0.9676369428634644 0 3
39.39999771118164 -3.7243945598602295 4.423693656921387 0.9536458253860474 0 3
39.47699737548828 -4.089550495147705 4.436282157897949 0.9509398341178894 0 3
39.554405212402344 -4.456718444824219 4.449295997619629 0.9481580257415771 0 3
39.632259368896484 -4.826132774353027 4.462749004364014 0.9453005194664001 0 3
39.7105598449707 -5.197812557220459 4.476634502410889 0.9423671960830688 0 3
39.789329528808594 -5.571835994720459 4.4909772872924805 0.9393588900566101 0 3
39.86857604980469 -5.948300838470459 4.505763530731201 0.9362756609916687 0 3
39.94832992553711 -6.327207088470459 4.521014213562012 0.9331173896789551 0 3
40.02860641479492 -6.708808422088623 4.5367302894592285 0.9298846125602722 0 3
12.843268394470215 -2.271230459213257 1.4578737020492554 0.7260776162147522 0 6
40.17948532104492 -7.477949142456055 4.5683135986328125 0.9175885915756226 0 3
40.26270294189453 -7.867988109588623 4.585618019104004 0.9141255617141724 0 3
40.3465576171875 -8.261034965515137 4.603431224822998 0.9105887413024902 0 3
40.43107223510742 -8.657148361206055 4.621759414672852 0.9069788455963135 0 3
40.5222282409668 -9.057792663574219 4.641279220581055 0.908938467502594 0 3
40.6066780090332 -9.460175514221191 4.660491943359375 0.9051916599273682 0 3
40.69181442260742 -9.86587905883789 4.680237293243408 0.9013726711273193 0 3
40.77764892578125 -10.27505874633789 4.700525283813477 0.8974815607070923 0 3
40.864501953125 -10.68798828125 4.72141170501709 0.8777862787246704 0 3
40.95509719848633 -11.10531234741211 4.7432074546813965 0.8737531900405884 0 3
41.04656982421875 -11.526639938354492 4.765588283538818 0.8696491122245789 0 3
41.13895034790039 -11.95199203491211 4.788576602935791 0.8654741644859314 0 3
41.232261657714844 -12.381523132324219 4.812177658081055 0.8612290024757385 0 3
41.3265266418457 -12.81527328491211 4.836415767669678 0.8569138050079346 0 3
41.44029998779297 -13.259471893310547 4.863458156585693 0.8389043211936951 0 3
41.453651428222656 -13.675097465515137 4.8792314529418945 0.8625900745391846 0 3
41.242820739746094 -14.01724624633789 4.869036674499512 0.7430768609046936 0 3
40.927764892578125 -14.321249961853027 4.8468194007873535 0.9148287773132324 0 3
40.74114990234375 -14.667675018310547 4.840118408203125 0.1137419044971466 0 3
40.61150360107422 -15.0341796875 4.840554714202881 0.11466185003519058 0 3
40.56470489501953 -15.432226181030273 4.851289749145508 0.8453295826911926 0 3
40.65117645263672 -15.884257316589355 4.878490924835205 0.840614914894104 0 3
40.91408920288086 -16.41179656982422 4.927521705627441 0.9309590458869934 0 3
41.90288162231445 -17.246660232543945 5.0650482177734375 0.9141525030136108 0 3
36.2750129699707 -15.3125 4.401209831237793 0.9737873673439026 0 6
42.97145462036133 -24.38288116455078 5.522655487060547 0.5211014747619629 0 3
42.13827896118164 -24.4127140045166 5.443516254425049 0.5286768674850464 0 3
42.09965896606445 -24.897705078125 5.467179298400879 0.5362098813056946 0 3
42.14250946044922 -25.436357498168945 5.502169609069824 0.8320161700248718 0 3
42.16142654418945 -25.966941833496094 5.53485107421875 0.8271033763885498 0 3
15.212620735168457 15.212656021118164 2.2253313064575195 0.9773103594779968 0 9
15.350191116333008 15.077089309692383 2.225569248199463 0.9772062301635742 0 9
15.585916519165039 15.036093711853027 2.2400879859924316 0.9709373116493225 0 9
15.708807945251465 14.884765625 2.2384564876556396 0.9716448187828064 0 9
15.831544876098633 14.733671188354492 2.2370119094848633 0.9722729921340942 0 9
15.954143524169922 14.582714080810547 2.235748767852783 0.9728217124938965 0 9
16.039318084716797 14.398456573486328 2.229480028152466 0.9754912853240967 0 9
16.177553176879883 14.26244068145752 2.230809211730957 0.9749096632003784 0 9
21.51398468017578 17.96111297607422 2.8989171981811523 0.8391090631484985 0 9
21.38762664794922 17.532285690307617 2.8605711460113525 0.9198139309883118 0 9
19.085189819335938 15.360566139221191 2.5340800285339355 0.45029377937316895 0 9
19.29226303100586 15.243945121765137 2.543304204940796 0.5989477634429932 0 9
38.78208541870117 30.08247947692871 5.076861381530762 0.8868786692619324 0 3
38.8828010559082 29.605369567871094 5.055056571960449 0.8901401162147522 0 3
19.634654998779297 14.673319816589355 2.5354225635528564 0.10391908884048462 0 9
18.269262313842773 13.399023056030273 2.3434813022613525 0.11243067681789398 0 9
18.626110076904297 13.405351638793945 2.3737258911132812 0.9524571895599365 0 9
18.700416564941406 13.205644607543945 2.3679959774017334 0.9547626376152039 0 9
18.774377822875977 13.006953239440918 2.362483263015747 0.9569907784461975 0 9
18.8480167388916 12.80908203125 2.357185125350952 0.9591414332389832 0 9
18.921335220336914 12.61214828491211 2.3521006107330322 0.9612141847610474 0 9
18.99435806274414 12.416015625 2.347226858139038 0.9632092118263245 0 9
19.06709098815918 12.220703125 2.342566967010498 0.965126097202301 0 9
19.13955307006836 12.026190757751465 2.338111639022827 0.9669647812843323 0 9
22.312353134155273 13.74203109741211 2.710530996322632 0.44521141052246094 0 9
22.33506965637207 13.480996131896973 2.6984832286834717 0.6992145776748657 0 9
22.253509521484375 13.160683631896973 2.674246072769165 0.7055513262748718 0 9
22.173391342163086 12.846074104309082 2.650653123855591 0.7118310332298279 0 9
22.094661712646484 12.536932945251465 2.627683162689209 0.7180533409118652 0 9
22.017274856567383 12.233105659484863 2.6053154468536377 0.7242183089256287 0 9
22.078407287597656 12.008984565734863 2.5996904373168945 0.6270571947097778 0 9
22.2064208984375 11.821503639221191 2.6021623611450195 0.7930560111999512 0 9
22.755802154541016 11.853105545043945 2.6539690494537354 0.614233136177063 0 9
23.105398178100586 11.772772789001465 2.682305335998535 0.6077436208724976 0 9
23.462657928466797 11.69076156616211 2.711489200592041 0.6012029051780701 0 9
38.94994354248047 18.97310447692871 4.481438636779785 0.9703980684280396 0 3
39.034053802490234 18.582422256469727 4.471742630004883 0.9725015759468079 0 3
39.11779022216797 18.193397521972656 4.4624457359313965 0.9745276570320129 0 3
39.20115280151367 17.80599594116211 4.453543186187744 0.9764757752418518 0 3
39.2841682434082 17.42005729675293 4.44503116607666 0.9783454537391663 0 3
39.36684799194336 17.035547256469727 4.4369072914123535 0.9801373481750488 0 3
39.43309020996094 16.645605087280273 4.427350997924805 0.9769423007965088 0 3
39.51457595825195 16.263671875 4.419929027557373 0.9785823822021484 0 3
