ply
format ascii 1.0
element vertex 611
property float32 x
property float32 y
property float32 z
property float32 CosAngle
property uint32 ObjIdx
property uint32 ObjTag
end_header
9.2798433303833 -6.553124904632568 1.8089884519577026 0.7009764909744263 0 3
9.209433555603027 -6.565507888793945 1.8009848594665527 0.7040911316871643 0 3
9.139589309692383 -6.577812194824219 1.793088436126709 0.7071923017501831 0 3
9.070390701293945 -6.590019226074219 1.785296082496643 0.7102792263031006 0 3
9.00179672241211 -6.602089881896973 1.7776075601577759 0.7133516669273376 0 3
8.933789253234863 -6.614081859588623 1.770019292831421 0.716408908367157 0 3
8.866347312927246 -6.625937461853027 1.7625318765640259 0.719452977180481 0 3
8.79947280883789 -6.637714862823486 1.7551419734954834 0.7224817276000977 0 3
8.733163833618164 -6.6494140625 1.7478492259979248 0.7254963517189026 0 3
8.66738224029541 -6.660976409912109 1.740653157234192 0.7284963726997375 0 3
8.602148056030273 -6.67248010635376 1.7335474491119385 0.7314814329147339 0 3
8.53744125366211 -6.683886528015137 1.7265360355377197 0.7344518899917603 0 3
8.473261833190918 -6.695195198059082 1.7196171283721924 0.737407922744751 0 3
8.409589767456055 -6.706386566162109 1.7127851247787476 0.7403486371040344 0 3
8.346426010131836 -6.717499732971191 1.7060422897338867 0.7432748079299927 0 3
8.2837495803833 -6.728554725646973 1.6993879079818726 0.7461854219436646 0 3
8.221562385559082 -6.739511489868164 1.6928181648254395 0.7490811347961426 0 3
8.159863471984863 -6.750370979309082 1.6863312721252441 0.7519620656967163 0 3
8.098612785339355 -6.761171817779541 1.6799296140670776 0.7548278570175171 0 3
8.037793159484863 -6.771874904632568 1.6736093759536743 0.7576789855957031 0 3
7.977499961853027 -6.78249979019165 1.6673694849014282 0.7605141401290894 0 3
7.917636394500732 -6.793046951293945 1.6612110137939453 0.7633340954780579 0 3
7.858202934265137 -6.803515434265137 1.6551291942596436 0.7661382555961609 0 3
7.799160003662109 -6.813906192779541 1.6491248607635498 0.7689278721809387 0 3
7.740585803985596 -6.82421875 1.6431974172592163 0.7717016935348511 0 3
7.682441234588623 -6.83447265625 1.6373460292816162 0.7744596004486084 0 3
7.624667644500732 -6.844648361206055 1.6315680742263794 0.7772020697593689 0 3
7.567343711853027 -6.854745864868164 1.6258646249771118 0.7799285650253296 0 3
7.51037073135376 -6.864765644073486 1.6202305555343628 0.7826405167579651 0 3
7.453847408294678 -6.874726295471191 1.6146714687347412 0.7853351831436157 0 3
7.397636413574219 -6.884609222412109 1.609179139137268 0.7880153656005859 0 3
7.341894149780273 -6.894433498382568 1.6037592887878418 0.7906785011291504 0 3
7.286464691162109 -6.904218673706055 1.598406195640564 0.7933264970779419 0 3
7.231425762176514 -6.913906097412109 1.593120813369751 0.7959578037261963 0 3
7.176718711853027 -6.923534870147705 1.5879032611846924 0.7985740303993225 0 3
7.122402191162109 -6.933085918426514 1.5827518701553345 0.8011728525161743 0 3
7.068418025970459 -6.942597389221191 1.5776649713516235 0.8037571310997009 0 3
7.01476526260376 -6.952070236206055 1.5726417303085327 0.8063240051269531 0 3
15.521074295043945 15.521035194396973 3.122098207473755 0.8589141368865967 0 9
15.621699333190918 15.482069969177246 3.1283280849456787 0.8572041988372803 0 9
15.722695350646973 15.442910194396973 3.1346452236175537 0.8554764986038208 0 9
15.824140548706055 15.403613090515137 3.1410515308380127 0.8537312150001526 0 9
15.925995826721191 15.364179611206055 3.1475536823272705 0.8519679307937622 0 9
16.02828025817871 15.324569702148438 3.1541454792022705 0.8501870036125183 0 9
16.13101577758789 15.284823417663574 3.160834312438965 0.8483884334564209 0 9
16.221620559692383 15.233085632324219 3.165156126022339 0.2759895324707031 0 9
16.046737670898438 14.933905601501465 3.117929697036743 0.28016993403434753 0 9
16.441972732543945 15.164628982543945 3.1814661026000977 0.8428862690925598 0 9
16.255956649780273 14.858573913574219 3.132535934448242 0.9625181555747986 0 9
16.32874870300293 14.791171073913574 3.1337413787841797 0.9621475338935852 0 9
16.401580810546875 14.723651885986328 3.135010242462158 0.9617586135864258 0 9
16.474512100219727 14.656132698059082 3.136336088180542 0.9613515138626099 0 9
16.547441482543945 14.588496208190918 3.137723922729492 0.9609259963035583 0 9
16.62040901184082 14.520780563354492 3.139174222946167 0.9604824781417847 0 9
16.693456649780273 14.452987670898438 3.140684127807617 0.9600204825401306 0 9
16.766523361206055 14.385116577148438 3.1422550678253174 0.9595404267311096 0 9
15.566835403442383 13.234999656677246 2.906256675720215 0.42558127641677856 0 9
15.775273323059082 13.290702819824219 2.93400502204895 0.4215560257434845 0 9
15.987714767456055 13.347460746765137 2.9623498916625977 0.41752323508262634 0 9
16.204336166381836 13.405351638793945 2.9913036823272705 0.41348129510879517 0 9
16.425195693969727 13.46435546875 3.0208916664123535 0.40943169593811035 0 9
16.650468826293945 13.524531364440918 3.0511295795440674 0.40537428855895996 0 9
16.880311965942383 13.585956573486328 3.082040309906006 0.40130814909935 0 9
17.1148624420166 13.648612976074219 3.1136510372161865 0.3972345292568207 0 9
17.354238510131836 13.712538719177246 3.145972728729248 0.39315274357795715 0 9
17.500839233398438 13.7012300491333 3.1613688468933105 0.9537391662597656 0 9
17.574687957763672 13.632285118103027 3.1636242866516113 0.953059196472168 0 9
17.64861297607422 13.563202857971191 3.165940523147583 0.9523613452911377 0 9
17.615819931030273 13.412675857543945 3.14922833442688 0.23073482513427734 0 9
17.5009765625 13.201601028442383 3.118081569671631 0.2330399751663208 0 9
17.388242721557617 12.994511604309082 3.0875701904296875 0.23534274101257324 0 9
17.27750015258789 12.791308403015137 3.0576813220977783 0.2376430183649063 0 9
17.168710708618164 12.591894149780273 3.0283966064453125 0.23994114995002747 0 9
17.06181526184082 12.396113395690918 2.999697208404541 0.24223679304122925 0 9
18.16876983642578 13.076171875 3.1839635372161865 0.9469704627990723 0 9
18.24347686767578 13.006073951721191 3.1868011951446533 0.9461283683776855 0 9
18.318340301513672 12.935839653015137 3.189697742462158 0.9452683329582214 0 9
18.393301010131836 12.865428924560547 3.192664623260498 0.9443904161453247 0 9
18.468358993530273 12.794882774353027 3.1956939697265625 0.9434944987297058 0 9
18.543535232543945 12.7241792678833 3.19879150390625 0.9425807595252991 0 9
18.618886947631836 12.653359413146973 3.2019572257995605 0.9416490197181702 0 9
15.921640396118164 10.716171264648438 2.729802131652832 0.7542008757591248 0 9
16.03058624267578 10.685293197631836 2.7402398586273193 0.7513291835784912 0 9
15.801523208618164 10.430487632751465 2.693049907684326 0.6964357495307922 0 9
15.920937538146973 10.407031059265137 2.7054100036621094 0.6932533383369446 0 9
16.041425704956055 10.38330078125 2.717944383621216 0.6900575757026672 0 9
16.163066864013672 10.359414100646973 2.730644464492798 0.686847448348999 0 9
16.17119026184082 10.26253890991211 2.7242114543914795 0.5816589593887329 0 9
16.128007888793945 10.133867263793945 2.709245443344116 0.5848727822303772 0 9
16.08527374267578 10.006620407104492 2.6944963932037354 0.5880734920501709 0 9
16.043046951293945 9.88076114654541 2.67996883392334 0.5912615060806274 0 9
16.00130844116211 9.756269454956055 2.6656510829925537 0.5944370031356812 0 9
15.9600191116333 9.633105278015137 2.6515464782714844 0.5975995659828186 0 9
15.919159889221191 9.51123046875 2.637641429901123 0.6007494330406189 0 9
17.17900276184082 10.159608840942383 2.8387980461120605 0.6606797575950623 0 9
17.31169891357422 10.133496284484863 2.8531830310821533 0.6573485732078552 0 9
17.44576072692871 10.107109069824219 2.86777400970459 0.6540039777755737 0 9
17.58121109008789 10.080488204956055 2.8825719356536865 0.650646984577179 0 9
17.718046188354492 10.053534507751465 2.8975818157196045 0.6472765803337097 0 9
17.856327056884766 10.026328086853027 2.9128081798553467 0.6438928842544556 0 9
18.149627685546875 10.08414077758789 2.9532389640808105 0.9165679216384888 0 9
18.159765243530273 9.983378410339355 2.9475719928741455 0.9183298349380493 0 9
18.169921875 9.883047103881836 2.941986560821533 0.9200735092163086 0 9
18.179960250854492 9.783026695251465 2.936478853225708 0.9217989444732666 0 9
18.190000534057617 9.683398246765137 2.9310503005981445 0.9235062003135681 0 9
18.19999885559082 9.58414077758789 2.9256982803344727 0.925195038318634 0 9
18.2099609375 9.48525333404541 2.9204235076904297 0.9268657565116882 0 9
18.21986198425293 9.386679649353027 2.915226459503174 0.9285176396369934 0 9
18.229745864868164 9.28847599029541 2.910109281539917 0.9301515221595764 0 9
18.23957061767578 9.190625190734863 2.905064105987549 0.9317666292190552 0 9
18.249374389648438 9.093085289001465 2.9000940322875977 0.9333633184432983 0 9
18.25910186767578 8.995879173278809 2.8951988220214844 0.9349415898323059 0 9
18.268808364868164 8.8989839553833 2.8903753757476807 0.9365013241767883 0 9
18.27849578857422 8.802421569824219 2.8856279850006104 0.938042402267456 0 9
18.288124084472656 8.706191062927246 2.880951404571533 0.93956458568573 0 9
18.297754287719727 8.610214233398438 2.876347541809082 0.9410685300827026 0 9
18.30730438232422 8.514570236206055 2.871816396713257 0.9425536394119263 0 9
18.316835403442383 8.419238090515137 2.86735463142395 0.9440199732780457 0 9
20.292070388793945 9.217050552368164 3.170058012008667 0.7740316987037659 0 9
20.36115264892578 9.138418197631836 3.1744067668914795 0.7729710340499878 0 9
24.121601104736328 10.696386337280273 3.7531590461730957 0.9961267113685608 0 9
24.163671493530273 10.5855073928833 3.752272367477417 0.9963617920875549 0 9
24.205663681030273 10.474706649780273 3.751462936401367 0.9965773820877075 0 9
24.2476749420166 10.363905906677246 3.750723123550415 0.9967736601829529 0 9
24.289628982543945 10.253164291381836 3.750059127807617 0.9969503283500671 0 9
24.331581115722656 10.142460823059082 3.749469518661499 0.9971074461936951 0 9
22.372167587280273 9.2080659866333 3.44112229347229 0.9851893186569214 0 9
22.416601181030273 9.108905792236328 3.441633939743042 0.9850426316261292 0 9
22.4610538482666 9.009726524353027 3.442216157913208 0.9848760366439819 0 9
22.50552749633789 8.910527229309082 3.442869186401367 0.9846895337104797 0 9
22.550018310546875 8.811288833618164 3.4435911178588867 0.9844829440116882 0 9
22.59455108642578 8.712011337280273 3.4443821907043457 0.9842566847801208 0 9
22.639081954956055 8.612675666809082 3.445246458053589 0.9840104579925537 0 9
22.683631896972656 8.513280868530273 3.446178436279297 0.9837441444396973 0 9
22.728221893310547 8.413847923278809 3.4471795558929443 0.9834581613540649 0 9
33.696502685546875 12.302557945251465 5.102311134338379 0.6945207715034485 0 9
33.90347671508789 12.205976486206055 5.125303745269775 0.691405177116394 0 9
37.514122009277344 13.3159761428833 5.662054538726807 0.25547781586647034 0 9
36.1301155090332 12.642440795898438 5.444543361663818 0.8271512389183044 0 9
35.93972396850586 12.395058631896973 5.40742301940918 0.7100526690483093 0 9
35.89894485473633 12.200995445251465 5.3929924964904785 0.26822394132614136 0 9
35.98611068725586 12.050703048706055 5.39790153503418 0.7113045454025269 0 9
36.00905990600586 11.878945350646973 5.393296241760254 0.7119124531745911 0 9
36.03183364868164 11.707402229309082 5.388784885406494 0.7125082015991211 0 9
35.37437438964844 11.31851577758789 5.282802104949951 0.5079410076141357 0 9
35.68679428100586 11.242206573486328 5.321871757507324 0.5042119026184082 0 9
36.0993537902832 11.194315910339355 5.375853061676025 0.7142223119735718 0 9
32.91374969482422 10.044784545898438 4.894688129425049 0.6155177354812622 0 9
33.08964920043945 9.936347007751465 4.914167404174805 0.6130778789520264 0 9
33.26687240600586 9.827031135559082 4.933884620666504 0.6106273531913757 0 9
33.44544982910156 9.716776847839355 4.953854084014893 0.6081664562225342 0 9
33.62535095214844 9.60562515258789 4.974069118499756 0.6056951284408569 0 9
32.77956771850586 9.205078125 4.84279727935791 0.381232351064682 0 9
33.112205505371094 9.138359069824219 4.885831356048584 0.3778746426105499 0 9
33.45068359375 9.070409774780273 4.929714202880859 0.37451064586639404 0 9
33.64876937866211 8.962225914001465 4.952934265136719 0.8266997933387756 0 9
33.651893615722656 8.801484107971191 4.94752311706543 0.8276032209396362 0 9
33.6550178527832 8.64111328125 4.942236423492432 0.8284889459609985 0 9
33.658203125 8.48111343383789 4.9370646476745605 0.8293566107749939 0 9
33.64683532714844 8.317811965942383 4.929866790771484 0.5667369961738586 0 9
33.48480224609375 8.118475914001465 4.900740623474121 0.5701054930686951 0 9
33.32470703125 7.921464443206787 4.87205696105957 0.5734617114067078 0 9
33.16652297973633 7.726796627044678 4.843815803527832 0.576805591583252 0 9
38.31161880493164 8.744336128234863 5.589441299438477 0.8215330243110657 0 9
38.25080108642578 8.550058364868164 5.574913024902344 0.8236740231513977 0 9
38.19029235839844 8.356738090515137 5.560573577880859 0.8257981538772583 0 9
18.843963623046875 -2.638749837875366 2.7064788341522217 0.8853519558906555 0 6
23.51380729675293 -6.149921894073486 3.4570183753967285 0.412889301776886 0 3
23.258729934692383 -6.194843769073486 3.42356014251709 0.41692355275154114 0 3
23.234647750854492 -6.300253868103027 3.424144744873047 0.42092859745025635 0 3
22.986757278442383 -6.343925476074219 3.391779661178589 0.4249460697174072 0 3
22.518964767456055 -6.323710918426514 3.3269011974334717 0.43773266673088074 0 3
22.287303924560547 -6.366718769073486 3.2968719005584717 0.8905643224716187 0 3
22.29476547241211 -6.477226257324219 3.302238702774048 0.43694689869880676 0 3
22.064334869384766 -6.517792701721191 3.2724125385284424 0.4409295916557312 0 3
21.83804702758789 -6.557675838470459 3.2431817054748535 0.4449036121368408 0 3
21.381404876708984 -6.525292873382568 3.179683208465576 0.4489189386367798 0 3
21.20148468017578 -6.574511528015137 3.157280206680298 0.8806265592575073 0 3
21.159549713134766 -6.665761470794678 3.155458927154541 0.45677095651626587 0 3
20.948827743530273 -6.702870845794678 3.1284875869750977 0.46070849895477295 0 3
20.74165916442871 -6.73937463760376 3.1020379066467285 0.4646368622779846 0 3
20.537988662719727 -6.775234222412109 3.076096773147583 0.4685557186603546 0 3
20.337675094604492 -6.810507774353027 3.050642728805542 0.47246554493904114 0 3
19.944433212280273 -6.778515338897705 2.996195077896118 0.4848460257053375 0 3
19.770076751708984 -6.818398475646973 2.9745800495147705 0.8659688830375671 0 3
19.777812957763672 -6.92052698135376 2.980365514755249 0.4841383993625641 0 3
19.589921951293945 -6.95361328125 2.956721782684326 0.4880070984363556 0 3
19.40496063232422 -6.986210823059082 2.9335198402404785 0.4918684661388397 0 3
19.222909927368164 -7.018280982971191 2.9107251167297363 0.4957194924354553 0 3
19.043651580810547 -7.049824237823486 2.888343334197998 0.4995609521865845 0 3
18.662811279296875 -7.004257678985596 2.835317850112915 0.5034424662590027 0 3
18.583709716796875 -7.069882869720459 2.828096866607666 0.8504610061645508 0 3
18.501718521118164 -7.133886337280273 2.82045841217041 0.5110236406326294 0 3
18.3251953125 -7.160468578338623 2.7984204292297363 0.5175818204879761 0 3
18.159921646118164 -7.190000057220459 2.7780847549438477 0.5213714838027954 0 3
17.99703025817871 -7.219101428985596 2.7580957412719727 0.5251502990722656 0 3
17.83642578125 -7.247792720794678 2.7384424209594727 0.5289188623428345 0 3
17.678125381469727 -7.276073932647705 2.7191221714019775 0.5326765179634094 0 3
17.522050857543945 -7.303964614868164 2.7001261711120605 0.5364236831665039 0 3
17.36812400817871 -7.331445217132568 2.6814520359039307 0.540160059928894 0 3
17.051639556884766 -7.28820276260376 2.6376123428344727 0.5406811237335205 0 3
16.902578353881836 -7.314374923706055 2.619600772857666 0.5443978309631348 0 3
16.87415885925293 -7.392187118530273 2.6203269958496094 0.8243933916091919 0 3
16.467676162719727 -7.302343368530273 2.5622613430023193 0.5522426962852478 0 3
16.325878143310547 -7.327343463897705 2.5452897548675537 0.5559248924255371 0 3
16.185937881469727 -7.351972579956055 2.5285913944244385 0.5595961213111877 0 3
16.047832489013672 -7.376308441162109 2.5121586322784424 0.5632559061050415 0 3
15.914101600646973 -7.401523113250732 2.4964020252227783 0.5292037129402161 0 3
15.796092987060547 -7.433046817779541 2.4830963611602783 0.5320317149162292 0 3
15.6792573928833 -7.464218616485596 2.469975471496582 0.5348584055900574 0 3
15.571483612060547 -7.49880838394165 2.4582736492156982 0.7016505599021912 0 3
15.44945240020752 -7.525644302368164 2.4443161487579346 0.5814959406852722 0 3
15.485702514648438 -7.629491806030273 2.4554426670074463 0.5849785208702087 0 3
15.357343673706055 -7.652070045471191 2.4405112266540527 0.5885576605796814 0 3
15.230546951293945 -7.67443323135376 2.425809144973755 0.5921245217323303 0 3
15.105253219604492 -7.696484088897705 2.4113311767578125 0.5956798791885376 0 3
14.9814453125 -7.718300819396973 2.3970749378204346 0.5992227792739868 0 3
14.85912036895752 -7.739823818206787 2.3830301761627197 0.6027536988258362 0 3
11.67845630645752 -6.149863243103027 1.8773378133773804 0.5719532370567322 0 3
11.577421188354492 -6.16320276260376 1.8655256032943726 0.5755745768547058 0 3
11.477675437927246 -6.176367282867432 1.8539003133773804 0.5791840553283691 0 3
11.37913990020752 -6.189355373382568 1.8424546718597412 0.5827823877334595 0 3
11.281835556030273 -6.202226638793945 1.8311866521835327 0.5863683819770813 0 3
11.189218521118164 -6.216875076293945 1.82066810131073 0.6236833930015564 0 3
11.099902153015137 -6.232616901397705 1.8106681108474731 0.6271282434463501 0 3
11.01156234741211 -6.24816370010376 1.8008122444152832 0.6305603981018066 0 3
10.924199104309082 -6.263554573059082 1.7911006212234497 0.6339790225028992 0 3
10.83773422241211 -6.278769493103027 1.7815269231796265 0.6373855471611023 0 3
10.752187728881836 -6.293847560882568 1.7720938920974731 0.6407791376113892 0 3
10.667577743530273 -6.308730125427246 1.7627918720245361 0.6441600918769836 0 3
10.583807945251465 -6.323495864868164 1.7536240816116333 0.6475279331207275 0 3
10.500898361206055 -6.338105201721191 1.7445859909057617 0.6508830785751343 0 3
10.418867111206055 -6.352558612823486 1.7356758117675781 0.6542246341705322 0 3
10.337656021118164 -6.366835594177246 1.7268863916397095 0.6575528979301453 0 3
10.257246017456055 -6.381015300750732 1.7182258367538452 0.6608683466911316 0 3
10.177675247192383 -6.395039081573486 1.7096832990646362 0.6641699075698853 0 3
10.098867416381836 -6.408905982971191 1.7012604475021362 0.6674589514732361 0 3
10.020819664001465 -6.422656059265137 1.692952036857605 0.670734167098999 0 3
9.943554878234863 -6.436249732971191 1.684760570526123 0.6739955544471741 0 3
9.867011070251465 -6.449746131896973 1.6766812801361084 0.6772435903549194 0 3
9.791211128234863 -6.463085651397705 1.668710708618164 0.680477499961853 0 3
9.716113090515137 -6.476327896118164 1.6608515977859497 0.6836980581283569 0 3
9.641737937927246 -6.489413738250732 1.6530966758728027 0.686905562877655 0 3
9.568046569824219 -6.502402305603027 1.6454492807388306 0.6900980472564697 0 3
9.49501895904541 -6.515273094177246 1.637902021408081 0.69327712059021 0 3
9.422675132751465 -6.528007507324219 1.6304584741592407 0.6964423656463623 0 3
9.350956916809082 -6.540624618530273 1.6231156587600708 0.6995938420295715 0 3
9.279902458190918 -6.553164005279541 1.6158686876296997 0.7027311325073242 0 3
9.209491729736328 -6.56554651260376 1.6087207794189453 0.7058537006378174 0 3
9.1396484375 -6.577870845794678 1.6016669273376465 0.7089618444442749 0 3
9.070448875427246 -6.590058326721191 1.594705581665039 0.7120566368103027 0 3
9.00185489654541 -6.602109432220459 1.5878373384475708 0.7151366472244263 0 3
8.933828353881836 -6.614101409912109 1.5810608863830566 0.7182023525238037 0 3
8.866386413574219 -6.625996112823486 1.5743720531463623 0.7212532758712769 0 3
8.799530982971191 -6.637773513793945 1.5677716732025146 0.7242897748947144 0 3
8.733222007751465 -6.649453163146973 1.5612571239471436 0.7273119688034058 0 3
8.667421340942383 -6.661035060882568 1.5548267364501953 0.7303194403648376 0 3
8.602226257324219 -6.672499656677246 1.54848313331604 0.7333120107650757 0 3
8.537519454956055 -6.683925628662109 1.542218804359436 0.736289918422699 0 3
8.473320007324219 -6.695214748382568 1.5360380411148071 0.7392535209655762 0 3
8.409647941589355 -6.706425666809082 1.529936671257019 0.7422014474868774 0 3
8.346484184265137 -6.71755838394165 1.523912787437439 0.7451350092887878 0 3
8.283788681030273 -6.728593826293945 1.5179688930511475 0.7480530738830566 0 3
8.221601486206055 -6.739550590515137 1.5120997428894043 0.7509567737579346 0 3
8.0556640625 -6.664198875427246 1.487067699432373 0.7554930448532104 0 3
7.995292663574219 -6.674901962280273 1.4814332723617554 0.7583655118942261 0 3
7.93533182144165 -6.685507774353027 1.475872278213501 0.7612237930297852 0 3
7.875859260559082 -6.696054458618164 1.4703818559646606 0.7640658617019653 0 3
7.816796779632568 -6.70654296875 1.4649622440338135 0.7668928503990173 0 3
7.758163928985596 -6.716933250427246 1.459612250328064 0.7697039246559143 0 3
7.69998025894165 -6.727245807647705 1.4543284177780151 0.7724999785423279 0 3
7.642226219177246 -6.737480163574219 1.449112057685852 0.7752802968025208 0 3
7.584843635559082 -6.747636795043945 1.4439618587493896 0.7780457139015198 0 3
7.527871131896973 -6.757734298706055 1.4388779401779175 0.7807943820953369 0 3
7.47130823135376 -6.767753601074219 1.4338585138320923 0.7835285663604736 0 3
7.415136337280273 -6.777714729309082 1.4289017915725708 0.7862462997436523 0 3
7.359355449676514 -6.78759765625 1.4240082502365112 0.7889480590820312 0 3
7.3037109375 -6.797206878662109 1.4191312789916992 0.783394455909729 0 3
7.253828048706055 -6.811757564544678 1.415359616279602 0.5934277176856995 0 3
7.266796588897705 -6.885585784912109 1.4239094257354736 0.5898643136024475 0 3
7.2314453125 -6.913945198059082 1.4230451583862305 0.7979506254196167 0 3
7.176777362823486 -6.923573970794678 1.4183841943740845 0.8005726933479309 0 3
7.122421741485596 -6.933144569396973 1.4137840270996094 0.8031788468360901 0 3
7.06847620010376 -6.942636489868164 1.409239649772644 0.8057687878608704 0 3
7.014804363250732 -6.952109336853027 1.4047523736953735 0.8083430528640747 0 3
18.807226181030273 18.807207107543945 3.333085298538208 0.9966938495635986 0 9
18.891366958618164 18.722518920898438 3.333071231842041 0.9966984987258911 0 9
18.975488662719727 18.637792587280273 3.3331212997436523 0.9966834783554077 0 9
16.81214714050293 16.36536979675293 2.9401886463165283 0.2623463571071625 0 9
16.618534088134766 16.032285690307617 2.8937175273895264 0.26655977964401245 0 9
16.43097686767578 15.709569931030273 2.848752975463867 0.2707667946815491 0 9
16.944395065307617 16.055526733398438 2.9252445697784424 0.3424795866012573 0 9
16.818572998046875 15.793651580810547 2.8912572860717773 0.3465053141117096 0 9
16.26820182800293 15.14003849029541 2.784943103790283 0.8502429723739624 0 9
16.37171745300293 15.099823951721191 2.791032075881958 0.8483871817588806 0 9
16.47572135925293 15.059453010559082 2.797211170196533 0.8465136289596558 0 9
16.580175399780273 15.018905639648438 2.8034727573394775 0.8446224927902222 0 9
16.514257431030273 14.824824333190918 2.781048536300659 0.9573235511779785 0 9
16.58771514892578 14.7568359375 2.782233715057373 0.9569154381752014 0 9
16.661170959472656 14.688788414001465 2.7834746837615967 0.9564890265464783 0 9
16.734725952148438 14.6206636428833 2.7847704887390137 0.9560444355010986 0 9
16.808340072631836 14.552460670471191 2.7861180305480957 0.955581545829773 0 9
16.8819522857666 14.484179496765137 2.787522554397583 0.9551003575325012 0 9
16.955663681030273 14.415800094604492 2.7889819145202637 0.9546008706092834 0 9
17.0294132232666 14.34732437133789 2.7904930114746094 0.9540831446647644 0 9
16.026737213134766 13.38003921508789 2.6163201332092285 0.41743430495262146 0 9
16.244218826293945 13.438359260559082 2.6419568061828613 0.41338416934013367 0 9
16.466054916381836 13.497851371765137 2.6681549549102783 0.40932512283325195 0 9
16.692304611206055 13.55849552154541 2.694927930831909 0.4052582383155823 0 9
16.92316436767578 13.620409965515137 2.722304582595825 0.4011830985546112 0 9
17.158729553222656 13.68359375 2.7502946853637695 0.39710086584091187 0 9
17.399198532104492 13.748065948486328 2.778917074203491 0.3930099308490753 0 9
17.6220703125 13.796152114868164 2.8045947551727295 0.949286162853241 0 9
17.696523666381836 13.72679615020752 2.8066112995147705 0.9486048817634583 0 9
17.771034240722656 13.657304763793945 2.8086798191070557 0.9479053020477295 0 9
17.84566307067871 13.587695121765137 2.810809850692749 0.9471877217292786 0 9
17.920391082763672 13.517949104309082 2.8129918575286865 0.9464518427848816 0 9
17.995214462280273 13.448104858398438 2.8152356147766113 0.9456982016563416 0 9
18.070096969604492 13.378124237060547 2.817537784576416 0.9449263215065002 0 9
18.14515495300293 13.308027267456055 2.8198955059051514 0.9441364407539368 0 9
18.123748779296875 13.167655944824219 2.807354688644409 0.22855058312416077 0 9
18.001678466796875 12.955917358398438 2.779409646987915 0.23084887862205505 0 9
17.881816864013672 12.748222351074219 2.752039670944214 0.23314452171325684 0 9
17.764101028442383 12.54443359375 2.7252354621887207 0.2354377806186676 0 9
17.648534774780273 12.344491958618164 2.6989777088165283 0.23772838711738586 0 9
18.980937957763672 13.149999618530273 2.893688917160034 0.9226617217063904 0 9
19.040430068969727 13.065135955810547 2.8937883377075195 0.9226300716400146 0 9
19.09990119934082 12.980273246765137 2.893944025039673 0.9225792288780212 0 9
19.159433364868164 12.895390510559082 2.8941650390625 0.9225091338157654 0 9
19.218963623046875 12.810526847839355 2.894446849822998 0.922419548034668 0 9
23.52115249633789 15.526151657104492 3.5318377017974854 0.9488239288330078 0 9
23.38492202758789 15.285995483398438 3.5010509490966797 0.6794787049293518 0 9
23.162654876708984 14.992773056030273 3.4576611518859863 0.9956068396568298 0 9
19.390506744384766 12.427988052368164 2.8862078189849854 0.5550272464752197 0 9
18.34097671508789 11.639511108398438 2.7221899032592773 0.8746981024742126 0 9
18.407773971557617 11.566347122192383 2.7243731021881104 0.9174020290374756 0 9
18.493865966796875 11.505000114440918 2.729440927505493 0.9156977534294128 0 9
16.92708969116211 10.425233840942383 2.4912750720977783 0.7297252416610718 0 9
17.0440616607666 10.392050743103027 2.5016028881073 0.726712167263031 0 9
16.931581497192383 10.219531059265137 2.4783387184143066 0.6682327389717102 0 9
17.06183624267578 10.193964958190918 2.490682363510132 0.6649209856987 0 9
17.193397521972656 10.168144226074219 2.5032005310058594 0.6615954041481018 0 9
17.3262882232666 10.142050743103027 2.5158979892730713 0.6582569479942322 0 9
17.460546493530273 10.115702629089355 2.5287721157073975 0.6549050807952881 0 9
17.596172332763672 10.089062690734863 2.5418317317962646 0.6515404582023621 0 9
17.73320198059082 10.062148094177246 2.555077314376831 0.6481624841690063 0 9
17.87171745300293 10.034979820251465 2.568516254425049 0.6447713971138 0 9
18.18195343017578 10.102128982543945 2.606565475463867 0.9169743061065674 0 9
18.192089080810547 10.00113296508789 2.6015539169311523 0.9187401533126831 0 9
18.2021484375 9.900566101074219 2.596614360809326 0.9204877018928528 0 9
18.212186813354492 9.800371170043945 2.591747999191284 0.9222171306610107 0 9
18.22216796875 9.70052719116211 2.586946964263916 0.9239280223846436 0 9
18.232128143310547 9.601054191589355 2.5822155475616455 0.9256207346916199 0 9
18.242050170898438 9.501953125 2.5775537490844727 0.9272950291633606 0 9
18.251934051513672 9.403203010559082 2.5729570388793945 0.9289507865905762 0 9
18.261737823486328 9.304784774780273 2.568431854248047 0.9305880069732666 0 9
18.271522521972656 9.206718444824219 2.563971519470215 0.9322068095207214 0 9
18.281288146972656 9.109004020690918 2.559577465057373 0.9338071346282959 0 9
18.291015625 9.011581420898438 2.5552496910095215 0.9353886842727661 0 9
18.300683975219727 8.914511680603027 2.5509865283966064 0.9369520545005798 0 9
18.310293197631836 8.817753791809082 2.546787738800049 0.938496470451355 0 9
18.319921493530273 8.721288681030273 2.5426523685455322 0.940022349357605 0 9
18.329471588134766 8.62515640258789 2.538583517074585 0.9415294528007507 0 9
18.33902359008789 8.529335975646973 2.534576416015625 0.943017840385437 0 9
18.348514556884766 8.433789253234863 2.530632495880127 0.9444875717163086 0 9
18.357988357543945 8.338574409484863 2.526752471923828 0.9459384679794312 0 9
20.670312881469727 9.27718734741211 2.83925461769104 0.7631041407585144 0 9
20.74101448059082 9.197304725646973 2.8432676792144775 0.7620274424552917 0 9
20.811874389648438 9.117167472839355 2.847341775894165 0.7609370946884155 0 9
24.2906436920166 10.511445045471191 3.3168017864227295 0.9953020215034485 0 9
24.332773208618164 10.400312423706055 3.3161461353302 0.9954985976219177 0 9
24.374862670898438 10.289159774780273 3.315554618835449 0.9956756234169006 0 9
24.416933059692383 10.178046226501465 3.315032958984375 0.9958332180976868 0 9
24.458984375 10.0669527053833 3.314570188522339 0.995971143245697 0 9
24.501014709472656 9.95589828491211 3.314176559448242 0.996089518070221 0 9
24.543006896972656 9.844862937927246 3.313847064971924 0.9961884617805481 0 9
24.5849609375 9.733827590942383 3.3135826587677 0.9962679147720337 0 9
24.62693214416504 9.622831344604492 3.3133866786956787 0.9963277578353882 0 9
24.668886184692383 9.511836051940918 3.3132505416870117 0.9963679313659668 0 9
32.41448974609375 12.331562042236328 4.346084117889404 0.6182816624641418 0 9
32.39794921875 12.159101486206055 4.3365020751953125 0.6196480989456177 0 9
32.381309509277344 11.987343788146973 4.327037811279297 0.6210039854049683 0 9
33.91197204589844 12.381230354309082 4.524102210998535 0.6916441321372986 0 9
34.12126922607422 12.284375190734863 4.54462194442749 0.6885213851928711 0 9
34.332401275634766 12.186601638793945 4.565417766571045 0.6853854060173035 0 9
37.358455657958984 13.072265625 4.959956645965576 0.2575205862522125 0 9
36.80804443359375 12.694511413574219 4.879270076751709 0.2617793679237366 0 9
36.27525329589844 12.328886032104492 4.801257133483887 0.26603251695632935 0 9
35.75914001464844 11.974726676940918 4.725783348083496 0.2702810764312744 0 9
36.03089904785156 11.886152267456055 4.754608631134033 0.3490913510322571 0 9
36.15650177001953 11.747929573059082 4.764168739318848 0.834683895111084 0 9
32.967811584472656 10.548535346984863 4.337731838226318 0.6132895946502686 0 9
33.14527130126953 10.44156265258789 4.354869842529297 0.6108759045600891 0 9
33.32400131225586 10.333691596984863 4.372220993041992 0.6084518432617188 0 9
33.5041389465332 10.22494125366211 4.389786243438721 0.6060171127319336 0 9
33.68562316894531 10.1152925491333 4.407570838928223 0.6035715937614441 0 9
33.35718536376953 9.853691101074219 4.3587646484375 0.8294864296913147 0 9
32.959373474121094 9.575566291809082 4.30112361907959 0.37902384996414185 0 9
33.29654312133789 9.511698722839355 4.339513301849365 0.3756709098815918 0 9
33.36679458618164 9.369979858398438 4.343151092529297 0.8324694037437439 0 9
33.3701171875 9.209550857543945 4.338146686553955 0.8334283232688904 0 9
33.373416900634766 9.04947280883789 4.33325719833374 0.8343694806098938 0 9
33.37675857543945 8.889765739440918 4.328470230102539 0.8352925777435303 0 9
33.38013458251953 8.730409622192383 4.323783874511719 0.8361980319023132 0 9
33.38355255126953 8.571406364440918 4.319197177886963 0.8370856046676636 0 9
33.38701248168945 8.412773132324219 4.3147172927856445 0.8379552960395813 0 9
33.39046859741211 8.2544527053833 4.310333251953125 0.8388071656227112 0 9
33.25376892089844 8.062460899353027 4.287978649139404 0.5753439664840698 0 9
33.39753723144531 7.938808441162109 4.301873683929443 0.8404570817947388 0 9
35.29023361206055 8.221562385559082 4.540865421295166 0.28740814328193665 0 9
35.21597671508789 8.037773132324219 4.526629447937012 0.28831228613853455 0 9
35.142459869384766 7.855234146118164 4.512599945068359 0.2892085313796997 0 9
35.06966781616211 7.673867225646973 4.498783588409424 0.2900967001914978 0 9
46.08474349975586 9.651542663574219 5.900461196899414 0.8185101747512817 0 9
46.022830963134766 9.423202514648438 5.887065410614014 0.8203735947608948 0 9
45.96120834350586 9.195819854736328 5.873841285705566 0.8222196698188782 0 9
43.59816360473633 5.706640720367432 5.510157585144043 0.9952680468559265 0 6
43.60265350341797 5.111132621765137 5.50153112411499 0.9948914051055908 0 6
18.84359359741211 -2.638671875 2.384455442428589 0.8873412609100342 0 6
23.514198303222656 -6.15001916885376 3.0458312034606934 0.4138016700744629 0 3
23.25908088684082 -6.194960594177246 3.016340970993042 0.4178450405597687 0 3
23.234901428222656 -6.30029296875 3.0168614387512207 0.42186135053634644 0 3
22.98699188232422 -6.343964576721191 2.988328695297241 0.42588749527931213 0 3
22.52097511291504 -6.324277400970459 2.931417226791382 0.4386681318283081 0 3
22.28791046142578 -6.366874694824219 2.904757022857666 0.8925230503082275 0 3
22.294979095458984 -6.477284908294678 2.9094433784484863 0.437915563583374 0 3
22.064550399780273 -6.51785135269165 2.8831615447998047 0.44190698862075806 0 3
21.838260650634766 -6.557714462280273 2.857407808303833 0.4458898901939392 0 3
21.381893157958984 -6.525429725646973 2.8015007972717285 0.44990813732147217 0 3
21.202070236206055 -6.57470703125 2.7817747592926025 0.8825641870498657 0 3
21.159725189208984 -6.665820121765137 2.780120849609375 0.45778360962867737 0 3
20.94904327392578 -6.702929496765137 2.756359100341797 0.4617297947406769 0 3
20.74185562133789 -6.739413738250732 2.73305344581604 0.4656670093536377 0 3
20.538183212280273 -6.775292873382568 2.710195779800415 0.46959438920021057 0 3
20.337871551513672 -6.810585975646973 2.687770366668701 0.4735126197338104 0 3
19.944921493530273 -6.778691291809082 2.6398277282714844 0.4769384264945984 0 3
19.770605087280273 -6.818573951721191 2.6207847595214844 0.8678715825080872 0 3
19.3955078125 -6.786757469177246 2.575073719024658 0.48520606756210327 0 3
19.21125030517578 -6.819218635559082 2.5546460151672363 0.48908576369285583 0 3
19.029863357543945 -6.851171493530273 2.5345935821533203 0.4929554760456085 0 3
18.851346969604492 -6.882616996765137 2.5149011611938477 0.4968150854110718 0 3
18.710039138793945 -6.926347732543945 2.5001747608184814 0.6341891288757324 0 3
18.578632354736328 -6.97265625 2.4867706298828125 0.6376075148582458 0 3
18.411073684692383 -7.00417947769165 2.4685251712799072 0.5088895559310913 0 3
18.242460250854492 -7.033945083618164 2.4501280784606934 0.5121570229530334 0 3
18.27046775817871 -7.139081954956055 2.458165407180786 0.5159662365913391 0 3
18.10498046875 -7.168222427368164 2.440199136734009 0.51976478099823 0 3
17.941835403442383 -7.196952819824219 2.4225456714630127 0.5235530138015747 0 3
17.78107452392578 -7.225273132324219 2.4051902294158936 0.5273303389549255 0 3
17.622577667236328 -7.253183364868164 2.388131618499756 0.531097412109375 0 3
17.466289520263672 -7.280722618103027 2.371358633041382 0.5348536968231201 0 3
17.312225341796875 -7.307870864868164 2.3548688888549805 0.5385992527008057 0 3
17.160253524780273 -7.334609031677246 2.3386499881744385 0.5423338413238525 0 3
17.01038932800293 -7.361015319824219 2.3227031230926514 0.5460574626922607 0 3
16.862539291381836 -7.387050628662109 2.3070173263549805 0.549770176410675 0 3
16.71660041809082 -7.412753582000732 2.2915892601013184 0.5534723997116089 0 3
16.572694778442383 -7.43810510635376 2.276409387588501 0.5571625828742981 0 3
16.43062400817871 -7.463124752044678 2.261476516723633 0.560841977596283 0 3
16.290430068969727 -7.487812519073486 2.2467803955078125 0.564509928226471 0 3
16.152050018310547 -7.512167930603027 2.2323203086853027 0.5681666731834412 0 3
16.015409469604492 -7.53624963760376 2.218092441558838 0.5718117952346802 0 3
15.880507469177246 -7.560019493103027 2.2040867805480957 0.5754451155662537 0 3
15.74730396270752 -7.583456993103027 2.1902987957000732 0.5790672898292542 0 3
15.615761756896973 -7.606640338897705 2.176727771759033 0.5826774835586548 0 3
15.485819816589355 -7.629530906677246 2.1633670330047607 0.5862763524055481 0 3
15.3574800491333 -7.65212869644165 2.150212526321411 0.5898630023002625 0 3
15.230663299560547 -7.674472332000732 2.137256622314453 0.593438446521759 0 3
15.10537052154541 -7.696542739868164 2.124501943588257 0.5970013737678528 0 3
14.981562614440918 -7.718339443206787 2.111938238143921 0.600552499294281 0 3
14.859198570251465 -7.739902019500732 2.0995686054229736 0.6040913462638855 0 3
11.678495407104492 -6.14990234375 1.6540229320526123 0.5732236504554749 0 3
11.577460289001465 -6.163241863250732 1.643616795539856 0.5768530964851379 0 3
11.477734565734863 -6.176405906677246 1.6333732604980469 0.5804706811904907 0 3
11.379218101501465 -6.189414024353027 1.6232901811599731 0.5840765237808228 0 3
11.28189468383789 -6.202246189117432 1.6133625507354736 0.5876706838607788 0 3
11.18929672241211 -6.21691370010376 1.6040977239608765 0.625067412853241 0 3
11.09999942779541 -6.232636451721191 1.5952863693237305 0.6285199522972107 0 3
11.011659622192383 -6.248202800750732 1.5866035223007202 0.631959080696106 0 3
10.924238204956055 -6.263593673706055 1.5780460834503174 0.6353867053985596 0 3
10.83779239654541 -6.278828144073486 1.56961190700531 0.638800859451294 0 3
10.752245903015137 -6.293886661529541 1.5612995624542236 0.6422019600868225 0 3
10.667655944824219 -6.308769226074219 1.5531065464019775 0.6455897092819214 0 3
10.58388614654541 -6.323554515838623 1.545027256011963 0.6489652395248413 0 3
10.5009765625 -6.338124752044678 1.5370640754699707 0.652327835559845 0 3
10.418925285339355 -6.352578163146973 1.529212474822998 0.6556769609451294 0 3
10.337714195251465 -6.366894245147705 1.5214723348617554 0.6590126156806946 0 3
10.25732421875 -6.381054401397705 1.5138407945632935 0.6623353958129883 0 3
10.047792434692383 -6.313417911529541 1.487080454826355 0.6670972108840942 0 3
9.970097541809082 -6.327207088470459 1.4797687530517578 0.6703927516937256 0 3
9.893144607543945 -6.340839862823486 1.4725605249404907 0.6736753582954407 0 3
9.8169527053833 -6.354355335235596 1.4654481410980225 0.6769439578056335 0 3
9.741503715515137 -6.367714881896973 1.4584379196166992 0.6801990270614624 0 3
9.666776657104492 -6.380957126617432 1.4515202045440674 0.6834403872489929 0 3
9.592714309692383 -6.394082069396973 1.4446985721588135 0.6866677403450012 0 3
9.519413948059082 -6.407089710235596 1.43796706199646 0.6898812055587769 0 3
9.446718215942383 -6.419941425323486 1.4313267469406128 0.6930812001228333 0 3
9.374726295471191 -6.432714462280273 1.4247791767120361 0.6962672472000122 0 3
9.30337905883789 -6.445351600646973 1.4183176755905151 0.6994397640228271 0 3
9.232069969177246 -6.457480430603027 1.4118534326553345 0.6934041380882263 0 3
9.198437690734863 -6.495625019073486 1.4111524820327759 0.6991446018218994 0 3
9.2095308303833 -6.565605163574219 1.4173588752746582 0.7074204683303833 0 3
9.1397066116333 -6.57790994644165 1.4111464023590088 0.7105362415313721 0 3
9.070527076721191 -6.590097427368164 1.4050137996673584 0.7136371731758118 0 3
9.001914024353027 -6.60216760635376 1.3989609479904175 0.7167242169380188 0 3
8.933886528015137 -6.614160060882568 1.392990231513977 0.7197967767715454 0 3
8.866445541381836 -6.626035213470459 1.3870954513549805 0.7228545546531677 0 3
8.799570083618164 -6.63781213760376 1.3812816143035889 0.7258985042572021 0 3
8.733261108398438 -6.649472713470459 1.3755433559417725 0.7289265990257263 0 3
8.66748046875 -6.661074161529541 1.3698774576187134 0.7319408655166626 0 3
8.602246284484863 -6.672558307647705 1.364288091659546 0.7349401712417603 0 3
8.537558555603027 -6.683945178985596 1.3587690591812134 0.7379245758056641 0 3
8.36587905883789 -6.610312461853027 1.3361551761627197 0.7484183311462402 0 3
8.303750038146973 -6.621992111206055 1.3309669494628906 0.751334547996521 0 3
8.241933822631836 -6.633437156677246 1.3258198499679565 0.7482374310493469 0 3
8.180116653442383 -6.644374847412109 1.3206559419631958 0.7511623501777649 0 3
8.118769645690918 -6.655234336853027 1.315561056137085 0.7540715336799622 0 3
8.057909965515137 -6.666035175323486 1.3105313777923584 0.7569656372070312 0 3
7.997460842132568 -6.676738262176514 1.305565595626831 0.7598451375961304 0 3
7.937539100646973 -6.687363147735596 1.3006629943847656 0.7627086043357849 0 3
7.877988338470459 -6.697890281677246 1.295822262763977 0.7655577063560486 0 3
7.818906307220459 -6.708378791809082 1.2910456657409668 0.7683910131454468 0 3
7.76025390625 -6.71875 1.2863281965255737 0.7712081670761108 0 3
7.702070236206055 -6.729043006896973 1.2816715240478516 0.774010419845581 0 3
7.644257545471191 -6.739296913146973 1.2770731449127197 0.7767974734306335 0 3
7.586874961853027 -6.749453067779541 1.2725340127944946 0.779568076133728 0 3
7.52990198135376 -6.759531021118164 1.268053412437439 0.7823237180709839 0 3
7.473046779632568 -6.76931619644165 1.2635841369628906 0.7768945097923279 0 3
7.416230201721191 -6.778691291809082 1.2591062784194946 0.7796562910079956 0 3
7.359785079956055 -6.788007736206055 1.2546857595443726 0.782403826713562 0 3
7.303750038146973 -6.797226428985596 1.2503217458724976 0.7851346731185913 0 3
7.254101276397705 -6.812050819396973 1.247043251991272 0.5947243571281433 0 3
7.267109394073486 -6.885878562927246 1.2545756101608276 0.5911539793014526 0 3
7.231484413146973 -6.913964748382568 1.2537715435028076 0.7997229099273682 0 3
7.176796913146973 -6.92361307144165 1.2496650218963623 0.8023509383201599 0 3
7.122460842132568 -6.933164119720459 1.2456092834472656 0.8049628138542175 0 3
7.068495750427246 -6.942675590515137 1.2416056394577026 0.8075587153434753 0 3
7.014863014221191 -6.952128887176514 1.2376518249511719 0.8101378083229065 0 3
18.871973037719727 18.871932983398438 2.894857168197632 0.9952067732810974 0 9
18.95636749267578 18.78693389892578 2.8948442935943604 0.9952113032341003 0 9
19.040800094604492 18.70195198059082 2.8948864936828613 0.9951963424682617 0 9
19.125234603881836 18.616952896118164 2.8949902057647705 0.9951618313789368 0 9
19.20960807800293 18.531951904296875 2.8951470851898193 0.9951074719429016 0 9
19.294023513793945 18.44693374633789 2.89536190032959 0.9950337409973145 0 9
19.378437042236328 18.361854553222656 2.8956377506256104 0.9949402809143066 0 9
19.46285057067871 18.276796340942383 2.8959648609161377 0.9948273301124573 0 9
19.547285079956055 18.19169807434082 2.8963475227355957 0.994694709777832 0 9
19.631738662719727 18.106542587280273 2.896790027618408 0.9945425987243652 0 9
19.716211318969727 18.021387100219727 2.8972935676574707 0.9943707585334778 0 9
19.800683975219727 17.93617057800293 2.8978495597839355 0.9941794276237488 0 9
19.885234832763672 17.85089874267578 2.898460626602173 0.9939685463905334 0 9
19.969745635986328 17.765605926513672 2.8991363048553467 0.9937379956245422 0 9
20.0543155670166 17.680234909057617 2.8998637199401855 0.9934879541397095 0 9
16.850135803222656 14.721503257751465 2.42695951461792 0.9513423442840576 0 9
16.924297332763672 14.652871131896973 2.4281437397003174 0.9508785009384155 0 9
16.998516082763672 14.584159851074219 2.4293766021728516 0.9503964185714722 0 9
17.072792053222656 14.51537036895752 2.430654764175415 0.9498960375785828 0 9
17.14712905883789 14.446464538574219 2.43198561668396 0.9493772983551025 0 9
17.22152328491211 14.377519607543945 2.4333622455596924 0.9488404393196106 0 9
16.284160614013672 13.471385955810547 2.2923502922058105 0.4131721556186676 0 9
16.506933212280273 13.531367301940918 2.3151357173919678 0.4091052711009979 0 9
16.73417854309082 13.592538833618164 2.338426113128662 0.405030757188797 0 9
16.966014862060547 13.654921531677246 2.3622360229492188 0.40094810724258423 0 9
17.202655792236328 13.718632698059082 2.3865878582000732 0.39685705304145813 0 9
17.44417953491211 13.783613204956055 2.411489725112915 0.3927586078643799 0 9
17.690858840942383 13.84999942779541 2.436971426010132 0.3886524736881256 0 9
17.819549560546875 13.822206497192383 2.4461276531219482 0.943888247013092 0 9
17.89466667175293 13.752304077148438 2.447946071624756 0.943187415599823 0 9
17.96990203857422 13.68228530883789 2.449812173843384 0.9424683451652527 0 9
18.294471740722656 13.800116539001465 2.4855880737304688 0.9093471765518188 0 9
18.36458969116211 13.724140167236328 2.4867241382598877 0.9089318513870239 0 9
18.434804916381836 13.64810562133789 2.4879136085510254 0.9084975123405457 0 9
18.505096435546875 13.571991920471191 2.4891538619995117 0.9080442786216736 0 9
18.575468063354492 13.49583911895752 2.4904487133026123 0.9075721502304077 0 9
18.645936965942383 13.41958999633789 2.4917967319488525 0.907080888748169 0 9
18.71175765991211 13.339882850646973 2.4925665855407715 0.9289225339889526 0 9
18.770936965942383 13.2554292678833 2.4924979209899902 0.9289488196372986 0 9
18.830078125 13.170937538146973 2.4924774169921875 0.9289556741714478 0 9
18.889257431030273 13.0864839553833 2.492514133453369 0.9289432168006897 0 9
18.948436737060547 13.0020112991333 2.492595672607422 0.9289114475250244 0 9
19.00765609741211 12.917577743530273 2.49273419380188 0.9288603663444519 0 9
19.06689453125 12.833105087280273 2.492922067642212 0.9287902116775513 0 9
19.12613296508789 12.748632431030273 2.493163824081421 0.9287004470825195 0 9
19.89714813232422 13.133983612060547 2.5859618186950684 0.5372200608253479 0 9
23.987245559692383 15.679726600646973 3.1083624362945557 0.4279267191886902 0 9
23.22165870666504 15.030976295471191 3.0003838539123535 0.9950084090232849 0 9
18.254140853881836 11.699687004089355 2.3517379760742188 0.8780514597892761 0 9
18.321659088134766 11.627245903015137 2.3536887168884277 0.9208938479423523 0 9
18.40740203857422 11.566113471984863 2.3580141067504883 0.9192047119140625 0 9
18.49347686767578 11.504765510559082 2.3624022006988525 0.9174970388412476 0 9
18.57992172241211 11.443182945251465 2.3668549060821533 0.9157707691192627 0 9
18.66666030883789 11.381366729736328 2.371372699737549 0.914026141166687 0 9
18.75370979309082 11.319296836853027 2.3759546279907227 0.912263035774231 0 9
18.84111213684082 11.257011413574219 2.3806025981903076 0.9104817509651184 0 9
18.92884635925293 11.19449234008789 2.3853166103363037 0.9086821675300598 0 9
19.016952514648438 11.131659507751465 2.390101432800293 0.9068639874458313 0 9
19.105390548706055 11.068632125854492 2.3949503898620605 0.9050276875495911 0 9
19.194238662719727 11.005331993103027 2.3998701572418213 0.9031729102134705 0 9
19.283397674560547 10.941757202148438 2.4048538208007812 0.901300311088562 0 9
18.204160690307617 10.221640586853027 2.2645163536071777 0.9153397083282471 0 9
18.214277267456055 10.120058059692383 2.260101795196533 0.9171273708343506 0 9
18.224355697631836 10.01888656616211 2.255750894546509 0.918896496295929 0 9
19.643924713134766 10.684784889221191 2.4255030155181885 0.8936280608177185 0 9
19.73503875732422 10.619843482971191 2.430842161178589 0.8916651010513306 0 9
19.826562881469727 10.554609298706055 2.4362540245056152 0.8896838426589966 0 9
19.76203155517578 10.406718254089355 2.4225668907165527 0.4479092061519623 0 9
19.6339054107666 10.22695255279541 2.401207447052002 0.45189353823661804 0 9
19.508007049560547 10.050332069396973 2.3802661895751953 0.45586809515953064 0 9
19.38427734375 9.876757621765137 2.359740972518921 0.4598337411880493 0 9
19.26265525817871 9.706132888793945 2.339607000350952 0.4637903869152069 0 9
19.143104553222656 9.538397789001465 2.3198633193969727 0.46773821115493774 0 9
19.02554702758789 9.373476028442383 2.3004941940307617 0.47167590260505676 0 9
