ply
format ascii 1.0
element vertex 607
property float32 x
property float32 y
property float32 z
property float32 CosAngle
property uint32 ObjIdx
property uint32 ObjTag
end_header
34.563167572021484 12.094189643859863 3.482754945755005 0.9389396905899048 0 3
34.56233215332031 11.746757507324219 3.4719078540802 0.9418737292289734 0 3
34.56150817871094 11.401464462280273 3.461406707763672 0.9447316527366638 0 3
34.56068420410156 11.058222770690918 3.4512345790863037 0.9475135803222656 0 3
34.55986404418945 10.71695327758789 3.441412925720215 0.9502192139625549 0 3
34.559051513671875 10.377616882324219 3.431915283203125 0.9528481364250183 0 3
34.55824279785156 10.040106773376465 3.422748327255249 0.9554004073143005 0 3
34.55743408203125 9.704355239868164 3.41390323638916 0.9578757882118225 0 3
34.556636810302734 9.370331764221191 3.4053807258605957 0.9602738618850708 0 3
34.55583572387695 9.037939071655273 3.397169828414917 0.9625945687294006 0 3
34.55503845214844 8.707109451293945 3.389268159866333 0.9648378491401672 0 3
34.55424880981445 8.377802848815918 3.3816795349121094 0.9670032262802124 0 3
34.55345916748047 8.049921989440918 3.3743951320648193 0.9690908789634705 0 3
34.552669525146484 7.723437309265137 3.367413282394409 0.9711003303527832 0 3
34.55188751220703 7.398271083831787 3.360729217529297 0.9730316400527954 0 3
34.551109313964844 7.074374675750732 3.354341983795166 0.974884569644928 0 3
34.550331115722656 6.751669883728027 3.348247528076172 0.9766590595245361 0 3
34.549560546875 6.430117130279541 3.342446804046631 0.9783545732498169 0 3
34.54878234863281 6.10964822769165 3.336926221847534 0.9799715280532837 0 3
34.54801559448242 5.790214538574219 3.331697940826416 0.9815093874931335 0 3
34.547245025634766 5.471728324890137 3.3267576694488525 0.9829683303833008 0 3
34.25341796875 5.110517501831055 3.2939116954803467 0.9843478202819824 0 3
34.885169982910156 4.885087966918945 3.350311279296875 0.1404489129781723 0 3
34.501991271972656 4.516054630279541 3.3094873428344727 0.9868703484535217 0 3
34.794273376464844 4.237011432647705 3.333743095397949 0.9880117774009705 0 3
34.793514251708984 3.920302629470825 3.33016300201416 0.9890737533569336 0 3
34.792747497558594 3.6042773723602295 3.3268613815307617 0.9900557994842529 0 3
27.253082275390625 2.5761914253234863 2.603607654571533 0.5027868747711182 0 6
34.79123306274414 2.97393536567688 3.3210716247558594 0.9917806386947632 0 3
34.79047393798828 2.659550666809082 3.3185875415802 0.992523193359375 0 3
34.78971481323242 2.345595598220825 3.3163750171661377 0.9931859374046326 0 3
34.78895950317383 2.032041072845459 3.314431667327881 0.993768572807312 0 3
34.788204193115234 1.718837857246399 3.312751293182373 0.9942711591720581 0 3
34.78744888305664 1.4059178829193115 3.311345100402832 0.9946936368942261 0 3
34.78668975830078 1.0932323932647705 3.31020450592041 0.9950360655784607 0 3
34.78593826293945 0.7807421684265137 3.309335231781006 0.9952982664108276 0 3
34.785179138183594 0.4683789014816284 3.308727264404297 0.9954802393913269 0 3
34.784427642822266 0.1561328023672104 3.3083934783935547 0.9955820441246033 0 3
34.78367233276367 -0.15610350668430328 3.3083178997039795 0.995603621006012 0 3
34.78291320800781 -0.4683496057987213 3.308511972427368 0.9955450892448425 0 3
34.782161712646484 -0.7806445360183716 3.3089733123779297 0.9954063296318054 0 3
34.781402587890625 -1.0930469036102295 3.3097002506256104 0.9951873421669006 0 3
34.780643463134766 -1.4056347608566284 3.310694456100464 0.9948881268501282 0 3
34.77988815307617 -1.7184178829193115 3.311967134475708 0.9945088028907776 0 3
34.52517318725586 -2.016611337661743 3.2892942428588867 0.37887752056121826 0 9
34.27360153198242 -2.310781240463257 3.2671689987182617 0.38144299387931824 0 9
34.02596664428711 -2.601083993911743 3.245662212371826 0.38397103548049927 0 9
33.6688232421875 -2.877978563308716 3.213932514190674 0.2460976243019104 0 9
33.24245834350586 -3.142333984375 3.1757946014404297 0.24905277788639069 0 9
32.82694625854492 -3.4005956649780273 3.138885498046875 0.25198104977607727 0 9
32.36124038696289 -3.6462597846984863 3.0973637104034424 0.2527209520339966 0 9
31.859628677368164 -3.879648447036743 3.052565813064575 0.25642991065979004 0 9
30.966997146606445 -4.053339958190918 2.9704015254974365 0.17328107357025146 0 9
30.414968490600586 -4.259091854095459 2.920999765396118 0.14235085248947144 0 9
24.133920669555664 -3.6006834506988525 2.3207898139953613 0.04190167039632797 0 9
24.99604034423828 -3.958984375 2.407015562057495 0.0870777890086174 0 9
25.355609893798828 -4.249579906463623 2.4452147483825684 0.08571741729974747 0 9
25.72905731201172 -4.549960613250732 2.4850680828094482 0.08434277772903442 0 9
26.117259979248047 -4.860781192779541 2.5266740322113037 0.08295390009880066 0 9
24.255565643310547 -4.739921569824219 2.35058856010437 0.24046121537685394 0 9
24.05158233642578 -4.924580097198486 2.335010528564453 0.24206553399562836 0 9
23.71237564086914 -5.077314376831055 2.306410074234009 0.1287616789340973 0 9
23.883459091186523 -5.338603496551514 2.3276171684265137 0.9983054399490356 0 9
23.823505401611328 -5.550185203552246 2.3265364170074463 0.9987694025039673 0 9
23.763586044311523 -5.76159143447876 2.325645923614502 0.999153733253479 0 9
23.703691482543945 -5.972822189331055 2.3249337673187256 0.9994581937789917 0 9
23.643802642822266 -6.18395471572876 2.3244118690490723 0.999683141708374 0 9
23.583919525146484 -6.394960880279541 2.3240718841552734 0.9998283982276917 0 9
23.524030685424805 -6.605966567993164 2.3239221572875977 0.9998937845230103 0 9
23.35752296447754 -6.785976409912109 2.31339693069458 0.4986857771873474 0 9
23.63009262084961 -7.095771312713623 2.346606969833374 0.6736811399459839 0 9
22.85110092163086 -7.086064338684082 2.275472640991211 0.38683417439460754 0 9
22.82805633544922 -7.304169654846191 2.2796154022216797 0.386131227016449 0 9
22.805322647094727 -7.523193359375 2.28399658203125 0.3853905200958252 0 9
22.78289031982422 -7.743241786956787 2.288618803024292 0.3846120834350586 0 9
22.679916381835938 -7.93603515625 2.28534197807312 0.46345484256744385 0 9
22.37444305419922 -8.055273056030273 2.2617530822753906 0.3957623243331909 0 9
22.97628402709961 -8.505682945251465 2.3302154541015625 0.6488960981369019 0 9
22.900659561157227 -8.712187767028809 2.330383539199829 0.4054465591907501 0 9
22.77138328552246 -8.897802352905273 2.325273275375366 0.052827782928943634 0 9
22.94075584411621 -9.202178001403809 2.350895881652832 0.46096378564834595 0 9
7.857922077178955 -3.2342185974121094 0.8081963658332825 0.9948353171348572 0 6
7.831423282623291 -3.3058300018310547 0.8084911704063416 0.7002354264259338 0 6
23.601119995117188 -10.213095664978027 2.445871114730835 0.8724028468132019 0 9
23.56233787536621 -10.448408126831055 2.451472759246826 0.8459537029266357 0 9
23.346900939941406 -10.60463809967041 2.4388656616210938 0.8503272533416748 0 9
23.133596420288086 -10.759267807006836 2.426572322845459 0.8546344041824341 0 9
28.18906593322754 -13.419638633728027 2.969372510910034 0.3784986436367035 0 9
27.989036560058594 -13.633906364440918 2.961076498031616 0.39671456813812256 0 9
27.54017448425293 -13.722460746765137 2.9265007972717285 0.3325061798095703 0 9
27.566837310791016 -14.046025276184082 2.9426183700561523 0.39920347929000854 0 9
27.35834503173828 -14.250536918640137 2.9338958263397217 0.40038996934890747 0 9
27.151517868041992 -14.4541015625 2.925515651702881 0.4015374183654785 0 9
25.842182159423828 -14.0562105178833 2.797917366027832 0.0901682898402214 0 9
26.03519630432129 -14.465526580810547 2.8327574729919434 0.3291488289833069 0 9
26.001237869262695 -14.753642082214355 2.8433570861816406 0.39618679881095886 0 9
12.315791130065918 -7.135087966918945 1.3537408113479614 0.28027892112731934 0 9
12.04831314086914 -7.125341415405273 1.331315279006958 0.2850000262260437 0 9
11.874777793884277 -7.167343616485596 1.3191933631896973 0.7003856301307678 0 9
11.741376876831055 -7.231406211853027 1.3115332126617432 0.7044769525527954 0 9
11.609576225280762 -7.294765472412109 1.3040744066238403 0.7085075378417969 0 9
11.496926307678223 -7.368749618530273 1.298797607421875 0.8258270025253296 0 9
11.39498233795166 -7.448544979095459 1.294782042503357 0.8283880949020386 0 9
11.293701171875 -7.527890682220459 1.2909005880355835 0.8308793902397156 0 9
11.193891525268555 -7.607343673706055 1.2872445583343506 0.9694840312004089 0 9
11.129743576049805 -7.710693359375 1.2877755165100098 0.9570543169975281 0 9
11.065722465515137 -7.814257621765137 1.2884316444396973 0.9565670490264893 0 9
11.0016450881958 -7.917958736419678 1.2891939878463745 0.956001341342926 0 9
10.937299728393555 -8.02163028717041 1.2900387048721313 0.9547062516212463 0 9
10.872159957885742 -8.124940872192383 1.2909082174301147 0.9540648460388184 0 9
10.806947708129883 -8.228407859802246 1.2918822765350342 0.9533450603485107 0 9
4.959294319152832 -3.8468260765075684 0.5969454646110535 0.2294953465461731 0 9
5.118334770202637 -4.044296741485596 0.6204342246055603 0.22080734372138977 0 9
5.290422439575195 -4.257958889007568 0.6459008455276489 0.21210059523582458 0 9
10.573615074157715 -8.667607307434082 1.3003686666488647 0.4051414132118225 0 9
5.713278770446777 -4.769784927368164 0.7078680396080017 0.3484097123146057 0 9
4.810374736785889 -4.089814186096191 0.6005236506462097 0.46078282594680786 0 9
4.841056823730469 -4.191347599029541 0.6090264916419983 0.45434972643852234 0 9
4.872572898864746 -4.295761585235596 0.6178176999092102 0.4478844106197357 0 9
4.904970645904541 -4.403193473815918 0.6269112825393677 0.4413878321647644 0 9
4.90931510925293 -4.487324237823486 0.6325891017913818 0.38987118005752563 0 9
6.167722225189209 -5.740029335021973 0.8013485670089722 0.4596017599105835 0 9
6.223498344421387 -5.897060394287109 0.8154400587081909 0.45165976881980896 0 9
4.547402381896973 -4.387001991271973 0.6009628176689148 0.4796127676963806 0 9
6.083654880523682 -5.975419998168945 0.8110418319702148 0.567099392414093 0 9
13.834582328796387 13.834579467773438 1.69817316532135 0.3738691508769989 0 9
13.969111442565918 13.72054672241211 1.6995004415512085 0.3735772967338562 0 9
14.104087829589844 13.606562614440918 1.7009950876235962 0.37324920296669006 0 9
14.23954963684082 13.49258804321289 1.702659010887146 0.37288475036621094 0 9
19.396461486816406 18.05133819580078 2.2998170852661133 0.22927618026733398 0 9
35.67670822143555 32.61000061035156 4.195278167724609 0.9260630011558533 0 3
35.78707504272461 32.126033782958984 4.1741743087768555 0.7398293018341064 0 3
35.785709381103516 31.549394607543945 4.14081335067749 0.7457888722419739 0 3
35.66746520996094 30.880584716796875 4.094897747039795 0.7516891360282898 0 3
35.66614532470703 30.32364273071289 4.063329219818115 0.7575284242630005 0 3
35.69397735595703 29.7994327545166 4.035858154296875 0.9416210651397705 0 3
35.76786422729492 29.320350646972656 4.014299392700195 0.7690235376358032 0 3
35.7666015625 28.786415100097656 3.9849963188171387 0.7746787071228027 0 3
35.66106033325195 28.177860260009766 3.9448986053466797 0.7802709937095642 0 3
35.3663330078125 27.432939529418945 3.8849010467529297 0.7858006358146667 0 3
16.96566390991211 12.917675018310547 1.8508214950561523 0.1316910833120346 0 9
35.61692428588867 26.61716651916504 3.8592748641967773 0.598309338092804 0 3
35.65522384643555 26.150331497192383 3.837862968444824 0.8020123243331909 0 3
35.66307067871094 25.667011260986328 3.813758373260498 0.9625568985939026 0 3
35.6678466796875 25.187578201293945 3.7899394035339355 0.7283685803413391 0 3
35.65720748901367 24.703407287597656 3.765099287033081 0.7331746220588684 0 3
35.63645553588867 24.218534469604492 3.7397990226745605 0.44054555892944336 0 3
35.64957046508789 23.762489318847656 3.7186388969421387 0.8277259469032288 0 3
35.58171463012695 23.258710861206055 3.68963360786438 0.832670271396637 0 3
35.589500427246094 22.81050682067871 3.6690635681152344 0.5844070315361023 0 3
35.612117767333984 22.37660026550293 3.6505420207977295 0.587372362613678 0 3
35.63417434692383 21.946815490722656 3.632463216781616 0.5902957916259766 0 3
35.64424133300781 21.514110565185547 3.613659620285034 0.8517730832099915 0 3
35.64320755004883 21.079355239868164 3.5942223072052 0.8563780188560486 0 3
35.64218521118164 20.649179458618164 3.5752861499786377 0.860914409160614 0 3
35.64117431640625 20.223514556884766 3.5568363666534424 0.8653809428215027 0 3
35.640174865722656 19.80217742919922 3.538853168487549 0.8697779178619385 0 3
35.639183044433594 19.385038375854492 3.521331787109375 0.8741047978401184 0 3
35.638206481933594 18.971952438354492 3.504270553588867 0.8783615231513977 0 3
35.637229919433594 18.562841415405273 3.487650156021118 0.8825471997261047 0 3
35.636268615722656 18.157567977905273 3.471463441848755 0.8866618275642395 0 3
35.34200668334961 17.609844207763672 3.4272656440734863 0.8907053470611572 0 3
35.73093795776367 17.405057907104492 3.4496941566467285 0.43844661116600037 0 3
36.556697845458984 17.403057098388672 3.514193534851074 0.43039920926094055 0 3
37.413978576660156 17.400985717773438 3.581444025039673 0.4223172962665558 0 3
38.30483627319336 17.398828506469727 3.6516196727752686 0.4142008423805237 0 3
39.231300354003906 17.396591186523438 3.7249035835266113 0.40605199337005615 0 3
40.195892333984375 17.394256591796875 3.8015105724334717 0.3978693187236786 0 3
34.27621841430664 14.468778610229492 3.2292497158050537 0.9169777631759644 0 3
34.275352478027344 14.107295036315918 3.2171106338500977 0.9204384088516235 0 3
34.56772994995117 13.866103172302246 3.232738494873047 0.9238249659538269 0 3
34.56686782836914 13.506864547729492 3.221184015274048 0.9271368384361267 0 3
34.56601333618164 13.150146484375 3.2099859714508057 0.9303740859031677 0 3
34.56516647338867 12.795849800109863 3.199106454849243 0.9335366487503052 0 3
34.56432342529297 12.44393539428711 3.18856143951416 0.9366238713264465 0 3
34.56348419189453 12.0942964553833 3.1783366203308105 0.939635694026947 0 3
34.562652587890625 11.746874809265137 3.1684422492980957 0.9425716400146484 0 3
34.561824798583984 11.401552200317383 3.158856153488159 0.9454320073127747 0 3
34.56100082397461 11.058329582214355 3.1495819091796875 0.9482157826423645 0 3
34.5601806640625 10.717060089111328 3.1406140327453613 0.950923502445221 0 3
34.559364318847656 10.377704620361328 3.131951332092285 0.9535544514656067 0 3
34.558555603027344 10.040205001831055 3.1235852241516113 0.9561084508895874 0 3
34.55774688720703 9.70443344116211 3.115506172180176 0.9585858583450317 0 3
34.556941986083984 9.370400428771973 3.1077260971069336 0.9609856605529785 0 3
34.55614471435547 9.038007736206055 3.100238084793091 0.9633080959320068 0 3
34.55534744262695 8.70717716217041 3.0930306911468506 0.9655530452728271 0 3
34.5545539855957 8.377870559692383 3.086106538772583 0.9677199721336365 0 3
34.553768157958984 8.049989700317383 3.0794570446014404 0.9698091745376587 0 3
34.552978515625 7.72350549697876 3.0730791091918945 0.9718202352523804 0 3
34.55219650268555 7.398339748382568 3.0669822692871094 0.9737529754638672 0 3
34.551414489746094 7.074433326721191 3.0611560344696045 0.9756072759628296 0 3
34.550636291503906 6.751718521118164 3.0555920600891113 0.977383017539978 0 3
34.549861907958984 6.430156230926514 3.0502960681915283 0.9790800213813782 0 3
34.54909133911133 6.109687328338623 3.0452630519866943 0.9806981086730957 0 3
34.54832077026367 5.790253639221191 3.040492296218872 0.9822371006011963 0 3
34.547550201416016 5.471777439117432 3.0359795093536377 0.9836971163749695 0 3
34.25372314453125 5.110546588897705 3.006004810333252 0.9850777983665466 0 3
34.88520050048828 4.885068416595459 3.057450294494629 0.14055418968200684 0 3
34.50229263305664 4.516083717346191 3.020214796066284 0.9876021146774292 0 3
34.794578552246094 4.237021446228027 3.042353391647339 0.9887444972991943 0 3
34.79381561279297 3.9203319549560547 3.039088010787964 0.9898070693016052 0 3
34.79305648803711 3.6042966842651367 3.0360734462738037 0.9907899498939514 0 3
27.25225067138672 2.576113224029541 2.3759429454803467 0.5031794309616089 0 6
34.791534423828125 2.973954916000366 3.030790090560913 0.992516040802002 0 3
34.790775299072266 2.659550666809082 3.0285258293151855 0.9932591319084167 0 3
34.79001998901367 2.3456053733825684 3.0265026092529297 0.9939223527908325 0 3
34.78926086425781 2.032050848007202 3.0247318744659424 0.9945054054260254 0 3
34.78850555419922 1.718837857246399 3.023202419281006 0.9950085282325745 0 3
34.787750244140625 1.405908226966858 3.0219180583953857 0.9954311847686768 0 3
34.786991119384766 1.0932128429412842 3.02087664604187 0.9957739114761353 0 3
34.78623962402344 0.7807323932647705 3.0200798511505127 0.9960363507270813 0 3
34.785484313964844 0.4683789014816284 3.019524097442627 0.9962184429168701 0 3
34.78472900390625 0.15611328184604645 3.019221067428589 0.996320366859436 0 3
34.783973693847656 -0.15612304210662842 3.0191500186920166 0.9963419437408447 0 3
31.634428024291992 -0.4259570240974426 2.7459988594055176 0.23923644423484802 0 9
31.619150161743164 -0.7096484303474426 2.7451155185699463 0.2393135279417038 0 9
31.604736328125 -0.993212878704071 2.744525194168091 0.23936477303504944 0 9
31.591230392456055 -1.2767382860183716 2.7442445755004883 0.23938989639282227 0 9
31.57855796813965 -1.560244083404541 2.744245767593384 0.23938944935798645 0 9
31.56675910949707 -1.8438280820846558 2.744547128677368 0.23936307430267334 0 9
31.555849075317383 -2.1275486946105957 2.745150089263916 0.23931071162223816 0 9
31.41522789001465 -2.4015135765075684 2.7346837520599365 0.12952673435211182 0 9
31.13774299621582 -2.661630868911743 2.7124953269958496 0.17329925298690796 0 9
30.8216495513916 -2.913515567779541 2.6871321201324463 0.17493513226509094 0 9
30.512523651123047 -3.1608593463897705 2.6625478267669678 0.17655038833618164 0 9
30.2100772857666 -3.403876781463623 2.6387131214141846 0.1781449019908905 0 9
29.914134979248047 -3.642714738845825 2.6156201362609863 0.17971813678741455 0 9
29.624330520629883 -3.8775975704193115 2.5932185649871826 0.18127058446407318 0 9
28.92733383178711 -4.050771236419678 2.5352816581726074 0.14978384971618652 0 9
30.47988510131836 -4.547500133514404 2.6748251914978027 0.9915753602981567 0 9
30.40411376953125 -4.815556526184082 2.671860694885254 0.9926754236221313 0 9
29.861976623535156 -5.004853248596191 2.6280596256256104 0.7629305124282837 0 9
29.71347999572754 -5.254599571228027 2.6190381050109863 0.3309869170188904 0 9
23.808420181274414 -4.431074142456055 2.1019680500030518 0.09106669574975967 0 9
24.139860153198242 -4.717324256896973 2.1348814964294434 0.08966268599033356 0 9
24.4837646484375 -5.013105392456055 2.1691887378692627 0.08824461698532104 0 9
24.840883255004883 -5.318954944610596 2.2049713134765625 0.08681264519691467 0 9
25.21200942993164 -5.635566234588623 2.242316246032715 0.08536693453788757 0 9
23.84502601623535 -5.555214881896973 2.1250853538513184 0.9986167550086975 0 9
23.785043716430664 -5.766806602478027 2.1242659091949463 0.999001145362854 0 9
23.72508430480957 -5.978232383728027 2.123619556427002 0.9993060827255249 0 9
23.665138244628906 -6.189550876617432 2.123142719268799 0.9995311498641968 0 9
22.75063133239746 -6.169072151184082 2.0459792613983154 0.29219090938568115 0 9
22.635351181030273 -6.356406211853027 2.0406601428985596 0.12917670607566833 0 9
23.392187118530273 -6.796054363250732 2.114309310913086 0.991183876991272 0 9
23.303348541259766 -6.997665882110596 2.111870050430298 0.9923279881477356 0 9
23.21468162536621 -7.198827743530273 2.109604835510254 0.9933930039405823 0 9
22.40627098083496 -7.169228553771973 2.0419070720672607 0.39369499683380127 0 9
23.22487449645996 -7.661611080169678 2.122689962387085 0.7380974888801575 0 9
23.232685089111328 -7.896122932434082 2.1297988891601562 0.7356348037719727 0 9
22.872827529907227 -8.003544807434082 2.103306770324707 0.3886658251285553 0 9
22.33196449279785 -8.039990425109863 2.0601229667663574 0.3968125283718109 0 9
22.82238006591797 -8.448720932006836 2.1122772693634033 0.1183575689792633 0 9
22.884349822998047 -8.705995559692383 2.12516188621521 0.14513029158115387 0 9
22.616220474243164 -8.837177276611328 2.1075406074523926 0.40943410992622375 0 9
23.078378677368164 -9.257391929626465 2.1582658290863037 0.8530643582344055 0 9
7.857479095458984 -3.2340428829193115 0.7375085353851318 0.9956376552581787 0 6
7.830794334411621 -3.3055663108825684 0.7377597093582153 0.7008166313171387 0 6
22.567129135131836 -9.765653610229492 2.1342785358428955 0.8666812181472778 0 9
23.62753677368164 -10.477313995361328 2.2433736324310303 0.8442521095275879 0 9
23.411178588867188 -10.633828163146973 2.2317988872528076 0.8486288785934448 0 9
27.80494499206543 -12.931923866271973 2.6616203784942627 0.3856408894062042 0 9
27.65434455871582 -13.165067672729492 2.65840482711792 0.3861067593097687 0 9
27.492887496948242 -13.392216682434082 2.6543354988098145 0.40417689085006714 0 9
27.286195755004883 -13.595908164978027 2.6460583209991455 0.40544161200523376 0 9
27.081153869628906 -13.798544883728027 2.6380763053894043 0.4066677987575531 0 9
26.87774085998535 -14.000205039978027 2.6303999423980713 0.4078550338745117 0 9
26.59021759033203 -14.155282974243164 2.6145896911621094 0.41586774587631226 0 9
26.513900756835938 -14.421581268310547 2.6197052001953125 0.2662070393562317 0 9
26.520414352416992 -14.735107421875 2.633317470550537 0.2648316025733948 0 9
12.30791187286377 -6.983749866485596 1.2282757759094238 0.28211694955825806 0 9
12.073945045471191 -6.994999885559082 1.2111480236053467 0.3999776244163513 0 9
11.9215087890625 -7.050361156463623 1.2021517753601074 0.8796044588088989 0 9
11.80836009979248 -7.127265453338623 1.197148084640503 0.7048534154891968 0 9
11.67608642578125 -7.191201210021973 1.1902321577072144 0.7089479565620422 0 9
11.552753448486328 -7.259072303771973 1.1842544078826904 0.8271514177322388 0 9
11.45068073272705 -7.339130878448486 1.180497407913208 0.8297843337059021 0 9
11.349288940429688 -7.418701171875 1.1768618822097778 0.8323473334312439 0 9
11.25190258026123 -7.500039100646973 1.1736986637115479 0.9916858077049255 0 9
11.181452751159668 -7.598916053771973 1.1734139919281006 0.971290647983551 0 9
11.1111421585083 -7.697822093963623 1.1732418537139893 0.9593762755393982 0 9
11.047211647033691 -7.801210880279541 1.1738375425338745 0.9588885307312012 0 9
10.983233451843262 -7.904716491699219 1.1745312213897705 0.9583224058151245 0 9
10.918543815612793 -8.00790023803711 1.175252914428711 0.957063615322113 0 9
10.853506088256836 -8.111015319824219 1.1760427951812744 0.9564216732978821 0 9
10.786563873291016 -8.212900161743164 1.1767315864562988 0.9369513988494873 0 9
4.951950550079346 -3.84112286567688 0.5439584255218506 0.2300085574388504 0 9
5.110452651977539 -4.038066387176514 0.5653271079063416 0.22131367027759552 0 9
5.281944274902344 -4.251132488250732 0.5884963870048523 0.21260066330432892 0 9
4.798581600189209 -3.93359375 0.53855299949646 0.46924176812171936 0 9
4.828643798828125 -4.031239986419678 0.5459663271903992 0.46287113428115845 0 9
4.859508037567139 -4.131591796875 0.5536270141601562 0.45646563172340393 0 9
4.891207218170166 -4.234765529632568 0.5615469217300415 0.4500282406806946 0 9
4.923789024353027 -4.340898513793945 0.5697375535964966 0.44355878233909607 0 9
4.957292556762695 -4.450165748596191 0.5782138109207153 0.43705642223358154 0 9
4.907885551452637 -4.486015319824219 0.5771249532699585 0.3902764320373535 0 9
6.177875995635986 -5.749472618103027 0.732503354549408 0.45919060707092285 0 9
6.233924388885498 -5.906933307647705 0.7454052567481995 0.45124247670173645 0 9
6.167452335357666 -5.949912071228027 0.7438125610351562 0.5647264719009399 0 9
5.32109260559082 -5.226416110992432 0.6473687887191772 0.11112260073423386 0 9
13.500597953796387 13.500605583190918 1.4986727237701416 0.2971514165401459 0 9
13.654232025146484 13.411269187927246 1.5023013353347778 0.2964334487915039 0 9
13.808882713317871 13.32177734375 1.506097674369812 0.29568588733673096 0 9
13.963532447814941 13.231054306030273 1.5099514722824097 0.380514919757843 0 9
14.096574783325195 13.119013786315918 1.511544108390808 0.38011398911476135 0 9
17.93998908996582 16.39788055419922 1.9078038930892944 0.23581978678703308 0 9
35.61433410644531 31.970975875854492 3.756693124771118 0.39607733488082886 0 3
16.417465209960938 14.4739351272583 1.7179843187332153 0.03355371952056885 0 9
17.314680099487305 14.990898132324219 1.7977172136306763 0.1842125952243805 0 9
17.61261558532715 14.974365234375 1.8146212100982666 0.18249651789665222 0 9
17.916810989379883 14.958026885986328 1.8320549726486206 0.18075987696647644 0 9
35.66396713256836 29.23517417907715 3.619792938232422 0.7695392966270447 0 3
35.66270065307617 28.702850341796875 3.5933618545532227 0.7751981616020203 0 3
35.66145324707031 28.17818260192871 3.567610502243042 0.7807942628860474 0 3
35.366722106933594 27.433271408081055 3.5133471488952637 0.7863273620605469 0 3
35.36448669433594 26.926610946655273 3.4889726638793945 0.7918023467063904 0 3
35.616905212402344 26.61716651916504 3.4901609420776367 0.5987173914909363 0 3
35.655609130859375 26.150604248046875 3.4708123207092285 0.8025506138801575 0 3
35.65444564819336 25.660810470581055 3.44814133644104 0.8078275322914124 0 3
35.65330123901367 25.17729377746582 3.4260406494140625 0.8130397200584412 0 3
35.65216827392578 24.69991111755371 3.404487133026123 0.8181862831115723 0 3
35.65105056762695 24.228456497192383 3.3834686279296875 0.8232671618461609 0 3
35.64994430541992 23.762752532958984 3.3629870414733887 0.8282814621925354 0 3
35.64885330200195 23.3026065826416 3.343020439147949 0.8332292437553406 0 3
35.647769927978516 22.84786033630371 3.3235533237457275 0.8381097316741943 0 3
35.64670181274414 22.398340225219727 3.3045787811279297 0.8429228663444519 0 3
35.64564514160156 21.953895568847656 3.286074638366699 0.847667932510376 0 3
35.64460372924805 21.514354705810547 3.268048048019409 0.8523449301719666 0 3
35.64356994628906 21.079580307006836 3.2504723072052 0.8569530844688416 0 3
35.64254379272461 20.649394989013672 3.2333433628082275 0.8614925742149353 0 3
35.641536712646484 20.223730087280273 3.2166619300842285 0.8659621477127075 0 3
35.64052963256836 19.80238151550293 3.2003910541534424 0.8703622221946716 0 3
35.63953399658203 19.385244369506836 3.184551954269409 0.8746920228004456 0 3
35.638553619384766 18.972137451171875 3.1691253185272217 0.8789517283439636 0 3
35.63758087158203 18.563026428222656 3.1540849208831787 0.8831402659416199 0 3
35.63661575317383 18.157733917236328 3.1394524574279785 0.8872578144073486 0 3
35.34234619140625 17.61001968383789 3.099482297897339 0.8913035988807678 0 3
35.73094940185547 17.405038833618164 3.1197314262390137 0.438745379447937 0 3
36.556663513183594 17.403057098388672 3.178057909011841 0.4306929409503937 0 3
37.41400146484375 17.400985717773438 3.238879919052124 0.4226050078868866 0 3
38.30478286743164 17.398828506469727 3.3023436069488525 0.4144836962223053 0 3
39.231292724609375 17.396591186523438 3.3686206340789795 0.40632888674736023 0 3
40.19581604003906 17.394256591796875 3.4378955364227295 0.3981412351131439 0 3
34.27654266357422 14.46890640258789 2.9203999042510986 0.9175940752029419 0 3
34.27567672729492 14.10741138458252 2.9094173908233643 0.9210572838783264 0 3
34.56805419921875 13.866239547729492 2.9235548973083496 0.9244459867477417 0 3
34.56719207763672 13.506962776184082 2.9131102561950684 0.9277603626251221 0 3
34.56633758544922 13.150243759155273 2.9029743671417236 0.9309999346733093 0 3
34.565486907958984 12.795947074890137 2.8931407928466797 0.9341645240783691 0 3
34.56464385986328 12.444032669067383 2.8836042881011963 0.9372536540031433 0 3
34.564788818359375 12.094745635986328 2.8744421005249023 0.9058857560157776 0 3
34.56296920776367 11.746962547302246 2.865407943725586 0.9432055950164795 0 3
34.562137603759766 11.401659965515137 2.8567376136779785 0.9460676908493042 0 3
34.56131362915039 11.058398246765137 2.8483541011810303 0.9488536715507507 0 3
34.56049346923828 10.717147827148438 2.840245008468628 0.9515630006790161 0 3
34.57294845581055 10.381776809692383 2.83349347114563 0.9945005774497986 0 3
34.578243255615234 10.045917510986328 2.8264214992523193 0.9212770462036133 0 3
34.580142974853516 9.7107515335083 2.819340705871582 0.9235914349555969 0 3
34.58195877075195 9.377197265625 2.8125107288360596 0.9258337020874023 0 3
34.56270217895508 9.039735794067383 2.8042333126068115 0.8095166087150574 0 3
34.555660247802734 8.707255363464355 2.7972066402435303 0.9662026762962341 0 3
34.554866790771484 8.377948760986328 2.790944814682007 0.9683711528778076 0 3
34.5540771484375 8.050058364868164 2.7849318981170654 0.9704616665840149 0 3
34.55328369140625 7.723583698272705 2.779165506362915 0.9724739789962769 0 3
34.59090805053711 7.406620979309082 2.7767333984375 0.9377604722976685 0 3
34.59208297729492 7.082753658294678 2.7716164588928223 0.9394930005073547 0 3
34.59317398071289 6.760029315948486 2.766725778579712 0.9411536455154419 0 3
34.59417724609375 6.438417911529541 2.762075662612915 0.9427397847175598 0 3
34.54939270019531 6.109745979309082 2.754011392593384 0.9813579320907593 0 3
34.548622131347656 5.790302753448486 2.749692916870117 0.9828980565071106 0 3
34.5478515625 5.471826076507568 2.745617389678955 0.9843589663505554 0 3
34.254024505615234 5.110585689544678 2.7185051441192627 0.9857407212257385 0 3
34.8851318359375 4.885068416595459 2.7650039196014404 0.14065025746822357 0 3
34.50259780883789 4.516122817993164 2.731358528137207 0.9882668256759644 0 3
34.794883728027344 4.237080097198486 2.751377582550049 0.9894097447395325 0 3
34.79412078857422 3.9203710556030273 2.748422861099243 0.9904731512069702 0 3
34.793357849121094 3.6043357849121094 2.7457034587860107 0.9914566278457642 0 3
27.251420974731445 2.5760252475738525 2.1486194133758545 0.5035377740859985 0 6
34.8239631652832 2.976738214492798 2.7434496879577637 0.9552931189537048 0 3
34.823970794677734 2.662109375 2.7414605617523193 0.9559875726699829 0 3
34.823890686035156 2.347890615463257 2.73968768119812 0.9566071033477783 0 3
34.81729507446289 2.033701181411743 2.737619638442993 0.9079667329788208 0 3
34.7888069152832 1.718847632408142 2.734060287475586 0.9956781268119812 0 3
34.78805160522461 1.4059276580810547 2.732895851135254 0.9961011409759521 0 3
34.787296295166016 1.0932421684265137 2.731952428817749 0.996444046497345 0 3
34.78654098510742 0.7807421684265137 2.731236457824707 0.9967066645622253 0 3
34.82170867919922 0.4688671827316284 2.7335569858551025 0.9587518572807312 0 3
34.8210563659668 0.1562792956829071 2.7332839965820312 0.9588470458984375 0 3
30.6472225189209 -0.1375390589237213 2.405656337738037 0.24713096022605896 0 9
30.63198471069336 -0.4124414026737213 2.4046542644500732 0.24723398685455322 0 9
30.61749839782715 -0.6871679425239563 2.4039053916931152 0.2473110854625702 0 9
30.60375213623047 -0.9617577791213989 2.403404474258423 0.24736237525939941 0 9
30.43765640258789 -1.2301074266433716 2.3911311626434326 0.1340588480234146 0 9
30.21675682067871 -1.4929394721984863 2.374738931655884 0.13498443365097046 0 9
30.000150680541992 -1.7523046731948853 2.3588545322418213 0.13589328527450562 0 9
29.787776947021484 -2.008349657058716 2.343482255935669 0.13678491115570068 0 9
29.579402923583984 -2.261171817779541 2.3285882472991943 0.13765954971313477 0 9
29.37501335144043 -2.5109472274780273 2.3141837120056152 0.13851666450500488 0 9
29.174362182617188 -2.7577831745147705 2.3002331256866455 0.13935670256614685 0 9
28.977367401123047 -3.001826047897339 2.2867326736450195 0.14017939567565918 0 9
28.783897399902344 -3.2431640625 2.2736687660217285 0.14098471403121948 0 9
28.59385871887207 -3.481943368911743 2.2610363960266113 0.14177244901657104 0 9
30.659809112548828 -4.013114929199219 2.427154064178467 0.9889110326766968 0 9
30.5836181640625 -4.28271484375 2.4240641593933105 0.9901701211929321 0 9
30.507596969604492 -4.551630973815918 2.421177387237549 0.9913500547409058 0 9
29.515932083129883 -4.674872875213623 2.3457138538360596 0.33443400263786316 0 9
29.291915893554688 -4.909306526184082 2.3313186168670654 0.33649903535842896 0 9
29.071083068847656 -5.140976428985596 2.3173208236694336 0.3385314643383026 0 9
28.853343963623047 -5.369990348815918 2.3037118911743164 0.34053102135658264 0 9
28.58717918395996 -5.586386680603027 2.286375045776367 0.3219837546348572 0 9
28.29001235961914 -5.792411804199219 2.2666757106781006 0.3247821033000946 0 9
27.998371124267578 -5.995038986206055 2.2475316524505615 0.3275488018989563 0 9
24.94120979309082 -5.575048923492432 2.0060577392578125 0.8565399050712585 0 9
27.23784637451172 -6.34557580947876 2.19527006149292 0.3057616353034973 0 9
23.803598403930664 -5.771288871765137 1.9225777387619019 0.962578296661377 0 9
23.746488571166992 -5.983613014221191 1.9222286939620972 0.9990859627723694 0 9
23.68648338317871 -6.195136547088623 1.9217959642410278 0.9993112683296204 0 9
23.446014404296875 -6.357577800750732 1.9068368673324585 0.40512511134147644 0 9
23.30361557006836 -6.544081687927246 1.8999584913253784 0.5018407106399536 0 9
22.72092056274414 -6.601035118103027 1.8572067022323608 0.2912997901439667 0 9
22.62343978881836 -6.79348611831665 1.8541467189788818 0.12866009771823883 0 9
23.232275009155273 -7.204287052154541 1.9092665910720825 0.9933175444602966 0 9
23.38553237915039 -7.482548713684082 1.9273065328598022 0.6779168844223022 0 9
23.114110946655273 -7.625087738037109 1.910500407218933 0.37095728516578674 0 9
23.089548110961914 -7.847480297088623 1.9142159223556519 0.7406995892524719 0 9
22.561553955078125 -7.894628524780273 1.876242995262146 0.5869458317756653 0 9
22.768224716186523 -8.197051048278809 1.8994731903076172 0.579768180847168 0 9
22.212987899780273 -8.223114967346191 1.8592333793640137 0.3825393617153168 0 9
23.277799606323242 -8.855683326721191 1.9549328088760376 0.4148683547973633 0 9
22.81876564025879 -8.9163179397583 1.9230257272720337 0.40607649087905884 0 9
23.030941009521484 -9.23836898803711 1.9478161334991455 0.8166953921318054 0 9
7.857039451599121 -3.2338573932647705 0.666929304599762 0.9963721036911011 0 6
7.830170631408691 -3.305292844772339 0.6671398878097534 0.7013503909111023 0 6
22.49516487121582 -9.734501838684082 1.9239791631698608 0.8700465559959412 0 9
22.343074798583984 -9.907733917236328 1.918503999710083 0.8725310564041138 0 9
22.1918888092041 -10.080018997192383 1.9132156372070312 0.8749434351921082 0 9
27.28744125366211 -12.691210746765137 2.362236261367798 0.3932223916053772 0 9
27.140254974365234 -12.92032241821289 2.3594391345977783 0.3936885595321655 0 9
26.993791580200195 -13.149091720581055 2.356874704360962 0.3941172957420349 0 9
26.813053131103516 -13.360146522521973 2.351473093032837 0.4128772020339966 0 9
26.61297035217285 -13.559980392456055 2.344503402709961 0.4141041338443756 0 9
26.529685974121094 -13.818886756896973 2.3479955196380615 0.4190768897533417 0 9
26.014371871948242 -13.84872055053711 2.3132967948913574 0.1895906925201416 0 9
25.3309326171875 -13.778124809265137 2.2634336948394775 0.1937677264213562 0 9
12.326980590820312 -6.849032878875732 1.106919527053833 0.396047979593277 0 9
12.11229419708252 -6.872753620147705 1.0931386947631836 0.4010416269302368 0 9
11.936596870422363 -6.915429592132568 1.082838773727417 0.883722722530365 0 9
11.87551212310791 -7.023163795471191 1.0829745531082153 0.7051168084144592 0 9
11.742767333984375 -7.087685585021973 1.0766268968582153 0.7092738151550293 0 9
11.611602783203125 -7.15148401260376 1.0704421997070312 0.713370680809021 0 9
11.506388664245605 -7.229941368103027 1.0666842460632324 0.8310505747795105 0 9
11.40487289428711 -7.309755802154541 1.0633132457733154 0.833685040473938 0 9
11.309491157531738 -7.392675399780273 1.060563325881958 0.9931759834289551 0 9
11.24771499633789 -7.497245788574219 1.0610378980636597 0.9720818996429443 0 9
11.169062614440918 -7.590487957000732 1.0600014925003052 0.9730310440063477 0 9
11.09262466430664 -7.684980392456055 1.059253215789795 0.9616329669952393 0 9
11.028791427612305 -7.788193225860596 1.0597888231277466 0.9611449837684631 0 9
10.96475601196289 -7.891406059265137 1.0604013204574585 0.9599196314811707 0 9
10.899880409240723 -7.994208812713623 1.061024785041809 0.9593557119369507 0 9
10.831911087036133 -8.09487247467041 1.0614385604858398 0.9400081634521484 0 9
10.761295318603516 -8.1936616897583 1.0616836547851562 0.9397914409637451 0 9
4.944634914398193 -3.83544921875 0.4912019371986389 0.23050545156002045 0 9
5.102611064910889 -4.031875133514404 0.5104700922966003 0.22180430591106415 0 9
4.816431999206543 -3.87646484375 0.48530104756355286 0.4712456166744232 0 9
4.846667289733887 -3.9730076789855957 0.49192169308662415 0.464903324842453 0 9
4.877702713012695 -4.072196960449219 0.49876174330711365 0.4585277736186981 0 9
4.909579753875732 -4.174160003662109 0.5058318972587585 0.45211881399154663 0 9
4.94233512878418 -4.279033184051514 0.51314377784729 0.44567638635635376 0 9
4.976016521453857 -4.386943340301514 0.520708441734314 0.4392024874687195 0 9
5.010664939880371 -4.49807596206665 0.528538167476654 0.43269574642181396 0 9
4.906464576721191 -4.484706878662109 0.5217707753181458 0.3906555771827698 0 9
6.188046932220459 -5.758935451507568 0.6635302305221558 0.45874887704849243 0 9
6.244369983673096 -5.916835784912109 0.6752377152442932 0.45079460740089417 0 9
6.131235122680664 -5.914970397949219 0.6687179207801819 0.5684496760368347 0 9
5.214658260345459 -5.121874809265137 0.5737392902374268 0.11346800625324249 0 9
16.73000717163086 16.730018615722656 1.6609911918640137 0.1638578176498413 0 9
16.911376953125 16.6104679107666 1.6641253232955933 0.16354906558990479 0 9
13.99691104888916 13.503183364868164 1.3653523921966553 0.2208666354417801 0 9
14.359210968017578 13.605985641479492 1.3887252807617188 0.21714945137500763 0 9
14.646859169006348 13.631142616271973 1.4046550989151 0.26270994544029236 0 9
14.939319610595703 13.655146598815918 1.4208916425704956 0.2597081661224365 0 9
15.187530517578125 13.633828163146973 1.43280029296875 0.2318822294473648 0 9
15.369298934936523 13.5498628616333 1.4384151697158813 0.23097693920135498 0 9
15.552887916564941 13.465546607971191 1.4442260265350342 0.2300475537776947 0 9
35.66695785522461 30.324316024780273 3.286600351333618 0.7584924697875977 0 3
35.665653228759766 29.775800704956055 3.26171612739563 0.7642784714698792 0 3
35.66436767578125 29.235517501831055 3.2374730110168457 0.770002543926239 0 3
17.745582580566406 14.282392501831055 1.599168062210083 0.03225889801979065 0 9
35.6618537902832 28.178504943847656 3.190796375274658 0.7812644243240356 0 3
35.36710739135742 27.433584213256836 3.1422691345214844 0.7868009209632874 0 3
35.364871978759766 26.926883697509766 3.1204681396484375 0.7922793626785278 0 3
16.471282958984375 12.309267044067383 1.443556785583496 0.2451239675283432 0 9
16.533397674560547 12.125956535339355 1.4394075870513916 0.24583114683628082 0 9
35.65482711791992 25.661073684692383 3.0839500427246094 0.8083142638206482 0 3
35.65367889404297 25.177568435668945 3.0641753673553467 0.8135294318199158 0 3
35.65254211425781 24.70015525817871 3.0449070930480957 0.8186795115470886 0 3
35.65142059326172 24.228710174560547 3.0261149406433105 0.8237632513046265 0 3
35.65031814575195 23.76298713684082 3.0077922344207764 0.8287807106971741 0 3
35.64922332763672 23.302831649780273 2.989929437637329 0.8337316513061523 0 3
35.64813995361328 22.848085403442383 2.9725286960601807 0.8386150598526001 0 3
35.64706802368164 22.398544311523438 2.95554780960083 0.8434313535690308 0 3
35.64601135253906 21.954092025756836 2.9390032291412354 0.848179280757904 0 3
35.644962310791016 21.514551162719727 2.922872543334961 0.8528590798377991 0 3
35.64392852783203 21.07976531982422 2.9071595668792725 0.8574701547622681 0 3
35.642906188964844 20.649599075317383 2.891845941543579 0.8620120882987976 0 3
35.64188766479492 20.22392463684082 2.876909017562866 0.8664844632148743 0 3
35.64088439941406 19.80255889892578 2.862367868423462 0.8708873391151428 0 3
35.639888763427734 19.385419845581055 2.848191976547241 0.8752198219299316 0 3
35.6389045715332 18.97230339050293 2.8343913555145264 0.8794821500778198 0 3
35.6379280090332 18.56319236755371 2.8209550380706787 0.8836731314659119 0 3
35.636962890625 18.157899856567383 2.8078606128692627 0.8877931833267212 0 3
35.34269332885742 17.61017608642578 2.77211332321167 0.8918418884277344 0 3
35.73092269897461 17.405038833618164 2.790194034576416 0.4390147924423218 0 3
36.55665969848633 17.40303611755371 2.842364549636841 0.4309571385383606 0 3
37.41395950317383 17.40096664428711 2.8967556953430176 0.4228645861148834 0 3
38.304779052734375 17.398807525634766 2.9535131454467773 0.4147379398345947 0 3
39.231285095214844 17.39657211303711 3.0127928256988525 0.4065781533718109 0 3
40.19580078125 17.394237518310547 3.074756145477295 0.39838549494743347 0 3
34.27686309814453 14.469042778015137 2.6119465827941895 0.9181482195854187 0 3
34.275997161865234 14.107548713684082 2.6021218299865723 0.9216133952140808 0 3
34.56837844848633 13.86635684967041 2.6147689819335938 0.9250044226646423 0 3
34.56751251220703 13.507108688354492 2.6054277420043945 0.9283204674720764 0 3
34.57357406616211 13.153007507324219 2.596877098083496 0.9976118803024292 0 3
34.68256759643555 12.839305877685547 2.596304178237915 0.9347286224365234 0 3
34.68171691894531 12.486181259155273 2.5877492427825928 0.9378198981285095 0 3
34.680877685546875 12.135371208190918 2.579454183578491 0.9408354759216309 0 3
34.56328582763672 11.747079849243164 2.562763214111328 0.9437752962112427 0 3
34.56245422363281 11.40176773071289 2.5550122261047363 0.9466392397880554 0 3
34.56163024902344 11.058515548706055 2.547506332397461 0.9494268894195557 0 3
34.56080627441406 10.717255592346191 2.5402493476867676 0.95213782787323 0 3
34.57322311401367 10.381875038146973 2.534214496612549 0.9951023459434509 0 3
34.67591857910156 10.074286460876465 2.53501296043396 0.9573298096656799 0 3
34.675106048583984 9.737411499023438 2.528458595275879 0.9598100781440735 0 3
34.67429733276367 9.40224552154541 2.5221431255340576 0.9622130393981934 0 3
34.563045501708984 9.039834022521973 2.508052110671997 0.8100049495697021 0 3
34.555965423583984 8.707343101501465 2.501765489578247 0.9667864441871643 0 3
34.55517578125 8.37801742553711 2.4961650371551514 0.9689563512802124 0 3
34.55438232421875 8.05013656616211 2.4907827377319336 0.9710481762886047 0 3
34.553592681884766 7.723642349243164 2.485635280609131 0.9730618000030518 0 3
34.66952896118164 7.42345666885376 2.489078998565674 0.9749969840049744 0 3
34.66874313354492 7.098456859588623 2.484344959259033 0.9768537282943726 0 3
34.667964935302734 6.774648189544678 2.479832410812378 0.978631854057312 0 3
34.65461349487305 6.449667930603027 2.474635362625122 0.9803308248519897 0 3
34.54969787597656 6.109794616699219 2.4631288051605225 0.981951117515564 0 3
34.54892349243164 5.790361404418945 2.4592697620391846 0.9834921360015869 0 3
34.54815673828125 5.471874713897705 2.455620288848877 0.9849539995193481 0 3
34.25432205200195 5.110644340515137 2.431379556655884 0.9863365292549133 0 3
34.88516616821289 4.885068416595459 2.4729390144348145 0.140736386179924 0 3
34.50289535522461 4.516171932220459 2.442875862121582 0.9888641834259033 0 3
34.79518508911133 4.237109184265137 2.4607720375061035 0.9900079369544983 0 3
34.7944221496582 3.920419931411743 2.4581291675567627 0.991071879863739 0 3
34.793663024902344 3.6043553352355957 2.455693244934082 0.9920560717582703 0 3
27.250585556030273 2.5759570598602295 1.9216052293777466 0.503862202167511 0 6
34.90882110595703 2.984003782272339 2.4596426486968994 0.9937844276428223 0 3
34.90806198120117 2.668534994125366 2.4578065872192383 0.9945284724235535 0 3
34.90729904174805 2.353525400161743 2.4561593532562256 0.9951926469802856 0 3
34.81760787963867 2.0337207317352295 2.448472023010254 0.908515453338623 0 3
34.78911209106445 1.7188867330551147 2.445280075073242 0.9962800145149231 0 3
34.788352966308594 1.405947208404541 2.444246768951416 0.9967034459114075 0 3
34.787593841552734 1.09326171875 2.4434032440185547 0.9970464706420898 0 3
34.78684616088867 0.78076171875 2.442758798599243 0.9973092675209045 0 3
34.83449172973633 0.469062477350235 2.445706367492676 0.9374017119407654 0 3
28.535245895385742 0.12807616591453552 2.0032832622528076 0.2199622392654419 0 9
34.90122985839844 -0.15664061903953552 2.4501953125 0.9976153373718262 0 3
34.900474548339844 -0.46993163228034973 2.45033860206604 0.9975566267967224 0 3
34.789363861083984 -0.7808007597923279 2.4429333209991455 0.9388061165809631 0 3
34.78230667114258 -1.0930858850479126 2.443026304244995 0.9971980452537537 0 3
34.781551361083984 -1.4056737422943115 2.44376802444458 0.9968981742858887 0 3
34.78079605102539 -1.7184569835662842 2.4446969032287598 0.9965182542800903 0 3
34.780033111572266 -2.0315234661102295 2.44582462310791 0.9960578680038452 0 3
34.88335418701172 -2.3519041538238525 2.454472541809082 0.9955173134803772 0 3
34.89514923095703 -2.667548656463623 2.456895112991333 0.994896411895752 0 3
34.89438247680664 -2.982743978500366 2.458624839782715 0.9941955208778381 0 3
34.89361572265625 -3.2984373569488525 2.4605607986450195 0.993414580821991 0 3
34.77622604370117 -3.602548837661743 2.454462766647339 0.9925533533096313 0 3
34.77545928955078 -3.91827130317688 2.4567928314208984 0.9916123151779175 0 3
34.77468490600586 -4.234609127044678 2.4593231678009033 0.9905913472175598 0 3
29.45604133605957 -3.8555760383605957 2.085545539855957 0.2480725198984146 0 9
29.324857711791992 -4.1064453125 2.078782796859741 0.33772289752960205 0 9
29.1031551361084 -4.342109203338623 2.0657448768615723 0.33985424041748047 0 9
28.88462257385254 -4.574902057647705 2.0530648231506348 0.3419530391693115 0 9
28.669164657592773 -4.804941177368164 2.040733575820923 0.34401935338974 0 9
28.4566593170166 -5.032343864440918 2.0287420749664307 0.34605297446250916 0 9
28.247028350830078 -5.257167816162109 2.017078399658203 0.3480537533760071 0 9
27.96611785888672 -5.465029239654541 2.000441312789917 0.3293360471725464 0 9
24.894744873046875 -5.097255706787109 1.7839449644088745 0.8619718551635742 0 9
24.70185661315918 -5.289208889007568 1.7734514474868774 0.8602345585823059 0 9
24.70554542541504 -5.522363185882568 1.777205467224121 0.8584184050559998 0 9
24.709169387817383 -5.756533145904541 1.7811099290847778 0.8565359115600586 0 9
24.054584503173828 -5.832138538360596 1.7376333475112915 0.5187401175498962 0 9
23.767900466918945 -5.989023208618164 1.7207348346710205 0.9987980723381042 0 9
23.724416732788086 -6.205048561096191 1.721551775932312 0.7148246765136719 0 9
23.103445053100586 -6.264726638793945 1.6805025339126587 0.4113842844963074 0 9
23.304506301879883 -6.544316291809082 1.6993306875228882 0.4068259000778198 0 9
23.427724838256836 -6.806376934051514 1.7127050161361694 0.9909624457359314 0 9
22.444692611694336 -6.739814281463623 1.64519464969635 0.2942843437194824 0 9
22.69328498840332 -7.03713846206665 1.6679781675338745 0.29026442766189575 0 9
22.61695671081543 -7.236620903015137 1.6670745611190796 0.1280609369277954 0 9
22.953998565673828 -7.572255611419678 1.6968618631362915 0.37377363443374634 0 9
23.202350616455078 -7.885800838470459 1.720381736755371 0.8330637216567993 0 9
22.157838821411133 -7.753359317779541 1.6480294466018677 0.38621461391448975 0 9
22.3705997467041 -8.053906440734863 1.6691640615463257 0.38132455945014954 0 9
22.586761474609375 -8.36148452758789 1.690826416015625 0.14772966504096985 0 9
23.041933059692383 -8.765947341918945 1.730717420578003 0.4193722605705261 0 9
22.61263656616211 -8.835761070251465 1.7043633460998535 0.4258574843406677 0 9
22.963037490844727 -9.211112976074219 1.7369353771209717 0.8196128606796265 0 9
7.856600284576416 -3.2336719036102295 0.5964486598968506 0.9970388412475586 0 6
