ply
format ascii 1.0
element vertex 1426
property float32 x
property float32 y
property float32 z
property float32 CosAngle
property uint32 ObjIdx
property uint32 ObjTag
end_header
6.1627 -6.1076 -1.5545 0.1925 0 2
6.1752 -6.0926 -1.5542 0.1925 0 2
6.1877 -6.0776 -1.5539 0.1926 0 2
6.2001 -6.0625 -1.5536 0.1926 0 2
6.2125 -6.0474 -1.5533 0.1927 0 2
6.2249 -6.0323 -1.5530 0.1927 0 2
6.2372 -6.0172 -1.5527 0.1927 0 2
6.2496 -6.0021 -1.5524 0.1928 0 2
6.2626 -5.9876 -1.5523 0.6941 0 2
6.2902 -5.9870 -1.5558 0.6926 0 2
6.2862 -5.9565 -1.5516 0.1929 0 2
6.2984 -5.9412 -1.5513 0.1929 0 2
6.3105 -5.9260 -1.5510 0.1929 0 2
6.3227 -5.9107 -1.5507 0.1930 0 2
6.3347 -5.8954 -1.5504 0.1930 0 2
6.3468 -5.8801 -1.5501 0.1931 0 2
6.3587 -5.8647 -1.5498 0.1931 0 2
6.3707 -5.8494 -1.5495 0.1931 0 2
6.3826 -5.8340 -1.5492 0.1932 0 2
6.3946 -5.8186 -1.5490 0.1932 0 2
6.4064 -5.8032 -1.5487 0.1932 0 2
6.4204 -5.7897 -1.5489 0.6734 0 2
6.4488 -5.7891 -1.5526 0.6718 0 2
6.4773 -5.7885 -1.5564 0.6701 0 2
6.5060 -5.7879 -1.5601 0.6685 0 2
6.5348 -5.7873 -1.5639 0.6669 0 2
6.5637 -5.7866 -1.5677 0.6653 0 2
6.5928 -5.7860 -1.5716 0.6637 0 2
6.6219 -5.7854 -1.5754 0.6620 0 2
6.6513 -5.7848 -1.5793 0.6604 0 2
6.6808 -5.7841 -1.5832 0.6588 0 2
6.7104 -5.7835 -1.5872 0.6571 0 2
6.7403 -5.7829 -1.5912 0.6271 0 2
6.7717 -5.7835 -1.5955 0.6253 0 2
6.8032 -5.7841 -1.5999 0.6236 0 2
6.8349 -5.7847 -1.6043 0.6219 0 2
6.8668 -5.7853 -1.6087 0.6202 0 2
6.8989 -5.7859 -1.6132 0.6185 0 2
6.9311 -5.7865 -1.6177 0.6168 0 2
6.9635 -5.7871 -1.6222 0.6151 0 2
6.9961 -5.7877 -1.6268 0.6133 0 2
7.0289 -5.7883 -1.6314 0.6116 0 2
7.0619 -5.7889 -1.6360 0.6099 0 2
7.0758 -5.7738 -1.6362 0.1940 0 1
7.0875 -5.7569 -1.6359 0.1941 0 1
7.0992 -5.7400 -1.6356 0.1941 0 1
7.1108 -5.7231 -1.6354 0.1941 0 1
7.1225 -5.7061 -1.6351 0.1942 0 1
7.1340 -5.6892 -1.6348 0.1942 0 1
7.1455 -5.6722 -1.6345 0.1942 0 1
7.1571 -5.6552 -1.6343 0.1943 0 1
7.1685 -5.6382 -1.6340 0.1943 0 1
7.1799 -5.6211 -1.6337 0.1943 0 1
7.1913 -5.6040 -1.6334 0.1944 0 1
7.2027 -5.5870 -1.6332 0.1944 0 1
7.2140 -5.5699 -1.6329 0.1944 0 1
7.2253 -5.5528 -1.6326 0.1945 0 1
7.2365 -5.5356 -1.6323 0.1945 0 1
7.2477 -5.5184 -1.6321 0.1945 0 1
7.2589 -5.5013 -1.6318 0.1945 0 1
7.2701 -5.4841 -1.6315 0.1946 0 1
7.2812 -5.4668 -1.6313 0.1946 0 1
7.2922 -5.4496 -1.6310 0.1946 0 1
7.3032 -5.4323 -1.6307 0.1947 0 1
7.3142 -5.4150 -1.6305 0.1947 0 1
7.3252 -5.3978 -1.6302 0.1947 0 1
7.3361 -5.3804 -1.6300 0.1948 0 1
7.3470 -5.3631 -1.6297 0.1948 0 1
7.3578 -5.3458 -1.6294 0.1948 0 1
7.3686 -5.3284 -1.6292 0.1949 0 1
7.3794 -5.3110 -1.6289 0.1949 0 1
7.3901 -5.2936 -1.6287 0.1949 0 1
7.4008 -5.2761 -1.6284 0.1950 0 1
7.4114 -5.2587 -1.6281 0.1950 0 1
7.4221 -5.2412 -1.6279 0.1950 0 1
7.4326 -5.2237 -1.6276 0.1950 0 1
7.4432 -5.2062 -1.6274 0.1951 0 1
7.4537 -5.1887 -1.6271 0.1951 0 1
7.4642 -5.1712 -1.6269 0.1951 0 1
7.4746 -5.1536 -1.6266 0.1952 0 1
7.4850 -5.1360 -1.6264 0.1952 0 1
7.4954 -5.1185 -1.6261 0.1952 0 1
7.5057 -5.1008 -1.6259 0.1953 0 1
7.5159 -5.0832 -1.6256 0.1953 0 1
7.5262 -5.0656 -1.6254 0.1953 0 1
7.5364 -5.0479 -1.6251 0.1953 0 1
7.5466 -5.0302 -1.6249 0.1954 0 1
7.5567 -5.0125 -1.6246 0.1954 0 1
7.5668 -4.9948 -1.6244 0.1954 0 1
7.5768 -4.9771 -1.6242 0.1955 0 1
7.5869 -4.9593 -1.6239 0.1955 0 1
7.5969 -4.9415 -1.6237 0.1955 0 1
7.6068 -4.9237 -1.6234 0.1956 0 1
7.6167 -4.9059 -1.6232 0.1956 0 1
7.6266 -4.8881 -1.6230 0.1956 0 1
7.6364 -4.8703 -1.6227 0.1956 0 1
7.6462 -4.8524 -1.6225 0.1957 0 1
7.6560 -4.8346 -1.6223 0.1957 0 1
7.6657 -4.8167 -1.6220 0.1957 0 1
7.6754 -4.7988 -1.6218 0.1958 0 1
7.6850 -4.7808 -1.6216 0.1958 0 1
7.6946 -4.7629 -1.6213 0.1958 0 1
7.7042 -4.7449 -1.6211 0.1958 0 1
7.7137 -4.7270 -1.6209 0.1959 0 1
7.7232 -4.7090 -1.6206 0.1959 0 1
7.7327 -4.6910 -1.6204 0.1959 0 1
7.7421 -4.6729 -1.6202 0.1959 0 1
7.7515 -4.6549 -1.6199 0.1960 0 1
7.7608 -4.6369 -1.6197 0.1960 0 1
7.7702 -4.6188 -1.6195 0.1960 0 1
7.7794 -4.6007 -1.6193 0.1961 0 1
7.7886 -4.5826 -1.6190 0.1961 0 1
7.7978 -4.5645 -1.6188 0.1961 0 1
7.8070 -4.5464 -1.6186 0.1961 0 1
7.8161 -4.5282 -1.6184 0.1962 0 1
7.8252 -4.5101 -1.6182 0.1962 0 1
7.8342 -4.4919 -1.6179 0.1962 0 1
7.8432 -4.4737 -1.6177 0.1962 0 1
7.8522 -4.4555 -1.6175 0.1963 0 1
7.8611 -4.4372 -1.6173 0.1963 0 1
7.8700 -4.4190 -1.6171 0.1963 0 1
7.8789 -4.4008 -1.6169 0.1963 0 1
7.8877 -4.3825 -1.6167 0.1964 0 1
7.8964 -4.3642 -1.6164 0.1964 0 1
7.9052 -4.3459 -1.6162 0.1964 0 1
7.9139 -4.3276 -1.6160 0.1965 0 1
7.9226 -4.3093 -1.6158 0.1965 0 1
7.9312 -4.2909 -1.6156 0.1965 0 1
7.9398 -4.2726 -1.6154 0.1965 0 1
7.9483 -4.2542 -1.6152 0.1966 0 1
7.9569 -4.2358 -1.6150 0.1966 0 1
7.9653 -4.2174 -1.6148 0.1966 0 1
7.9737 -4.1990 -1.6146 0.1966 0 1
7.9821 -4.1806 -1.6144 0.1967 0 1
7.9905 -4.1621 -1.6142 0.1967 0 1
7.9988 -4.1437 -1.6140 0.1967 0 1
8.0071 -4.1252 -1.6138 0.1967 0 1
8.0154 -4.1067 -1.6136 0.1968 0 1
8.0236 -4.0882 -1.6134 0.1968 0 1
8.0317 -4.0696 -1.6132 0.1968 0 1
8.0398 -4.0511 -1.6130 0.1968 0 1
8.0479 -4.0326 -1.6128 0.1968 0 1
8.0560 -4.0140 -1.6126 0.1969 0 1
8.0640 -3.9955 -1.6124 0.1969 0 1
8.0720 -3.9769 -1.6122 0.1969 0 1
8.0799 -3.9583 -1.6120 0.1969 0 1
8.0878 -3.9397 -1.6118 0.1970 0 1
8.0957 -3.9211 -1.6116 0.1970 0 1
8.1035 -3.9024 -1.6114 0.1970 0 1
8.1112 -3.8838 -1.6112 0.1970 0 1
8.1190 -3.8651 -1.6110 0.1971 0 1
8.1267 -3.8464 -1.6109 0.1971 0 1
8.1344 -3.8278 -1.6107 0.1971 0 1
8.1420 -3.8090 -1.6105 0.1971 0 1
8.1496 -3.7903 -1.6103 0.1971 0 1
8.1571 -3.7716 -1.6101 0.1972 0 1
8.1647 -3.7529 -1.6099 0.1972 0 1
8.1721 -3.7341 -1.6097 0.1972 0 1
8.1796 -3.7153 -1.6096 0.1972 0 1
8.1870 -3.6966 -1.6094 0.1973 0 1
8.1944 -3.6778 -1.6092 0.1973 0 1
8.2017 -3.6590 -1.6090 0.1973 0 1
8.2089 -3.6401 -1.6088 0.1973 0 1
8.2162 -3.6213 -1.6087 0.1973 0 1
8.2234 -3.6025 -1.6085 0.1974 0 1
8.2306 -3.5836 -1.6083 0.1974 0 1
8.2377 -3.5648 -1.6081 0.1974 0 1
8.2448 -3.5459 -1.6080 0.1974 0 1
8.2519 -3.5270 -1.6078 0.1975 0 1
8.2589 -3.5081 -1.6076 0.1975 0 1
8.2658 -3.4892 -1.6075 0.1975 0 1
8.2728 -3.4703 -1.6073 0.1975 0 1
8.2797 -3.4513 -1.6071 0.1975 0 1
8.2865 -3.4324 -1.6070 0.1976 0 1
8.2934 -3.4134 -1.6068 0.1976 0 1
8.3002 -3.3945 -1.6066 0.1976 0 1
8.3069 -3.3755 -1.6065 0.1976 0 1
8.3136 -3.3565 -1.6063 0.1976 0 1
8.3203 -3.3375 -1.6061 0.1977 0 1
8.3269 -3.3185 -1.6060 0.1977 0 1
8.3335 -3.2995 -1.6058 0.1977 0 1
8.3400 -3.2804 -1.6056 0.1977 0 1
8.3465 -3.2614 -1.6055 0.1977 0 1
8.3530 -3.2423 -1.6053 0.1978 0 1
8.3595 -3.2232 -1.6052 0.1978 0 1
8.3658 -3.2042 -1.6050 0.1978 0 1
8.3722 -3.1851 -1.6049 0.1978 0 1
8.3785 -3.1660 -1.6047 0.1978 0 1
8.3848 -3.1469 -1.6045 0.1979 0 1
8.3910 -3.1277 -1.6044 0.1979 0 1
8.3972 -3.1086 -1.6042 0.1979 0 1
8.4034 -3.0895 -1.6041 0.1979 0 1
8.4095 -3.0703 -1.6039 0.1979 0 1
8.4156 -3.0512 -1.6038 0.1979 0 1
8.4216 -3.0320 -1.6036 0.1980 0 1
8.4277 -3.0128 -1.6035 0.1980 0 1
8.4336 -2.9936 -1.6034 0.1980 0 1
8.4396 -2.9744 -1.6032 0.1980 0 1
8.4454 -2.9552 -1.6031 0.1980 0 1
8.4513 -2.9360 -1.6029 0.1981 0 1
8.4571 -2.9167 -1.6028 0.1981 0 1
8.4629 -2.8975 -1.6026 0.1981 0 1
8.4686 -2.8782 -1.6025 0.1981 0 1
8.4743 -2.8590 -1.6023 0.1981 0 1
8.4800 -2.8397 -1.6022 0.1981 0 1
8.4856 -2.8204 -1.6021 0.1982 0 1
8.4911 -2.8011 -1.6019 0.1982 0 1
8.4967 -2.7818 -1.6018 0.1982 0 1
8.5022 -2.7625 -1.6017 0.1982 0 1
8.5077 -2.7432 -1.6015 0.1982 0 1
8.5131 -2.7239 -1.6014 0.1982 0 1
8.5185 -2.7046 -1.6013 0.1983 0 1
8.5238 -2.6852 -1.6011 0.1983 0 1
8.5291 -2.6659 -1.6010 0.1983 0 1
8.5344 -2.6465 -1.6009 0.1983 0 1
8.5396 -2.6271 -1.6007 0.1983 0 1
8.5448 -2.6077 -1.6006 0.1983 0 1
8.5499 -2.5884 -1.6005 0.1984 0 1
8.5550 -2.5689 -1.6004 0.1984 0 1
8.5601 -2.5496 -1.6002 0.1984 0 1
8.5651 -2.5301 -1.6001 0.1984 0 1
8.5701 -2.5107 -1.6000 0.1984 0 1
8.5751 -2.4913 -1.5999 0.1984 0 1
8.5800 -2.4719 -1.5997 0.1985 0 1
8.5849 -2.4524 -1.5996 0.1985 0 1
8.5897 -2.4330 -1.5995 0.1985 0 1
8.5945 -2.4135 -1.5994 0.1985 0 1
8.5993 -2.3940 -1.5993 0.1985 0 1
8.6040 -2.3746 -1.5991 0.1985 0 1
8.6087 -2.3550 -1.5990 0.1985 0 1
8.6133 -2.3356 -1.5989 0.1986 0 1
8.6179 -2.3161 -1.5988 0.1986 0 1
8.6225 -2.2966 -1.5987 0.1986 0 1
8.6270 -2.2770 -1.5986 0.1986 0 1
8.6315 -2.2575 -1.5985 0.1986 0 1
8.6359 -2.2380 -1.5983 0.1986 0 1
8.6403 -2.2185 -1.5982 0.1986 0 1
8.6447 -2.1989 -1.5981 0.1987 0 1
8.6490 -2.1794 -1.5980 0.1987 0 1
8.6533 -2.1598 -1.5979 0.1987 0 1
8.6576 -2.1402 -1.5978 0.1987 0 1
8.6618 -2.1207 -1.5977 0.1987 0 1
8.6660 -2.1011 -1.5976 0.1987 0 1
8.6701 -2.0815 -1.5975 0.1987 0 1
8.6742 -2.0619 -1.5974 0.1987 0 1
8.6782 -2.0423 -1.5973 0.1988 0 1
8.6822 -2.0227 -1.5972 0.1988 0 1
8.6862 -2.0031 -1.5971 0.1988 0 1
8.6902 -1.9835 -1.5970 0.1988 0 1
8.6940 -1.9638 -1.5969 0.1988 0 1
8.6979 -1.9442 -1.5968 0.1988 0 1
8.7017 -1.9246 -1.5967 0.1988 0 1
8.7055 -1.9049 -1.5966 0.1988 0 1
8.7092 -1.8853 -1.5965 0.1989 0 1
8.7129 -1.8656 -1.5964 0.1989 0 1
8.7166 -1.8460 -1.5963 0.1989 0 1
8.7202 -1.8263 -1.5962 0.1989 0 1
8.7238 -1.8066 -1.5961 0.1989 0 1
8.7273 -1.7869 -1.5960 0.1989 0 1
8.7308 -1.7672 -1.5960 0.1989 0 1
8.7343 -1.7476 -1.5959 0.1989 0 1
8.7377 -1.7279 -1.5958 0.1989 0 1
8.7411 -1.7081 -1.5957 0.1990 0 1
8.7444 -1.6884 -1.5956 0.1990 0 1
8.7477 -1.6687 -1.5955 0.1990 0 1
8.7510 -1.6490 -1.5954 0.1990 0 1
8.7542 -1.6293 -1.5954 0.1990 0 1
8.7574 -1.6095 -1.5953 0.1990 0 1
8.7605 -1.5898 -1.5952 0.1990 0 1
8.7637 -1.5701 -1.5951 0.1990 0 1
8.7667 -1.5503 -1.5950 0.1990 0 1
8.7698 -1.5306 -1.5950 0.1990 0 1
8.7728 -1.5108 -1.5949 0.1991 0 1
8.7757 -1.4911 -1.5948 0.1991 0 1
8.7786 -1.4713 -1.5947 0.1991 0 1
8.7815 -1.4515 -1.5947 0.1991 0 1
8.7843 -1.4318 -1.5946 0.1991 0 1
8.7871 -1.4120 -1.5945 0.1991 0 1
8.7899 -1.3921 -1.5944 0.1991 0 1
8.7926 -1.3724 -1.5944 0.1991 0 1
8.7953 -1.3526 -1.5943 0.1991 0 1
8.7979 -1.3328 -1.5942 0.1991 0 1
8.8005 -1.3130 -1.5942 0.1991 0 1
8.8030 -1.2932 -1.5941 0.1992 0 1
8.8055 -1.2734 -1.5940 0.1992 0 1
8.8080 -1.2536 -1.5940 0.1992 0 1
8.8104 -1.2337 -1.5939 0.1992 0 1
8.8129 -1.2139 -1.5938 0.1992 0 1
8.8152 -1.1941 -1.5938 0.1992 0 1
8.8176 -1.1743 -1.5937 0.1992 0 1
8.8198 -1.1545 -1.5937 0.1992 0 1
8.8221 -1.1346 -1.5936 0.1992 0 1
8.8243 -1.1148 -1.5935 0.1992 0 1
8.8264 -1.0949 -1.5935 0.1992 0 1
8.8285 -1.0751 -1.5934 0.1992 0 1
8.8306 -1.0552 -1.5934 0.1992 0 1
8.8327 -1.0354 -1.5933 0.1993 0 1
8.8347 -1.0155 -1.5933 0.1993 0 1
8.8366 -0.9957 -1.5932 0.1993 0 1
8.8386 -0.9758 -1.5932 0.1993 0 1
8.8404 -0.9559 -1.5931 0.1993 0 1
8.8423 -0.9361 -1.5931 0.1993 0 1
8.8441 -0.9162 -1.5930 0.1993 0 1
8.8459 -0.8963 -1.5930 0.1993 0 1
8.8476 -0.8764 -1.5929 0.1993 0 1
8.8493 -0.8565 -1.5929 0.1993 0 1
8.8509 -0.8367 -1.5928 0.1993 0 1
8.8525 -0.8168 -1.5928 0.1993 0 1
8.8541 -0.7969 -1.5927 0.1993 0 1
8.8556 -0.7770 -1.5927 0.1993 0 1
8.8571 -0.7571 -1.5926 0.1993 0 1
8.8586 -0.7372 -1.5926 0.1993 0 1
8.8600 -0.7173 -1.5926 0.1993 0 1
8.8613 -0.6974 -1.5925 0.1993 0 1
8.8627 -0.6775 -1.5925 0.1994 0 1
8.8640 -0.6576 -1.5925 0.1994 0 1
8.8652 -0.6377 -1.5924 0.1994 0 1
8.8664 -0.6178 -1.5924 0.1994 0 1
8.8676 -0.5979 -1.5923 0.1994 0 1
8.8687 -0.5779 -1.5923 0.1994 0 1
8.8698 -0.5580 -1.5923 0.1994 0 1
8.8709 -0.5381 -1.5922 0.1994 0 1
8.8719 -0.5182 -1.5922 0.1994 0 1
8.8729 -0.4983 -1.5922 0.1994 0 1
8.8738 -0.4784 -1.5922 0.1994 0 1
8.8747 -0.4584 -1.5921 0.1994 0 1
8.8756 -0.4385 -1.5921 0.1994 0 1
8.8764 -0.4186 -1.5921 0.1994 0 1
8.8772 -0.3987 -1.5921 0.1994 0 1
8.8779 -0.3787 -1.5920 0.1994 0 1
8.8786 -0.3588 -1.5920 0.1994 0 1
8.8793 -0.3389 -1.5920 0.1994 0 1
8.8799 -0.3189 -1.5920 0.1994 0 1
8.8805 -0.2990 -1.5919 0.1994 0 1
8.8810 -0.2791 -1.5919 0.1994 0 1
8.8815 -0.2592 -1.5919 0.1994 0 1
8.8820 -0.2392 -1.5919 0.1994 0 1
8.8824 -0.2193 -1.5919 0.1994 0 1
8.8828 -0.1994 -1.5919 0.1994 0 1
8.8831 -0.1794 -1.5918 0.1994 0 1
8.8834 -0.1595 -1.5918 0.1994 0 1
8.8837 -0.1396 -1.5918 0.1994 0 1
8.8839 -0.1196 -1.5918 0.1994 0 1
8.8841 -0.0997 -1.5918 0.1994 0 1
8.8842 -0.0798 -1.5918 0.1994 0 1
8.8843 -0.0598 -1.5918 0.1994 0 1
8.8844 -0.0399 -1.5918 0.1994 0 1
8.8845 -0.0199 -1.5918 0.1994 0 1
8.8844 0.0000 -1.5918 0.1994 0 1
8.8844 0.0199 -1.5917 0.1994 0 1
8.8843 0.0399 -1.5917 0.1994 0 1
8.8841 0.0598 -1.5917 0.1994 0 1
8.8840 0.0797 -1.5917 0.1994 0 1
8.8838 0.0997 -1.5917 0.1994 0 1
8.8835 0.1196 -1.5917 0.1994 0 1
8.8832 0.1396 -1.5917 0.1994 0 1
8.8829 0.1595 -1.5917 0.1994 0 1
8.8825 0.1794 -1.5917 0.1994 0 1
8.8821 0.1993 -1.5917 0.1994 0 1
8.8817 0.2193 -1.5917 0.1994 0 1
8.8812 0.2392 -1.5917 0.1994 0 1
8.8806 0.2592 -1.5918 0.1994 0 1
8.8801 0.2791 -1.5918 0.1994 0 1
8.8795 0.2990 -1.5918 0.1994 0 1
8.8788 0.3189 -1.5918 0.1994 0 1
8.8781 0.3388 -1.5918 0.1994 0 1
8.8774 0.3588 -1.5918 0.1994 0 1
8.8767 0.3787 -1.5918 0.1994 0 1
8.8759 0.3986 -1.5918 0.1994 0 1
8.8750 0.4185 -1.5918 0.1994 0 1
8.8741 0.4385 -1.5918 0.1994 0 1
8.8732 0.4584 -1.5919 0.1994 0 1
8.8722 0.4783 -1.5919 0.1994 0 1
8.8713 0.4982 -1.5919 0.1994 0 1
8.8702 0.5181 -1.5919 0.1994 0 1
8.8691 0.5380 -1.5919 0.1994 0 1
8.8680 0.5579 -1.5920 0.1994 0 1
8.8669 0.5778 -1.5920 0.1994 0 1
8.8657 0.5977 -1.5920 0.1994 0 1
8.8644 0.6176 -1.5920 0.1994 0 1
8.8631 0.6376 -1.5920 0.1994 0 1
8.8618 0.6575 -1.5921 0.1994 0 1
8.8604 0.6773 -1.5921 0.1994 0 1
8.8591 0.6972 -1.5921 0.1994 0 1
8.8576 0.7171 -1.5921 0.1994 0 1
8.8561 0.7370 -1.5922 0.1994 0 1
8.8546 0.7569 -1.5922 0.1994 0 1
8.8531 0.7768 -1.5922 0.1994 0 1
8.8515 0.7966 -1.5923 0.1994 0 1
8.8498 0.8165 -1.5923 0.1994 0 1
8.8482 0.8364 -1.5923 0.1994 0 1
8.8465 0.8563 -1.5924 0.1994 0 1
8.8447 0.8761 -1.5924 0.1994 0 1
8.8429 0.8960 -1.5924 0.1994 0 1
8.8411 0.9159 -1.5925 0.1994 0 1
8.8392 0.9357 -1.5925 0.1994 0 1
8.8373 0.9556 -1.5925 0.1993 0 1
8.8354 0.9754 -1.5926 0.1993 0 1
8.8334 0.9953 -1.5926 0.1993 0 1
8.8314 1.0151 -1.5927 0.1993 0 1
8.8293 1.0350 -1.5927 0.1993 0 1
8.8272 1.0548 -1.5927 0.1993 0 1
8.8250 1.0746 -1.5928 0.1993 0 1
8.8228 1.0945 -1.5928 0.1993 0 1
8.8206 1.1143 -1.5929 0.1993 0 1
8.8183 1.1341 -1.5929 0.1993 0 1
8.8160 1.1540 -1.5930 0.1993 0 1
8.8137 1.1737 -1.5930 0.1993 0 1
8.8113 1.1936 -1.5931 0.1993 0 1
8.8089 1.2134 -1.5931 0.1993 0 1
8.8064 1.2332 -1.5932 0.1993 0 1
8.8039 1.2530 -1.5932 0.1993 0 1
8.8014 1.2728 -1.5933 0.1993 0 1
8.7988 1.2926 -1.5933 0.1992 0 1
8.7962 1.3124 -1.5934 0.1992 0 1
8.7935 1.3322 -1.5934 0.1992 0 1
8.7909 1.3519 -1.5935 0.1992 0 1
8.7881 1.3717 -1.5936 0.1992 0 1
8.7854 1.3915 -1.5936 0.1992 0 1
8.7825 1.4112 -1.5937 0.1992 0 1
8.7796 1.4310 -1.5937 0.1992 0 1
8.7768 1.4507 -1.5938 0.1992 0 1
8.7738 1.4705 -1.5939 0.1992 0 1
8.7709 1.4902 -1.5939 0.1992 0 1
8.7679 1.5100 -1.5940 0.1992 0 1
8.7648 1.5297 -1.5941 0.1992 0 1
8.7617 1.5494 -1.5941 0.1991 0 1
8.7586 1.5691 -1.5942 0.1991 0 1
8.7554 1.5889 -1.5943 0.1991 0 1
8.7522 1.6086 -1.5943 0.1991 0 1
8.7489 1.6283 -1.5944 0.1991 0 1
8.7457 1.6480 -1.5945 0.1991 0 1
8.7423 1.6677 -1.5945 0.1991 0 1
8.7390 1.6874 -1.5946 0.1991 0 1
8.7355 1.7071 -1.5947 0.1991 0 1
8.7321 1.7268 -1.5948 0.1991 0 1
8.7286 1.7464 -1.5948 0.1991 0 1
8.7251 1.7661 -1.5949 0.1991 0 1
8.7215 1.7858 -1.5950 0.1990 0 1
8.7179 1.8054 -1.5951 0.1990 0 1
8.7143 1.8250 -1.5951 0.1990 0 1
8.7106 1.8447 -1.5952 0.1990 0 1
8.7069 1.8643 -1.5953 0.1990 0 1
8.7032 1.8839 -1.5954 0.1990 0 1
8.6994 1.9036 -1.5955 0.1990 0 1
8.6955 1.9232 -1.5956 0.1990 0 1
8.6916 1.9428 -1.5956 0.1990 0 1
8.6877 1.9624 -1.5957 0.1989 0 1
8.6838 1.9820 -1.5958 0.1989 0 1
8.6798 2.0016 -1.5959 0.1989 0 1
8.6757 2.0212 -1.5960 0.1989 0 1
8.6717 2.0408 -1.5961 0.1989 0 1
8.6675 2.0603 -1.5962 0.1989 0 1
8.6634 2.0799 -1.5963 0.1989 0 1
8.6592 2.0995 -1.5963 0.1989 0 1
8.6550 2.1190 -1.5964 0.1989 0 1
8.6507 2.1386 -1.5965 0.1988 0 1
8.6464 2.1581 -1.5966 0.1988 0 1
8.6421 2.1776 -1.5967 0.1988 0 1
8.6377 2.1971 -1.5968 0.1988 0 1
8.6332 2.2167 -1.5969 0.1988 0 1
8.6038 2.2297 -1.5924 0.2645 0 2
8.5301 2.2310 -1.5797 0.2666 0 2
8.4577 2.2324 -1.5672 0.2688 0 2
8.3864 2.2337 -1.5549 0.2709 0 2
8.3220 2.2365 -1.5439 0.3108 0 2
8.2621 2.2404 -1.5337 0.3128 0 2
8.2030 2.2441 -1.5237 0.3149 0 2
8.1446 2.2478 -1.5138 0.3170 0 2
8.0996 2.2549 -1.5063 0.1987 0 2
8.0951 2.2732 -1.5064 0.1987 0 2
8.0905 2.2915 -1.5065 0.1987 0 2
8.0859 2.3099 -1.5066 0.1986 0 2
8.0813 2.3281 -1.5067 0.1986 0 2
8.0766 2.3465 -1.5068 0.1986 0 2
8.0719 2.3647 -1.5070 0.1986 0 2
8.0671 2.3830 -1.5071 0.1986 0 2
8.0623 2.4013 -1.5072 0.1986 0 2
8.0933 2.4303 -1.5140 0.3384 0 2
8.0526 2.4378 -1.5074 0.1985 0 2
8.0477 2.4560 -1.5075 0.1985 0 2
8.0428 2.4743 -1.5076 0.1985 0 2
8.0378 2.4925 -1.5077 0.1985 0 2
8.0328 2.5107 -1.5078 0.1985 0 2
8.0277 2.5289 -1.5079 0.1985 0 2
8.0226 2.5471 -1.5080 0.1985 0 2
8.0175 2.5653 -1.5082 0.1984 0 2
8.0123 2.5835 -1.5083 0.1984 0 2
8.0071 2.6017 -1.5084 0.1984 0 2
8.0019 2.6198 -1.5085 0.1984 0 2
7.9966 2.6380 -1.5086 0.1984 0 2
7.9913 2.6561 -1.5087 0.1984 0 2
7.9860 2.6743 -1.5089 0.1984 0 2
7.9806 2.6924 -1.5090 0.1983 0 2
7.9752 2.7105 -1.5091 0.1983 0 2
7.9697 2.7286 -1.5092 0.1983 0 2
7.9642 2.7467 -1.5094 0.1983 0 2
7.9587 2.7648 -1.5095 0.1983 0 2
7.9531 2.7829 -1.5096 0.1983 0 2
7.9475 2.8010 -1.5097 0.1982 0 2
7.9418 2.8190 -1.5099 0.1982 0 2
7.9362 2.8371 -1.5100 0.1982 0 2
7.9305 2.8551 -1.5101 0.1982 0 2
7.9247 2.8732 -1.5102 0.1982 0 2
7.9189 2.8912 -1.5104 0.1982 0 2
7.9131 2.9092 -1.5105 0.1981 0 2
7.9073 2.9272 -1.5106 0.1981 0 2
7.9014 2.9452 -1.5108 0.1981 0 2
7.8954 2.9632 -1.5109 0.1981 0 2
7.8895 2.9812 -1.5110 0.1981 0 2
7.8834 2.9991 -1.5112 0.1981 0 2
7.8774 3.0171 -1.5113 0.1980 0 2
7.8713 3.0350 -1.5114 0.1980 0 2
7.8652 3.0529 -1.5116 0.1980 0 2
7.8591 3.0709 -1.5117 0.1980 0 2
7.8529 3.0888 -1.5119 0.1980 0 2
7.8467 3.1067 -1.5120 0.1979 0 2
7.8404 3.1246 -1.5121 0.1979 0 2
7.8341 3.1425 -1.5123 0.1979 0 2
7.8278 3.1603 -1.5124 0.1979 0 2
7.8214 3.1782 -1.5126 0.1979 0 2
7.8150 3.1960 -1.5127 0.1978 0 2
7.8086 3.2139 -1.5129 0.1978 0 2
7.8021 3.2317 -1.5130 0.1978 0 2
7.7956 3.2495 -1.5132 0.1978 0 2
7.7890 3.2673 -1.5133 0.1978 0 2
7.7824 3.2851 -1.5135 0.1978 0 2
7.7758 3.3029 -1.5136 0.1977 0 2
7.7692 3.3207 -1.5138 0.1977 0 2
7.7625 3.3384 -1.5139 0.1977 0 2
7.7557 3.3562 -1.5141 0.1977 0 2
7.7490 3.3739 -1.5142 0.1977 0 2
7.7422 3.3917 -1.5144 0.1976 0 2
7.7353 3.4094 -1.5145 0.1976 0 2
7.7285 3.4271 -1.5147 0.1976 0 2
7.7215 3.4447 -1.5148 0.1976 0 2
7.7146 3.4624 -1.5150 0.1976 0 2
7.7076 3.4801 -1.5151 0.1975 0 2
7.7006 3.4978 -1.5153 0.1975 0 2
7.6936 3.5154 -1.5155 0.1975 0 2
7.6864 3.5330 -1.5156 0.1975 0 2
7.6793 3.5506 -1.5158 0.1974 0 2
7.6722 3.5682 -1.5159 0.1974 0 2
7.6650 3.5858 -1.5161 0.1974 0 2
7.6577 3.6034 -1.5163 0.1974 0 2
7.6505 3.6210 -1.5164 0.1974 0 2
7.6431 3.6386 -1.5166 0.1973 0 2
7.6358 3.6561 -1.5168 0.1973 0 2
7.6284 3.6736 -1.5169 0.1973 0 2
7.6210 3.6912 -1.5171 0.1973 0 2
7.6135 3.7087 -1.5173 0.1973 0 2
7.6061 3.7262 -1.5175 0.1972 0 2
7.5985 3.7436 -1.5176 0.1972 0 2
7.5910 3.7611 -1.5178 0.1972 0 2
7.5834 3.7786 -1.5180 0.1972 0 2
7.5757 3.7960 -1.5181 0.1971 0 2
7.5681 3.8134 -1.5183 0.1971 0 2
7.5604 3.8308 -1.5185 0.1971 0 2
7.5526 3.8482 -1.5187 0.1971 0 2
7.5449 3.8656 -1.5188 0.1970 0 2
7.5371 3.8830 -1.5190 0.1970 0 2
7.5292 3.9004 -1.5192 0.1970 0 2
7.5213 3.9177 -1.5194 0.1970 0 2
7.5134 3.9350 -1.5196 0.1970 0 2
7.5054 3.9524 -1.5197 0.1969 0 2
7.4975 3.9697 -1.5199 0.1969 0 2
7.4894 3.9870 -1.5201 0.1969 0 2
7.4814 4.0043 -1.5203 0.1969 0 2
7.4733 4.0215 -1.5205 0.1968 0 2
7.4651 4.0387 -1.5207 0.1968 0 2
7.4570 4.0560 -1.5208 0.1968 0 2
7.4488 4.0732 -1.5210 0.1968 0 2
7.4405 4.0904 -1.5212 0.1967 0 2
7.4322 4.1076 -1.5214 0.1967 0 2
7.4239 4.1248 -1.5216 0.1967 0 2
7.4156 4.1420 -1.5218 0.1967 0 2
7.4072 4.1592 -1.5220 0.1966 0 2
7.3988 4.1763 -1.5222 0.1966 0 2
7.3903 4.1934 -1.5224 0.1966 0 2
7.3819 4.2105 -1.5226 0.1966 0 2
7.3733 4.2276 -1.5228 0.1965 0 2
7.3648 4.2447 -1.5230 0.1965 0 2
7.3562 4.2618 -1.5231 0.1965 0 2
7.3475 4.2788 -1.5233 0.1965 0 2
7.3389 4.2958 -1.5235 0.1964 0 2
7.3302 4.3129 -1.5237 0.1964 0 2
7.3214 4.3299 -1.5239 0.1964 0 2
7.3127 4.3469 -1.5241 0.1964 0 2
7.3039 4.3638 -1.5243 0.1963 0 2
7.2950 4.3808 -1.5245 0.1963 0 2
7.2861 4.3977 -1.5247 0.1963 0 2
7.2772 4.4147 -1.5250 0.1963 0 2
7.2683 4.4316 -1.5252 0.1962 0 2
7.2593 4.4485 -1.5254 0.1962 0 2
7.2503 4.4654 -1.5256 0.1962 0 2
7.2412 4.4822 -1.5258 0.1962 0 2
7.2321 4.4991 -1.5260 0.1961 0 2
7.2230 4.5159 -1.5262 0.1961 0 2
7.2138 4.5327 -1.5264 0.1961 0 2
7.2046 4.5495 -1.5266 0.1960 0 2
7.1954 4.5663 -1.5268 0.1960 0 2
7.1861 4.5831 -1.5270 0.1960 0 2
7.1769 4.5999 -1.5273 0.1960 0 2
7.1675 4.6166 -1.5275 0.1959 0 2
7.1581 4.6333 -1.5277 0.1959 0 2
7.1487 4.6500 -1.5279 0.1959 0 2
7.1393 4.6667 -1.5281 0.1959 0 2
7.1298 4.6834 -1.5283 0.1958 0 2
7.1203 4.7001 -1.5285 0.1958 0 2
7.1107 4.7167 -1.5288 0.1958 0 2
7.1012 4.7333 -1.5290 0.1957 0 2
7.0916 4.7499 -1.5292 0.1957 0 2
7.0819 4.7665 -1.5294 0.1957 0 2
7.0722 4.7831 -1.5297 0.1957 0 2
7.0625 4.7997 -1.5299 0.1956 0 2
7.0528 4.8162 -1.5301 0.1956 0 2
7.0429 4.8327 -1.5303 0.1956 0 2
7.0331 4.8492 -1.5305 0.1955 0 2
7.0233 4.8657 -1.5308 0.1955 0 2
7.0134 4.8822 -1.5310 0.1955 0 2
7.0035 4.8986 -1.5312 0.1955 0 2
6.9935 4.9151 -1.5315 0.1954 0 2
6.9835 4.9315 -1.5317 0.1954 0 2
6.9734 4.9479 -1.5319 0.1954 0 2
6.9634 4.9643 -1.5322 0.1953 0 2
6.9533 4.9806 -1.5324 0.1953 0 2
6.9431 4.9970 -1.5326 0.1953 0 2
6.9329 5.0133 -1.5328 0.1952 0 2
6.9228 5.0296 -1.5331 0.1952 0 2
6.9125 5.0460 -1.5333 0.1952 0 2
6.9022 5.0622 -1.5336 0.1952 0 2
6.8919 5.0785 -1.5338 0.1951 0 2
6.8816 5.0947 -1.5340 0.1951 0 2
6.8712 5.1109 -1.5343 0.1951 0 2
6.8608 5.1271 -1.5345 0.1950 0 2
6.8504 5.1433 -1.5347 0.1950 0 2
6.8399 5.1595 -1.5350 0.1950 0 2
6.8293 5.1757 -1.5352 0.1949 0 2
6.8188 5.1918 -1.5355 0.1949 0 2
6.8082 5.2079 -1.5357 0.1949 0 2
6.7976 5.2240 -1.5360 0.1949 0 2
6.7869 5.2401 -1.5362 0.1948 0 2
6.7762 5.2562 -1.5365 0.1948 0 2
6.7655 5.2722 -1.5367 0.1948 0 2
6.7547 5.2882 -1.5369 0.1947 0 2
6.7439 5.3042 -1.5372 0.1947 0 2
6.7331 5.3202 -1.5374 0.1947 0 2
6.7222 5.3362 -1.5377 0.1946 0 2
6.7113 5.3521 -1.5379 0.1946 0 2
6.7004 5.3680 -1.5382 0.1946 0 2
6.6895 5.3839 -1.5385 0.1945 0 2
6.6784 5.3998 -1.5387 0.1945 0 2
6.6674 5.4157 -1.5390 0.1945 0 2
6.6563 5.4315 -1.5392 0.1944 0 2
6.6453 5.4473 -1.5395 0.1944 0 2
6.6341 5.4632 -1.5397 0.1944 0 2
6.6230 5.4790 -1.5400 0.1943 0 2
6.6117 5.4947 -1.5402 0.1943 0 2
6.6005 5.5105 -1.5405 0.1943 0 2
6.5893 5.5262 -1.5408 0.1942 0 2
6.5779 5.5419 -1.5410 0.1942 0 2
6.5666 5.5576 -1.5413 0.1942 0 2
6.5552 5.5733 -1.5415 0.1941 0 2
6.5438 5.5889 -1.5418 0.1941 0 2
6.5324 5.6046 -1.5421 0.1941 0 2
6.5209 5.6202 -1.5423 0.1940 0 2
6.5094 5.6357 -1.5426 0.1940 0 2
6.4979 5.6513 -1.5429 0.1940 0 2
6.4863 5.6669 -1.5431 0.1939 0 2
6.4746 5.6824 -1.5434 0.1939 0 2
6.4630 5.6979 -1.5437 0.1939 0 2
6.4513 5.7134 -1.5439 0.1938 0 2
6.4396 5.7288 -1.5442 0.1938 0 2
6.4279 5.7443 -1.5445 0.1938 0 2
6.4161 5.7597 -1.5448 0.1937 0 2
6.4043 5.7751 -1.5450 0.1937 0 2
6.3925 5.7905 -1.5453 0.1937 0 2
6.3806 5.8058 -1.5456 0.1936 0 2
6.3687 5.8212 -1.5458 0.1936 0 2
6.3567 5.8365 -1.5461 0.1936 0 2
6.3447 5.8518 -1.5464 0.1935 0 2
6.3327 5.8671 -1.5467 0.1935 0 2
6.3207 5.8823 -1.5470 0.1935 0 2
6.3086 5.8976 -1.5472 0.1934 0 2
6.2965 5.9128 -1.5475 0.1934 0 2
6.2844 5.9279 -1.5478 0.1934 0 2
6.2722 5.9431 -1.5481 0.1933 0 2
6.2600 5.9583 -1.5484 0.1933 0 2
6.2477 5.9734 -1.5486 0.1933 0 2
6.2354 5.9885 -1.5489 0.1932 0 2
6.2231 6.0036 -1.5492 0.1932 0 2
6.2108 6.0187 -1.5495 0.1932 0 2
6.1984 6.0337 -1.5498 0.1931 0 2
6.1860 6.0487 -1.5501 0.1931 0 2
6.1736 6.0637 -1.5504 0.1930 0 2
6.1611 6.0787 -1.5506 0.1930 0 2
6.1486 6.0936 -1.5509 0.1930 0 2
6.1360 6.1085 -1.5512 0.1929 0 2
5.8813 -5.8813 -1.5611 0.2005 0 2
5.8934 -5.8670 -1.5608 0.2006 0 2
5.9054 -5.8527 -1.5605 0.2006 0 2
5.9175 -5.8383 -1.5602 0.2006 0 2
5.9295 -5.8239 -1.5599 0.2007 0 2
5.9414 -5.8096 -1.5596 0.2007 0 2
5.9534 -5.7952 -1.5593 0.2007 0 2
5.9659 -5.7813 -1.5592 0.6997 0 2
5.9921 -5.7807 -1.5627 0.6981 0 2
6.0185 -5.7802 -1.5662 0.6966 0 2
6.0450 -5.7796 -1.5697 0.6950 0 2
6.0716 -5.7790 -1.5732 0.6934 0 2
6.0984 -5.7785 -1.5768 0.6919 0 2
6.1252 -5.7779 -1.5804 0.6903 0 2
6.1522 -5.7773 -1.5840 0.6887 0 2
6.1793 -5.7767 -1.5876 0.6872 0 2
6.2065 -5.7761 -1.5913 0.6856 0 2
6.2339 -5.7755 -1.5950 0.6840 0 2
6.2613 -5.7749 -1.5987 0.6824 0 2
6.2892 -5.7745 -1.6025 0.6513 0 2
6.3182 -5.7751 -1.6066 0.6496 0 2
6.3473 -5.7756 -1.6107 0.6479 0 2
6.3766 -5.7762 -1.6148 0.6463 0 2
6.4060 -5.7767 -1.6190 0.6446 0 2
6.4356 -5.7772 -1.6232 0.6430 0 2
6.4654 -5.7778 -1.6274 0.6413 0 2
6.4953 -5.7783 -1.6316 0.6396 0 2
6.5253 -5.7789 -1.6359 0.6379 0 2
6.5555 -5.7795 -1.6403 0.6363 0 2
6.5859 -5.7800 -1.6446 0.6346 0 2
6.6092 -5.7742 -1.6472 0.2016 0 1
6.6210 -5.7584 -1.6469 0.2016 0 1
6.6328 -5.7426 -1.6466 0.2017 0 1
6.6445 -5.7267 -1.6463 0.2017 0 1
6.6562 -5.7108 -1.6461 0.2017 0 1
6.6679 -5.6949 -1.6458 0.2018 0 1
6.6795 -5.6789 -1.6455 0.2018 0 1
6.6911 -5.6630 -1.6452 0.2018 0 1
6.7027 -5.6470 -1.6449 0.2019 0 1
6.7142 -5.6310 -1.6447 0.2019 0 1
6.7257 -5.6150 -1.6444 0.2019 0 1
6.7371 -5.5989 -1.6441 0.2020 0 1
6.7486 -5.5829 -1.6438 0.2020 0 1
6.7599 -5.5668 -1.6436 0.2020 0 1
6.7713 -5.5507 -1.6433 0.2021 0 1
6.7826 -5.5346 -1.6430 0.2021 0 1
6.7939 -5.5184 -1.6428 0.2021 0 1
6.8052 -5.5023 -1.6425 0.2022 0 1
6.8163 -5.4861 -1.6422 0.2022 0 1
6.8275 -5.4699 -1.6419 0.2022 0 1
6.8387 -5.4537 -1.6417 0.2023 0 1
6.8498 -5.4374 -1.6414 0.2023 0 1
6.8609 -5.4211 -1.6411 0.2023 0 1
6.8719 -5.4048 -1.6409 0.2024 0 1
6.8829 -5.3885 -1.6406 0.2024 0 1
6.8938 -5.3722 -1.6404 0.2024 0 1
6.9048 -5.3559 -1.6401 0.2025 0 1
6.9157 -5.3395 -1.6398 0.2025 0 1
6.9266 -5.3231 -1.6396 0.2025 0 1
6.9374 -5.3068 -1.6393 0.2026 0 1
6.9482 -5.2903 -1.6390 0.2026 0 1
6.9589 -5.2739 -1.6388 0.2026 0 1
6.9696 -5.2574 -1.6385 0.2027 0 1
6.9804 -5.2410 -1.6383 0.2027 0 1
6.9910 -5.2245 -1.6380 0.2027 0 1
7.0016 -5.2080 -1.6378 0.2028 0 1
7.0122 -5.1914 -1.6375 0.2028 0 1
7.0227 -5.1749 -1.6373 0.2028 0 1
7.0332 -5.1583 -1.6370 0.2029 0 1
7.0437 -5.1417 -1.6368 0.2029 0 1
7.0541 -5.1251 -1.6365 0.2029 0 1
7.0645 -5.1085 -1.6363 0.2029 0 1
7.0749 -5.0919 -1.6360 0.2030 0 1
7.0852 -5.0752 -1.6358 0.2030 0 1
7.0955 -5.0585 -1.6355 0.2030 0 1
7.1058 -5.0418 -1.6353 0.2031 0 1
7.1160 -5.0251 -1.6350 0.2031 0 1
7.1262 -5.0084 -1.6348 0.2031 0 1
7.1364 -4.9916 -1.6345 0.2032 0 1
7.1465 -4.9749 -1.6343 0.2032 0 1
7.1566 -4.9581 -1.6340 0.2032 0 1
7.1666 -4.9412 -1.6338 0.2032 0 1
7.1766 -4.9244 -1.6336 0.2033 0 1
7.1866 -4.9076 -1.6333 0.2033 0 1
7.1965 -4.8908 -1.6331 0.2033 0 1
7.2064 -4.8739 -1.6328 0.2034 0 1
7.2163 -4.8570 -1.6326 0.2034 0 1
7.2262 -4.8401 -1.6324 0.2034 0 1
7.2359 -4.8232 -1.6321 0.2035 0 1
7.2457 -4.8062 -1.6319 0.2035 0 1
7.2554 -4.7893 -1.6317 0.2035 0 1
7.2651 -4.7723 -1.6314 0.2035 0 1
7.2748 -4.7553 -1.6312 0.2036 0 1
7.2844 -4.7383 -1.6310 0.2036 0 1
7.2940 -4.7213 -1.6307 0.2036 0 1
7.3035 -4.7042 -1.6305 0.2037 0 1
7.3130 -4.6871 -1.6303 0.2037 0 1
7.3225 -4.6701 -1.6300 0.2037 0 1
7.3319 -4.6530 -1.6298 0.2037 0 1
7.3413 -4.6359 -1.6296 0.2038 0 1
7.3507 -4.6188 -1.6294 0.2038 0 1
7.3600 -4.6016 -1.6291 0.2038 0 1
7.3693 -4.5844 -1.6289 0.2039 0 1
7.3786 -4.5672 -1.6287 0.2039 0 1
7.3878 -4.5501 -1.6285 0.2039 0 1
7.3970 -4.5329 -1.6282 0.2039 0 1
7.4061 -4.5156 -1.6280 0.2040 0 1
7.4152 -4.4984 -1.6278 0.2040 0 1
7.4243 -4.4812 -1.6276 0.2040 0 1
7.4334 -4.4639 -1.6274 0.2041 0 1
7.4424 -4.4466 -1.6271 0.2041 0 1
7.4513 -4.4293 -1.6269 0.2041 0 1
7.4603 -4.4120 -1.6267 0.2041 0 1
7.4692 -4.3947 -1.6265 0.2042 0 1
7.4780 -4.3773 -1.6263 0.2042 0 1
7.4868 -4.3599 -1.6261 0.2042 0 1
7.4956 -4.3426 -1.6259 0.2042 0 1
7.5044 -4.3252 -1.6256 0.2043 0 1
7.5130 -4.3077 -1.6254 0.2043 0 1
7.5217 -4.2903 -1.6252 0.2043 0 1
7.5304 -4.2729 -1.6250 0.2043 0 1
7.5390 -4.2554 -1.6248 0.2044 0 1
7.5476 -4.2380 -1.6246 0.2044 0 1
7.5561 -4.2205 -1.6244 0.2044 0 1
7.5646 -4.2030 -1.6242 0.2045 0 1
7.5730 -4.1855 -1.6240 0.2045 0 1
7.5814 -4.1679 -1.6238 0.2045 0 1
7.5899 -4.1504 -1.6236 0.2045 0 1
7.5982 -4.1329 -1.6234 0.2046 0 1
7.6065 -4.1153 -1.6232 0.2046 0 1
7.6148 -4.0977 -1.6230 0.2046 0 1
7.6230 -4.0801 -1.6228 0.2046 0 1
7.6312 -4.0625 -1.6226 0.2047 0 1
7.6394 -4.0449 -1.6224 0.2047 0 1
7.6475 -4.0272 -1.6222 0.2047 0 1
7.6556 -4.0096 -1.6220 0.2047 0 1
7.6637 -3.9919 -1.6218 0.2048 0 1
7.6717 -3.9742 -1.6216 0.2048 0 1
7.6797 -3.9565 -1.6214 0.2048 0 1
7.6876 -3.9388 -1.6212 0.2048 0 1
7.6955 -3.9211 -1.6210 0.2049 0 1
7.7034 -3.9033 -1.6208 0.2049 0 1
7.7112 -3.8856 -1.6206 0.2049 0 1
7.7191 -3.8678 -1.6204 0.2049 0 1
7.7268 -3.8500 -1.6203 0.2049 0 1
7.7345 -3.8322 -1.6201 0.2050 0 1
7.7422 -3.8144 -1.6199 0.2050 0 1
7.7498 -3.7966 -1.6197 0.2050 0 1
7.7575 -3.7788 -1.6195 0.2050 0 1
7.7651 -3.7609 -1.6193 0.2051 0 1
7.7726 -3.7431 -1.6191 0.2051 0 1
7.7801 -3.7252 -1.6190 0.2051 0 1
7.7876 -3.7073 -1.6188 0.2051 0 1
7.7950 -3.6894 -1.6186 0.2052 0 1
7.8024 -3.6715 -1.6184 0.2052 0 1
7.8097 -3.6536 -1.6182 0.2052 0 1
7.8171 -3.6356 -1.6181 0.2052 0 1
7.8243 -3.6177 -1.6179 0.2052 0 1
7.8316 -3.5997 -1.6177 0.2053 0 1
7.8388 -3.5818 -1.6175 0.2053 0 1
7.8460 -3.5638 -1.6174 0.2053 0 1
7.8531 -3.5458 -1.6172 0.2053 0 1
7.8602 -3.5278 -1.6170 0.2054 0 1
7.8672 -3.5098 -1.6168 0.2054 0 1
7.8743 -3.4917 -1.6167 0.2054 0 1
7.8813 -3.4737 -1.6165 0.2054 0 1
7.8882 -3.4556 -1.6163 0.2054 0 1
7.8951 -3.4376 -1.6162 0.2055 0 1
7.9020 -3.4195 -1.6160 0.2055 0 1
7.9088 -3.4014 -1.6158 0.2055 0 1
7.9156 -3.3833 -1.6157 0.2055 0 1
7.9224 -3.3652 -1.6155 0.2056 0 1
7.9291 -3.3471 -1.6153 0.2056 0 1
7.9358 -3.3289 -1.6152 0.2056 0 1
7.9425 -3.3108 -1.6150 0.2056 0 1
7.9491 -3.2926 -1.6148 0.2056 0 1
7.9556 -3.2744 -1.6147 0.2057 0 1
7.9622 -3.2563 -1.6145 0.2057 0 1
7.9687 -3.2381 -1.6144 0.2057 0 1
7.9751 -3.2199 -1.6142 0.2057 0 1
7.9816 -3.2017 -1.6140 0.2057 0 1
7.9880 -3.1834 -1.6139 0.2058 0 1
7.9943 -3.1652 -1.6137 0.2058 0 1
8.0007 -3.1469 -1.6136 0.2058 0 1
8.0069 -3.1287 -1.6134 0.2058 0 1
8.0132 -3.1104 -1.6133 0.2058 0 1
8.0194 -3.0921 -1.6131 0.2059 0 1
8.0255 -3.0738 -1.6130 0.2059 0 1
8.0317 -3.0555 -1.6128 0.2059 0 1
8.0377 -3.0372 -1.6127 0.2059 0 1
8.0438 -3.0189 -1.6125 0.2059 0 1
8.0498 -3.0005 -1.6124 0.2059 0 1
8.0558 -2.9822 -1.6122 0.2060 0 1
8.0617 -2.9638 -1.6121 0.2060 0 1
8.0677 -2.9455 -1.6119 0.2060 0 1
8.0735 -2.9271 -1.6118 0.2060 0 1
8.0794 -2.9087 -1.6117 0.2060 0 1
8.0851 -2.8903 -1.6115 0.2061 0 1
8.0909 -2.8720 -1.6114 0.2061 0 1
8.0966 -2.8535 -1.6112 0.2061 0 1
8.1023 -2.8351 -1.6111 0.2061 0 1
8.1079 -2.8167 -1.6109 0.2061 0 1
8.1135 -2.7983 -1.6108 0.2061 0 1
8.1191 -2.7798 -1.6107 0.2062 0 1
8.1246 -2.7613 -1.6105 0.2062 0 1
8.1301 -2.7429 -1.6104 0.2062 0 1
8.1356 -2.7244 -1.6103 0.2062 0 1
8.1410 -2.7059 -1.6101 0.2062 0 1
8.1464 -2.6874 -1.6100 0.2063 0 1
8.1517 -2.6689 -1.6099 0.2063 0 1
8.1570 -2.6504 -1.6097 0.2063 0 1
8.1623 -2.6319 -1.6096 0.2063 0 1
8.1675 -2.6133 -1.6095 0.2063 0 1
8.1727 -2.5948 -1.6094 0.2063 0 1
8.1779 -2.5762 -1.6092 0.2064 0 1
8.1830 -2.5577 -1.6091 0.2064 0 1
8.1881 -2.5391 -1.6090 0.2064 0 1
8.1931 -2.5205 -1.6088 0.2064 0 1
8.1981 -2.5019 -1.6087 0.2064 0 1
8.2031 -2.4834 -1.6086 0.2064 0 1
8.2080 -2.4647 -1.6085 0.2064 0 1
8.2129 -2.4461 -1.6084 0.2065 0 1
8.2178 -2.4275 -1.6082 0.2065 0 1
8.2226 -2.4089 -1.6081 0.2065 0 1
8.2273 -2.3903 -1.6080 0.2065 0 1
8.2321 -2.3716 -1.6079 0.2065 0 1
8.2368 -2.3530 -1.6078 0.2065 0 1
8.2414 -2.3343 -1.6076 0.2066 0 1
8.2461 -2.3157 -1.6075 0.2066 0 1
8.2507 -2.2970 -1.6074 0.2066 0 1
8.2552 -2.2783 -1.6073 0.2066 0 1
8.2597 -2.2596 -1.6072 0.2066 0 1
8.2642 -2.2409 -1.6071 0.2066 0 1
8.2687 -2.2222 -1.6070 0.2066 0 1
8.2731 -2.2035 -1.6069 0.2067 0 1
8.2774 -2.1848 -1.6068 0.2067 0 1
8.2818 -2.1661 -1.6066 0.2067 0 1
8.2861 -2.1473 -1.6065 0.2067 0 1
8.2903 -2.1286 -1.6064 0.2067 0 1
8.2945 -2.1098 -1.6063 0.2067 0 1
8.2987 -2.0911 -1.6062 0.2067 0 1
8.3028 -2.0723 -1.6061 0.2068 0 1
8.3069 -2.0536 -1.6060 0.2068 0 1
8.3110 -2.0348 -1.6059 0.2068 0 1
8.3150 -2.0160 -1.6058 0.2068 0 1
8.3190 -1.9972 -1.6057 0.2068 0 1
8.3229 -1.9784 -1.6056 0.2068 0 1
8.3268 -1.9596 -1.6055 0.2068 0 1
8.3307 -1.9408 -1.6054 0.2068 0 1
8.3346 -1.9220 -1.6053 0.2069 0 1
8.3383 -1.9032 -1.6052 0.2069 0 1
8.3421 -1.8844 -1.6051 0.2069 0 1
8.3458 -1.8655 -1.6050 0.2069 0 1
8.3495 -1.8467 -1.6049 0.2069 0 1
8.3531 -1.8278 -1.6049 0.2069 0 1
8.3568 -1.8090 -1.6048 0.2069 0 1
8.3603 -1.7901 -1.6047 0.2069 0 1
8.3638 -1.7713 -1.6046 0.2069 0 1
8.3674 -1.7524 -1.6045 0.2070 0 1
8.3708 -1.7335 -1.6044 0.2070 0 1
8.3742 -1.7146 -1.6043 0.2070 0 1
8.3776 -1.6957 -1.6042 0.2070 0 1
8.3809 -1.6769 -1.6042 0.2070 0 1
8.3842 -1.6579 -1.6041 0.2070 0 1
8.3875 -1.6390 -1.6040 0.2070 0 1
8.3907 -1.6201 -1.6039 0.2070 0 1
8.3939 -1.6012 -1.6038 0.2070 0 1
8.3971 -1.5823 -1.6037 0.2071 0 1
8.4002 -1.5634 -1.6037 0.2071 0 1
8.4032 -1.5445 -1.6036 0.2071 0 1
8.4063 -1.5255 -1.6035 0.2071 0 1
8.4093 -1.5066 -1.6034 0.2071 0 1
8.4123 -1.4876 -1.6034 0.2071 0 1
8.4152 -1.4687 -1.6033 0.2071 0 1
8.4181 -1.4497 -1.6032 0.2071 0 1
8.4209 -1.4308 -1.6031 0.2071 0 1
8.4237 -1.4118 -1.6031 0.2071 0 1
8.4265 -1.3928 -1.6030 0.2072 0 1
8.4292 -1.3738 -1.6029 0.2072 0 1
8.4319 -1.3549 -1.6028 0.2072 0 1
8.4346 -1.3359 -1.6028 0.2072 0 1
8.4372 -1.3169 -1.6027 0.2072 0 1
8.4398 -1.2979 -1.6026 0.2072 0 1
8.4423 -1.2789 -1.6026 0.2072 0 1
8.4448 -1.2599 -1.6025 0.2072 0 1
8.4473 -1.2409 -1.6024 0.2072 0 1
8.4497 -1.2219 -1.6024 0.2072 0 1
8.4521 -1.2029 -1.6023 0.2072 0 1
8.4545 -1.1839 -1.6023 0.2073 0 1
8.4568 -1.1649 -1.6022 0.2073 0 1
8.4590 -1.1459 -1.6021 0.2073 0 1
8.4613 -1.1268 -1.6021 0.2073 0 1
8.4635 -1.1078 -1.6020 0.2073 0 1
8.4656 -1.0888 -1.6020 0.2073 0 1
8.4678 -1.0697 -1.6019 0.2073 0 1
8.4698 -1.0507 -1.6018 0.2073 0 1
8.4719 -1.0317 -1.6018 0.2073 0 1
8.4739 -1.0126 -1.6017 0.2073 0 1
8.4759 -0.9935 -1.6017 0.2073 0 1
8.4778 -0.9745 -1.6016 0.2073 0 1
8.4797 -0.9554 -1.6016 0.2073 0 1
8.4816 -0.9364 -1.6015 0.2073 0 1
8.4834 -0.9173 -1.6015 0.2073 0 1
8.4852 -0.8983 -1.6014 0.2074 0 1
8.4869 -0.8792 -1.6014 0.2074 0 1
8.4886 -0.8601 -1.6013 0.2074 0 1
8.4903 -0.8410 -1.6013 0.2074 0 1
8.4919 -0.8219 -1.6013 0.2074 0 1
8.4935 -0.8029 -1.6012 0.2074 0 1
8.4951 -0.7838 -1.6012 0.2074 0 1
8.4966 -0.7647 -1.6011 0.2074 0 1
8.4981 -0.7456 -1.6011 0.2074 0 1
8.4995 -0.7265 -1.6010 0.2074 0 1
8.5009 -0.7074 -1.6010 0.2074 0 1
8.5023 -0.6883 -1.6010 0.2074 0 1
8.5036 -0.6693 -1.6009 0.2074 0 1
8.5049 -0.6501 -1.6009 0.2074 0 1
8.5061 -0.6310 -1.6009 0.2074 0 1
8.5073 -0.6120 -1.6008 0.2074 0 1
8.5085 -0.5929 -1.6008 0.2074 0 1
8.5096 -0.5737 -1.6008 0.2074 0 1
8.5107 -0.5546 -1.6007 0.2074 0 1
8.5118 -0.5355 -1.6007 0.2075 0 1
8.5128 -0.5164 -1.6007 0.2075 0 1
8.5138 -0.4973 -1.6006 0.2075 0 1
8.5147 -0.4782 -1.6006 0.2075 0 1
8.5156 -0.4591 -1.6006 0.2075 0 1
8.5165 -0.4400 -1.6005 0.2075 0 1
8.5173 -0.4208 -1.6005 0.2075 0 1
8.5181 -0.4017 -1.6005 0.2075 0 1
8.5188 -0.3826 -1.6005 0.2075 0 1
8.5196 -0.3635 -1.6005 0.2075 0 1
8.5203 -0.3443 -1.6004 0.2075 0 1
8.5209 -0.3252 -1.6004 0.2075 0 1
8.5215 -0.3061 -1.6004 0.2075 0 1
8.5221 -0.2870 -1.6004 0.2075 0 1
8.5226 -0.2678 -1.6003 0.2075 0 1
8.5231 -0.2487 -1.6003 0.2075 0 1
8.5235 -0.2296 -1.6003 0.2075 0 1
8.5239 -0.2104 -1.6003 0.2075 0 1
8.5243 -0.1913 -1.6003 0.2075 0 1
8.5246 -0.1722 -1.6003 0.2075 0 1
8.5249 -0.1531 -1.6003 0.2075 0 1
8.5252 -0.1339 -1.6002 0.2075 0 1
8.5254 -0.1148 -1.6002 0.2075 0 1
8.5256 -0.0956 -1.6002 0.2075 0 1
8.5257 -0.0765 -1.6002 0.2075 0 1
8.5258 -0.0574 -1.6002 0.2075 0 1
8.5259 -0.0383 -1.6002 0.2075 0 1
8.5259 -0.0191 -1.6002 0.2075 0 1
8.5259 -0.0000 -1.6002 0.2075 0 1
8.5258 0.0191 -1.6002 0.2075 0 1
8.5257 0.0383 -1.6002 0.2075 0 1
8.5256 0.0574 -1.6002 0.2075 0 1
8.5254 0.0765 -1.6002 0.2075 0 1
8.5253 0.0957 -1.6002 0.2075 0 1
8.5250 0.1148 -1.6002 0.2075 0 1
8.5247 0.1339 -1.6002 0.2075 0 1
8.5244 0.1531 -1.6002 0.2075 0 1
8.5241 0.1722 -1.6002 0.2075 0 1
8.5237 0.1913 -1.6002 0.2075 0 1
8.5233 0.2104 -1.6002 0.2075 0 1
8.5228 0.2296 -1.6002 0.2075 0 1
8.5223 0.2487 -1.6002 0.2075 0 1
8.5217 0.2678 -1.6002 0.2075 0 1
8.5211 0.2870 -1.6002 0.2075 0 1
8.5205 0.3061 -1.6002 0.2075 0 1
8.5199 0.3252 -1.6002 0.2075 0 1
8.5192 0.3443 -1.6002 0.2075 0 1
8.5184 0.3634 -1.6002 0.2075 0 1
8.5177 0.3825 -1.6002 0.2075 0 1
8.5168 0.4016 -1.6003 0.2075 0 1
8.5160 0.4208 -1.6003 0.2075 0 1
8.5151 0.4399 -1.6003 0.2075 0 1
8.5142 0.4590 -1.6003 0.2075 0 1
8.5132 0.4781 -1.6003 0.2075 0 1
8.5122 0.4972 -1.6003 0.2075 0 1
8.5112 0.5163 -1.6004 0.2075 0 1
8.5101 0.5354 -1.6004 0.2075 0 1
8.5090 0.5545 -1.6004 0.2075 0 1
8.5078 0.5736 -1.6004 0.2075 0 1
8.5066 0.5927 -1.6004 0.2075 0 1
8.5054 0.6118 -1.6005 0.2075 0 1
8.5041 0.6309 -1.6005 0.2075 0 1
8.5028 0.6500 -1.6005 0.2075 0 1
8.5014 0.6691 -1.6005 0.2075 0 1
8.5001 0.6882 -1.6006 0.2075 0 1
8.4987 0.7072 -1.6006 0.2075 0 1
8.4972 0.7263 -1.6006 0.2075 0 1
8.4957 0.7454 -1.6006 0.2075 0 1
8.4942 0.7645 -1.6007 0.2075 0 1
8.4926 0.7836 -1.6007 0.2075 0 1
8.4910 0.8027 -1.6007 0.2074 0 1
8.4893 0.8217 -1.6008 0.2074 0 1
8.4877 0.8408 -1.6008 0.2074 0 1
8.4859 0.8598 -1.6008 0.2074 0 1
8.4842 0.8789 -1.6009 0.2074 0 1
8.4823 0.8979 -1.6009 0.2074 0 1
8.4805 0.9170 -1.6009 0.2074 0 1
8.4786 0.9361 -1.6010 0.2074 0 1
8.4767 0.9551 -1.6010 0.2074 0 1
8.4747 0.9741 -1.6011 0.2074 0 1
8.4728 0.9932 -1.6011 0.2074 0 1
8.4707 1.0122 -1.6011 0.2074 0 1
8.4687 1.0312 -1.6012 0.2074 0 1
8.4666 1.0503 -1.6012 0.2074 0 1
8.4644 1.0693 -1.6013 0.2074 0 1
8.4622 1.0883 -1.6013 0.2074 0 1
8.4600 1.1073 -1.6014 0.2074 0 1
8.4578 1.1264 -1.6014 0.2074 0 1
8.4554 1.1454 -1.6015 0.2074 0 1
8.4531 1.1644 -1.6015 0.2073 0 1
8.4507 1.1834 -1.6016 0.2073 0 1
8.4483 1.2024 -1.6016 0.2073 0 1
8.4459 1.2214 -1.6017 0.2073 0 1
8.4434 1.2404 -1.6017 0.2073 0 1
8.4409 1.2593 -1.6018 0.2073 0 1
8.4383 1.2783 -1.6018 0.2073 0 1
8.4357 1.2973 -1.6019 0.2073 0 1
8.4331 1.3163 -1.6019 0.2073 0 1
8.4304 1.3353 -1.6020 0.2073 0 1
8.4277 1.3542 -1.6020 0.2073 0 1
8.4249 1.3732 -1.6021 0.2073 0 1
8.4221 1.3921 -1.6022 0.2073 0 1
8.4193 1.4111 -1.6022 0.2073 0 1
8.4164 1.4300 -1.6023 0.2072 0 1
8.4136 1.4489 -1.6023 0.2072 0 1
8.4106 1.4679 -1.6024 0.2072 0 1
8.4076 1.4868 -1.6025 0.2072 0 1
8.4046 1.5057 -1.6025 0.2072 0 1
8.4015 1.5246 -1.6026 0.2072 0 1
8.3984 1.5436 -1.6027 0.2072 0 1
8.3953 1.5625 -1.6027 0.2072 0 1
8.3921 1.5814 -1.6028 0.2072 0 1
8.3889 1.6003 -1.6029 0.2072 0 1
8.3857 1.6192 -1.6029 0.2072 0 1
8.3824 1.6380 -1.6030 0.2072 0 1
8.3791 1.6569 -1.6031 0.2071 0 1
8.3757 1.6758 -1.6032 0.2071 0 1
8.3723 1.6947 -1.6032 0.2071 0 1
8.3689 1.7135 -1.6033 0.2071 0 1
8.3654 1.7324 -1.6034 0.2071 0 1
8.3619 1.7512 -1.6035 0.2071 0 1
8.3584 1.7701 -1.6035 0.2071 0 1
8.3548 1.7889 -1.6036 0.2071 0 1
8.3511 1.8078 -1.6037 0.2071 0 1
8.3475 1.8266 -1.6038 0.2071 0 1
8.3438 1.8454 -1.6038 0.2070 0 1
8.3400 1.8642 -1.6039 0.2070 0 1
8.3363 1.8830 -1.6040 0.2070 0 1
8.3325 1.9018 -1.6041 0.2070 0 1
8.3286 1.9206 -1.6042 0.2070 0 1
8.3247 1.9394 -1.6043 0.2070 0 1
8.3208 1.9582 -1.6044 0.2070 0 1
8.3169 1.9770 -1.6044 0.2070 0 1
8.3128 1.9957 -1.6045 0.2070 0 1
8.3088 2.0145 -1.6046 0.2069 0 1
8.3047 2.0332 -1.6047 0.2069 0 1
8.3006 2.0520 -1.6048 0.2069 0 1
8.2964 2.0707 -1.6049 0.2069 0 1
8.2922 2.0895 -1.6050 0.2069 0 1
8.2880 2.1082 -1.6051 0.2069 0 1
8.2837 2.1269 -1.6052 0.2069 0 1
8.2795 2.1456 -1.6053 0.2069 0 1
8.2751 2.1643 -1.6054 0.2068 0 1
8.2707 2.1830 -1.6055 0.2068 0 1
8.2663 2.2017 -1.6056 0.2068 0 1
8.2619 2.2204 -1.6057 0.2068 0 1
8.2473 2.2363 -1.6038 0.2747 0 2
8.1792 2.2376 -1.5915 0.2768 0 2
8.1122 2.2388 -1.5794 0.2789 0 2
8.0461 2.2400 -1.5676 0.2810 0 2
7.9833 2.2418 -1.5563 0.3225 0 2
7.9277 2.2454 -1.5464 0.3245 0 2
7.8729 2.2490 -1.5367 0.3266 0 2
7.8187 2.2525 -1.5271 0.3286 0 2
7.7652 2.2560 -1.5177 0.3307 0 2
7.7448 2.2689 -1.5147 0.2067 0 2
7.7402 2.2864 -1.5148 0.2067 0 2
7.7356 2.3040 -1.5149 0.2067 0 2
7.7309 2.3215 -1.5150 0.2066 0 2
7.7262 2.3390 -1.5151 0.2066 0 2
7.7215 2.3565 -1.5152 0.2066 0 2
7.7167 2.3739 -1.5153 0.2066 0 2
7.7119 2.3914 -1.5154 0.2066 0 2
7.7071 2.4089 -1.5155 0.2066 0 2
7.7359 2.4370 -1.5223 0.3521 0 2
7.6973 2.4438 -1.5157 0.2065 0 2
7.6924 2.4613 -1.5158 0.2065 0 2
7.6874 2.4787 -1.5160 0.2065 0 2
7.6824 2.4962 -1.5161 0.2065 0 2
7.6773 2.5136 -1.5162 0.2065 0 2
7.6722 2.5310 -1.5163 0.2065 0 2
7.6671 2.5484 -1.5164 0.2064 0 2
7.6620 2.5658 -1.5165 0.2064 0 2
7.6568 2.5832 -1.5166 0.2064 0 2
7.6516 2.6005 -1.5168 0.2064 0 2
7.6463 2.6179 -1.5169 0.2064 0 2
7.6410 2.6353 -1.5170 0.2064 0 2
7.6357 2.6526 -1.5171 0.2063 0 2
7.6303 2.6699 -1.5172 0.2063 0 2
7.6249 2.6873 -1.5174 0.2063 0 2
7.6195 2.7046 -1.5175 0.2063 0 2
7.6140 2.7219 -1.5176 0.2063 0 2
7.6085 2.7392 -1.5177 0.2063 0 2
7.6029 2.7565 -1.5178 0.2062 0 2
7.5974 2.7738 -1.5180 0.2062 0 2
7.5918 2.7911 -1.5181 0.2062 0 2
7.5861 2.8083 -1.5182 0.2062 0 2
7.5804 2.8256 -1.5184 0.2062 0 2
7.5747 2.8428 -1.5185 0.2062 0 2
7.5689 2.8601 -1.5186 0.2061 0 2
7.5632 2.8773 -1.5187 0.2061 0 2
7.5573 2.8945 -1.5189 0.2061 0 2
7.5515 2.9117 -1.5190 0.2061 0 2
7.5456 2.9289 -1.5191 0.2061 0 2
7.5397 2.9461 -1.5193 0.2061 0 2
7.5337 2.9632 -1.5194 0.2060 0 2
7.5277 2.9804 -1.5195 0.2060 0 2
7.5217 2.9976 -1.5197 0.2060 0 2
7.5156 3.0147 -1.5198 0.2060 0 2
7.5095 3.0319 -1.5200 0.2060 0 2
7.5034 3.0490 -1.5201 0.2059 0 2
7.4972 3.0661 -1.5202 0.2059 0 2
7.4910 3.0832 -1.5204 0.2059 0 2
7.4847 3.1003 -1.5205 0.2059 0 2
7.4784 3.1173 -1.5207 0.2059 0 2
7.4721 3.1344 -1.5208 0.2058 0 2
7.4658 3.1515 -1.5209 0.2058 0 2
7.4594 3.1685 -1.5211 0.2058 0 2
7.4530 3.1855 -1.5212 0.2058 0 2
7.4465 3.2026 -1.5214 0.2058 0 2
7.4401 3.2196 -1.5215 0.2057 0 2
7.4336 3.2366 -1.5217 0.2057 0 2
7.4270 3.2536 -1.5218 0.2057 0 2
7.4204 3.2706 -1.5220 0.2057 0 2
7.4138 3.2875 -1.5221 0.2057 0 2
7.4071 3.3045 -1.5223 0.2056 0 2
7.4004 3.3214 -1.5224 0.2056 0 2
7.3937 3.3384 -1.5226 0.2056 0 2
7.3869 3.3553 -1.5227 0.2056 0 2
7.3801 3.3722 -1.5229 0.2056 0 2
7.3733 3.3891 -1.5230 0.2055 0 2
7.3664 3.4060 -1.5232 0.2055 0 2
7.3595 3.4229 -1.5234 0.2055 0 2
7.3526 3.4397 -1.5235 0.2055 0 2
7.3456 3.4565 -1.5237 0.2055 0 2
7.3386 3.4734 -1.5238 0.2054 0 2
7.3315 3.4902 -1.5240 0.2054 0 2
7.3245 3.5070 -1.5241 0.2054 0 2
7.3173 3.5238 -1.5243 0.2054 0 2
7.3102 3.5406 -1.5245 0.2054 0 2
7.3030 3.5574 -1.5246 0.2053 0 2
7.2958 3.5742 -1.5248 0.2053 0 2
7.2885 3.5909 -1.5250 0.2053 0 2
7.2813 3.6077 -1.5251 0.2053 0 2
7.2739 3.6244 -1.5253 0.2052 0 2
7.2666 3.6411 -1.5255 0.2052 0 2
7.2592 3.6578 -1.5256 0.2052 0 2
7.2518 3.6745 -1.5258 0.2052 0 2
7.2443 3.6912 -1.5260 0.2051 0 2
7.2369 3.7078 -1.5261 0.2051 0 2
7.2293 3.7245 -1.5263 0.2051 0 2
7.2217 3.7411 -1.5265 0.2051 0 2
7.2141 3.7577 -1.5267 0.2051 0 2
7.2065 3.7743 -1.5268 0.2050 0 2
7.1989 3.7909 -1.5270 0.2050 0 2
7.1912 3.8075 -1.5272 0.2050 0 2
7.1834 3.8241 -1.5274 0.2050 0 2
7.1756 3.8406 -1.5275 0.2049 0 2
7.1679 3.8572 -1.5277 0.2049 0 2
7.1600 3.8737 -1.5279 0.2049 0 2
7.1521 3.8902 -1.5281 0.2049 0 2
7.1443 3.9067 -1.5283 0.2048 0 2
7.1363 3.9232 -1.5284 0.2048 0 2
7.1283 3.9397 -1.5286 0.2048 0 2
7.1203 3.9561 -1.5288 0.2048 0 2
7.1123 3.9726 -1.5290 0.2047 0 2
7.1042 3.9890 -1.5292 0.2047 0 2
7.0961 4.0054 -1.5293 0.2047 0 2
7.0879 4.0218 -1.5295 0.2047 0 2
7.0798 4.0382 -1.5297 0.2046 0 2
7.0715 4.0546 -1.5299 0.2046 0 2
7.0633 4.0709 -1.5301 0.2046 0 2
7.0550 4.0873 -1.5303 0.2046 0 2
7.0467 4.1036 -1.5305 0.2045 0 2
7.0384 4.1199 -1.5307 0.2045 0 2
7.0300 4.1363 -1.5309 0.2045 0 2
7.0216 4.1525 -1.5311 0.2045 0 2
7.0131 4.1688 -1.5312 0.2044 0 2
7.0046 4.1851 -1.5314 0.2044 0 2
6.9961 4.2013 -1.5316 0.2044 0 2
6.9876 4.2175 -1.5318 0.2044 0 2
6.9790 4.2337 -1.5320 0.2043 0 2
6.9704 4.2499 -1.5322 0.2043 0 2
6.9617 4.2661 -1.5324 0.2043 0 2
6.9530 4.2823 -1.5326 0.2043 0 2
6.9443 4.2985 -1.5328 0.2042 0 2
6.9355 4.3146 -1.5330 0.2042 0 2
6.9267 4.3307 -1.5332 0.2042 0 2
6.9179 4.3468 -1.5334 0.2042 0 2
6.9091 4.3629 -1.5336 0.2041 0 2
6.9002 4.3790 -1.5338 0.2041 0 2
6.8912 4.3950 -1.5340 0.2041 0 2
6.8823 4.4111 -1.5342 0.2040 0 2
6.8733 4.4271 -1.5344 0.2040 0 2
6.8643 4.4431 -1.5347 0.2040 0 2
6.8552 4.4591 -1.5349 0.2040 0 2
6.8461 4.4751 -1.5351 0.2039 0 2
6.8370 4.4911 -1.5353 0.2039 0 2
6.8279 4.5070 -1.5355 0.2039 0 2
6.8187 4.5229 -1.5357 0.2038 0 2
6.8094 4.5388 -1.5359 0.2038 0 2
6.8002 4.5547 -1.5361 0.2038 0 2
6.7909 4.5706 -1.5363 0.2038 0 2
6.7815 4.5865 -1.5366 0.2037 0 2
6.7722 4.6023 -1.5368 0.2037 0 2
6.7628 4.6182 -1.5370 0.2037 0 2
6.7533 4.6340 -1.5372 0.2037 0 2
6.7439 4.6498 -1.5374 0.2036 0 2
6.7344 4.6656 -1.5376 0.2036 0 2
6.7249 4.6813 -1.5379 0.2036 0 2
6.7153 4.6971 -1.5381 0.2035 0 2
6.7057 4.7128 -1.5383 0.2035 0 2
6.6961 4.7285 -1.5385 0.2035 0 2
6.6864 4.7442 -1.5387 0.2034 0 2
6.6767 4.7599 -1.5390 0.2034 0 2
6.6670 4.7756 -1.5392 0.2034 0 2
6.6572 4.7912 -1.5394 0.2034 0 2
6.6474 4.8069 -1.5396 0.2033 0 2
6.6376 4.8225 -1.5399 0.2033 0 2
6.6277 4.8380 -1.5401 0.2033 0 2
6.6178 4.8536 -1.5403 0.2032 0 2
6.6079 4.8692 -1.5405 0.2032 0 2
6.5979 4.8847 -1.5408 0.2032 0 2
6.5879 4.9003 -1.5410 0.2031 0 2
6.5779 4.9157 -1.5412 0.2031 0 2
6.5679 4.9313 -1.5415 0.2031 0 2
6.5578 4.9467 -1.5417 0.2031 0 2
6.5476 4.9622 -1.5419 0.2030 0 2
6.5375 4.9776 -1.5422 0.2030 0 2
6.5273 4.9930 -1.5424 0.2030 0 2
6.5171 5.0084 -1.5426 0.2029 0 2
6.5068 5.0238 -1.5429 0.2029 0 2
6.4965 5.0392 -1.5431 0.2029 0 2
6.4862 5.0545 -1.5433 0.2028 0 2
6.4758 5.0698 -1.5436 0.2028 0 2
6.4654 5.0851 -1.5438 0.2028 0 2
6.4550 5.1004 -1.5441 0.2027 0 2
6.4446 5.1157 -1.5443 0.2027 0 2
6.4341 5.1310 -1.5445 0.2027 0 2
6.4235 5.1462 -1.5448 0.2027 0 2
6.4130 5.1614 -1.5450 0.2026 0 2
6.4024 5.1766 -1.5453 0.2026 0 2
6.3918 5.1918 -1.5455 0.2026 0 2
6.3811 5.2069 -1.5458 0.2025 0 2
6.3704 5.2221 -1.5460 0.2025 0 2
6.3597 5.2372 -1.5463 0.2025 0 2
6.3490 5.2523 -1.5465 0.2024 0 2
6.3382 5.2674 -1.5468 0.2024 0 2
6.3273 5.2824 -1.5470 0.2024 0 2
6.3165 5.2975 -1.5473 0.2023 0 2
6.3056 5.3125 -1.5475 0.2023 0 2
6.2947 5.3275 -1.5478 0.2023 0 2
6.2838 5.3425 -1.5480 0.2022 0 2
6.2728 5.3574 -1.5483 0.2022 0 2
6.2618 5.3724 -1.5485 0.2022 0 2
6.2507 5.3873 -1.5488 0.2021 0 2
6.2396 5.4022 -1.5490 0.2021 0 2
6.2285 5.4171 -1.5493 0.2021 0 2
6.2174 5.4320 -1.5495 0.2020 0 2
6.2062 5.4468 -1.5498 0.2020 0 2
6.1950 5.4616 -1.5501 0.2020 0 2
6.1838 5.4764 -1.5503 0.2019 0 2
6.1725 5.4912 -1.5506 0.2019 0 2
6.1612 5.5060 -1.5508 0.2019 0 2
6.1499 5.5207 -1.5511 0.2018 0 2
6.1385 5.5354 -1.5514 0.2018 0 2
6.1271 5.5501 -1.5516 0.2018 0 2
6.1157 5.5648 -1.5519 0.2017 0 2
6.1042 5.5795 -1.5521 0.2017 0 2
6.0927 5.5941 -1.5524 0.2017 0 2
6.0812 5.6087 -1.5527 0.2016 0 2
6.0696 5.6234 -1.5529 0.2016 0 2
6.0580 5.6379 -1.5532 0.2016 0 2
6.0464 5.6525 -1.5535 0.2015 0 2
6.0348 5.6670 -1.5538 0.2015 0 2
6.0231 5.6815 -1.5540 0.2014 0 2
6.0114 5.6960 -1.5543 0.2014 0 2
5.9996 5.7105 -1.5546 0.2014 0 2
5.9879 5.7249 -1.5548 0.2013 0 2
5.9760 5.7394 -1.5551 0.2013 0 2
5.9642 5.7538 -1.5554 0.2013 0 2
5.9523 5.7682 -1.5557 0.2012 0 2
5.9404 5.7825 -1.5559 0.2012 0 2
5.9285 5.7969 -1.5562 0.2012 0 2
5.9165 5.8112 -1.5565 0.2011 0 2
5.9045 5.8255 -1.5568 0.2011 0 2
5.8925 5.8398 -1.5570 0.2011 0 2
5.8804 5.8540 -1.5573 0.2010 0 2
5.7681 -5.7681 -1.6008 0.7114 0 2
5.7935 -5.7676 -1.6042 0.7099 0 2
5.8190 -5.7670 -1.6077 0.7084 0 2
5.8446 -5.7664 -1.6112 0.7068 0 2
5.8712 -5.7667 -1.6149 0.6746 0 2
5.8981 -5.7672 -1.6188 0.6730 0 2
5.9252 -5.7677 -1.6226 0.6714 0 2
5.9524 -5.7682 -1.6265 0.6698 0 2
5.9797 -5.7687 -1.6305 0.6682 0 2
6.0071 -5.7692 -1.6344 0.6666 0 2
6.0347 -5.7697 -1.6384 0.6649 0 2
6.0624 -5.7703 -1.6424 0.6633 0 2
6.0903 -5.7708 -1.6464 0.6617 0 2
6.1183 -5.7713 -1.6505 0.6601 0 2
6.1464 -5.7718 -1.6546 0.6584 0 2
6.1702 -5.7682 -1.6575 0.2091 0 1
6.1821 -5.7534 -1.6572 0.2092 0 1
6.1939 -5.7385 -1.6569 0.2092 0 1
6.2057 -5.7236 -1.6567 0.2092 0 1
6.2175 -5.7087 -1.6564 0.2093 0 1
6.2293 -5.6938 -1.6561 0.2093 0 1
6.2410 -5.6788 -1.6558 0.2094 0 1
6.2526 -5.6638 -1.6555 0.2094 0 1
6.2642 -5.6488 -1.6552 0.2094 0 1
6.2759 -5.6338 -1.6550 0.2095 0 1
6.2874 -5.6188 -1.6547 0.2095 0 1
6.2990 -5.6037 -1.6544 0.2095 0 1
6.3105 -5.5887 -1.6541 0.2096 0 1
