ply
format ascii 1.0
element vertex 1383
property float32 x
property float32 y
property float32 z
property float32 CosAngle
property uint32 ObjIdx
property uint32 ObjTag
end_header
11.5775 8.6668 3.4626 0.5757 0 3
10.0429 8.7022 3.1816 0.6301 0 3
13.5134 8.6846 3.7062 0.5193 0 3
11.5775 8.6668 3.3367 0.5768 0 3
10.0429 8.7022 3.0660 0.6313 0 3
13.5134 8.6846 3.5670 0.5202 0 3
11.5625 8.6556 3.2072 0.2250 0 3
10.0429 8.7023 2.9508 0.6325 0 3
13.5134 8.6846 3.4282 0.5212 0 3
11.6236 8.7014 3.0988 0.5789 0 3
10.0429 8.7023 2.8361 0.6336 0 3
13.4250 8.6277 3.2685 0.5221 0 3
11.6236 8.7014 2.9738 0.5799 0 3
10.0429 8.7023 2.7217 0.6347 0 3
13.5915 8.7348 3.1704 0.5229 0 3
11.6237 8.7014 2.8493 0.5808 0 3
10.0429 8.7023 2.6077 0.6358 0 3
13.5915 8.7348 3.0323 0.5238 0 3
11.6237 8.7014 2.7251 0.5818 0 3
10.0429 8.7023 2.4941 0.6368 0 3
13.5915 8.7348 2.8946 0.5246 0 3
11.6237 8.7014 2.6014 0.5826 0 3
10.0429 8.7023 2.3808 0.6378 0 3
20.6266 11.2629 4.0108 0.0462 0 3
13.5916 8.7348 2.7573 0.5253 0 3
11.6237 8.7014 2.4780 0.5835 0 3
10.0429 8.7023 2.2679 0.6387 0 3
27.4333 -8.0552 4.6373 0.4192 0 6
19.1115 10.4356 3.5317 0.8707 0 3
13.5916 8.7348 2.6204 0.5260 0 3
11.6237 8.7014 2.3550 0.5843 0 3
10.0429 8.7023 2.1553 0.6396 0 3
19.4838 10.6390 3.4129 0.8719 0 3
13.5916 8.7348 2.4839 0.5267 0 3
11.6237 8.7014 2.2322 0.5850 0 3
9.9199 8.5956 2.0180 0.6404 0 3
23.5778 10.7676 3.7664 0.0420 0 3
19.4839 10.6390 3.2258 0.8729 0 3
13.5916 8.7348 2.3477 0.5274 0 3
11.6237 8.7014 2.1099 0.5858 0 3
9.9852 8.6523 1.9199 0.6412 0 3
41.8074 12.2758 5.9650 0.5173 0 6
19.9954 9.1316 3.0093 0.0496 0 3
19.4840 10.6391 3.0391 0.8740 0 3
13.5916 8.7348 2.2118 0.5280 0 3
11.5725 8.6630 1.9790 0.1419 0 3
9.9852 8.6523 1.8088 0.6419 0 3
14.6910 -12.7298 2.4981 0.8116 0 6
20.2048 9.2272 2.8544 0.4037 0 3
19.4841 10.6391 2.8528 0.8749 0 3
13.5916 8.7348 2.0762 0.5286 0 3
11.5775 8.6669 1.8585 0.5871 0 3
9.9852 8.6523 1.6979 0.6426 0 3
14.6850 -12.7246 2.3344 0.8273 0 6
27.8398 10.3837 3.5696 0.0368 0 3
20.2047 9.2272 2.6684 0.4042 0 3
19.4842 10.6392 2.6670 0.8758 0 3
13.5135 8.6846 1.9298 0.5291 0 3
11.5775 8.6669 1.7374 0.5877 0 3
9.9852 8.6523 1.5873 0.6433 0 3
14.6714 -12.7128 2.1700 0.9392 0 6
23.1213 8.6238 2.7584 0.0443 0 3
20.2048 9.2272 2.4828 0.4045 0 3
19.4843 10.6392 2.4815 0.8766 0 3
13.5135 8.6846 1.7955 0.5296 0 3
11.5776 8.6669 1.6166 0.5883 0 3
9.9852 8.6523 1.4769 0.6439 0 3
14.6242 -12.6719 2.0016 0.7770 0 6
30.4789 -19.5876 3.7476 0.3507 0 3
24.8533 9.2698 2.7437 0.3391 0 3
20.1951 9.2228 2.2964 0.9086 0 3
19.5226 10.6601 2.3008 0.8774 0 3
13.5135 8.6846 1.6616 0.5301 0 3
11.5776 8.6669 1.4959 0.5888 0 3
9.9853 8.6523 1.3666 0.6445 0 3
14.5753 -14.5753 1.9605 0.4988 0 6
14.5225 -12.5838 1.8276 0.9885 0 6
30.2088 -22.6140 3.5890 0.3738 0 3
29.8781 -19.2015 3.3779 0.3581 0 3
31.0706 -16.9658 3.3670 0.2606 0 3
24.8533 9.2698 2.5229 0.3393 0 3
20.1952 9.2228 2.1116 0.9093 0 3
19.5227 10.6602 2.1156 0.8781 0 3
13.5135 8.6846 1.5278 0.5305 0 3
11.5776 8.6669 1.3755 0.5893 0 3
8.4663 7.3361 1.0655 0.7583 0 3
14.7650 -14.7650 1.8124 0.5350 0 6
14.6694 -12.7111 1.6847 0.9737 0 6
29.6125 -22.1677 3.2106 0.3440 0 3
29.3149 -18.8396 3.0246 0.3806 0 3
30.3176 -16.5547 2.9982 0.8700 0 3
29.3203 8.6092 2.6523 0.2637 0 3
24.8533 9.2698 2.3023 0.3396 0 3
20.1953 9.2229 1.9270 0.9100 0 3
19.5228 10.6603 1.9307 0.8788 0 3
13.5135 8.6846 1.3943 0.5309 0 3
8.9454 6.6964 0.9699 0.5897 0 3
8.4664 7.3362 0.9723 0.7589 0 3
29.2727 -29.2727 3.2495 0.2114 0 3
28.9763 -25.1081 3.0096 0.3684 0 3
29.0186 -21.7230 2.8453 0.3513 0 3
28.7861 -18.4997 2.6859 0.3879 0 3
29.8752 -16.3131 2.6719 0.2731 0 3
24.8533 9.2698 2.0821 0.3398 0 3
20.1954 9.2229 1.7427 0.9106 0 3
19.5229 10.6603 1.7460 0.8794 0 3
10.4411 6.7101 0.9742 0.5313 0 3
9.7397 7.2910 0.9550 0.0778 0 3
9.1919 7.9649 0.9547 0.0778 0 3
28.2764 -28.2764 2.8073 0.3534 0 3
28.4343 -24.6384 2.6413 0.3757 0 3
28.4487 -21.2964 2.4948 0.3586 0 3
28.2766 -18.1723 2.3597 0.3951 0 3
29.2374 -15.9648 2.3386 0.2792 0 3
23.5129 8.7698 1.7617 0.6201 0 3
20.1955 9.2230 1.5586 0.9112 0 3
12.3202 6.7273 0.9855 0.4700 0 3
11.4553 7.3619 0.9559 0.0695 0 3
10.8976 8.1579 0.9557 0.0696 0 3
9.9853 8.6523 0.9275 0.6463 0 3
27.7258 -27.7258 2.4279 0.3607 0 3
27.9128 -24.1866 2.2870 0.3829 0 3
27.9014 -20.8867 2.1582 0.3658 0 3
27.7855 -17.8567 2.0452 0.4023 0 3
28.6270 -15.6315 2.0197 0.2853 0 3
44.0350 -20.1101 2.9976 0.1726 0 3
23.2863 8.6853 1.5389 0.6265 0 3
20.1956 9.2230 1.3748 0.9117 0 3
13.5665 7.4079 0.9571 0.0613 0 3
12.9995 8.3543 0.9568 0.0613 0 3
11.5776 8.6669 0.8955 0.5908 0 3
9.9853 8.6523 0.8181 0.6467 0 3
27.1968 -27.1968 2.0634 0.3679 0 3
27.4106 -23.7514 1.9458 0.3901 0 3
27.3980 -20.5098 1.8361 0.3884 0 3
27.3116 -17.5521 1.7417 0.4095 0 3
28.0421 -15.3121 1.7141 0.2914 0 3
42.3755 -19.3522 2.4992 0.9045 0 3
23.0022 8.5794 1.3171 0.5334 0 3
20.1957 9.2230 1.1911 0.9121 0 3
19.4850 10.6396 1.1910 0.8808 0 3
13.5135 8.6846 0.8618 0.5321 0 3
11.5776 8.6669 0.7759 0.5911 0 3
9.9853 8.6523 0.7088 0.6470 0 3
26.6881 -26.6881 1.7128 0.3750 0 3
26.9266 -23.3320 1.6169 0.3973 0 3
26.9145 -20.1479 1.5258 0.3956 0 3
26.8540 -17.2580 1.4487 0.4166 0 3
27.4811 -15.0058 1.4210 0.2974 0 3
33.4272 -15.2657 1.6677 0.2566 0 3
24.7751 7.2746 1.1718 0.1114 0 3
22.7236 8.4755 1.1006 0.5402 0 3
20.1958 9.2231 1.0076 0.9125 0 3
19.4851 10.6397 1.0075 0.8812 0 3
13.4251 8.6278 0.7242 0.5324 0 3
11.5776 8.6669 0.6563 0.5913 0 3
9.9853 8.6523 0.5996 0.6472 0 3
25.6567 -25.6567 1.3469 0.1636 0 3
26.4597 -22.9274 1.2997 0.4044 0 3
26.4481 -19.7988 1.2264 0.4027 0 3
26.4391 -16.9914 1.1667 0.7218 0 3
27.0359 -14.7627 1.1435 0.3589 0 3
32.6701 -14.9199 1.3333 0.2626 0 3
24.2056 7.1074 0.9365 0.2727 0 3
22.6976 8.4658 0.8993 0.9395 0 3
20.2049 9.2272 0.8246 0.4068 0 3
19.4852 10.6397 0.8241 0.8814 0 3
13.5916 8.7348 0.5998 0.5325 0 3
11.5776 8.6669 0.5369 0.5915 0 3
9.9853 8.6523 0.4905 0.6475 0 3
25.0179 -25.0179 1.0214 0.8702 0 3
25.9639 -22.4979 0.9918 0.6615 0 3
26.4178 -19.7761 0.9526 0.8130 0 3
26.4766 -17.0155 0.9085 0.8525 0 3
27.0701 -14.7814 0.8904 0.4777 0 3
32.3696 -14.7827 1.0273 0.4176 0 3
24.4070 7.1665 0.7343 0.0283 0 3
23.8232 8.8856 0.7340 0.0283 0 3
20.2049 9.2272 0.6412 0.4069 0 3
19.4853 10.6398 0.6409 0.8817 0 3
13.5916 8.7348 0.4664 0.5327 0 3
11.5776 8.6669 0.4175 0.5917 0 3
9.9859 8.6529 0.3814 0.6480 0 3
25.0671 -25.0671 0.7309 0.8703 0 3
26.1219 -22.6347 0.7126 0.7691 0 3
26.5145 -19.8485 0.6828 0.8038 0 3
26.5304 -17.0501 0.6502 0.8441 0 3
27.1608 -14.8309 0.6380 0.4786 0 3
32.4970 -14.8408 0.7365 0.4135 0 3
24.5657 9.1625 0.5405 0.3408 0 3
20.2049 9.2272 0.4579 0.4070 0 3
19.4854 10.6398 0.4577 0.8819 0 3
13.5916 8.7348 0.3331 0.5328 0 3
11.5776 8.6669 0.2982 0.5918 0 3
9.9886 8.6551 0.2725 0.6480 0 3
25.0671 -25.0671 0.4385 0.8704 0 3
26.1219 -22.6347 0.4275 0.7692 0 3
26.5147 -19.8486 0.4097 0.8039 0 3
26.5306 -17.0502 0.3901 0.8443 0 3
27.1608 -14.8309 0.3828 0.4787 0 3
32.4969 -14.8408 0.4419 0.4135 0 3
24.5657 9.1625 0.3243 0.3408 0 3
20.2049 9.2272 0.2747 0.4070 0 3
19.4855 10.6399 0.2746 0.8820 0 3
13.5916 8.7348 0.1998 0.5329 0 3
11.5776 8.6669 0.1789 0.5919 0 3
9.9912 8.6574 0.1635 0.6479 0 3
25.2635 -25.2635 0.1473 0.8705 0 3
26.1219 -22.6348 0.1425 0.7692 0 3
26.8728 -20.1167 0.1384 0.8039 0 3
26.8890 -17.2805 0.1318 0.8443 0 3
27.1608 -14.8309 0.1276 0.4787 0 3
32.4969 -14.8408 0.1473 0.4135 0 3
24.5657 9.1625 0.1081 0.3409 0 3
20.2049 9.2272 0.0916 0.4071 0 3
19.4856 10.6400 0.0915 0.8820 0 3
13.5916 8.7348 0.0666 0.5329 0 3
11.5776 8.6669 0.0596 0.5919 0 3
9.9938 8.6597 0.0545 0.6477 0 3
25.2634 -25.2634 -0.1473 0.8707 0 3
26.1220 -22.6348 -0.1425 0.7692 0 3
26.8730 -20.1169 -0.1384 0.8039 0 3
26.8891 -17.2806 -0.1318 0.8443 0 3
27.1608 -14.8309 -0.1276 0.4787 0 3
32.4969 -14.8408 -0.1473 0.4135 0 3
40.1152 -11.7789 -0.1724 0.9569 0 21
20.7505 4.5140 -0.0876 0.6886 279 12
24.5657 9.1625 -0.1081 0.3409 0 3
20.2049 9.2273 -0.0916 0.4071 0 3
19.4857 10.6400 -0.0915 0.8820 0 3
13.5916 8.7348 -0.0666 0.5329 0 3
11.5776 8.6669 -0.0596 0.5919 0 3
9.9964 8.6619 -0.0545 0.6476 0 3
25.2634 -25.2634 -0.4419 0.8707 0 3
26.1220 -22.6348 -0.4275 0.7692 0 3
26.8732 -20.1170 -0.4152 0.8039 0 3
26.8892 -17.2807 -0.3954 0.8442 0 3
27.1608 -14.8309 -0.3828 0.4787 0 3
32.4969 -14.8408 -0.4419 0.4135 0 3
39.9966 -11.7440 -0.5156 0.9568 0 21
20.6580 4.4939 -0.2615 0.9097 279 12
24.5657 9.1625 -0.3243 0.3408 0 3
20.2049 9.2273 -0.2747 0.4070 0 3
19.4858 10.6401 -0.2746 0.8820 0 3
13.5917 8.7348 -0.1998 0.5329 0 3
11.5776 8.6669 -0.1789 0.5919 0 3
9.9990 8.6642 -0.1637 0.6474 0 3
25.2633 -25.2633 -0.7366 0.8707 0 3
26.1220 -22.6348 -0.7126 0.7691 0 3
26.8733 -20.1171 -0.6921 0.8037 0 3
26.8894 -17.2808 -0.6590 0.8441 0 3
27.1608 -14.8309 -0.6380 0.4786 0 3
32.4969 -14.8408 -0.7366 0.4135 0 3
35.7316 -10.4917 -0.7678 0.9631 0 5
20.5929 4.4797 -0.4345 0.9185 279 12
24.5658 9.1625 -0.5406 0.3408 0 3
20.2049 9.2273 -0.4580 0.4070 0 3
19.4859 10.6401 -0.4577 0.8818 0 3
13.5917 8.7348 -0.3331 0.5328 0 3
11.5776 8.6669 -0.2982 0.5918 0 3
10.0016 8.6665 -0.2728 0.6471 0 3
25.2628 -25.2629 -1.0314 0.8706 0 3
26.1220 -22.6348 -0.9978 0.7689 0 3
26.8735 -20.1172 -0.9691 0.8036 0 3
26.8895 -17.2809 -0.9227 0.8439 0 3
27.1608 -14.8309 -0.8933 0.4785 0 3
32.4968 -14.8408 -1.0313 0.4134 0 3
46.7919 -17.4525 -1.4417 0.0320 0 2
20.6848 -6.0736 -0.6223 0.9565 0 20
20.6209 4.4858 -0.6092 0.5129 279 12
24.5658 9.1626 -0.7569 0.3407 0 3
20.2049 9.2273 -0.6412 0.4069 0 3
13.2114 7.2140 -0.4345 0.4710 0 3
13.4251 8.6278 -0.4607 0.5327 0 3
11.4999 8.6087 -0.4147 0.5917 0 3
10.0042 8.6687 -0.3821 0.6468 0 3
25.0658 -25.0658 -1.3159 0.8704 0 3
26.1220 -22.6348 -1.2831 0.7687 0 3
26.8736 -20.1173 -1.2462 0.8034 0 3
26.8897 -17.2810 -1.1866 0.8437 0 3
27.1608 -14.8309 -1.1488 0.4784 0 3
32.4968 -14.8408 -1.3262 0.4133 0 3
26.8623 -10.0191 -1.0643 0.9841 0 20
20.6849 -6.0736 -0.8003 0.9562 0 20
43.0831 -9.3721 -1.6368 0.2214 0 25
44.6873 -6.4251 -1.6760 0.0376 0 2
47.7534 -3.4154 -1.7773 0.0377 0 1
47.8711 0.0000 -1.7771 0.0377 0 1
47.7484 3.4150 -1.7771 0.0377 0 1
47.3861 6.8131 -1.7772 0.0377 0 1
20.5537 4.4712 -0.7808 0.8612 279 12
45.9502 13.4922 -1.7778 0.0376 0 1
24.5658 9.1626 -0.9733 0.3406 0 3
20.2049 9.2273 -0.8246 0.4068 0 3
19.4862 10.6402 -0.8242 0.8814 0 3
13.5136 8.6846 -0.5963 0.5325 0 3
11.5776 8.6669 -0.5369 0.5915 0 3
8.5070 7.3714 -0.4179 0.7612 0 3
25.0657 -25.0657 -1.6087 0.8701 0 3
26.1220 -22.6349 -1.5686 0.7684 0 3
26.8738 -20.1174 -1.5235 0.8031 0 3
26.8898 -17.2811 -1.4506 0.8434 0 3
27.1608 -14.8309 -1.4044 0.4782 0 3
32.4968 -14.8408 -1.6213 0.4131 0 3
26.8550 -10.0164 -1.3008 0.9976 0 20
20.6849 -6.0737 -0.9784 0.9559 0 20
36.1891 -7.8725 -1.6808 0.0459 0 2
37.4989 -5.3915 -1.7193 0.1512 0 2
39.1672 -2.8013 -1.7820 0.0459 0 1
39.2644 0.0000 -1.7819 0.0459 0 1
39.1640 2.8011 -1.7819 0.0459 0 1
36.6420 5.2683 -1.6800 0.0460 0 2
20.4504 4.4487 -0.9498 0.8601 279 12
35.8062 10.5137 -1.6936 0.0459 0 0
24.5658 9.1626 -1.1899 0.3405 0 3
20.2049 9.2273 -1.0080 0.4066 0 3
19.4862 10.6403 -1.0076 0.8811 0 3
13.5135 8.6846 -0.7290 0.5324 0 3
11.5776 8.6669 -0.6563 0.5913 0 3
10.0030 8.6676 -0.6007 0.6485 0 3
22.3104 -22.3104 -1.6927 0.7046 0 2
23.4012 -20.2772 -1.6612 0.0540 0 2
24.7760 -18.5470 -1.6604 0.0540 0 2
14.7774 -9.4969 -0.9424 0.5475 0 20
27.1608 -14.8309 -1.6602 0.4780 0 3
28.9608 -13.2259 -1.7080 0.0541 0 0
26.8551 -10.0164 -1.5377 0.9972 0 20
20.6851 -6.0737 -1.1566 0.9555 0 20
30.6690 -6.6716 -1.6838 0.0541 0 2
32.9444 -4.7367 -1.7856 0.0541 0 1
33.1946 -2.3741 -1.7854 0.0541 0 1
33.2772 0.0000 -1.7853 0.0541 0 1
33.1921 2.3739 -1.7852 0.0541 0 1
31.0559 4.4652 -1.6832 0.0541 0 2
20.3491 4.4267 -1.1172 0.8555 279 12
30.1948 8.8660 -1.6883 0.0562 0 0
24.5658 9.1626 -1.4066 0.3404 0 3
20.2050 9.2273 -1.1917 0.4065 0 3
19.4864 10.6404 -1.1911 0.8807 0 3
13.5136 8.6846 -0.8618 0.5321 0 3
11.5776 8.6669 -0.7759 0.5911 0 3
9.9992 8.6643 -0.7098 0.6485 0 3
19.5668 -19.5668 -1.7135 0.0622 0 0
11.4008 -9.8789 -0.9341 0.5731 0 20
15.9417 -11.9338 -1.2331 0.4721 0 20
14.7774 -9.4969 -1.0877 0.5473 0 20
23.5417 -12.8547 -1.6609 0.0623 0 2
24.3910 -11.1390 -1.6604 0.0623 0 2
25.3569 -9.4576 -1.6758 0.3507 0 2
20.6852 -6.0737 -1.3349 0.9550 0 20
26.6068 -5.7879 -1.6861 0.0623 0 2
28.5815 -4.1094 -1.7880 0.0624 0 1
28.7989 -2.0597 -1.7878 0.0624 0 1
28.8710 0.0000 -1.7877 0.0624 0 1
28.7971 2.0596 -1.7877 0.0624 0 1
26.9440 3.8740 -1.6856 0.0624 0 2
20.3070 4.4175 -1.2868 0.9482 279 12
26.3258 7.7300 -1.6989 0.0623 0 0
23.1256 8.6254 -1.5283 0.9381 0 3
20.2050 9.2273 -1.3754 0.4063 0 3
14.5037 7.9196 -1.0233 0.8803 0 3
13.5136 8.6846 -0.9947 0.5319 0 3
11.5776 8.6669 -0.8955 0.5908 0 3
9.9953 8.6610 -0.8190 0.6484 0 3
9.4181 -9.4181 -0.9350 0.3732 0 21
11.3907 -9.8701 -1.0581 0.7478 0 20
15.9292 -11.9244 -1.3969 0.6051 0 20
14.7773 -9.4969 -1.2332 0.5470 0 20
21.4062 -11.6887 -1.7122 0.0705 0 0
22.1794 -10.1290 -1.7118 0.0705 0 0
22.5319 -8.4040 -1.6883 0.0705 0 2
20.6853 -6.0737 -1.5135 0.9545 0 20
24.9160 -5.4202 -1.7901 0.0706 0 1
25.2360 -3.6284 -1.7899 0.0706 0 1
25.4283 -1.8187 -1.7897 0.0706 0 1
25.4921 0.0000 -1.7896 0.0706 0 1
25.4269 1.8186 -1.7896 0.0706 0 1
23.7908 3.4206 -1.6874 0.0706 0 2
20.3320 4.4230 -1.4608 0.8561 279 12
23.2441 6.8251 -1.7007 0.0706 0 0
22.7015 8.4672 -1.7010 0.0706 0 0
20.2050 9.2273 -1.5594 0.4061 0 3
13.2115 7.2140 -1.0567 0.4700 0 3
13.2814 8.5355 -1.1083 0.0716 0 3
11.5776 8.6669 -1.0153 0.5905 0 3
9.9915 8.6577 -0.9281 0.6483 0 3
9.4412 -9.4412 -1.0481 0.3730 0 21
11.3908 -9.8701 -1.1831 0.7474 0 20
15.9292 -11.9244 -1.5619 0.6047 0 20
14.7774 -9.4969 -1.3788 0.5466 0 20
17.7721 -9.7043 -1.5894 0.0787 0 20
19.5836 -8.9435 -1.6899 0.0788 0 2
20.1674 -7.5221 -1.6896 0.0788 0 2
20.6489 -6.0630 -1.6892 0.0788 0 2
22.3022 -4.8515 -1.7915 0.0788 0 1
22.5889 -3.2478 -1.7913 0.0788 0 1
22.7613 -1.6279 -1.7912 0.0788 0 1
22.8184 0.0000 -1.7911 0.0788 0 1
22.7601 1.6279 -1.7911 0.0788 0 1
21.2959 3.0619 -1.6888 0.0788 0 2
20.3643 4.4300 -1.6359 0.5360 279 12
20.6468 6.0625 -1.6891 0.0788 0 2
20.3197 7.5789 -1.7023 0.0788 0 0
19.7307 9.0107 -1.7026 0.0788 0 0
13.1754 7.1943 -1.1783 0.4697 0 3
11.8687 7.6276 -1.1074 0.0761 0 3
11.3445 8.4924 -1.1123 0.0773 0 3
9.9877 8.6544 -1.0374 0.6480 0 3
9.4413 -9.4413 -1.1589 0.3728 0 21
11.4089 -9.8858 -1.3103 0.2776 0 20
15.8211 -11.8435 -1.7154 0.0869 0 0
14.7773 -9.4968 -1.5247 0.5463 0 20
17.1025 -9.3387 -1.6913 0.0869 0 2
17.7212 -8.0930 -1.6909 0.0870 0 2
18.2498 -6.8068 -1.6906 0.0870 0 2
18.9995 -5.5787 -1.7187 0.3020 0 2
20.1822 -4.3904 -1.7927 0.0870 0 1
20.4419 -2.9391 -1.7925 0.0870 0 1
20.5980 -1.4732 -1.7924 0.0870 0 1
20.6499 0.0000 -1.7923 0.0870 0 1
20.5971 1.4731 -1.7923 0.0870 0 1
19.2720 2.7709 -1.6899 0.0870 0 2
19.0263 4.1389 -1.6900 0.0870 0 2
18.6843 5.4862 -1.6902 0.0870 0 2
18.3881 6.8584 -1.7034 0.0870 0 0
17.8547 8.1540 -1.7037 0.0870 0 0
13.1757 7.1945 -1.3030 0.4693 0 3
10.9093 7.0110 -1.1256 0.5329 0 3
10.2429 7.6678 -1.1106 0.0817 0 3
9.7175 8.4202 -1.1160 0.0851 0 3
9.4414 -9.4414 -1.2699 0.3725 0 21
11.3909 -9.8703 -1.4335 0.7463 0 20
13.3746 -10.0121 -1.5890 0.0951 0 2
14.8048 -9.5145 -1.6738 0.3187 0 20
15.6150 -8.5264 -1.6921 0.0952 0 2
16.1802 -7.3892 -1.6918 0.0952 0 2
16.6631 -6.2150 -1.6915 0.0952 0 2
18.0973 -5.3138 -1.7939 0.0952 0 1
18.4280 -4.0088 -1.7937 0.0952 0 1
18.6653 -2.6837 -1.7935 0.0952 0 1
18.8079 -1.3452 -1.7934 0.0952 0 1
18.8554 0.0000 -1.7933 0.0952 0 1
18.8072 1.3451 -1.7933 0.0952 0 1
17.5972 2.5301 -1.6909 0.0952 0 2
17.3728 3.7792 -1.6910 0.0952 0 2
17.0604 5.0094 -1.6911 0.0952 0 2
16.6614 6.2144 -1.6913 0.0952 0 2
16.3025 7.4451 -1.7046 0.0952 0 0
13.1759 7.1946 -1.4278 0.4690 0 3
10.9052 7.0084 -1.2329 0.5327 0 3
8.5589 6.4071 -1.0169 0.4548 0 3
8.5074 7.3717 -1.0706 0.7582 0 3
9.4415 -9.4415 -1.3811 0.3722 0 21
11.3910 -9.8703 -1.5590 0.7457 0 20
13.2864 -9.9461 -1.7167 0.1033 0 0
13.7706 -8.8498 -1.6932 0.1033 0 2
14.3637 -7.8432 -1.6928 0.1034 0 2
14.8839 -6.7972 -1.6925 0.1034 0 2
15.3283 -5.7172 -1.6922 0.1034 0 2
16.6478 -4.8882 -1.7947 0.1034 0 1
16.9522 -3.6877 -1.7945 0.1034 0 1
17.1706 -2.4688 -1.7943 0.1034 0 1
17.3020 -1.2374 -1.7942 0.1034 0 1
17.3456 0.0000 -1.7942 0.1034 0 1
17.3013 1.2374 -1.7942 0.1034 0 1
17.0776 2.4554 -1.7846 0.1325 0 2
15.9817 3.4766 -1.6918 0.1034 0 2
15.6941 4.6082 -1.6919 0.1034 0 2
15.3270 5.7167 -1.6921 0.1034 0 2
14.9966 6.8487 -1.7053 0.1034 0 0
13.1759 7.1946 -1.5528 0.4689 0 3
10.5938 6.8083 -1.3026 0.0906 0 3
8.5186 6.3770 -1.1007 0.8017 0 3
8.4736 7.3425 -1.1598 0.7601 0 3
9.4417 -9.4417 -1.4925 0.3718 0 21
11.2455 -9.7443 -1.6633 0.6577 0 20
12.1329 -9.0826 -1.6941 0.1115 0 2
12.7471 -8.1921 -1.6937 0.1115 0 2
13.2965 -7.2604 -1.6934 0.1116 0 2
13.7781 -6.2922 -1.6931 0.1116 0 2
15.0398 -5.6095 -1.7943 0.3558 0 2
15.4114 -4.5252 -1.7954 0.1116 0 1
15.6933 -3.4139 -1.7952 0.1116 0 1
15.8956 -2.2854 -1.7951 0.1116 0 1
16.0173 -1.1456 -1.7950 0.1116 0 1
16.0577 0.0000 -1.7949 0.1116 0 1
16.0167 1.1455 -1.7949 0.1116 0 1
15.8945 2.2853 -1.7949 0.1116 0 1
14.7950 3.2185 -1.6924 0.1116 0 2
14.5287 4.2660 -1.6926 0.1116 0 2
14.1887 5.2921 -1.6927 0.1116 0 2
13.7767 6.2916 -1.6929 0.1116 0 2
13.1759 7.1946 -1.6780 0.4685 0 3
10.5186 6.7599 -1.3976 0.5317 0 3
8.5539 6.4034 -1.1944 0.8009 0 3
8.4737 7.3425 -1.2533 0.7594 0 3
9.4418 -9.4418 -1.6041 0.3715 0 21
10.6625 -9.2391 -1.6949 0.1197 0 2
11.2920 -8.4530 -1.6945 0.1197 0 2
11.8638 -7.6244 -1.6942 0.1197 0 2
12.3752 -6.7574 -1.6939 0.1198 0 2
12.8237 -5.8563 -1.6936 0.1198 0 2
14.0087 -5.2250 -1.7962 0.1198 0 1
14.3441 -4.2118 -1.7960 0.1198 0 1
14.6066 -3.1775 -1.7958 0.1198 0 1
14.7950 -2.1272 -1.7957 0.1198 0 1
14.9082 -1.0662 -1.7956 0.1198 0 1
14.9459 0.0000 -1.7955 0.1198 0 1
14.9078 1.0662 -1.7955 0.1198 0 1
14.7940 2.1271 -1.7956 0.1198 0 1
13.7705 2.9956 -1.6930 0.1198 0 2
13.5226 3.9706 -1.6931 0.1198 0 2
13.2061 4.9256 -1.6933 0.1198 0 2
12.8225 5.8558 -1.6935 0.1198 0 2
12.4690 6.8086 -1.7067 0.1198 0 0
10.3727 6.6661 -1.4813 0.1233 0 3
8.5540 6.4034 -1.2837 0.8002 0 3
8.4737 7.3425 -1.3470 0.7586 0 3
9.3303 -9.3303 -1.6957 0.1278 0 2
9.9699 -8.6390 -1.6953 0.1279 0 2
10.5587 -7.9041 -1.6949 0.1279 0 2
11.0935 -7.1294 -1.6946 0.1279 0 2
11.5719 -6.3187 -1.6943 0.1279 0 2
12.3379 -5.6345 -1.7430 0.4389 0 2
13.0996 -4.8859 -1.7967 0.1280 0 1
13.4133 -3.9385 -1.7965 0.1280 0 1
13.6589 -2.9713 -1.7963 0.1280 0 1
13.8351 -1.9892 -1.7962 0.1280 0 1
13.9410 -0.9971 -1.7961 0.1280 0 1
13.9763 0.0000 -1.7961 0.1280 0 1
13.9406 0.9971 -1.7961 0.1280 0 1
13.8342 1.9891 -1.7961 0.1280 0 1
12.8771 2.8012 -1.6935 0.1280 0 2
12.6453 3.7130 -1.6936 0.1280 0 2
12.3492 4.6060 -1.6938 0.1280 0 2
11.9904 5.4758 -1.6939 0.1280 0 2
11.5707 6.3181 -1.6942 0.1280 0 2
10.1758 6.5396 -1.5544 0.5318 0 3
8.5540 6.4035 -1.3731 0.7994 0 3
8.4738 7.3426 -1.4409 0.7579 0 3
8.7600 -8.7600 -1.6960 0.1360 0 2
9.3606 -8.1110 -1.6956 0.1360 0 2
9.9135 -7.4212 -1.6953 0.1361 0 2
10.4158 -6.6938 -1.6950 0.1361 0 2
10.8651 -5.9328 -1.6947 0.1361 0 2
11.9426 -5.4540 -1.7974 0.1361 0 1
12.2998 -4.5876 -1.7971 0.1361 0 1
12.5943 -3.6980 -1.7969 0.1362 0 1
12.8250 -2.7899 -1.7968 0.1362 0 1
12.9905 -1.8678 -1.7967 0.1362 0 1
13.0900 -0.9362 -1.7966 0.1362 0 1
13.1232 0.0000 -1.7965 0.1362 0 1
13.0897 0.9362 -1.7965 0.1362 0 1
12.9898 1.8677 -1.7966 0.1362 0 1
12.0910 2.6303 -1.6940 0.1362 0 2
11.8733 3.4863 -1.6941 0.1362 0 2
11.5952 4.3248 -1.6942 0.1362 0 2
11.2583 5.1415 -1.6944 0.1361 0 2
10.8641 5.9322 -1.6946 0.1361 0 2
10.1536 6.5253 -1.6523 0.1250 0 3
8.5541 6.4035 -1.4628 0.7985 0 3
8.4738 7.3426 -1.5350 0.7570 0 3
8.2543 -8.2543 -1.6962 0.1442 0 2
8.8204 -7.6429 -1.6959 0.1442 0 2
9.3415 -6.9929 -1.6956 0.1442 0 2
9.8149 -6.3076 -1.6953 0.1443 0 2
10.3651 -5.6598 -1.7161 0.5029 0 2
11.2538 -5.1394 -1.7977 0.1443 0 1
11.5904 -4.3230 -1.7975 0.1443 0 1
11.8681 -3.4848 -1.7973 0.1443 0 1
12.0855 -2.6290 -1.7972 0.1443 0 1
12.2415 -1.7600 -1.7971 0.1443 0 1
12.3353 -0.8822 -1.7970 0.1443 0 1
12.3666 0.0000 -1.7970 0.1444 0 1
12.3350 0.8822 -1.7970 0.1444 0 1
12.2408 1.7600 -1.7970 0.1444 0 1
11.3939 2.4786 -1.6944 0.1443 0 2
11.1887 3.2853 -1.6945 0.1443 0 2
10.9266 4.0754 -1.6946 0.1443 0 2
10.6090 4.8450 -1.6947 0.1443 0 2
10.2375 5.5901 -1.6949 0.1443 0 2
9.7887 6.2909 -1.6908 0.5311 0 3
8.5541 6.4035 -1.5527 0.7975 0 3
8.4739 7.3427 -1.6293 0.7561 0 3
7.8028 -7.8028 -1.6965 0.1523 0 2
8.3380 -7.2249 -1.6962 0.1524 0 2
8.8307 -6.6105 -1.6959 0.1524 0 2
9.2783 -5.9628 -1.6956 0.1524 0 2
10.2663 -5.6058 -1.7983 0.1524 0 1
10.6387 -4.8585 -1.7981 0.1524 0 1
10.9570 -4.0867 -1.7979 0.1525 0 1
11.2196 -3.2943 -1.7977 0.1525 0 1
11.4251 -2.4854 -1.7976 0.1525 0 1
11.5726 -1.6639 -1.7975 0.1525 0 1
11.6614 -0.8340 -1.7974 0.1525 0 1
11.6909 0.0000 -1.7973 0.1525 0 1
11.6611 0.8340 -1.7973 0.1525 0 1
11.5721 1.6638 -1.7974 0.1525 0 1
11.0409 2.4018 -1.7371 0.2304 0 2
10.5773 3.1058 -1.6948 0.1525 0 2
10.3295 3.8527 -1.6949 0.1525 0 2
10.0292 4.5802 -1.6951 0.1525 0 2
9.6780 5.2846 -1.6952 0.1525 0 2
9.2774 5.9622 -1.6954 0.1524 0 2
8.5542 6.4036 -1.6428 0.7966 0 3
8.3245 7.2132 -1.6934 0.1524 0 0
7.3972 -7.3971 -1.6967 0.1605 0 2
7.9046 -6.8494 -1.6964 0.1605 0 2
8.3718 -6.2670 -1.6961 0.1605 0 2
8.8341 -5.6773 -1.7032 0.5642 0 2
9.7329 -5.3146 -1.7986 0.1606 0 1
10.0860 -4.6061 -1.7984 0.1606 0 1
10.3878 -3.8745 -1.7982 0.1606 0 1
10.6368 -3.1232 -1.7980 0.1606 0 1
10.8318 -2.3563 -1.7979 0.1606 0 1
10.9716 -1.5775 -1.7978 0.1606 0 1
11.0558 -0.7907 -1.7977 0.1606 0 1
11.0838 0.0000 -1.7977 0.1607 0 1
11.0555 0.7907 -1.7977 0.1607 0 1
10.9711 1.5774 -1.7977 0.1606 0 1
10.8310 2.3562 -1.7978 0.1606 0 1
10.0280 2.9445 -1.6951 0.1606 0 2
9.7930 3.6526 -1.6952 0.1606 0 2
9.5083 4.3423 -1.6954 0.1606 0 2
9.1752 5.0100 -1.6955 0.1606 0 2
8.7853 5.6460 -1.6938 0.1540 0 0
8.3584 6.2570 -1.6934 0.1606 0 0
7.8919 6.8384 -1.6937 0.1605 0 0
7.0307 -7.0307 -1.6969 0.1686 0 2
7.5131 -6.5101 -1.6966 0.1686 0 2
7.9571 -5.9566 -1.6963 0.1687 0 2
8.8173 -5.6665 -1.7888 0.5405 0 2
9.2510 -5.0514 -1.7989 0.1687 0 1
9.5867 -4.3781 -1.7986 0.1687 0 1
9.8736 -3.6826 -1.7985 0.1687 0 1
10.1103 -2.9686 -1.7983 0.1688 0 1
10.2956 -2.2396 -1.7982 0.1688 0 1
10.4286 -1.4994 -1.7981 0.1688 0 1
10.5086 -0.7516 -1.7980 0.1688 0 1
10.5353 0.0000 -1.7980 0.1688 0 1
10.5084 0.7516 -1.7980 0.1688 0 1
10.4281 1.4994 -1.7980 0.1688 0 1
10.2949 2.2396 -1.7981 0.1688 0 1
9.5317 2.7988 -1.6954 0.1688 0 2
9.3083 3.4718 -1.6955 0.1688 0 2
9.0376 4.1274 -1.6956 0.1687 0 2
8.7210 4.7620 -1.6958 0.1687 0 2
8.3600 5.3726 -1.6960 0.1687 0 2
7.9445 5.9472 -1.6937 0.1687 0 0
7.5010 6.4997 -1.6939 0.1687 0 0
6.6979 -6.6979 -1.6971 0.1767 0 2
7.1575 -6.2020 -1.6968 0.1768 0 2
7.6001 -5.6894 -1.7009 0.6223 0 2
8.4486 -5.4296 -1.7993 0.1768 0 1
8.8134 -4.8125 -1.7991 0.1768 0 1
9.1332 -4.1710 -1.7989 0.1768 0 1
9.4066 -3.5085 -1.7987 0.1769 0 1
9.6322 -2.8282 -1.7986 0.1769 0 1
9.8088 -2.1338 -1.7985 0.1769 0 1
9.9355 -1.4285 -1.7984 0.1769 0 1
10.0117 -0.7161 -1.7983 0.1769 0 1
10.0371 0.0000 -1.7983 0.1769 0 1
10.0115 0.7160 -1.7983 0.1769 0 1
9.9351 1.4285 -1.7983 0.1769 0 1
9.8081 2.1336 -1.7983 0.1769 0 1
9.0809 2.6664 -1.6956 0.1769 0 2
8.8681 3.3077 -1.6957 0.1769 0 2
8.6102 3.9321 -1.6959 0.1769 0 2
8.3085 4.5368 -1.6960 0.1769 0 2
7.9645 5.1185 -1.6962 0.1768 0 2
7.5687 5.6658 -1.6939 0.1768 0 0
7.1461 6.1922 -1.6941 0.1768 0 0
6.3943 -6.3943 -1.6972 0.1848 0 2
6.8332 -5.9210 -1.6970 0.1849 0 2
7.5847 -5.6779 -1.7782 0.5962 0 2
8.0659 -5.1836 -1.7995 0.1849 0 1
8.4142 -4.5945 -1.7993 0.1849 0 1
8.7196 -3.9821 -1.7991 0.1850 0 1
8.9806 -3.3496 -1.7990 0.1850 0 1
9.1960 -2.7002 -1.7988 0.1850 0 1
9.3646 -2.0371 -1.7987 0.1850 0 1
9.4856 -1.3638 -1.7986 0.1850 0 1
9.5584 -0.6836 -1.7986 0.1850 0 1
9.5827 0.0000 -1.7985 0.1850 0 1
9.5582 0.6836 -1.7985 0.1850 0 1
9.4852 1.3638 -1.7985 0.1850 0 1
9.3640 2.0370 -1.7986 0.1850 0 1
8.6697 2.5457 -1.6959 0.1850 0 2
8.4665 3.1579 -1.6960 0.1850 0 2
8.2203 3.7541 -1.6961 0.1850 0 2
7.9322 4.3313 -1.6962 0.1850 0 2
7.6037 4.8867 -1.6964 0.1849 0 2
7.2366 5.4173 -1.6966 0.1849 0 2
6.8224 5.9116 -1.6943 0.1849 0 0
6.1163 -6.1163 -1.6974 0.1929 0 2
6.5750 -5.6973 -1.7073 0.6769 0 2
7.3428 -5.4967 -1.7999 0.1930 0 1
7.7153 -4.9583 -1.7997 0.1930 0 1
8.0484 -4.3948 -1.7995 0.1930 0 1
8.3406 -3.8090 -1.7993 0.1931 0 1
8.5904 -3.2040 -1.7992 0.1931 0 1
8.7964 -2.5829 -1.7990 0.1931 0 1
8.9577 -1.9486 -1.7989 0.1931 0 1
9.0735 -1.3046 -1.7988 0.1931 0 1
9.1432 -0.6539 -1.7988 0.1931 0 1
9.1664 0.0000 -1.7988 0.1931 0 1
9.1430 0.6539 -1.7988 0.1931 0 1
9.0731 1.3045 -1.7988 0.1931 0 1
8.9572 1.9485 -1.7988 0.1931 0 1
8.2931 2.4351 -1.6961 0.1931 0 2
8.0987 3.0207 -1.6962 0.1931 0 2
7.8631 3.5910 -1.6963 0.1931 0 2
7.5875 4.1431 -1.6964 0.1931 0 2
7.2733 4.6743 -1.6966 0.1930 0 2
6.9220 5.1818 -1.6968 0.1930 0 2
6.5258 5.6546 -1.6945 0.1930 0 0
5.8606 -5.8606 -1.6975 0.2010 0 2
6.5634 -5.6872 -1.7787 0.6483 0 2
7.0360 -5.2670 -1.8001 0.2011 0 1
7.3929 -4.7511 -1.7999 0.2011 0 1
7.7122 -4.2112 -1.7997 0.2011 0 1
7.9922 -3.6499 -1.7995 0.2011 0 1
8.2315 -3.0702 -1.7994 0.2012 0 1
8.4290 -2.4750 -1.7992 0.2012 0 1
8.5836 -1.8672 -1.7991 0.2012 0 1
8.6945 -1.2501 -1.7991 0.2012 0 1
8.7613 -0.6266 -1.7990 0.2012 0 1
8.7835 0.0000 -1.7990 0.2012 0 1
8.7611 0.6266 -1.7990 0.2012 0 1
8.6942 1.2501 -1.7990 0.2012 0 1
8.5831 1.8671 -1.7990 0.2012 0 1
8.0962 2.3773 -1.7282 0.3058 0 2
7.7604 2.8945 -1.6964 0.2012 0 2
7.5346 3.4410 -1.6965 0.2012 0 2
7.2705 3.9700 -1.6966 0.2011 0 2
6.9694 4.4790 -1.6968 0.2011 0 2
6.6328 4.9653 -1.6970 0.2011 0 2
6.2624 5.4264 -1.6972 0.2011 0 2
5.7019 -5.7019 -1.7210 0.7279 0 2
6.3758 -5.5246 -1.8005 0.2091 0 1
6.7528 -5.0551 -1.8002 0.2091 0 1
7.0954 -4.5599 -1.8000 0.2092 0 1
7.4019 -4.0417 -1.7999 0.2092 0 1
7.6707 -3.5031 -1.7997 0.2092 0 1
7.9004 -2.9467 -1.7996 0.2092 0 1
8.0899 -2.3754 -1.7994 0.2092 0 1
8.2383 -1.7921 -1.7993 0.2092 0 1
8.3448 -1.1998 -1.7993 0.2093 0 1
8.4089 -0.6014 -1.7992 0.2093 0 1
8.4303 0.0000 -1.7992 0.2093 0 1
8.4088 0.6014 -1.7992 0.2093 0 1
8.3445 1.1998 -1.7992 0.2093 0 1
8.2379 1.7921 -1.7992 0.2093 0 1
8.0816 2.3730 -1.7976 0.2669 0 2
7.4482 2.7781 -1.6966 0.2092 0 2
7.2315 3.3025 -1.6967 0.2092 0 2
6.9780 3.8103 -1.6968 0.2092 0 2
6.6890 4.2988 -1.6969 0.2092 0 2
6.3659 4.7655 -1.6971 0.2092 0 2
6.0104 5.2081 -1.6973 0.2091 0 2
5.6952 -5.6952 -1.7885 0.6966 0 2
6.1282 -5.3101 -1.8006 0.2172 0 1
6.4907 -4.8588 -1.8004 0.2172 0 1
6.8200 -4.3829 -1.8002 0.2172 0 1
7.1146 -3.8848 -1.8000 0.2172 0 1
7.3730 -3.3671 -1.7999 0.2173 0 1
7.5938 -2.8323 -1.7997 0.2173 0 1
7.7760 -2.2832 -1.7996 0.2173 0 1
7.9187 -1.7226 -1.7995 0.2173 0 1
8.0211 -1.1533 -1.7994 0.2173 0 1
8.0827 -0.5781 -1.7994 0.2173 0 1
8.1032 0.0000 -1.7994 0.2173 0 1
8.0825 0.5781 -1.7994 0.2173 0 1
8.0208 1.1532 -1.7994 0.2173 0 1
7.9183 1.7225 -1.7994 0.2173 0 1
7.7755 2.2831 -1.7995 0.2173 0 1
7.1592 2.6703 -1.6967 0.2173 0 2
6.9509 3.1744 -1.6968 0.2173 0 2
6.7072 3.6624 -1.6970 0.2173 0 2
6.4294 4.1319 -1.6971 0.2172 0 2
6.1188 4.5805 -1.6973 0.2172 0 2
5.7771 5.0059 -1.6974 0.2172 0 2
5.5195 -5.5194 -1.8010 0.2252 0 1
5.8984 -5.1110 -1.8007 0.2252 0 1
6.2473 -4.6766 -1.8005 0.2252 0 1
6.5643 -4.2186 -1.8003 0.2253 0 1
6.8479 -3.7392 -1.8002 0.2253 0 1
7.0966 -3.2409 -1.8000 0.2253 0 1
7.3092 -2.7262 -1.7999 0.2253 0 1
7.4845 -2.1976 -1.7998 0.2253 0 1
7.6219 -1.6580 -1.7997 0.2253 0 1
7.7204 -1.1100 -1.7996 0.2254 0 1
7.7797 -0.5564 -1.7996 0.2254 0 1
7.7995 0.0000 -1.7995 0.2254 0 1
7.7796 0.5564 -1.7995 0.2254 0 1
7.7202 1.1100 -1.7995 0.2254 0 1
7.6215 1.6579 -1.7996 0.2254 0 1
7.4841 2.1975 -1.7996 0.2253 0 1
6.8909 2.5702 -1.6969 0.2253 0 2
6.6904 3.0554 -1.6970 0.2253 0 2
6.4558 3.5251 -1.6971 0.2253 0 2
6.1884 3.9770 -1.6972 0.2253 0 2
5.8894 4.4088 -1.6974 0.2253 0 2
5.5605 4.8182 -1.6976 0.2252 0 2
5.3192 -5.3192 -1.8011 0.2332 0 1
5.6844 -4.9256 -1.8008 0.2332 0 1
6.0206 -4.5070 -1.8006 0.2333 0 1
6.3262 -4.0656 -1.8005 0.2333 0 1
6.5995 -3.6036 -1.8003 0.2333 0 1
6.8392 -3.1233 -1.8001 0.2333 0 1
7.0441 -2.6273 -1.8000 0.2333 0 1
7.2131 -2.1180 -1.7999 0.2334 0 1
7.3455 -1.5979 -1.7998 0.2334 0 1
7.4405 -1.0698 -1.7998 0.2334 0 1
7.4977 -0.5362 -1.7997 0.2334 0 1
7.5167 0.0000 -1.7997 0.2334 0 1
7.4975 0.5362 -1.7997 0.2334 0 1
7.4402 1.0698 -1.7997 0.2334 0 1
7.3451 1.5978 -1.7997 0.2334 0 1
7.2127 2.1178 -1.7998 0.2334 0 1
6.6410 2.4770 -1.6970 0.2334 0 2
6.4477 2.9446 -1.6971 0.2334 0 2
6.2217 3.3973 -1.6972 0.2333 0 2
5.9639 3.8328 -1.6974 0.2333 0 2
5.6758 4.2488 -1.6975 0.2333 0 2
5.3588 4.6434 -1.6977 0.2333 0 2
5.1322 -5.1322 -1.8012 0.2412 0 1
5.4846 -4.7525 -1.8010 0.2412 0 1
5.8091 -4.3486 -1.8008 0.2413 0 1
6.1039 -3.9227 -1.8006 0.2413 0 1
6.3676 -3.4770 -1.8004 0.2413 0 1
6.5989 -3.0136 -1.8003 0.2413 0 1
6.7966 -2.5350 -1.8002 0.2414 0 1
6.9598 -2.0436 -1.8001 0.2414 0 1
7.0875 -1.5418 -1.8000 0.2414 0 1
7.1792 -1.0322 -1.7999 0.2414 0 1
7.2343 -0.5174 -1.7999 0.2414 0 1
7.2527 0.0000 -1.7998 0.2414 0 1
7.2342 0.5174 -1.7998 0.2414 0 1
7.1789 1.0322 -1.7998 0.2414 0 1
7.0871 1.5417 -1.7999 0.2414 0 1
6.9593 2.0434 -1.7999 0.2414 0 1
6.4077 2.3900 -1.6972 0.2414 0 2
6.2213 2.8412 -1.6972 0.2414 0 2
6.0031 3.2779 -1.6974 0.2413 0 2
5.7544 3.6981 -1.6975 0.2413 0 2
5.4764 4.0996 -1.6976 0.2413 0 2
5.1704 4.4802 -1.6978 0.2413 0 2
4.9572 -4.9572 -1.8013 0.2492 0 1
5.2977 -4.5904 -1.8011 0.2492 0 1
5.6111 -4.2004 -1.8009 0.2493 0 1
5.8959 -3.7890 -1.8007 0.2493 0 1
6.1506 -3.3585 -1.8005 0.2493 0 1
6.3741 -2.9109 -1.8004 0.2493 0 1
6.5651 -2.4486 -1.8003 0.2493 0 1
6.7226 -1.9739 -1.8002 0.2494 0 1
6.8460 -1.4893 -1.8001 0.2494 0 1
6.9346 -0.9971 -1.8000 0.2494 0 1
6.9879 -0.4998 -1.8000 0.2494 0 1
7.0056 0.0000 -1.8000 0.2494 0 1
6.9878 0.4998 -1.8000 0.2494 0 1
6.9344 0.9970 -1.8000 0.2494 0 1
6.8457 1.4892 -1.8000 0.2494 0 1
6.7222 1.9738 -1.8001 0.2494 0 1
6.3267 2.3597 -1.7349 0.3778 0 2
6.0093 2.7444 -1.6974 0.2494 0 2
5.7986 3.1662 -1.6975 0.2493 0 2
5.5583 3.5721 -1.6976 0.2493 0 2
5.2897 3.9599 -1.6977 0.2493 0 2
4.9942 4.3275 -1.6979 0.2493 0 2
4.7932 -4.7931 -1.8013 0.2572 0 1
5.1223 -4.4385 -1.8011 0.2572 0 1
5.4254 -4.0614 -1.8010 0.2572 0 1
5.7008 -3.6637 -1.8008 0.2573 0 1
5.9471 -3.2473 -1.8007 0.2573 0 1
6.1632 -2.8146 -1.8005 0.2573 0 1
6.3479 -2.3676 -1.8004 0.2573 0 1
6.5002 -1.9086 -1.8003 0.2573 0 1
6.6196 -1.4400 -1.8002 0.2574 0 1
6.7052 -0.9640 -1.8002 0.2574 0 1
6.7567 -0.4832 -1.8001 0.2574 0 1
6.7739 0.0000 -1.8001 0.2574 0 1
6.7566 0.4832 -1.8001 0.2574 0 1
6.7050 0.9640 -1.8001 0.2574 0 1
6.6193 1.4399 -1.8001 0.2574 0 1
6.4999 1.9086 -1.8002 0.2574 0 1
6.3189 2.3568 -1.7922 0.3294 0 2
5.8105 2.6536 -1.6975 0.2573 0 2
5.6067 3.0615 -1.6976 0.2573 0 2
5.3744 3.4539 -1.6977 0.2573 0 2
5.1147 3.8288 -1.6978 0.2573 0 2
4.8290 4.1843 -1.6980 0.2573 0 2
4.6389 -4.6389 -1.8014 0.2652 0 1
4.9575 -4.2957 -1.8012 0.2652 0 1
5.2508 -3.9307 -1.8011 0.2652 0 1
5.5174 -3.5458 -1.8009 0.2652 0 1
5.7558 -3.1429 -1.8008 0.2652 0 1
5.9650 -2.7241 -1.8006 0.2653 0 1
6.1437 -2.2915 -1.8005 0.2653 0 1
6.2912 -1.8472 -1.8004 0.2653 0 1
6.4067 -1.3937 -1.8003 0.2653 0 1
6.4896 -0.9330 -1.8003 0.2653 0 1
6.5394 -0.4677 -1.8002 0.2653 0 1
6.5561 0.0000 -1.8002 0.2653 0 1
6.5394 0.4677 -1.8002 0.2653 0 1
6.4894 0.9330 -1.8002 0.2653 0 1
6.4064 1.3937 -1.8003 0.2653 0 1
6.2908 1.8472 -1.8003 0.2653 0 1
6.1433 2.2913 -1.8004 0.2653 0 1
5.6236 2.5682 -1.6976 0.2653 0 2
5.4264 2.9630 -1.6977 0.2653 0 2
5.2015 3.3428 -1.6978 0.2653 0 2
4.9502 3.7057 -1.6979 0.2652 0 2
4.6736 4.0497 -1.6981 0.2652 0 2
4.4937 -4.4937 -1.8015 0.2731 0 1
4.8023 -4.1612 -1.8013 0.2731 0 1
5.0865 -3.8077 -1.8011 0.2731 0 1
5.3447 -3.4348 -1.8010 0.2732 0 1
5.5757 -3.0446 -1.8009 0.2732 0 1
5.7783 -2.6388 -1.8007 0.2732 0 1
5.9514 -2.2197 -1.8006 0.2732 0 1
6.0943 -1.7894 -1.8005 0.2732 0 1
6.2062 -1.3501 -1.8005 0.2733 0 1
6.2865 -0.9038 -1.8004 0.2733 0 1
6.3348 -0.4531 -1.8004 0.2733 0 1
6.3509 0.0000 -1.8003 0.2733 0 1
6.3347 0.4531 -1.8003 0.2733 0 1
6.2863 0.9039 -1.8003 0.2733 0 1
6.2059 1.3500 -1.8004 0.2733 0 1
6.0940 1.7894 -1.8004 0.2733 0 1
1.7091 0.6375 -0.5171 0.0144 294 14
1.4411 0.6581 -0.4491 0.1670 294 14
1.4194 0.7751 -0.4585 0.1105 294 14
1.4304 0.9193 -0.4820 0.1051 294 14
1.4229 1.0652 -0.5039 0.1006 294 14
4.5273 3.9229 -1.6982 0.2732 0 2
4.3566 -4.3566 -1.8016 0.2810 0 1
4.6559 -4.0343 -1.8014 0.2810 0 1
4.9314 -3.6916 -1.8012 0.2811 0 1
5.1817 -3.3301 -1.8011 0.2811 0 1
5.4057 -2.9517 -1.8009 0.2811 0 1
5.6021 -2.5584 -1.8008 0.2811 0 1
5.7700 -2.1521 -1.8007 0.2811 0 1
5.9086 -1.7349 -1.8006 0.2812 0 1
6.0170 -1.3089 -1.8006 0.2812 0 1
6.0949 -0.8763 -1.8005 0.2812 0 1
6.1417 -0.4393 -1.8005 0.2812 0 1
6.1574 0.0000 -1.8004 0.2812 0 1
6.1417 0.4393 -1.8004 0.2812 0 1
6.0947 0.8763 -1.8005 0.2812 0 1
1.4798 0.3219 -0.4428 0.1743 294 14
1.4552 0.4273 -0.4435 0.1741 294 14
1.4188 0.5292 -0.4428 0.1743 294 14
1.3711 0.6262 -0.4407 0.1755 294 14
1.3187 0.7201 -0.4393 0.1187 294 14
1.3240 0.8509 -0.4602 0.1133 294 14
1.3127 0.9827 -0.4795 0.1088 294 14
1.2880 1.1161 -0.4983 0.1074 294 14
4.2271 -4.2271 -1.8016 0.2889 0 1
4.5175 -3.9144 -1.8015 0.2889 0 1
4.7848 -3.5818 -1.8013 0.2890 0 1
5.0277 -3.2311 -1.8012 0.2890 0 1
5.2450 -2.8640 -1.8010 0.2890 0 1
5.4356 -2.4823 -1.8009 0.2890 0 1
5.5985 -2.0881 -1.8008 0.2891 0 1
5.7330 -1.6833 -1.8007 0.2891 0 1
5.8382 -1.2700 -1.8007 0.2891 0 1
5.9138 -0.8503 -1.8006 0.2891 0 1
1.7098 -0.1223 -0.5166 0.0271 294 14
1.5819 0.0000 -0.4768 0.0293 294 14
1.4694 0.1051 -0.4440 0.1887 294 14
1.4365 0.2065 -0.4374 0.1916 294 14
1.4105 0.3068 -0.4350 0.1824 294 14
1.3870 0.4073 -0.4357 0.1822 294 14
1.3524 0.5044 -0.4350 0.1824 294 14
1.3073 0.5970 -0.4331 0.1836 294 14
1.2525 0.6839 -0.4301 0.1849 294 14
1.2320 0.7918 -0.4414 0.1215 294 14
1.2182 0.9119 -0.4586 0.1200 294 14
1.1939 1.0346 -0.4761 0.1156 294 14
4.1044 -4.1044 -1.8017 0.2968 0 1
4.3864 -3.8008 -1.8015 0.2968 0 1
4.6460 -3.4779 -1.8014 0.2969 0 1
4.8819 -3.1374 -1.8012 0.2969 0 1
5.0929 -2.7809 -1.8011 0.2969 0 1
5.2780 -2.4104 -1.8010 0.2969 0 1
5.4362 -2.0276 -1.8009 0.2969 0 1
5.5667 -1.6345 -1.8008 0.2969 0 1
5.6689 -1.2332 -1.8008 0.2970 0 1
1.4348 -0.2063 -0.4499 0.1918 294 14
1.4360 -0.1027 -0.4469 0.1926 294 14
1.4261 0.0000 -0.4426 0.1945 294 14
1.4055 0.1005 -0.4374 0.1968 294 14
1.3749 0.1977 -0.4311 0.1996 294 14
1.3472 0.2931 -0.4279 0.1905 294 14
1.3246 0.3890 -0.4285 0.1903 294 14
1.2916 0.4818 -0.4279 0.1905 294 14
1.2489 0.5704 -0.4262 0.1917 294 14
1.1970 0.6536 -0.4233 0.1930 294 14
1.1516 0.7401 -0.4249 0.1296 294 14
1.1377 0.8517 -0.4411 0.1281 294 14
1.1123 0.9638 -0.4568 0.1237 294 14
3.9881 -3.9881 -1.8018 0.3047 0 1
4.2621 -3.6931 -1.8016 0.3047 0 1
4.5143 -3.3794 -1.8015 0.3047 0 1
4.7435 -3.0485 -1.8013 0.3047 0 1
4.9486 -2.7021 -1.8012 0.3048 0 1
5.1284 -2.3421 -1.8011 0.3048 0 1
5.2822 -1.9701 -1.8010 0.3048 0 1
5.4090 -1.5882 -1.8009 0.3048 0 1
1.4175 -0.3084 -0.4634 0.1721 294 14
1.3732 -0.1974 -0.4432 0.1999 294 14
1.3746 -0.0983 -0.4402 0.2007 294 14
1.3656 0.0000 -0.4363 0.2025 294 14
1.3466 0.0963 -0.4313 0.2049 294 14
1.3181 0.1895 -0.4254 0.2077 294 14
1.2890 0.2804 -0.4214 0.1986 294 14
1.2673 0.3721 -0.4219 0.1984 294 14
1.2359 0.4610 -0.4214 0.1990 294 14
1.1953 0.5459 -0.4198 0.1998 294 14
1.1459 0.6257 -0.4171 0.2010 294 14
1.0886 0.6996 -0.4134 0.2029 294 14
1.0669 0.7987 -0.4257 0.1363 294 14
1.0463 0.9067 -0.4423 0.2235 294 14
3.8777 -3.8777 -1.8018 0.3125 0 1
4.1441 -3.5908 -1.8017 0.3125 0 1
4.3893 -3.2858 -1.8015 0.3126 0 1
4.6122 -2.9641 -1.8014 0.3126 0 1
4.8116 -2.6273 -1.8013 0.3126 0 1
4.9864 -2.2772 -1.8012 0.3126 0 1
1.4204 -0.5298 -0.4981 0.1643 294 14
1.3902 -0.4082 -0.4761 0.1719 294 14
1.3506 -0.2938 -0.4541 0.1802 294 14
1.3164 -0.1893 -0.4370 0.2079 294 14
1.3180 -0.0943 -0.4342 0.2093 294 14
1.3098 0.0000 -0.4304 0.2106 294 14
1.2922 0.0924 -0.4257 0.2129 294 14
1.2655 0.1820 -0.4201 0.2158 294 14
1.2353 0.2687 -0.4154 0.2067 294 14
1.2145 0.3566 -0.4159 0.2064 294 14
1.1845 0.4418 -0.4154 0.2071 294 14
1.1458 0.5233 -0.4139 0.2078 294 14
1.0987 0.5999 -0.4113 0.2091 294 14
1.0497 0.6746 -0.4100 0.2875 294 14
1.0286 0.7700 -0.4222 0.2402 294 14
1.0076 0.8731 -0.4381 0.2315 294 14
3.7726 -3.7726 -1.8019 0.3203 0 1
4.0318 -3.4936 -1.8017 0.3204 0 1
4.2704 -3.1968 -1.8016 0.3204 0 1
4.4872 -2.8838 -1.8015 0.3204 0 1
4.6812 -2.5561 -1.8013 0.3204 0 1
1.3656 -0.6237 -0.5070 0.1705 294 14
1.3501 -0.5035 -0.4867 0.1723 294 14
1.3243 -0.3888 -0.4661 0.1799 294 14
1.2893 -0.2805 -0.4456 0.1882 294 14
1.2638 -0.1817 -0.4312 0.2160 294 14
1.2657 -0.0905 -0.4286 0.2173 294 14
1.2583 0.0000 -0.4250 0.2192 294 14
1.2417 0.0888 -0.4204 0.2210 294 14
1.2167 0.1749 -0.4151 0.2238 294 14
1.1857 0.2579 -0.4098 0.2147 294 14
1.1657 0.3423 -0.4103 0.2149 294 14
1.1370 0.4241 -0.4098 0.2151 294 14
1.1000 0.5024 -0.4084 0.2159 294 14
1.0563 0.5768 -0.4065 0.2267 294 14
1.0189 0.6548 -0.4091 0.2953 294 14
0.9930 0.7434 -0.4189 0.2481 294 14
0.9715 0.8419 -0.4342 0.2394 294 14
3.6725 -3.6725 -1.8019 0.3281 0 1
3.9249 -3.4009 -1.8018 0.3282 0 1
4.1572 -3.1120 -1.8017 0.3282 0 1
4.3683 -2.8073 -1.8015 0.3282 0 1
4.5571 -2.4884 -1.8014 0.3282 0 1
1.3002 -0.5938 -0.4959 0.1786 294 14
1.2861 -0.4797 -0.4762 0.1804 294 14
1.2640 -0.3711 -0.4571 0.1880 294 14
1.2331 -0.2682 -0.4378 0.1962 294 14
1.2150 -0.1747 -0.4259 0.2240 294 14
1.2171 -0.0870 -0.4234 0.2254 294 14
1.2103 0.0000 -0.4199 0.2272 294 14
1.1949 0.0854 -0.4156 0.2296 294 14
1.1713 0.1684 -0.4106 0.2324 294 14
1.1401 0.2480 -0.4048 0.2351 294 14
1.1204 0.3290 -0.4051 0.2229 294 14
1.0933 0.4078 -0.4048 0.2331 294 14
1.0590 0.4836 -0.4039 0.2337 294 14
1.0173 0.5555 -0.4021 0.2347 294 14
0.9898 0.6361 -0.4082 0.3032 294 14
0.9597 0.7184 -0.4159 0.2561 294 14
0.9377 0.8126 -0.4305 0.2474 294 14
3.5771 -3.5771 -1.8020 0.3359 0 1
3.8229 -3.3125 -1.8018 0.3359 0 1
4.0492 -3.0312 -1.8017 0.3360 0 1
4.2548 -2.7344 -1.8016 0.3360 0 1
4.4387 -2.4237 -1.8015 0.3360 0 1
1.2404 -0.5665 -0.4858 0.1867 294 14
1.2287 -0.4582 -0.4671 0.1941 294 14
1.2087 -0.3549 -0.4487 0.1960 294 14
1.1813 -0.2570 -0.4306 0.2042 294 14
1.1696 -0.1682 -0.4209 0.2321 294 14
1.1719 -0.0838 -0.4185 0.2334 294 14
1.1657 0.0000 -0.4152 0.2352 294 14
1.1513 0.0823 -0.4111 0.2376 294 14
1.1291 0.1623 -0.4063 0.2404 294 14
1.1001 0.2393 -0.4010 0.2536 294 14
1.0796 0.3170 -0.4008 0.2411 294 14
1.0539 0.3931 -0.4007 0.2412 294 14
1.0209 0.4662 -0.3998 0.2417 294 14
0.9870 0.5390 -0.4006 0.3163 294 14
0.9621 0.6183 -0.4074 0.3110 294 14
0.9309 0.6969 -0.4142 0.3058 294 14
0.9060 0.7851 -0.4270 0.2553 294 14
3.4860 -3.4860 -1.8020 0.3437 0 1
3.7255 -3.2282 -1.8019 0.3437 0 1
3.9460 -2.9540 -1.8018 0.3437 0 1
4.1465 -2.6647 -1.8016 0.3437 0 1
1.1848 -0.6469 -0.4934 0.1880 294 14
1.1856 -0.5415 -0.4764 0.1947 294 14
1.1764 -0.4388 -0.4589 0.2021 294 14
1.1582 -0.3401 -0.4412 0.2102 294 14
1.1335 -0.2466 -0.4240 0.2122 294 14
1.1272 -0.1621 -0.4163 0.2401 294 14
1.1297 -0.0808 -0.4140 0.2414 294 14
1.1240 0.0000 -0.4109 0.2432 294 14
1.1105 0.0794 -0.4070 0.2456 294 14
1.0902 0.1568 -0.4026 0.2584 294 14
1.0634 0.2313 -0.3978 0.2615 294 14
1.0418 0.3059 -0.3969 0.2491 294 14
1.0171 0.3794 -0.3968 0.2491 294 14
0.9853 0.4500 -0.3959 0.2497 294 14
0.9604 0.5245 -0.4000 0.3240 294 14
0.9358 0.6014 -0.4066 0.3188 294 14
0.9051 0.6775 -0.4132 0.3137 294 14
0.8762 0.7593 -0.4238 0.2632 294 14
3.3989 -3.3989 -1.8021 0.3514 0 1
3.6325 -3.1475 -1.8019 0.3514 0 1
3.8475 -2.8802 -1.8018 0.3514 0 1
4.0429 -2.5982 -1.8017 0.3515 0 1
1.1326 -0.6185 -0.4838 0.1961 294 14
1.1352 -0.5184 -0.4679 0.2027 294 14
1.1281 -0.4207 -0.4514 0.2101 294 14
1.1124 -0.3266 -0.4346 0.2182 294 14
1.0892 -0.2370 -0.4179 0.2270 294 14
1.0875 -0.1563 -0.4119 0.2481 294 14
1.0901 -0.0779 -0.4097 0.2494 294 14
1.0853 0.0000 -0.4069 0.2615 294 14
1.0733 0.0768 -0.4034 0.2637 294 14
1.0544 0.1516 -0.3994 0.2664 294 14
1.0289 0.2238 -0.3948 0.2695 294 14
1.0064 0.2955 -0.3932 0.2571 294 14
0.9825 0.3665 -0.3931 0.2571 294 14
0.9538 0.4356 -0.3931 0.3371 294 14
0.9351 0.5106 -0.3994 0.3318 294 14
0.9107 0.5853 -0.4058 0.3266 294 14
0.8804 0.6591 -0.4123 0.3214 294 14
0.8482 0.7350 -0.4208 0.2711 294 14
3.3156 -3.3155 -1.8021 0.3591 0 1
3.5434 -3.0704 -1.8020 0.3591 0 1
3.7531 -2.8096 -1.8019 0.3592 0 1
3.9438 -2.5345 -1.8018 0.3592 0 1
1.0846 -0.5922 -0.4750 0.2041 294 14
1.0886 -0.4971 -0.4599 0.2108 294 14
1.0833 -0.4041 -0.4444 0.2181 294 14
1.0698 -0.3141 -0.4285 0.2262 294 14
1.0565 -0.2298 -0.4156 0.3445 294 14
1.0515 -0.1512 -0.4083 0.2663 294 14
1.0543 -0.0754 -0.4062 0.2676 294 14
1.0500 0.0000 -0.4035 0.2694 294 14
1.0387 0.0743 -0.4002 0.2716 294 14
1.0207 0.1468 -0.3963 0.2743 294 14
0.9964 0.2168 -0.3919 0.2774 294 14
0.9731 0.2857 -0.3898 0.2650 294 14
0.9500 0.3544 -0.3897 0.2651 294 14
0.9296 0.4245 -0.3928 0.3449 294 14
0.9110 0.4974 -0.3989 0.3395 294 14
0.8868 0.5699 -0.4051 0.3343 294 14
0.8570 0.6415 -0.4114 0.3292 294 14
0.8217 0.7120 -0.4179 0.2789 294 14
3.2357 -3.2357 -1.8022 0.3668 0 1
3.4581 -2.9964 -1.8020 0.3668 0 1
3.6628 -2.7419 -1.8019 0.3668 0 1
1.0268 -0.6599 -0.4807 0.3042 294 14
1.0402 -0.5680 -0.4668 0.2121 294 14
1.0462 -0.4778 -0.4530 0.3228 294 14
1.0464 -0.3903 -0.4398 0.3324 294 14
1.0409 -0.3056 -0.4273 0.3422 294 14
1.0303 -0.2241 -0.4153 0.3521 294 14
1.0263 -0.1475 -0.4083 0.3741 294 14
1.0207 -0.0730 -0.4030 0.2756 294 14
1.0167 0.0000 -0.4004 0.2773 294 14
1.0060 0.0720 -0.3972 0.2796 294 14
0.9889 0.1422 -0.3935 0.2822 294 14
0.9657 0.2101 -0.3892 0.2853 294 14
0.9418 0.2765 -0.3866 0.2730 294 14
0.9196 0.3430 -0.3865 0.3579 294 14
0.9064 0.4139 -0.3924 0.3526 294 14
0.8879 0.4848 -0.3984 0.3473 294 14
0.8640 0.5552 -0.4045 0.3421 294 14
0.8346 0.6247 -0.4106 0.3370 294 14
0.7996 0.6929 -0.4167 0.3320 294 14
3.1591 -3.1591 -1.8022 0.3744 0 1
3.3762 -2.9255 -1.8021 0.3745 0 1
3.5761 -2.6770 -1.8020 0.3745 0 1
0.9945 -0.6391 -0.4769 0.2614 294 14
1.0115 -0.5523 -0.4649 0.3211 294 14
1.0185 -0.4651 -0.4516 0.3305 294 14
1.0194 -0.3802 -0.4389 0.3401 294 14
1.0149 -0.2980 -0.4267 0.3499 294 14
1.0052 -0.2187 -0.4150 0.3597 294 14
1.0025 -0.1441 -0.4086 0.3817 294 14
0.9963 -0.0712 -0.4029 0.3870 294 14
0.9855 0.0000 -0.3975 0.3923 294 14
0.9752 0.0697 -0.3944 0.2875 294 14
0.9589 0.1379 -0.3908 0.2901 294 14
0.9367 0.2038 -0.3867 0.2932 294 14
0.9122 0.2679 -0.3835 0.2809 294 14
0.8974 0.3347 -0.3863 0.3656 294 14
0.8841 0.4038 -0.3921 0.3602 294 14
0.8658 0.4728 -0.3979 0.3550 294 14
0.8421 0.5412 -0.4038 0.3498 294 14
0.8132 0.6087 -0.4097 0.3447 294 14
0.7788 0.6748 -0.4157 0.3398 294 14
3.0856 -3.0856 -1.8022 0.3821 0 1
3.2977 -2.8574 -1.8021 0.3821 0 1
3.4929 -2.6147 -1.8020 0.3821 0 1
0.9619 -0.6182 -0.4722 0.2693 294 14
0.9844 -0.5375 -0.4632 0.3288 294 14
0.9920 -0.4530 -0.4504 0.3382 294 14
0.9937 -0.3706 -0.4380 0.3478 294 14
0.9899 -0.2906 -0.4261 0.3575 294 14
0.9812 -0.2134 -0.4147 0.3673 294 14
0.9797 -0.1409 -0.4088 0.3893 294 14
0.9740 -0.0696 -0.4033 0.3946 294 14
0.9637 0.0000 -0.3980 0.3998 294 14
0.9490 0.0679 -0.3930 0.4050 294 14
0.9304 0.1338 -0.3882 0.2980 294 14
0.9092 0.1978 -0.3843 0.3010 294 14
0.8844 0.2597 -0.3807 0.3786 294 14
0.8761 0.3268 -0.3862 0.3732 294 14
0.8628 0.3941 -0.3918 0.3679 294 14
0.8446 0.4612 -0.3974 0.3626 294 14
0.8213 0.5278 -0.4032 0.3575 294 14
3.2930 2.4651 -1.6989 0.3822 0 2
3.1089 2.6939 -1.6990 0.3821 0 2
3.0150 -3.0150 -1.8023 0.3897 0 1
3.2222 -2.7920 -1.8022 0.3897 0 1
0.8922 -0.6679 -0.4711 0.2754 294 14
0.9312 -0.5984 -0.4679 0.2773 294 14
0.9586 -0.5234 -0.4617 0.3365 294 14
0.9667 -0.4415 -0.4492 0.3459 294 14
0.9690 -0.3614 -0.4372 0.3554 294 14
0.9660 -0.2836 -0.4256 0.3651 294 14
0.9584 -0.2085 -0.4146 0.3915 294 14
0.9578 -0.1377 -0.4090 0.3968 294 14
0.9524 -0.0681 -0.4036 0.4021 294 14
0.9426 0.0000 -0.3984 0.4074 294 14
0.9286 0.0664 -0.3935 0.4125 294 14
0.9104 0.1309 -0.3888 0.4175 294 14
0.8885 0.1933 -0.3843 0.4223 294 14
4.0895 1.2008 -1.8016 0.3898 0 1
3.9935 1.4895 -1.8016 0.3898 0 1
3.8772 1.7707 -1.8017 0.3898 0 1
3.7412 2.0428 -1.8017 0.3898 0 1
3.5860 2.3046 -1.8018 0.3898 0 1
3.2176 2.4087 -1.6989 0.3898 0 2
3.0378 2.6322 -1.6990 0.3897 0 2
2.9470 -2.9470 -1.8023 0.3973 0 1
3.1496 -2.7291 -1.8022 0.3973 0 1
0.8642 -0.6469 -0.4668 0.2833 294 14
0.9022 -0.5798 -0.4638 0.2852 294 14
0.9333 -0.5096 -0.4599 0.2876 294 14
0.9425 -0.4304 -0.4481 0.3535 294 14
0.9454 -0.3526 -0.4363 0.3630 294 14
0.9430 -0.2769 -0.4250 0.3726 294 14
0.9369 -0.2038 -0.4147 0.3991 294 14
0.9366 -0.1346 -0.4092 0.4044 294 14
0.9317 -0.0666 -0.4039 0.4096 294 14
0.9224 0.0000 -0.3989 0.4148 294 14
0.9088 0.0650 -0.3940 0.4199 294 14
0.8913 0.1282 -0.3894 0.4249 294 14
0.8700 0.1893 -0.3850 0.4298 294 14
3.9974 1.1737 -1.8016 0.3974 0 1
3.9036 1.4560 -1.8017 0.3974 0 1
3.7899 1.7308 -1.8017 0.3974 0 1
3.6569 1.9968 -1.8018 0.3974 0 1
3.5053 2.2527 -1.8019 0.3974 0 1
3.1451 2.3544 -1.6990 0.3973 0 2
2.9693 2.5729 -1.6991 0.3973 0 2
2.8816 -2.8816 -1.8024 0.4048 0 1
3.0797 -2.6686 -1.8022 0.4048 0 1
0.8377 -0.6271 -0.4628 0.2912 294 14
0.8747 -0.5621 -0.4599 0.2931 294 14
0.9052 -0.4942 -0.4561 0.2955 294 14
0.9193 -0.4198 -0.4470 0.3611 294 14
0.9227 -0.3441 -0.4355 0.3706 294 14
0.9210 -0.2704 -0.4245 0.3802 294 14
0.9163 -0.1993 -0.4147 0.4066 294 14
0.9163 -0.1317 -0.4094 0.4119 294 14
0.9117 -0.0652 -0.4042 0.4171 294 14
0.9028 0.0000 -0.3993 0.4223 294 14
0.8898 0.0636 -0.3945 0.4274 294 14
0.8729 0.1255 -0.3900 0.4323 294 14
3.9805 0.8659 -1.8016 0.4050 0 1
3.9087 1.1477 -1.8017 0.4050 0 1
3.8170 1.4237 -1.8017 0.4050 0 1
3.7058 1.6924 -1.8018 0.4050 0 1
3.5757 1.9525 -1.8018 0.4049 0 1
3.4275 2.2027 -1.8019 0.4049 0 1
3.1174 2.3337 -1.7223 0.6187 0 2
2.9061 2.5181 -1.7007 0.6705 0 2
2.8186 -2.8186 -1.8024 0.4123 0 1
0.7705 -0.6677 -0.4610 0.2978 294 14
0.8127 -0.6083 -0.4590 0.2991 294 14
0.8487 -0.5454 -0.4562 0.3009 294 14
0.8785 -0.4796 -0.4526 0.3033 294 14
0.8971 -0.4097 -0.4459 0.3687 294 14
0.9010 -0.3360 -0.4348 0.3781 294 14
0.8998 -0.2642 -0.4240 0.3877 294 14
0.8964 -0.1950 -0.4148 0.4141 294 14
0.8966 -0.1289 -0.4096 0.4193 294 14
0.8924 -0.0638 -0.4045 0.4246 294 14
0.8839 0.0000 -0.3997 0.4297 294 14
0.8714 0.0623 -0.3950 0.4348 294 14
0.8550 0.1229 -0.3906 0.4397 294 14
3.8936 0.8470 -1.8017 0.4125 0 1
3.8233 1.1226 -1.8017 0.4125 0 1
3.7335 1.3925 -1.8018 0.4125 0 1
3.6248 1.6554 -1.8018 0.4125 0 1
3.4976 1.9098 -1.8019 0.4125 0 1
3.3526 2.1546 -1.8020 0.4124 0 1
3.1091 2.3274 -1.7561 0.5393 0 2
2.8400 2.4609 -1.6991 0.4124 0 2
2.7579 -2.7579 -1.8024 0.4198 0 1
0.7479 -0.6480 -0.4573 0.3057 294 14
0.7889 -0.5905 -0.4554 0.3069 294 14
0.8241 -0.5296 -0.4527 0.3088 294 14
0.8531 -0.4658 -0.4492 0.3112 294 14
0.8758 -0.3999 -0.4449 0.3762 294 14
0.8801 -0.3282 -0.4341 0.3856 294 14
0.8795 -0.2582 -0.4236 0.3952 294 14
0.8772 -0.1908 -0.4149 0.4215 294 14
0.8777 -0.1262 -0.4098 0.4268 294 14
0.8738 -0.0625 -0.4048 0.4320 294 14
0.8657 0.0000 -0.4001 0.4371 294 14
0.8536 0.0611 -0.3955 0.4422 294 14
3.8590 0.5549 -1.8017 0.4200 0 1
3.8097 0.8287 -1.8017 0.4200 0 1
3.7409 1.0984 -1.8018 0.4200 0 1
3.6531 1.3625 -1.8018 0.4200 0 1
3.5467 1.6197 -1.8019 0.4200 0 1
3.4222 1.8687 -1.8019 0.4200 0 1
3.2803 2.1081 -1.8020 0.4199 0 1
3.1091 2.3274 -1.7948 0.5373 0 2
2.7788 2.4079 -1.6992 0.4199 0 2
0.6812 -0.6812 -0.4549 0.3128 294 14
0.7264 -0.6294 -0.4538 0.3135 294 14
0.7663 -0.5736 -0.4520 0.3148 294 14
0.8006 -0.5145 -0.4494 0.3166 294 14
0.8290 -0.4527 -0.4460 0.3190 294 14
0.8514 -0.3888 -0.4420 0.3219 294 14
0.8600 -0.3207 -0.4334 0.3931 294 14
0.8598 -0.2525 -0.4231 0.4026 294 14
0.8587 -0.1868 -0.4150 0.4290 294 14
0.8594 -0.1236 -0.4099 0.4342 294 14
0.8558 -0.0612 -0.4051 0.4394 294 14
0.8481 0.0000 -0.4004 0.4445 294 14
0.8364 0.0598 -0.3960 0.4495 294 14
3.7770 0.5431 -1.8018 0.4275 0 1
3.7287 0.8111 -1.8018 0.4275 0 1
3.6614 1.0751 -1.8018 0.4275 0 1
3.5755 1.3336 -1.8019 0.4275 0 1
3.4713 1.5853 -1.8019 0.4274 0 1
3.3495 1.8290 -1.8020 0.4274 0 1
3.2106 2.0633 -1.8020 0.4274 0 1
3.0554 2.2872 -1.8021 0.4274 0 1
2.7197 2.3567 -1.6992 0.4274 0 2
0.6620 -0.6620 -0.4515 0.3206 294 14
0.7059 -0.6117 -0.4505 0.3213 294 14
0.7448 -0.5575 -0.4487 0.3226 294 14
0.7783 -0.5001 -0.4462 0.3244 294 14
0.8061 -0.4401 -0.4429 0.3268 294 14
0.8280 -0.3781 -0.4390 0.3297 294 14
0.8406 -0.3135 -0.4327 0.4006 294 14
