ply
format ascii 1.0
element vertex 1376
property float32 x
property float32 y
property float32 z
property float32 CosAngle
property uint32 ObjIdx
property uint32 ObjTag
end_header
9.2731 -4.2349 0.6312 0.7991 144 7
17.8971 -6.6753 1.1828 0.6841 0 3
19.8867 -5.8392 1.2834 0.6305 0 3
24.0137 -5.2238 1.5217 0.5731 0 3
24.6574 -3.5452 1.5425 0.8489 0 3
34.3555 -2.4571 2.1328 0.2079 0 3
35.3688 19.3128 2.4953 0.1014 0 3
30.1166 19.3548 2.2168 0.9829 0 3
24.1934 18.1109 1.8713 0.9680 0 3
22.2315 19.2638 1.8215 0.3101 0 3
11.0386 -11.0385 0.8375 0.9256 0 3
12.1819 -10.5557 0.8648 0.8964 0 3
13.4086 -10.0376 0.8986 0.8627 0 3
14.7125 -9.4551 0.9382 0.8244 0 3
15.7029 -8.5745 0.9598 0.6219 0 3
9.2742 -4.2354 0.5470 0.7994 144 7
18.2342 -6.8010 1.0441 0.6843 0 3
19.8897 -5.8401 1.1121 0.6307 0 3
24.0177 -5.2247 1.3186 0.5732 0 3
24.8392 -3.5713 1.3463 0.6747 0 3
33.2795 -2.3802 1.7899 0.2153 0 3
30.1159 19.3544 1.9205 0.9833 0 3
24.1928 18.1105 1.6213 0.9685 0 3
22.2247 19.2579 1.5777 0.3104 0 3
11.0397 -11.0397 0.7085 0.9259 0 3
12.1832 -10.5568 0.7316 0.8967 0 3
13.4101 -10.0387 0.7602 0.8630 0 3
14.7440 -9.4754 0.7954 0.8248 0 3
15.8970 -8.6804 0.8220 0.6041 0 3
9.2753 -4.2358 0.4627 0.7996 144 7
18.2367 -6.8019 0.8833 0.6845 0 3
20.1621 -5.9201 0.9536 0.7749 0 3
24.0217 -5.2256 1.1157 0.5734 0 3
25.0414 -3.6004 1.1481 0.6695 0 3
32.2698 -2.3080 1.4682 0.2221 0 3
30.1153 19.3539 1.6246 0.9838 0 3
24.2938 18.1861 1.3772 0.9680 0 3
22.2178 19.2519 1.3342 0.3106 0 3
11.0531 -11.0531 0.5803 0.3761 0 3
12.1845 -10.5579 0.5985 0.8969 0 3
13.4116 -10.0398 0.6219 0.8632 0 3
14.7457 -9.4764 0.6507 0.8250 0 3
15.8919 -8.6776 0.6722 0.6045 0 3
9.2764 -4.2363 0.3786 0.7998 144 7
18.2393 -6.8029 0.7227 0.6847 0 3
20.1615 -5.9199 0.7800 0.7752 0 3
23.4527 -5.1018 0.8910 0.5735 0 3
25.2468 -3.6299 0.9469 0.6643 0 3
31.7931 -2.2739 1.1833 0.4528 0 3
35.2666 19.2570 1.4916 0.1018 0 3
30.1146 19.3535 1.3289 0.9841 0 3
24.2933 18.1857 1.1265 0.9683 0 3
22.2375 19.2690 1.0923 0.9315 0 3
11.0533 -11.0533 0.4513 0.9220 0 3
12.1858 -10.5590 0.4655 0.8971 0 3
13.7769 -10.3132 0.4968 0.8633 0 3
14.7474 -9.4775 0.5061 0.8251 0 3
15.8869 -8.6749 0.5225 0.6048 0 3
16.4999 -7.5352 0.5236 0.7350 0 3
18.2418 -6.8038 0.5620 0.6848 0 3
20.1609 -5.9197 0.6066 0.7754 0 3
23.4567 -5.1027 0.6930 0.5733 0 3
27.8105 -3.9985 0.8111 0.5143 0 3
31.8210 -2.2758 0.9209 0.4524 0 3
37.2238 0.0000 1.0746 0.3878 0 3
35.2335 19.2390 1.1589 0.1020 0 3
30.1139 19.3531 1.0334 0.9844 0 3
24.2928 18.1854 0.8760 0.9688 0 3
22.2371 19.2686 0.8494 0.9318 0 3
11.0536 -11.0536 0.3223 0.9222 0 3
12.1871 -10.5602 0.3325 0.8972 0 3
13.7784 -10.3144 0.3548 0.8634 0 3
14.7491 -9.4786 0.3615 0.8252 0 3
15.8818 -8.6721 0.3731 0.6052 0 3
16.5020 -7.5362 0.3740 0.7350 0 3
18.2444 -6.8048 0.4015 0.6848 0 3
20.1604 -5.9196 0.4332 0.7756 0 3
23.8102 -5.1796 0.5024 0.8189 0 3
27.8156 -3.9993 0.5794 0.5143 0 3
31.9062 -2.2820 0.6595 0.4518 0 3
37.3417 0.0000 0.7699 0.3870 0 3
29.1967 6.3514 0.6160 0.9822 263 15
35.2005 19.2209 0.8269 0.1021 0 3
30.1120 19.3519 0.7380 0.9806 0 3
24.2925 18.1852 0.6256 0.9690 0 3
22.2367 19.2682 0.6066 0.9320 0 3
11.0539 -11.0538 0.1933 0.9223 0 3
12.1884 -10.5613 0.1995 0.8972 0 3
13.7799 -10.3155 0.2129 0.8634 0 3
14.7508 -9.4797 0.2169 0.8252 0 3
15.8768 -8.6694 0.2238 0.6054 0 3
16.5042 -7.5372 0.2244 0.7350 0 3
18.2469 -6.8057 0.2409 0.6848 0 3
20.1598 -5.9194 0.2599 0.7757 0 3
23.8098 -5.1795 0.3014 0.8190 0 3
27.8208 -4.0000 0.3477 0.5143 0 3
31.9130 -2.2824 0.3957 0.4518 0 3
37.3509 0.0000 0.4620 0.3870 0 3
28.1249 6.1182 0.3560 0.2045 263 15
35.1676 19.2030 0.4956 0.1022 0 3
30.1725 19.3908 0.4436 0.9848 0 3
24.2922 18.1849 0.3753 0.9691 0 3
22.2363 19.2679 0.3639 0.9321 0 3
11.0542 -11.0541 0.0645 0.9223 0 3
12.1897 -10.5624 0.0665 0.8972 0 3
13.7814 -10.3166 0.0710 0.8634 0 3
14.7525 -9.4808 0.0723 0.8252 0 3
15.8718 -8.6666 0.0746 0.6057 0 3
16.5063 -7.5381 0.0748 0.7350 0 3
18.2495 -6.8067 0.0803 0.6848 0 3
20.1592 -5.9192 0.0866 0.7758 0 3
23.8093 -5.1794 0.1005 0.8191 0 3
27.8260 -4.0008 0.1159 0.5142 0 3
31.9197 -2.2829 0.1319 0.4517 0 3
37.3601 0.0000 0.1540 0.3869 0 3
27.4094 5.9626 0.1156 0.9829 263 15
35.1348 19.1851 0.1650 0.1023 0 3
30.1719 19.3903 0.1479 0.9849 0 3
24.2918 18.1847 0.1251 0.9692 0 3
22.2359 19.2676 0.1213 0.9322 0 3
11.0544 -11.0544 -0.0645 0.9223 0 3
12.1910 -10.5635 -0.0665 0.8971 0 3
13.7829 -10.3178 -0.0710 0.8633 0 3
14.7542 -9.4819 -0.0723 0.8251 0 3
15.8667 -8.6639 -0.0745 0.6059 0 3
16.5085 -7.5391 -0.0748 0.7349 0 3
18.2520 -6.8077 -0.0803 0.6847 0 3
20.1586 -5.9191 -0.0866 0.7758 0 3
23.8088 -5.1793 -0.1005 0.8191 0 3
27.8312 -4.0015 -0.1159 0.5141 0 3
31.9265 -2.2834 -0.1320 0.4516 0 3
37.3693 0.0000 -0.1541 0.3868 0 3
27.4141 5.9636 -0.1157 0.9827 263 15
35.1020 19.1671 -0.1649 0.1024 0 3
30.1712 19.3899 -0.1479 0.9849 0 3
24.1891 18.1077 -0.1246 0.9701 0 3
22.2355 19.2672 -0.1213 0.9322 0 3
11.0547 -11.0547 -0.1934 0.9203 0 3
12.1923 -10.5647 -0.1995 0.8969 0 3
13.7845 -10.3189 -0.2130 0.8631 0 3
14.7559 -9.4830 -0.2170 0.8249 0 3
15.8617 -8.6612 -0.2235 0.6060 0 3
16.5106 -7.5401 -0.2245 0.7348 0 3
18.2546 -6.8086 -0.2410 0.6845 0 3
20.1581 -5.9189 -0.2599 0.7758 0 3
23.8084 -5.1792 -0.3014 0.8190 0 3
27.8363 -4.0022 -0.3479 0.5140 0 3
31.9332 -2.2839 -0.3960 0.4515 0 3
37.3786 0.0000 -0.4623 0.3867 0 3
43.9952 3.1466 -0.5456 0.9374 0 4
27.4187 5.9646 -0.3471 0.9825 263 15
35.0694 19.1493 -0.4942 0.1025 0 3
30.1705 19.3895 -0.4436 0.9849 0 3
24.1883 18.1072 -0.3737 0.9700 0 3
22.2351 19.2669 -0.3639 0.9322 0 3
11.0550 -11.0550 -0.3224 0.9202 0 3
12.1936 -10.5658 -0.3326 0.8967 0 3
13.7860 -10.3201 -0.3550 0.8629 0 3
14.7576 -9.4841 -0.3617 0.8247 0 3
15.8567 -8.6584 -0.3725 0.6061 0 3
16.5128 -7.5411 -0.3743 0.7346 0 3
18.2571 -6.8096 -0.4017 0.6843 0 3
20.1575 -5.9187 -0.4331 0.7757 0 3
23.8079 -5.1791 -0.5023 0.8190 0 3
27.8415 -4.0030 -0.5799 0.5138 0 3
31.9400 -2.2844 -0.6602 0.4513 0 3
37.3878 0.0000 -0.7708 0.3866 0 3
43.9941 3.1465 -0.9093 0.9373 0 4
27.4233 5.9656 -0.5786 0.9822 263 15
35.0367 19.1315 -0.8230 0.1026 0 3
30.1699 19.3890 -0.7394 0.9847 0 3
24.1878 18.1068 -0.6229 0.9701 0 3
22.2347 19.2665 -0.6066 0.9321 0 3
11.0553 -11.0553 -0.4513 0.9200 0 3
12.1949 -10.5669 -0.4658 0.8964 0 3
13.7875 -10.3212 -0.4972 0.8626 0 3
14.7593 -9.4852 -0.5065 0.8245 0 3
15.8545 -8.6572 -0.5215 0.6276 0 3
16.5149 -7.5421 -0.5241 0.7343 0 3
18.2597 -6.8105 -0.5626 0.6841 0 3
20.1570 -5.9186 -0.6064 0.7755 0 3
23.8074 -5.1790 -0.7033 0.8188 0 3
27.8467 -4.0037 -0.8121 0.5136 0 3
31.9468 -2.2849 -0.9246 0.4511 0 3
37.3971 0.0001 -1.0796 0.3864 0 3
15.3377 1.0970 -0.4439 0.4450 268 14
27.4280 5.9666 -0.8103 0.9818 263 15
35.0041 19.1137 -1.1513 0.1026 0 3
30.1055 19.3477 -1.0331 0.9806 0 3
24.1876 18.1067 -0.8722 0.9699 0 3
22.2343 19.2662 -0.8493 0.9319 0 3
11.0511 -11.0511 -0.5802 0.9253 0 3
12.1962 -10.5680 -0.5991 0.8961 0 3
13.4249 -10.0498 -0.6225 0.8623 0 3
14.7610 -9.4863 -0.6514 0.8241 0 3
15.8539 -8.6569 -0.6706 0.6274 0 3
16.5171 -7.5431 -0.6741 0.7340 0 3
18.2622 -6.8115 -0.7236 0.6838 0 3
20.1564 -5.9184 -0.7799 0.7753 0 3
23.8068 -5.1788 -0.9044 0.8186 0 3
27.8519 -4.0045 -1.0446 0.5134 0 3
31.9535 -2.2853 -1.1892 0.4509 0 3
37.4063 0.0000 -1.3886 0.3862 0 3
15.0858 1.0790 -0.5615 0.4668 268 14
44.7359 6.4321 -1.6778 0.2511 0 20
27.4326 5.9676 -1.0422 0.9814 263 15
45.3059 20.6905 -1.8489 0.0341 0 2
34.9714 19.0958 -1.4792 0.1027 0 3
30.1086 19.3497 -1.3286 0.9843 0 3
24.1858 18.1053 -1.1215 0.9700 0 3
21.3805 18.5263 -1.0502 0.3123 0 3
11.0522 -11.0522 -0.7093 0.9249 0 3
12.1975 -10.5692 -0.7324 0.8957 0 3
13.4264 -10.0509 -0.7611 0.8619 0 3
14.7627 -9.4874 -0.7964 0.8238 0 3
15.8534 -8.6566 -0.8197 0.6273 0 3
16.5192 -7.5440 -0.8242 0.7337 0 3
18.2648 -6.8124 -0.8847 0.6835 0 3
20.1558 -5.9182 -0.9534 0.7751 0 3
23.8063 -5.1787 -1.1057 0.8183 0 3
27.8571 -4.0052 -1.2772 0.5131 0 3
31.9603 -2.2858 -1.4541 0.4507 0 3
15.3272 0.0000 -0.6956 0.2234 268 14
14.8540 1.0624 -0.6758 0.4739 268 14
36.7724 5.2871 -1.6860 0.0457 0 2
27.4373 5.9686 -1.2743 0.9809 263 15
39.2656 11.5294 -1.8572 0.0440 0 1
39.0874 14.5789 -1.8932 0.0432 0 1
36.4764 16.6582 -1.8198 0.0423 0 2
34.9389 19.0781 -1.8066 0.1028 0 3
30.1079 19.3492 -1.6242 0.9840 0 3
24.1817 18.1023 -1.3708 0.9699 0 3
21.0660 18.2538 -1.2650 0.0317 0 3
11.0533 -11.0533 -0.8386 0.9244 0 3
12.1988 -10.5703 -0.8659 0.8952 0 3
13.4279 -10.0520 -0.8999 0.8615 0 3
14.7644 -9.4885 -0.9415 0.8233 0 3
15.8529 -8.6563 -0.9690 0.6270 0 3
16.5214 -7.5450 -0.9744 0.7333 0 3
18.2673 -6.8134 -1.0460 0.6831 0 3
20.1553 -5.9181 -1.1269 0.7748 0 3
23.8058 -5.1786 -1.3070 0.8180 0 3
27.8623 -4.0060 -1.5101 0.5128 0 3
28.5152 -2.0394 -1.5337 0.4504 0 20
14.9097 0.0000 -0.7999 0.1138 268 14
14.6320 1.0465 -0.7870 0.4928 268 14
31.1446 4.4779 -1.6880 0.0539 0 2
33.1343 7.2079 -1.8192 0.0531 0 1
33.0616 9.7078 -1.8486 0.0522 0 1
32.8110 12.2379 -1.8787 0.0514 0 1
30.5234 13.9396 -1.8002 0.0506 0 2
29.9315 16.3438 -1.8296 0.0498 0 2
29.3779 18.8801 -1.8735 0.0490 0 0
24.1800 18.1009 -1.6204 0.9696 0 3
20.5096 17.7717 -1.4559 0.3141 0 3
11.0545 -11.0545 -0.9680 0.9239 0 3
12.2001 -10.5714 -0.9996 0.8947 0 3
13.4294 -10.0531 -1.0388 0.8610 0 3
14.7661 -9.4896 -1.0869 0.8228 0 3
15.8523 -8.6560 -1.1184 0.6267 0 3
16.5235 -7.5460 -1.1248 0.7328 0 3
18.2699 -6.8143 -1.2074 0.6827 0 3
20.1547 -5.9179 -1.3007 0.7745 0 3
23.4316 -5.0972 -1.4848 0.0663 0 3
24.0235 -3.4541 -1.5029 0.0655 0 3
26.5168 -1.8965 -1.6461 0.0647 0 0
14.0636 0.0000 -0.8708 0.2142 268 14
14.2549 1.0195 -0.8849 0.2267 268 14
17.6798 2.5420 -1.1060 0.1150 268 14
28.6722 6.2372 -1.8169 0.0613 0 1
28.5472 8.3822 -1.8423 0.0605 0 1
28.2678 10.5434 -1.8682 0.0596 0 1
26.2377 11.9824 -1.7861 0.0588 0 2
25.6700 14.0169 -1.8111 0.0580 0 2
25.1373 16.1547 -1.8503 0.0572 0 0
24.1785 18.0998 -1.8702 0.9689 0 3
14.1923 12.2978 -1.1628 0.3116 0 3
11.0556 -11.0556 -1.0976 0.9233 0 3
12.2014 -10.5725 -1.1334 0.8941 0 3
13.4309 -10.0542 -1.1778 0.8604 0 3
14.7678 -9.4907 -1.2324 0.8223 0 3
15.8518 -8.6557 -1.2679 0.6264 0 3
16.5257 -7.5470 -1.2754 0.7323 0 3
18.2725 -6.8153 -1.3691 0.6822 0 3
20.1541 -5.9178 -1.4746 0.7741 0 3
20.8335 -4.5321 -1.4968 0.0745 0 3
22.5029 -3.2354 -1.5960 0.5114 0 3
23.1945 -1.6589 -1.6325 0.0729 0 2
13.5343 0.0000 -0.9501 0.3273 268 14
13.9368 0.9968 -0.9809 0.4125 268 14
17.5742 2.5268 -1.2464 0.1483 268 14
25.2662 5.4963 -1.8152 0.0695 0 1
25.1144 7.3743 -1.8375 0.0687 0 1
24.8268 9.2599 -1.8602 0.0679 0 1
23.0044 10.5058 -1.7754 0.0670 0 2
22.4679 12.2684 -1.7971 0.0662 0 2
21.7959 14.0074 -1.8189 0.0654 0 2
21.1489 15.8319 -1.8546 0.0647 0 0
14.1880 12.2940 -1.3179 0.3115 0 3
11.0568 -11.0568 -1.2274 0.9226 0 3
12.2027 -10.5737 -1.2674 0.8935 0 3
13.4324 -10.0553 -1.3171 0.8598 0 3
14.7695 -9.4918 -1.3781 0.8217 0 3
15.8512 -8.6554 -1.4176 0.6261 0 3
16.5278 -7.5480 -1.4262 0.7318 0 3
17.9423 -6.6921 -1.5031 0.5343 0 3
19.7342 -5.7945 -1.6144 0.0835 0 0
19.9076 -4.3306 -1.5992 0.5732 0 3
20.4667 -2.9427 -1.6230 0.0819 0 2
20.8312 -1.4898 -1.6393 0.0811 0 2
13.4072 0.0000 -1.0524 0.7825 268 14
13.9792 0.9998 -1.1001 0.2622 268 14
17.5409 2.5220 -1.3910 0.1816 268 14
22.5807 4.9121 -1.8139 0.0778 0 1
22.4157 6.5819 -1.8338 0.0769 0 1
22.1297 8.2540 -1.8539 0.0761 0 1
21.7201 9.9193 -1.8743 0.0753 0 1
19.9735 10.9064 -1.7863 0.0744 0 2
19.3501 12.4355 -1.8055 0.0737 0 2
18.7508 14.0367 -1.8385 0.0729 0 0
13.4446 11.6498 -1.3964 0.3114 0 3
11.0579 -11.0579 -1.3573 0.9219 0 3
12.2040 -10.5748 -1.4016 0.8928 0 3
13.4339 -10.0565 -1.4565 0.8591 0 3
14.7713 -9.4929 -1.5240 0.8210 0 3
15.8472 -8.6532 -1.5672 0.6277 0 3
16.2267 -7.4104 -1.5483 0.7312 0 3
17.3916 -6.4867 -1.6111 0.0925 0 0
17.9545 -5.2719 -1.6242 0.0917 0 0
18.1909 -3.9572 -1.6158 0.0909 0 2
18.5890 -2.6727 -1.6300 0.0901 0 2
18.9026 -1.3519 -1.6449 0.0893 0 2
13.3758 0.0000 -1.1610 0.9284 268 14
13.7736 0.9851 -1.1986 0.3193 268 14
20.4722 2.9435 -1.7952 0.0868 0 1
20.4086 4.4396 -1.8128 0.0860 0 1
20.2383 5.9425 -1.8308 0.0851 0 1
19.9587 7.4442 -1.8489 0.0843 0 1
19.5682 8.9365 -1.8672 0.0835 0 1
17.9753 9.8153 -1.7776 0.0827 0 2
17.3956 11.1795 -1.7948 0.0819 0 2
16.8389 12.6054 -1.8257 0.0811 0 0
13.4404 11.6462 -1.5436 0.3113 0 3
11.0591 -11.0590 -1.4875 0.9211 0 3
12.2053 -10.5759 -1.5360 0.8920 0 3
13.2903 -9.9490 -1.5790 0.1033 0 0
14.0478 -9.0280 -1.5882 0.1027 0 0
14.7481 -8.0531 -1.5982 0.1020 0 0
15.3874 -7.0272 -1.6089 0.1014 0 0
15.9617 -5.9534 -1.6203 0.1007 0 0
16.2451 -4.7700 -1.6103 0.0999 0 2
16.6724 -3.6269 -1.6228 0.0991 0 2
17.0248 -2.4478 -1.6359 0.0984 0 2
17.2988 -1.2372 -1.6495 0.0975 0 2
13.3628 0.0000 -1.2709 0.9286 268 14
13.7777 0.9854 -1.3138 0.3189 268 14
18.6895 2.6871 -1.7958 0.0950 0 1
18.6155 4.0496 -1.8119 0.0942 0 1
18.4440 5.4157 -1.8283 0.0934 0 1
18.1733 6.7783 -1.8448 0.0925 0 1
17.8020 8.1299 -1.8614 0.0917 0 1
16.3384 8.9215 -1.7705 0.0909 0 2
15.7976 10.1525 -1.7860 0.0901 0 2
15.1620 11.3502 -1.8014 0.0893 0 2
12.7754 11.0700 -1.6078 0.3111 0 3
10.7642 -10.7642 -1.5746 0.1126 0 0
10.9882 -9.5213 -1.5039 0.1120 0 20
11.9880 -8.9741 -1.5490 0.8565 0 20
12.5837 -8.0871 -1.5472 0.8184 0 20
13.6402 -7.4481 -1.6075 0.1102 0 0
14.2243 -6.4960 -1.6175 0.1096 0 0
14.5496 -5.4267 -1.6062 0.1089 0 2
15.0020 -4.4050 -1.6173 0.1081 0 2
15.3875 -3.3473 -1.6289 0.1073 0 2
15.7015 -2.2575 -1.6408 0.1066 0 2
16.0890 -1.1507 -1.6685 0.4603 0 2
13.3707 0.0000 -1.3830 0.8489 268 14
13.7819 0.9857 -1.4292 0.3186 268 14
17.1901 2.4716 -1.7964 0.1032 0 1
17.1098 3.7220 -1.8112 0.1024 0 1
16.9398 4.9740 -1.8262 0.1016 0 1
16.6789 6.2209 -1.8413 0.1007 0 1
16.3261 7.4559 -1.8565 0.0999 0 1
14.9728 8.1758 -1.7646 0.0991 0 2
14.4666 9.2971 -1.7788 0.0983 0 2
13.8745 10.3864 -1.7927 0.0975 0 2
12.7715 11.0666 -1.7480 0.3110 0 3
9.8650 -9.8650 -1.5594 0.9185 0 20
10.3934 -9.0059 -1.5372 0.8894 0 20
11.4432 -8.5662 -1.5978 0.8557 0 20
12.0938 -7.7722 -1.6069 0.1191 0 0
12.5156 -6.8340 -1.5939 0.1184 0 2
13.0458 -5.9578 -1.6031 0.1178 0 2
13.5193 -5.0424 -1.6129 0.1171 0 2
13.9329 -4.0911 -1.6231 0.1163 0 2
14.2836 -3.1072 -1.6339 0.1155 0 2
14.5687 -2.0946 -1.6452 0.1147 0 2
15.6823 -1.1216 -1.7574 0.1139 0 1
15.8369 0.0000 -1.7702 0.1131 0 1
13.7861 0.9860 -1.5449 0.3182 268 14
15.9115 2.2877 -1.7969 0.1114 0 1
15.8275 3.4431 -1.8105 0.1106 0 1
15.6605 4.5984 -1.8244 0.1098 0 1
15.4097 5.7475 -1.8384 0.1089 0 1
15.0742 6.8842 -1.8524 0.1081 0 1
13.8161 7.5442 -1.7596 0.1073 0 2
13.3407 8.5736 -1.7726 0.1065 0 2
12.7869 9.5721 -1.7854 0.1057 0 2
12.2499 10.6146 -1.8118 0.1050 0 0
9.3801 -9.3801 -1.5937 0.1289 0 0
10.0651 -8.7214 -1.6000 0.1284 0 0
10.7079 -8.0158 -1.6069 0.1279 0 0
11.1538 -7.1681 -1.5928 0.1273 0 2
11.6955 -6.3863 -1.6009 0.1266 0 2
12.1865 -5.5654 -1.6095 0.1259 0 2
12.6237 -4.7084 -1.6186 0.1252 0 2
13.0044 -3.8184 -1.6282 0.1245 0 2
13.3259 -2.8988 -1.6383 0.1237 0 2
13.9797 -2.0100 -1.6967 0.5056 0 2
14.6169 -1.0454 -1.7605 0.1221 0 1
14.7538 0.0000 -1.7724 0.1213 0 1
13.7902 0.9863 -1.6609 0.3178 268 14
14.8080 2.1291 -1.7973 0.1196 0 1
14.7220 3.2026 -1.8100 0.1188 0 1
14.5590 4.2749 -1.8229 0.1179 0 1
14.3180 5.3404 -1.8358 0.1171 0 1
13.9988 6.3931 -1.8488 0.1163 0 1
12.8235 7.0022 -1.7553 0.1155 0 2
12.3757 7.9534 -1.7673 0.1147 0 2
11.8558 8.8751 -1.7792 0.1139 0 2
11.2653 9.7614 -1.7907 0.1132 0 2
8.8120 -8.8119 -1.6015 0.1371 0 0
9.3265 -8.0814 -1.5859 0.1366 0 2
9.9195 -7.4256 -1.5923 0.1360 0 2
10.4700 -6.7286 -1.5994 0.1354 0 2
10.9750 -5.9928 -1.6069 0.1348 0 2
11.4319 -5.2208 -1.6150 0.1341 0 2
11.8379 -4.4153 -1.6236 0.1334 0 2
12.1904 -3.5794 -1.6327 0.1327 0 2
12.4869 -2.7163 -1.6422 0.1319 0 2
13.4970 -1.9406 -1.7523 0.1311 0 1
13.6854 -0.9788 -1.7632 0.1303 0 1
13.8076 0.0000 -1.7744 0.1295 0 1
13.8616 0.9914 -1.7859 0.1286 0 1
13.8459 1.9907 -1.7976 0.1278 0 1
13.7592 2.9931 -1.8095 0.1270 0 1
13.6004 3.9935 -1.8215 0.1261 0 1
13.3691 4.9864 -1.8336 0.1253 0 1
13.0649 5.9666 -1.8457 0.1245 0 1
11.9625 6.5320 -1.7515 0.1237 0 2
11.5394 7.4159 -1.7627 0.1229 0 2
11.0496 8.2716 -1.7738 0.1221 0 2
10.4946 9.0937 -1.7845 0.1214 0 2
8.1963 -8.1963 -1.5868 0.1453 0 2
8.7909 -7.6173 -1.5924 0.1448 0 2
9.3476 -6.9975 -1.5985 0.1442 0 2
9.8639 -6.3391 -1.6052 0.1436 0 2
10.3369 -5.6444 -1.6123 0.1430 0 2
10.7641 -4.9158 -1.6200 0.1423 0 2
11.1429 -4.1561 -1.6281 0.1416 0 2
11.4709 -3.3681 -1.6366 0.1408 0 2
12.3567 -2.6880 -1.7312 0.5672 0 2
12.6914 -1.8247 -1.7553 0.1393 0 1
12.8639 -0.9200 -1.7655 0.1385 0 1
12.9737 0.0000 -1.7761 0.1377 0 1
13.0194 0.9312 -1.7869 0.1368 0 1
12.9995 1.8690 -1.7979 0.1360 0 1
12.9128 2.8090 -1.8091 0.1351 0 1
12.7586 3.7463 -1.8204 0.1343 0 1
12.5364 4.6759 -1.8317 0.1335 0 1
12.2462 5.5927 -1.8430 0.1327 0 1
11.2072 6.1196 -1.7481 0.1318 0 2
10.8065 6.9449 -1.7586 0.1311 0 2
10.3437 7.7432 -1.7689 0.1303 0 2
9.8203 8.5094 -1.7789 0.1296 0 2
7.7517 -7.7517 -1.5930 0.1534 0 2
8.3124 -7.2028 -1.5982 0.1529 0 2
8.8370 -6.6153 -1.6040 0.1524 0 2
9.3229 -5.9915 -1.6103 0.1518 0 2
9.7676 -5.3335 -1.6171 0.1511 0 2
10.1686 -4.6438 -1.6244 0.1504 0 2
10.5236 -3.9251 -1.6321 0.1497 0 2
11.0375 -3.2409 -1.6716 0.6236 0 2
11.7589 -2.5580 -1.7486 0.1482 0 1
11.9751 -1.7217 -1.7580 0.1474 0 1
12.1338 -0.8678 -1.7677 0.1466 0 1
12.2333 0.0000 -1.7776 0.1458 0 1
12.2721 0.8777 -1.7878 0.1450 0 1
12.2490 1.7611 -1.7982 0.1441 0 1
12.1629 2.6459 -1.8087 0.1433 0 1
12.0134 3.5274 -1.8193 0.1425 0 1
11.7999 4.4012 -1.8300 0.1416 0 1
11.5225 5.2621 -1.8407 0.1408 0 1
10.5411 5.7559 -1.7452 0.1400 0 2
10.1606 6.5298 -1.7550 0.1392 0 2
9.7220 7.2779 -1.7647 0.1385 0 2
9.2270 7.9953 -1.7741 0.1377 0 2
7.3519 -7.3519 -1.5985 0.1616 0 2
7.8824 -6.8301 -1.6035 0.1610 0 2
8.3783 -6.2719 -1.6090 0.1605 0 2
8.8372 -5.6793 -1.6150 0.1599 0 2
9.2567 -5.0545 -1.6214 0.1593 0 2
9.6344 -4.3999 -1.6283 0.1586 0 2
9.9682 -3.7179 -1.6356 0.1579 0 2
10.8781 -3.1941 -1.7430 0.1571 0 1
11.1324 -2.4217 -1.7515 0.1564 0 1
11.3339 -1.6296 -1.7604 0.1556 0 1
11.4807 -0.8211 -1.7695 0.1548 0 1
11.5713 0.0000 -1.7790 0.1540 0 1
11.6044 0.8300 -1.7886 0.1531 0 1
11.5789 1.6648 -1.7984 0.1523 0 1
11.4939 2.5004 -1.8084 0.1515 0 1
11.3489 3.3324 -1.8184 0.1506 0 1
11.1436 4.1563 -1.8285 0.1498 0 1
10.8781 4.9679 -1.8385 0.1490 0 1
9.9484 5.4322 -1.7426 0.1482 0 2
9.5862 6.1607 -1.7519 0.1474 0 2
9.1696 6.8643 -1.7610 0.1466 0 2
8.7001 7.5387 -1.7698 0.1459 0 2
6.9905 -6.9905 -1.6034 0.1697 0 2
7.4937 -6.4933 -1.6082 0.1692 0 2
7.9638 -5.9616 -1.6135 0.1686 0 2
8.3985 -5.3974 -1.6192 0.1680 0 2
8.7954 -4.8026 -1.6253 0.1674 0 2
9.1524 -4.1797 -1.6319 0.1667 0 2
9.9350 -3.7056 -1.7198 0.6748 0 2
10.3291 -3.0329 -1.7460 0.1653 0 1
10.5680 -2.2989 -1.7541 0.1645 0 1
10.7564 -1.5465 -1.7625 0.1637 0 1
10.8929 -0.7791 -1.7712 0.1629 0 1
10.9759 0.0000 -1.7802 0.1621 0 1
11.0042 0.7871 -1.7893 0.1613 0 1
10.9769 1.5783 -1.7987 0.1604 0 1
10.8932 2.3697 -1.8081 0.1596 0 1
10.7526 3.1573 -1.8176 0.1588 0 1
10.5550 3.9368 -1.8271 0.1579 0 1
10.3006 4.7041 -1.8366 0.1571 0 1
9.4175 5.1424 -1.7403 0.1563 0 2
9.0721 5.8303 -1.7491 0.1555 0 2
8.6754 6.4944 -1.7577 0.1548 0 2
8.2290 7.1305 -1.7660 0.1540 0 2
6.6621 -6.6621 -1.6079 0.1778 0 2
7.1407 -6.1874 -1.6125 0.1773 0 2
7.5875 -5.6799 -1.6175 0.1768 0 2
8.0002 -5.1414 -1.6230 0.1762 0 2
8.3931 -4.5830 -1.6320 0.7354 0 2
8.9870 -4.1042 -1.6861 0.7233 0 2
9.5600 -3.5657 -1.7413 0.1741 0 1
9.8316 -2.8868 -1.7487 0.1734 0 1
10.0567 -2.1877 -1.7565 0.1726 0 1
10.2337 -1.4714 -1.7645 0.1719 0 1
10.3610 -0.7410 -1.7728 0.1711 0 1
10.4374 0.0000 -1.7813 0.1702 0 1
10.4617 0.7482 -1.7900 0.1694 0 1
10.4330 1.5001 -1.7989 0.1686 0 1
10.3507 2.2517 -1.8078 0.1677 0 1
10.2145 2.9993 -1.8168 0.1669 0 1
10.0242 3.7388 -1.8259 0.1661 0 1
9.7800 4.4664 -1.8349 0.1653 0 1
8.9392 4.8812 -1.7382 0.1645 0 2
8.6091 5.5328 -1.7465 0.1637 0 2
8.2307 6.1614 -1.7547 0.1629 0 2
7.8052 6.7632 -1.7626 0.1622 0 2
6.3624 -6.3624 -1.6121 0.1859 0 2
6.8186 -5.9083 -1.6164 0.1854 0 2
7.2442 -5.4229 -1.6213 0.1849 0 2
7.6371 -4.9080 -1.6265 0.1843 0 2
8.1562 -4.4536 -1.6649 0.7679 0 2
8.8212 -4.0285 -1.7374 0.1830 0 1
9.1213 -3.4021 -1.7442 0.1823 0 1
9.3786 -2.7538 -1.7512 0.1815 0 1
9.5914 -2.0865 -1.7586 0.1808 0 1
9.7581 -1.4030 -1.7663 0.1800 0 1
9.8773 -0.7064 -1.7742 0.1792 0 1
9.9479 0.0000 -1.7823 0.1784 0 1
9.9688 0.7130 -1.7906 0.1775 0 1
9.9391 1.4290 -1.7990 0.1767 0 1
9.8585 2.1446 -1.8076 0.1759 0 1
9.7264 2.8559 -1.8162 0.1750 0 1
9.5429 3.5593 -1.8248 0.1742 0 1
9.3082 4.2509 -1.8334 0.1734 0 1
8.5060 4.6446 -1.7363 0.1726 0 2
8.1900 5.2634 -1.7442 0.1718 0 2
7.8282 5.8601 -1.7520 0.1711 0 2
7.4219 6.4311 -1.7595 0.1703 0 2
6.0877 -6.0877 -1.6158 0.1940 0 2
6.5234 -5.6525 -1.6200 0.1935 0 2
6.9400 -5.1952 -1.6271 0.8088 0 2
7.4151 -4.7654 -1.6543 0.8083 0 2
8.1098 -4.4283 -1.7342 0.1917 0 1
8.4345 -3.8519 -1.7403 0.1911 0 1
8.7199 -3.2523 -1.7467 0.1904 0 1
8.9643 -2.6321 -1.7535 0.1896 0 1
9.1660 -1.9939 -1.7606 0.1889 0 1
9.3235 -1.3405 -1.7679 0.1881 0 1
9.4355 -0.6748 -1.7754 0.1873 0 1
9.5010 0.0000 -1.7832 0.1865 0 1
9.5190 0.6808 -1.7911 0.1856 0 1
9.4887 1.3643 -1.7992 0.1848 0 1
9.4096 2.0470 -1.8073 0.1840 0 1
9.2815 2.7253 -1.8156 0.1831 0 1
9.1045 3.3958 -1.8238 0.1823 0 1
8.8786 4.0547 -1.8319 0.1815 0 1
8.1960 4.4754 -1.7527 0.1859 0 2
7.8088 5.0184 -1.7421 0.1799 0 2
7.4622 5.5862 -1.7495 0.1792 0 2
7.0735 6.1292 -1.7567 0.1784 0 2
5.8350 -5.8350 -1.6193 0.2021 0 2
6.2519 -5.4173 -1.6234 0.2016 0 2
6.7435 -5.0481 -1.6530 0.8445 0 2
7.4160 -4.7660 -1.7299 0.8069 0 2
7.7693 -4.2424 -1.7371 0.1998 0 1
8.0792 -3.6896 -1.7429 0.1991 0 1
8.3513 -3.1149 -1.7491 0.1984 0 1
8.5839 -2.5204 -1.7556 0.1977 0 1
8.7755 -1.9090 -1.7623 0.1970 0 1
8.9248 -1.2832 -1.7694 0.1962 0 1
9.0304 -0.6458 -1.7766 0.1954 0 1
9.0914 0.0000 -1.7840 0.1946 0 1
9.1068 0.6513 -1.7916 0.1937 0 1
9.0760 1.3049 -1.7993 0.1929 0 1
8.9986 1.9575 -1.8071 0.1921 0 1
8.8744 2.6058 -1.8150 0.1912 0 1
8.7033 3.2462 -1.8228 0.1904 0 1
8.4858 3.8754 -1.8306 0.1896 0 1
7.7513 4.2325 -1.7331 0.1888 0 2
7.4604 4.7945 -1.7402 0.1880 0 2
7.1280 5.3359 -1.7473 0.1873 0 2
6.7554 5.8536 -1.7541 0.1865 0 2
5.6017 -5.6017 -1.6225 0.2102 0 2
6.1259 -5.3081 -1.6602 0.8761 0 2
6.7442 -5.0487 -1.7255 0.8430 0 2
7.1243 -4.5785 -1.7345 0.2085 0 1
7.4553 -4.0709 -1.7397 0.2079 0 1
7.7516 -3.5400 -1.7454 0.2072 0 1
8.0115 -2.9881 -1.7513 0.2065 0 1
8.2335 -2.4175 -1.7575 0.2058 0 1
8.4159 -1.8308 -1.7640 0.2050 0 1
8.5576 -1.2304 -1.7707 0.2043 0 1
8.6575 -0.6192 -1.7777 0.2035 0 1
8.7144 0.0000 -1.7848 0.2026 0 1
8.7276 0.6242 -1.7921 0.2018 0 1
8.6966 1.2504 -1.7995 0.2010 0 1
8.6209 1.8754 -1.8070 0.2002 0 1
8.5003 2.4959 -1.8145 0.1993 0 1
8.3350 3.1088 -1.8220 0.1985 0 1
8.1251 3.7106 -1.8295 0.1977 0 1
7.4205 4.0519 -1.7316 0.1969 0 2
7.1408 4.5891 -1.7385 0.1961 0 2
6.8214 5.1065 -1.7452 0.1954 0 2
6.4638 5.6009 -1.7517 0.1946 0 2
5.5505 -5.5505 -1.6752 0.9032 0 2
6.1194 -5.3024 -1.7281 0.2177 0 1
6.4984 -4.8646 -1.7324 0.2172 0 1
6.8474 -4.4006 -1.7371 0.2166 0 1
7.1648 -3.9122 -1.7422 0.2159 0 1
7.4486 -3.4016 -1.7476 0.2153 0 1
7.6973 -2.8709 -1.7533 0.2146 0 1
7.9094 -2.3224 -1.7593 0.2138 0 1
8.0835 -1.7585 -1.7655 0.2131 0 1
8.2184 -1.1816 -1.7720 0.2123 0 1
8.3130 -0.5945 -1.7787 0.2115 0 1
8.3663 0.0000 -1.7855 0.2107 0 1
8.3777 0.5992 -1.7925 0.2099 0 1
8.3465 1.2001 -1.7996 0.2091 0 1
8.2724 1.7996 -1.8068 0.2082 0 1
8.1554 2.3946 -1.8140 0.2074 0 1
7.9954 2.9821 -1.8212 0.2066 0 1
7.7928 3.5589 -1.8284 0.2058 0 1
7.1159 3.8856 -1.7303 0.2050 0 2
6.8464 4.4000 -1.7369 0.2042 0 2
6.5392 4.8952 -1.7433 0.2034 0 2
6.1954 5.3684 -1.7496 0.2027 0 2
5.4995 -5.4995 -1.7270 0.2263 0 1
5.8908 -5.1044 -1.7309 0.2258 0 1
6.2551 -4.6825 -1.7350 0.2252 0 1
6.5904 -4.2354 -1.7396 0.2246 0 1
6.8951 -3.7650 -1.7445 0.2240 0 1
7.1674 -3.2732 -1.7497 0.2233 0 1
7.4058 -2.7622 -1.7552 0.2226 0 1
7.6089 -2.2342 -1.7609 0.2219 0 1
7.7754 -1.6914 -1.7669 0.2211 0 1
7.9040 -1.1364 -1.7732 0.2204 0 1
7.9938 -0.5717 -1.7796 0.2196 0 1
8.0439 0.0000 -1.7862 0.2188 0 1
8.0536 0.5760 -1.7929 0.2179 0 1
8.0224 1.1534 -1.7997 0.2171 0 1
7.9500 1.7294 -1.8066 0.2163 0 1
7.8363 2.3009 -1.8135 0.2155 0 1
7.6813 2.8650 -1.8205 0.2146 0 1
7.4856 3.4186 -1.8273 0.2138 0 1
6.8343 3.7318 -1.7291 0.2130 0 2
6.5745 4.2252 -1.7354 0.2123 0 2
6.2786 4.7001 -1.7416 0.2115 0 2
5.9477 5.1537 -1.7475 0.2108 0 2
5.3013 -5.3012 -1.7298 0.2343 0 1
5.6780 -4.9200 -1.7334 0.2338 0 1
6.0286 -4.5129 -1.7375 0.2332 0 1
6.3512 -4.0816 -1.7419 0.2326 0 1
6.6441 -3.6279 -1.7466 0.2320 0 1
6.9057 -3.1537 -1.7516 0.2314 0 1
7.1346 -2.6611 -1.7569 0.2307 0 1
7.3294 -2.1521 -1.7625 0.2299 0 1
7.4888 -1.6291 -1.7683 0.2292 0 1
7.6117 -1.0944 -1.7743 0.2284 0 1
7.6972 -0.5505 -1.7805 0.2276 0 1
7.7443 0.0000 -1.7868 0.2268 0 1
7.7526 0.5545 -1.7933 0.2260 0 1
7.7215 1.1102 -1.7998 0.2252 0 1
7.6507 1.6643 -1.8065 0.2243 0 1
7.5401 2.2140 -1.8131 0.2235 0 1
7.3900 2.7563 -1.8198 0.2227 0 1
7.2006 3.2884 -1.8264 0.2219 0 1
6.5813 3.5937 -1.7301 0.2069 0 2
6.3225 4.0632 -1.7340 0.2203 0 2
6.0370 4.5193 -1.7399 0.2196 0 2
5.7181 4.9548 -1.7457 0.2188 0 2
5.1161 -5.1161 -1.7323 0.2423 0 1
5.4793 -4.7478 -1.7359 0.2418 0 1
5.8171 -4.3546 -1.7398 0.2412 0 1
6.1279 -3.9381 -1.7440 0.2407 0 1
6.4099 -3.5001 -1.7486 0.2400 0 1
6.6616 -3.0423 -1.7534 0.2394 0 1
6.8817 -2.5667 -1.7585 0.2387 0 1
7.0688 -2.0756 -1.7639 0.2379 0 1
7.2217 -1.5710 -1.7695 0.2372 0 1
7.3393 -1.0552 -1.7753 0.2364 0 1
7.4208 -0.5307 -1.7813 0.2356 0 1
7.4653 0.0000 -1.7874 0.2348 0 1
7.4723 0.5344 -1.7936 0.2340 0 1
7.4413 1.0699 -1.7999 0.2332 0 1
7.3721 1.6037 -1.8063 0.2324 0 1
7.2646 2.1331 -1.8128 0.2315 0 1
7.1190 2.6553 -1.8192 0.2307 0 1
6.9356 3.1674 -1.8255 0.2299 0 1
6.4805 3.5386 -1.7678 0.1033 0 2
6.0882 3.9127 -1.7327 0.2283 0 2
5.8126 4.3513 -1.7384 0.2276 0 2
5.5049 4.7700 -1.7440 0.2269 0 2
4.9428 -4.9428 -1.7347 0.2503 0 1
5.2933 -4.5867 -1.7381 0.2498 0 1
5.6193 -4.2065 -1.7419 0.2492 0 1
5.9189 -3.8038 -1.7460 0.2487 0 1
6.1908 -3.3804 -1.7504 0.2480 0 1
6.4333 -2.9380 -1.7551 0.2474 0 1
6.6452 -2.4785 -1.7600 0.2467 0 1
6.8251 -2.0040 -1.7652 0.2459 0 1
6.9720 -1.5166 -1.7706 0.2452 0 1
7.0847 -1.0186 -1.7762 0.2444 0 1
7.1625 -0.5123 -1.7820 0.2436 0 1
7.2046 0.0000 -1.7879 0.2428 0 1
7.2105 0.5157 -1.7939 0.2420 0 1
7.1797 1.0323 -1.8000 0.2412 0 1
7.1120 1.5471 -1.8062 0.2404 0 1
7.0075 2.0576 -1.8124 0.2395 0 1
6.8662 2.5610 -1.8186 0.2387 0 1
6.6885 3.0546 -1.8247 0.2379 0 1
6.4743 3.5353 -1.8306 0.1032 0 2
5.8698 3.7723 -1.7315 0.2364 0 2
5.6035 4.1947 -1.7370 0.2356 0 2
5.3062 4.5979 -1.7424 0.2349 0 2
4.7802 -4.7802 -1.7369 0.2582 0 1
5.1189 -4.4355 -1.7403 0.2578 0 1
5.4337 -4.0676 -1.7439 0.2572 0 1
5.7230 -3.6779 -1.7479 0.2566 0 1
5.9853 -3.2682 -1.7522 0.2560 0 1
6.2193 -2.8402 -1.7567 0.2553 0 1
6.4235 -2.3958 -1.7615 0.2547 0 1
6.5968 -1.9370 -1.7665 0.2539 0 1
6.7380 -1.4657 -1.7717 0.2532 0 1
6.8463 -0.9843 -1.7771 0.2524 0 1
6.9207 -0.4950 -1.7827 0.2516 0 1
6.9606 0.0000 -1.7884 0.2508 0 1
6.9655 0.4982 -1.7942 0.2500 0 1
6.9349 0.9971 -1.8001 0.2492 0 1
6.8688 1.4942 -1.8061 0.2484 0 1
6.7670 1.9870 -1.8121 0.2475 0 1
6.6298 2.4728 -1.8180 0.2467 0 1
6.4575 2.9490 -1.8240 0.2459 0 1
6.2506 3.4131 -1.8298 0.2451 0 1
5.6658 3.6412 -1.7304 0.2444 0 2
5.4081 4.0485 -1.7357 0.2436 0 2
5.1206 4.4370 -1.7409 0.2429 0 2
4.6274 -4.6273 -1.7390 0.2662 0 1
4.9549 -4.2934 -1.7423 0.2657 0 1
5.2592 -3.9370 -1.7458 0.2652 0 1
5.5389 -3.5596 -1.7497 0.2646 0 1
5.7923 -3.1628 -1.7538 0.2640 0 1
6.0182 -2.7484 -1.7582 0.2633 0 1
6.2153 -2.3182 -1.7628 0.2626 0 1
6.3824 -1.8740 -1.7677 0.2619 0 1
6.5184 -1.4180 -1.7727 0.2611 0 1
6.6225 -0.9521 -1.7780 0.2604 0 1
6.6938 -0.4787 -1.7833 0.2596 0 1
6.7316 0.0000 -1.7889 0.2588 0 1
6.7356 0.4818 -1.7945 0.2580 0 1
6.7054 0.9641 -1.8002 0.2572 0 1
6.6407 1.4446 -1.8060 0.2563 0 1
6.5416 1.9208 -1.8117 0.2555 0 1
6.4082 2.3901 -1.8175 0.2547 0 1
6.2410 2.8502 -1.8232 0.2539 0 1
6.0404 3.2983 -1.8289 0.2531 0 1
5.4747 3.5184 -1.7294 0.2524 0 2
5.2251 3.9115 -1.7345 0.2516 0 2
4.9469 4.2865 -1.7394 0.2509 0 2
4.4833 -4.4833 -1.7410 0.2741 0 1
4.8004 -4.1596 -1.7441 0.2737 0 1
5.0950 -3.8140 -1.7476 0.2731 0 1
5.3655 -3.4482 -1.7513 0.2725 0 1
5.6106 -3.0636 -1.7553 0.2719 0 1
5.8289 -2.6620 -1.7596 0.2713 0 1
6.0193 -2.2451 -1.7641 0.2706 0 1
6.1806 -1.8148 -1.7688 0.2698 0 1
6.3117 -1.3730 -1.7737 0.2691 0 1
6.4119 -0.9219 -1.7787 0.2683 0 1
6.4803 -0.4635 -1.7840 0.2675 0 1
6.5164 0.0000 -1.7893 0.2667 0 1
6.5196 0.4663 -1.7948 0.2659 0 1
6.4896 0.9331 -1.8003 0.2651 0 1
6.4263 1.3980 -1.8059 0.2643 0 1
6.3298 1.8586 -1.8115 0.2635 0 1
6.2001 2.3125 -1.8170 0.2627 0 1
6.0376 2.7573 -1.8226 0.2619 0 1
5.8430 3.1906 -1.8280 0.2611 0 1
5.2953 3.4031 -1.7284 0.2603 0 2
5.0534 3.7829 -1.7333 0.2596 0 2
4.7838 4.1452 -1.7381 0.2589 0 2
4.3475 -4.3474 -1.7429 0.2821 0 1
4.6546 -4.0332 -1.7459 0.2816 0 1
4.9400 -3.6980 -1.7493 0.2810 0 1
5.2019 -3.3430 -1.7529 0.2805 0 1
5.4392 -2.9700 -1.7568 0.2798 0 1
5.6504 -2.5804 -1.7609 0.2792 0 1
5.8345 -2.1762 -1.7652 0.2785 0 1
5.9903 -1.7589 -1.7698 0.2778 0 1
6.1169 -1.3306 -1.7746 0.2770 0 1
6.2135 -0.8934 -1.7795 0.2763 0 1
6.2792 -0.4491 -1.7845 0.2755 0 1
6.3135 0.0000 -1.7897 0.2747 0 1
6.3160 0.4517 -1.7950 0.2739 0 1
6.2864 0.9039 -1.8004 0.2731 0 1
6.2245 1.3541 -1.8058 0.2722 0 1
6.1304 1.8001 -1.8112 0.2714 0 1
1.7090 0.6374 -0.5171 0.0144 294 14
1.4411 0.6581 -0.4491 0.1670 294 14
1.4194 0.7751 -0.4585 0.1105 294 14
1.4304 0.9192 -0.4820 0.1051 294 14
1.4229 1.0652 -0.5039 0.1006 294 14
4.6305 4.0124 -1.7369 0.2668 0 2
4.2190 -4.2189 -1.7446 0.2900 0 1
4.5168 -3.9138 -1.7476 0.2895 0 1
4.7934 -3.5883 -1.7508 0.2889 0 1
5.0473 -3.2437 -1.7544 0.2884 0 1
5.2772 -2.8815 -1.7581 0.2877 0 1
5.4817 -2.5034 -1.7621 0.2871 0 1
5.6599 -2.1110 -1.7664 0.2864 0 1
5.8106 -1.7062 -1.7708 0.2857 0 1
5.9330 -1.2906 -1.7754 0.2849 0 1
6.0261 -0.8664 -1.7802 0.2842 0 1
6.0893 -0.4355 -1.7851 0.2834 0 1
6.1221 0.0000 -1.7901 0.2826 0 1
6.1239 0.4380 -1.7952 0.2818 0 1
6.0947 0.8763 -1.8004 0.2810 0 1
1.4798 0.3219 -0.4428 0.1743 294 14
1.4552 0.4273 -0.4435 0.1741 294 14
1.4188 0.5292 -0.4428 0.1743 294 14
1.3711 0.6262 -0.4407 0.1755 294 14
1.3187 0.7201 -0.4393 0.1187 294 14
1.3240 0.8509 -0.4602 0.1133 294 14
1.3127 0.9827 -0.4795 0.1088 294 14
1.2880 1.1161 -0.4983 0.1074 294 14
4.0973 -4.0973 -1.7463 0.2978 0 1
4.3864 -3.8008 -1.7492 0.2974 0 1
4.6547 -3.4845 -1.7523 0.2968 0 1
4.9010 -3.1496 -1.7558 0.2962 0 1
5.1238 -2.7978 -1.7594 0.2956 0 1
5.3221 -2.4305 -1.7633 0.2950 0 1
5.4947 -2.0494 -1.7674 0.2943 0 1
5.6406 -1.6562 -1.7717 0.2936 0 1
5.7589 -1.2528 -1.7762 0.2928 0 1
5.8489 -0.8409 -1.7808 0.2921 0 1
1.7098 -0.1223 -0.5166 0.0271 294 14
1.5819 0.0000 -0.4768 0.0294 294 14
1.4694 0.1051 -0.4440 0.1887 294 14
1.4365 0.2065 -0.4374 0.1916 294 14
1.4105 0.3069 -0.4350 0.1824 294 14
1.3870 0.4073 -0.4357 0.1822 294 14
1.3524 0.5044 -0.4350 0.1824 294 14
1.3073 0.5970 -0.4331 0.1836 294 14
1.2525 0.6839 -0.4301 0.1849 294 14
1.2320 0.7918 -0.4414 0.1215 294 14
1.2182 0.9119 -0.4586 0.1200 294 14
1.1939 1.0346 -0.4761 0.1156 294 14
3.9819 -3.9819 -1.7479 0.3057 0 1
4.2626 -3.6936 -1.7507 0.3052 0 1
4.5232 -3.3860 -1.7538 0.3047 0 1
4.7622 -3.0604 -1.7571 0.3041 0 1
4.9784 -2.7184 -1.7606 0.3035 0 1
5.1708 -2.3614 -1.7644 0.3028 0 1
5.3381 -1.9910 -1.7684 0.3022 0 1
5.4795 -1.6089 -1.7726 0.3014 0 1
5.5940 -1.2169 -1.7770 0.3007 0 1
1.4348 -0.2063 -0.4499 0.1918 294 14
1.4360 -0.1027 -0.4469 0.1926 294 14
1.4261 0.0000 -0.4426 0.1945 294 14
1.4055 0.1005 -0.4374 0.1968 294 14
1.3749 0.1977 -0.4311 0.1996 294 14
1.3472 0.2931 -0.4279 0.1905 294 14
1.3246 0.3889 -0.4285 0.1903 294 14
1.2916 0.4818 -0.4279 0.1905 294 14
1.2489 0.5704 -0.4262 0.1917 294 14
1.1970 0.6536 -0.4233 0.1930 294 14
1.1516 0.7401 -0.4249 0.1296 294 14
1.1377 0.8517 -0.4411 0.1281 294 14
1.1123 0.9638 -0.4568 0.1237 294 14
3.8722 -3.8722 -1.7494 0.3135 0 1
4.1451 -3.5917 -1.7521 0.3131 0 1
4.3982 -3.2924 -1.7551 0.3125 0 1
4.6304 -2.9757 -1.7583 0.3120 0 1
4.8404 -2.6430 -1.7618 0.3113 0 1
5.0271 -2.2958 -1.7655 0.3107 0 1
5.1895 -1.9355 -1.7694 0.3100 0 1
5.3266 -1.5640 -1.7734 0.3093 0 1
1.4175 -0.3083 -0.4634 0.1721 294 14
1.3732 -0.1974 -0.4432 0.1999 294 14
1.3746 -0.0983 -0.4402 0.2007 294 14
1.3656 0.0000 -0.4363 0.2025 294 14
1.3466 0.0963 -0.4313 0.2049 294 14
1.3181 0.1895 -0.4254 0.2077 294 14
1.2889 0.2804 -0.4214 0.1986 294 14
1.2673 0.3721 -0.4219 0.1984 294 14
1.2359 0.4610 -0.4214 0.1990 294 14
1.1953 0.5459 -0.4198 0.1998 294 14
1.1459 0.6257 -0.4171 0.2010 294 14
1.0886 0.6996 -0.4134 0.2029 294 14
1.0669 0.7987 -0.4257 0.1363 294 14
1.0463 0.9067 -0.4423 0.2235 294 14
3.7679 -3.7679 -1.7508 0.3214 0 1
4.0332 -3.4948 -1.7535 0.3209 0 1
4.2794 -3.2035 -1.7564 0.3204 0 1
4.5051 -2.8952 -1.7595 0.3198 0 1
4.7091 -2.5714 -1.7629 0.3192 0 1
4.8905 -2.2334 -1.7665 0.3185 0 1
1.4204 -0.5298 -0.4981 0.1643 294 14
1.3902 -0.4082 -0.4761 0.1719 294 14
1.3506 -0.2938 -0.4541 0.1802 294 14
1.3164 -0.1892 -0.4370 0.2079 294 14
1.3180 -0.0943 -0.4342 0.2093 294 14
1.3098 0.0000 -0.4304 0.2106 294 14
1.2922 0.0924 -0.4257 0.2129 294 14
1.2655 0.1820 -0.4201 0.2158 294 14
1.2353 0.2687 -0.4154 0.2067 294 14
1.2145 0.3566 -0.4159 0.2064 294 14
1.1845 0.4418 -0.4154 0.2071 294 14
1.1458 0.5233 -0.4139 0.2078 294 14
1.0987 0.6000 -0.4113 0.2091 294 14
1.0497 0.6746 -0.4100 0.2875 294 14
1.0286 0.7700 -0.4222 0.2402 294 14
1.0076 0.8731 -0.4381 0.2315 294 14
3.6686 -3.6686 -1.7522 0.3292 0 1
3.9268 -3.4025 -1.7548 0.3287 0 1
4.1662 -3.1188 -1.7576 0.3282 0 1
4.3857 -2.8185 -1.7607 0.3276 0 1
4.5841 -2.5031 -1.7640 0.3270 0 1
1.3656 -0.6236 -0.5070 0.1705 294 14
1.3501 -0.5035 -0.4867 0.1723 294 14
1.3243 -0.3888 -0.4661 0.1799 294 14
1.2893 -0.2805 -0.4456 0.1882 294 14
1.2638 -0.1817 -0.4312 0.2160 294 14
1.2657 -0.0905 -0.4286 0.2173 294 14
1.2583 0.0000 -0.4250 0.2192 294 14
1.2417 0.0888 -0.4204 0.2210 294 14
1.2167 0.1750 -0.4151 0.2238 294 14
1.1857 0.2579 -0.4098 0.2147 294 14
1.1657 0.3423 -0.4103 0.2149 294 14
1.1370 0.4241 -0.4098 0.2151 294 14
1.1000 0.5024 -0.4084 0.2159 294 14
1.0563 0.5768 -0.4065 0.2267 294 14
1.0189 0.6548 -0.4091 0.2953 294 14
0.9930 0.7434 -0.4189 0.2481 294 14
0.9715 0.8419 -0.4342 0.2394 294 14
3.5739 -3.5738 -1.7535 0.3369 0 1
3.8252 -3.3146 -1.7560 0.3365 0 1
4.0583 -3.0380 -1.7588 0.3359 0 1
4.2719 -2.7454 -1.7618 0.3354 0 1
4.4650 -2.4380 -1.7650 0.3348 0 1
1.3002 -0.5938 -0.4959 0.1786 294 14
1.2861 -0.4797 -0.4762 0.1804 294 14
1.2640 -0.3711 -0.4571 0.1880 294 14
1.2331 -0.2682 -0.4378 0.1962 294 14
1.2150 -0.1747 -0.4259 0.2240 294 14
1.2171 -0.0871 -0.4234 0.2254 294 14
1.2103 0.0000 -0.4199 0.2272 294 14
1.1949 0.0855 -0.4156 0.2296 294 14
1.1713 0.1684 -0.4106 0.2324 294 14
1.1401 0.2480 -0.4048 0.2351 294 14
1.1204 0.3290 -0.4051 0.2229 294 14
1.0933 0.4078 -0.4048 0.2331 294 14
1.0589 0.4836 -0.4039 0.2337 294 14
1.0173 0.5555 -0.4021 0.2347 294 14
0.9898 0.6361 -0.4082 0.3032 294 14
0.9597 0.7184 -0.4159 0.2561 294 14
0.9377 0.8126 -0.4305 0.2474 294 14
3.4834 -3.4833 -1.7548 0.3447 0 1
3.7282 -3.2305 -1.7572 0.3442 0 1
3.9552 -2.9608 -1.7599 0.3437 0 1
4.1632 -2.6755 -1.7628 0.3431 0 1
4.3512 -2.3759 -1.7659 0.3425 0 1
1.2405 -0.5665 -0.4858 0.1867 294 14
1.2287 -0.4583 -0.4671 0.1941 294 14
1.2087 -0.3549 -0.4487 0.1960 294 14
1.1813 -0.2570 -0.4306 0.2042 294 14
1.1696 -0.1681 -0.4209 0.2321 294 14
1.1719 -0.0838 -0.4185 0.2334 294 14
1.1657 0.0000 -0.4152 0.2352 294 14
1.1513 0.0824 -0.4111 0.2376 294 14
1.1291 0.1623 -0.4063 0.2404 294 14
1.1001 0.2393 -0.4010 0.2536 294 14
1.0796 0.3170 -0.4008 0.2411 294 14
1.0539 0.3931 -0.4007 0.2412 294 14
1.0209 0.4662 -0.3998 0.2417 294 14
0.9870 0.5390 -0.4006 0.3163 294 14
0.9621 0.6183 -0.4074 0.3110 294 14
0.9310 0.6969 -0.4142 0.3058 294 14
0.9060 0.7851 -0.4270 0.2553 294 14
3.3969 -3.3968 -1.7559 0.3524 0 1
3.6355 -3.1502 -1.7583 0.3519 0 1
3.8567 -2.8871 -1.7610 0.3514 0 1
4.0594 -2.6088 -1.7638 0.3508 0 1
1.1848 -0.6469 -0.4934 0.1880 294 14
1.1856 -0.5414 -0.4764 0.1947 294 14
1.1764 -0.4387 -0.4589 0.2021 294 14
1.1582 -0.3401 -0.4412 0.2102 294 14
1.1335 -0.2465 -0.4240 0.2122 294 14
1.1272 -0.1621 -0.4163 0.2401 294 14
1.1296 -0.0808 -0.4140 0.2414 294 14
1.1240 0.0000 -0.4109 0.2432 294 14
1.1105 0.0794 -0.4070 0.2456 294 14
1.0902 0.1568 -0.4026 0.2584 294 14
1.0634 0.2313 -0.3978 0.2615 294 14
1.0418 0.3059 -0.3969 0.2491 294 14
1.0171 0.3794 -0.3968 0.2491 294 14
0.9853 0.4500 -0.3959 0.2497 294 14
0.9605 0.5245 -0.4000 0.3240 294 14
0.9358 0.6014 -0.4066 0.3188 294 14
0.9051 0.6775 -0.4132 0.3137 294 14
0.8762 0.7593 -0.4238 0.2632 294 14
3.3141 -3.3140 -1.7571 0.3601 0 1
3.5467 -3.0733 -1.7594 0.3596 0 1
3.7624 -2.8165 -1.7620 0.3591 0 1
3.9600 -2.5449 -1.7648 0.3586 0 1
1.1326 -0.6185 -0.4838 0.1961 294 14
1.1352 -0.5184 -0.4679 0.2027 294 14
1.1281 -0.4207 -0.4514 0.2101 294 14
1.1124 -0.3266 -0.4346 0.2182 294 14
1.0892 -0.2369 -0.4179 0.2270 294 14
1.0875 -0.1563 -0.4119 0.2481 294 14
1.0901 -0.0779 -0.4097 0.2494 294 14
1.0853 0.0000 -0.4069 0.2615 294 14
1.0733 0.0768 -0.4034 0.2637 294 14
1.0544 0.1516 -0.3994 0.2664 294 14
1.0289 0.2238 -0.3948 0.2695 294 14
1.0064 0.2955 -0.3932 0.2571 294 14
0.9825 0.3665 -0.3931 0.2571 294 14
0.9538 0.4356 -0.3931 0.3371 294 14
0.9351 0.5106 -0.3994 0.3318 294 14
0.9107 0.5853 -0.4058 0.3266 294 14
0.8804 0.6591 -0.4123 0.3214 294 14
0.8482 0.7350 -0.4208 0.2711 294 14
3.2347 -3.2347 -1.7582 0.3678 0 1
3.4617 -2.9996 -1.7605 0.3673 0 1
3.6721 -2.7489 -1.7630 0.3668 0 1
3.8648 -2.4837 -1.7657 0.3662 0 1
1.0846 -0.5922 -0.4750 0.2041 294 14
1.0886 -0.4971 -0.4599 0.2108 294 14
1.0833 -0.4040 -0.4444 0.2181 294 14
1.0698 -0.3141 -0.4285 0.2262 294 14
1.0565 -0.2298 -0.4156 0.3445 294 14
1.0515 -0.1512 -0.4083 0.2663 294 14
1.0543 -0.0754 -0.4062 0.2676 294 14
1.0500 0.0000 -0.4035 0.2694 294 14
1.0387 0.0743 -0.4002 0.2716 294 14
1.0207 0.1468 -0.3963 0.2743 294 14
0.9964 0.2168 -0.3919 0.2774 294 14
0.9731 0.2857 -0.3898 0.2650 294 14
0.9500 0.3544 -0.3897 0.2651 294 14
0.9296 0.4245 -0.3928 0.3449 294 14
0.9110 0.4974 -0.3989 0.3395 294 14
0.8868 0.5699 -0.4051 0.3343 294 14
0.8569 0.6415 -0.4114 0.3292 294 14
0.8217 0.7120 -0.4179 0.2789 294 14
3.1586 -3.1586 -1.7592 0.3755 0 1
3.3802 -2.9289 -1.7615 0.3750 0 1
3.5855 -2.6841 -1.7639 0.3745 0 1
1.0268 -0.6598 -0.4807 0.3042 294 14
1.0402 -0.5680 -0.4668 0.2121 294 14
1.0462 -0.4778 -0.4530 0.3228 294 14
1.0464 -0.3903 -0.4398 0.3324 294 14
1.0409 -0.3056 -0.4273 0.3422 294 14
1.0303 -0.2241 -0.4153 0.3521 294 14
1.0263 -0.1475 -0.4083 0.3741 294 14
1.0207 -0.0730 -0.4030 0.2756 294 14
1.0167 0.0000 -0.4004 0.2773 294 14
1.0060 0.0720 -0.3972 0.2796 294 14
0.9889 0.1422 -0.3935 0.2822 294 14
0.9657 0.2101 -0.3892 0.2853 294 14
0.9418 0.2765 -0.3866 0.2730 294 14
0.9196 0.3430 -0.3865 0.3579 294 14
0.9064 0.4139 -0.3924 0.3526 294 14
0.8879 0.4848 -0.3984 0.3473 294 14
0.8640 0.5553 -0.4045 0.3421 294 14
0.8346 0.6247 -0.4106 0.3370 294 14
0.7996 0.6929 -0.4167 0.3320 294 14
3.0856 -3.0855 -1.7602 0.3831 0 1
3.3019 -2.8611 -1.7624 0.3826 0 1
3.5023 -2.6218 -1.7648 0.3821 0 1
0.9945 -0.6391 -0.4769 0.2614 294 14
1.0115 -0.5523 -0.4649 0.3211 294 14
1.0185 -0.4651 -0.4516 0.3305 294 14
1.0194 -0.3802 -0.4389 0.3401 294 14
1.0149 -0.2980 -0.4267 0.3499 294 14
1.0052 -0.2187 -0.4150 0.3597 294 14
1.0025 -0.1441 -0.4086 0.3817 294 14
0.9964 -0.0712 -0.4029 0.3870 294 14
0.9855 0.0000 -0.3975 0.3923 294 14
0.9752 0.0698 -0.3944 0.2875 294 14
0.9589 0.1379 -0.3908 0.2901 294 14
0.9367 0.2038 -0.3867 0.2932 294 14
0.9122 0.2679 -0.3835 0.2809 294 14
0.8974 0.3347 -0.3863 0.3656 294 14
0.8841 0.4038 -0.3921 0.3602 294 14
0.8658 0.4728 -0.3979 0.3550 294 14
0.8421 0.5412 -0.4038 0.3498 294 14
0.8132 0.6087 -0.4098 0.3447 294 14
0.7788 0.6748 -0.4157 0.3398 294 14
3.0153 -3.0153 -1.7612 0.3907 0 1
3.2267 -2.7959 -1.7633 0.3902 0 1
3.4224 -2.5620 -1.7657 0.3897 0 1
0.9619 -0.6181 -0.4722 0.2694 294 14
0.9844 -0.5375 -0.4632 0.3288 294 14
0.9920 -0.4530 -0.4504 0.3382 294 14
0.9937 -0.3706 -0.4380 0.3478 294 14
0.9899 -0.2906 -0.4261 0.3575 294 14
0.9812 -0.2134 -0.4147 0.3673 294 14
0.9797 -0.1409 -0.4088 0.3893 294 14
0.9740 -0.0696 -0.4033 0.3946 294 14
0.9637 0.0000 -0.3980 0.3998 294 14
0.9490 0.0679 -0.3930 0.4050 294 14
0.9304 0.1338 -0.3882 0.2980 294 14
0.9092 0.1978 -0.3843 0.3010 294 14
0.8844 0.2597 -0.3807 0.3786 294 14
0.8761 0.3268 -0.3862 0.3732 294 14
0.8628 0.3941 -0.3918 0.3679 294 14
0.8446 0.4612 -0.3974 0.3626 294 14
0.8213 0.5278 -0.4032 0.3575 294 14
3.3374 2.4984 -1.7218 0.3767 0 2
3.1564 2.7351 -1.7250 0.3761 0 2
2.9478 -2.9478 -1.7621 0.3983 0 1
3.1543 -2.7332 -1.7642 0.3978 0 1
0.8922 -0.6679 -0.4711 0.2754 294 14
0.9312 -0.5984 -0.4679 0.2773 294 14
0.9586 -0.5234 -0.4617 0.3365 294 14
0.9667 -0.4414 -0.4492 0.3459 294 14
0.9690 -0.3614 -0.4372 0.3554 294 14
0.9660 -0.2836 -0.4256 0.3651 294 14
0.9584 -0.2085 -0.4146 0.3915 294 14
0.9578 -0.1377 -0.4090 0.3968 294 14
0.9524 -0.0681 -0.4036 0.4021 294 14
0.9426 0.0000 -0.3984 0.4074 294 14
0.9286 0.0664 -0.3935 0.4125 294 14
0.9104 0.1309 -0.3888 0.4175 294 14
0.8885 0.1933 -0.3843 0.4223 294 14
4.1049 1.2053 -1.8084 0.3881 0 1
4.0165 1.4981 -1.8120 0.3873 0 1
3.9071 1.7843 -1.8155 0.3865 0 1
3.7771 2.0625 -1.8191 0.3858 0 1
3.6272 2.3311 -1.8225 0.3851 0 1
3.2600 2.4404 -1.7213 0.3844 0 2
3.0831 2.6715 -1.7244 0.3837 0 2
2.8828 -2.8828 -1.7630 0.4058 0 1
3.0847 -2.6729 -1.7651 0.4053 0 1
0.8642 -0.6469 -0.4668 0.2833 294 14
0.9022 -0.5798 -0.4638 0.2852 294 14
0.9333 -0.5096 -0.4599 0.2876 294 14
0.9425 -0.4304 -0.4481 0.3535 294 14
0.9454 -0.3526 -0.4363 0.3630 294 14
0.9430 -0.2769 -0.4250 0.3726 294 14
0.9369 -0.2038 -0.4147 0.3991 294 14
0.9366 -0.1346 -0.4092 0.4044 294 14
0.9317 -0.0666 -0.4039 0.4096 294 14
0.9224 0.0000 -0.3989 0.4148 294 14
0.9088 0.0650 -0.3940 0.4199 294 14
0.8913 0.1282 -0.3894 0.4249 294 14
0.8700 0.1893 -0.3850 0.4298 294 14
4.0120 1.1780 -1.8082 0.3957 0 1
3.9254 1.4641 -1.8118 0.3949 0 1
3.8183 1.7438 -1.8153 0.3941 0 1
3.6912 2.0155 -1.8187 0.3934 0 1
3.5445 2.2779 -1.8221 0.3927 0 1
3.2098 2.4028 -1.7339 0.4223 0 2
3.0125 2.6104 -1.7238 0.3913 0 2
2.8201 -2.8201 -1.7639 0.4133 0 1
3.0176 -2.6147 -1.7659 0.4129 0 1
0.8377 -0.6271 -0.4628 0.2912 294 14
0.8747 -0.5621 -0.4599 0.2931 294 14
0.9052 -0.4943 -0.4561 0.2955 294 14
0.9193 -0.4198 -0.4470 0.3611 294 14
0.9227 -0.3441 -0.4355 0.3706 294 14
0.9210 -0.2704 -0.4245 0.3802 294 14
0.9163 -0.1993 -0.4147 0.4066 294 14
0.9163 -0.1317 -0.4094 0.4119 294 14
0.9117 -0.0652 -0.4042 0.4171 294 14
0.9028 0.0000 -0.3993 0.4223 294 14
0.8898 0.0636 -0.3945 0.4274 294 14
0.8729 0.1255 -0.3900 0.4323 294 14
3.9872 0.8674 -1.8046 0.4040 0 1
3.9227 1.1518 -1.8081 0.4032 0 1
3.8378 1.4314 -1.8116 0.4025 0 1
3.7329 1.7048 -1.8150 0.4017 0 1
3.6085 1.9704 -1.8183 0.4010 0 1
3.4650 2.2268 -1.8216 0.4002 0 1
3.1139 2.3311 -1.7203 0.3995 0 2
2.9447 2.5516 -1.7232 0.3989 0 2
2.7597 -2.7597 -1.7647 0.4208 0 1
0.7705 -0.6677 -0.4610 0.2978 294 14
0.8127 -0.6083 -0.4590 0.2991 294 14
0.8487 -0.5454 -0.4562 0.3009 294 14
0.8785 -0.4797 -0.4526 0.3033 294 14
0.8971 -0.4097 -0.4459 0.3687 294 14
0.9010 -0.3360 -0.4348 0.3781 294 14
0.8998 -0.2642 -0.4240 0.3877 294 14
0.8964 -0.1950 -0.4148 0.4141 294 14
0.8966 -0.1289 -0.4096 0.4193 294 14
0.8924 -0.0638 -0.4045 0.4246 294 14
0.8839 0.0000 -0.3997 0.4297 294 14
0.8714 0.0623 -0.3950 0.4348 294 14
0.8550 0.1229 -0.3906 0.4397 294 14
3.8998 0.8484 -1.8046 0.4115 0 1
3.8366 1.1265 -1.8080 0.4108 0 1
3.7534 1.4000 -1.8114 0.4100 0 1
3.6507 1.6672 -1.8147 0.4092 0 1
3.5288 1.9269 -1.8180 0.4085 0 1
3.3884 2.1776 -1.8212 0.4078 0 1
3.0449 2.2794 -1.7198 0.4071 0 2
2.8794 2.4950 -1.7227 0.4064 0 2
2.7014 -2.7014 -1.7655 0.4283 0 1
0.7479 -0.6480 -0.4573 0.3057 294 14
0.7889 -0.5905 -0.4554 0.3069 294 14
0.8241 -0.5296 -0.4527 0.3088 294 14
0.8531 -0.4658 -0.4492 0.3112 294 14
0.8757 -0.3999 -0.4449 0.3762 294 14
0.8801 -0.3282 -0.4341 0.3856 294 14
0.8795 -0.2582 -0.4236 0.3952 294 14
0.8772 -0.1908 -0.4149 0.4215 294 14
0.8777 -0.1262 -0.4098 0.4268 294 14
0.8738 -0.0625 -0.4048 0.4320 294 14
0.8657 0.0000 -0.4001 0.4371 294 14
0.8536 0.0611 -0.3955 0.4422 294 14
3.8580 0.5547 -1.8013 0.4198 0 1
3.8156 0.8300 -1.8046 0.4190 0 1
3.7536 1.1022 -1.8079 0.4183 0 1
3.6721 1.3696 -1.8112 0.4175 0 1
3.5714 1.6310 -1.8144 0.4168 0 1
3.4521 1.8850 -1.8177 0.4160 0 1
3.3146 2.1302 -1.8208 0.4153 0 1
2.9785 2.2297 -1.7194 0.4146 0 2
2.8164 2.4404 -1.7222 0.4139 0 2
0.6812 -0.6812 -0.4549 0.3128 294 14
0.7264 -0.6294 -0.4538 0.3135 294 14
0.7663 -0.5736 -0.4520 0.3148 294 14
0.8006 -0.5145 -0.4494 0.3166 294 14
0.8290 -0.4527 -0.4460 0.3190 294 14
0.8514 -0.3888 -0.4420 0.3219 294 14
0.8599 -0.3207 -0.4334 0.3931 294 14
0.8598 -0.2525 -0.4231 0.4026 294 14
0.8587 -0.1868 -0.4150 0.4290 294 14
0.8594 -0.1236 -0.4099 0.4342 294 14
0.8558 -0.0612 -0.4051 0.4394 294 14
0.8481 0.0000 -0.4004 0.4445 294 14
0.8364 0.0598 -0.3960 0.4495 294 14
3.7760 0.5429 -1.8013 0.4273 0 1
3.7344 0.8124 -1.8045 0.4265 0 1
3.6735 1.0786 -1.8078 0.4257 0 1
3.5936 1.3403 -1.8110 0.4250 0 1
3.4950 1.5961 -1.8142 0.4242 0 1
3.3781 1.8446 -1.8173 0.4235 0 1
3.2433 2.0844 -1.8204 0.4228 0 1
2.9144 2.1817 -1.7190 0.4221 0 2
2.7557 2.3878 -1.7217 0.4214 0 2
0.6620 -0.6619 -0.4515 0.3206 294 14
0.7059 -0.6117 -0.4505 0.3213 294 14
0.7448 -0.5575 -0.4487 0.3226 294 14
0.7783 -0.5001 -0.4462 0.3244 294 14
0.8060 -0.4401 -0.4429 0.3268 294 14
0.8280 -0.3781 -0.4390 0.3297 294 14
0.8406 -0.3135 -0.4327 0.4006 294 14
0.8409 -0.2469 -0.4227 0.4101 294 14
0.8408 -0.1829 -0.4150 0.4364 294 14
0.8417 -0.1210 -0.4101 0.4416 294 14
0.8384 -0.0599 -0.4054 0.4468 294 14
0.8310 0.0000 -0.4008 0.4519 294 14
3.7188 0.2660 -1.7982 0.4355 0 1
3.6968 0.5315 -1.8013 0.4347 0 1
3.6559 0.7953 -1.8045 0.4339 0 1
3.5962 1.0560 -1.8077 0.4332 0 1
3.5178 1.3121 -1.8108 0.4324 0 1
3.4211 1.5624 -1.8139 0.4317 0 1
3.3066 1.8055 -1.8170 0.4310 0 1
3.1746 2.0402 -1.8200 0.4302 0 1
1.5848 1.1863 -0.9548 0.4095 294 14
2.6971 2.3371 -1.7212 0.4289 0 2
2.5380 -2.5380 -1.7678 0.4505 0 1
0.6864 -0.5948 -0.4473 0.3291 294 14
0.7243 -0.5422 -0.4456 0.3304 294 14
0.7570 -0.4865 -0.4432 0.3322 294 14
0.7842 -0.4282 -0.4400 0.3346 294 14
0.8057 -0.3679 -0.4363 0.3375 294 14
0.8216 -0.3064 -0.4319 0.3409 294 14
0.8227 -0.2415 -0.4223 0.4175 294 14
0.8236 -0.1791 -0.4151 0.4437 294 14
0.8246 -0.1186 -0.4103 0.4489 294 14
0.8215 -0.0587 -0.4056 0.4541 294 14
3.6450 0.0000 -1.7952 0.4436 0 1
3.6419 0.2605 -1.7983 0.4429 0 1
3.6203 0.5205 -1.8013 0.4421 0 1
3.5801 0.7788 -1.8044 0.4414 0 1
3.5215 1.0340 -1.8076 0.4406 0 1
3.4446 1.2848 -1.8106 0.4398 0 1
3.3498 1.5298 -1.8137 0.4391 0 1
3.2375 1.7678 -1.8167 0.4384 0 1
3.1082 1.9975 -1.8197 0.4377 0 1
1.6026 1.1997 -0.9860 0.4033 294 14
2.6405 2.2880 -1.7208 0.4363 0 2
2.4871 -2.4871 -1.7685 0.4579 0 1
2.6608 -2.3056 -1.7702 0.4574 0 1
0.7048 -0.5276 -0.4426 0.3382 294 14
0.7367 -0.4734 -0.4403 0.3400 294 14
0.7633 -0.4168 -0.4373 0.3423 294 14
0.7845 -0.3582 -0.4336 0.3452 294 14
0.8001 -0.2984 -0.4294 0.3486 294 14
0.8051 -0.2364 -0.4219 0.4249 294 14
0.8068 -0.1755 -0.4152 0.4511 294 14
0.8080 -0.1162 -0.4104 0.4563 294 14
3.5558 -0.2543 -1.7924 0.4517 0 1
3.5708 0.0000 -1.7953 0.4510 0 1
3.5676 0.2552 -1.7983 0.4503 0 1
3.5463 0.5099 -1.8014 0.4495 0 1
3.5068 0.7629 -1.8044 0.4487 0 1
3.4492 1.0128 -1.8075 0.4480 0 1
3.3738 1.2584 -1.8105 0.4472 0 1
3.2809 1.4983 -1.8135 0.4465 0 1
3.1708 1.7314 -1.8164 0.4458 0 1
3.0440 1.9563 -1.8193 0.4451 0 1
1.6211 1.2136 -1.0181 0.3971 294 14
2.5858 2.2407 -1.7203 0.4437 0 2
2.4377 -2.4377 -1.7691 0.4652 0 1
2.6080 -2.2598 -1.7709 0.4647 0 1
2.7655 -2.0702 -1.7728 0.4642 0 1
0.7173 -0.4609 -0.4375 0.3477 294 14
0.7433 -0.4059 -0.4346 0.3500 294 14
0.7641 -0.3489 -0.4311 0.3529 294 14
0.7796 -0.2907 -0.4270 0.3563 294 14
0.7881 -0.2314 -0.4215 0.4322 294 14
0.7906 -0.1720 -0.4152 0.4584 294 14
3.4522 -0.4963 -1.7898 0.4598 0 1
3.4843 -0.2492 -1.7926 0.4591 0 1
3.4989 0.0000 -1.7955 0.4583 0 1
3.4957 0.2500 -1.7984 0.4576 0 1
3.4746 0.4996 -1.8014 0.4568 0 1
3.4358 0.7474 -1.8044 0.4561 0 1
3.3793 0.9923 -1.8074 0.4553 0 1
3.3053 1.2328 -1.8103 0.4546 0 1
3.2142 1.4679 -1.8133 0.4539 0 1
3.1062 1.6961 -1.8162 0.4531 0 1
1.5953 1.0252 -0.9731 0.4223 294 14
1.6401 1.2278 -1.0514 0.3909 294 14
