ply
format ascii 1.0
element vertex 1421
property float32 x
property float32 y
property float32 z
property float32 CosAngle
property uint32 ObjIdx
property uint32 ObjTag
end_header
5.3272 4.2482 -1.6909 0.2424 0 2
5.3176 4.2602 -1.6909 0.2425 0 2
5.3079 4.2720 -1.6908 0.2425 0 2
5.2982 4.2838 -1.6908 0.2425 0 2
5.2885 4.2956 -1.6908 0.2425 0 2
5.2787 4.3074 -1.6908 0.2425 0 2
5.2690 4.3192 -1.6907 0.2425 0 2
5.2592 4.3309 -1.6907 0.2425 0 2
5.2494 4.3426 -1.6907 0.2425 0 2
5.2396 4.3544 -1.6907 0.2425 0 2
5.2297 4.3660 -1.6906 0.2425 0 2
5.2198 4.3777 -1.6906 0.2425 0 2
5.2099 4.3893 -1.6906 0.2425 0 2
5.1999 4.4009 -1.6906 0.2425 0 2
5.1900 4.4125 -1.6905 0.2425 0 2
5.1800 4.4241 -1.6905 0.2425 0 2
5.1699 4.4356 -1.6905 0.2425 0 2
5.1599 4.4471 -1.6904 0.2425 0 2
5.1498 4.4586 -1.6904 0.2425 0 2
5.1397 4.4701 -1.6904 0.2425 0 2
5.1296 4.4815 -1.6904 0.2425 0 2
5.1195 4.4930 -1.6903 0.2425 0 2
5.1093 4.5044 -1.6903 0.2425 0 2
5.0991 4.5158 -1.6903 0.2425 0 2
5.0889 4.5272 -1.6903 0.2425 0 2
5.0786 4.5385 -1.6902 0.2425 0 2
5.0683 4.5498 -1.6902 0.2425 0 2
5.0580 4.5611 -1.6902 0.2426 0 2
5.0477 4.5724 -1.6902 0.2426 0 2
5.0374 4.5836 -1.6901 0.2426 0 2
5.0270 4.5949 -1.6901 0.2426 0 2
5.0166 4.6061 -1.6901 0.2426 0 2
5.0062 4.6172 -1.6901 0.2426 0 2
4.9957 4.6284 -1.6900 0.2426 0 2
4.9852 4.6395 -1.6900 0.2426 0 2
4.9747 4.6506 -1.6900 0.2426 0 2
4.9642 4.6617 -1.6900 0.2426 0 2
4.9537 4.6728 -1.6899 0.2426 0 2
4.9431 4.6838 -1.6899 0.2426 0 2
4.9325 4.6948 -1.6899 0.2426 0 2
4.9219 4.7058 -1.6899 0.2426 0 2
4.9113 4.7168 -1.6898 0.2426 0 2
4.9006 4.7277 -1.6898 0.2426 0 2
4.8899 4.7386 -1.6898 0.2426 0 2
4.8792 4.7496 -1.6898 0.2426 0 2
4.8684 4.7604 -1.6897 0.2426 0 2
4.8577 4.7712 -1.6897 0.2426 0 2
4.8469 4.7821 -1.6897 0.2426 0 2
4.8361 4.7929 -1.6897 0.2426 0 2
4.8252 4.8036 -1.6896 0.2426 0 2
2.4086 -2.4087 -0.8752 0.6067 413 15
2.4207 -2.4100 -0.8776 0.6050 413 15
2.4329 -2.4112 -0.8801 0.6033 413 15
2.4451 -2.4125 -0.8825 0.6016 413 15
2.4574 -2.4138 -0.8850 0.5999 413 15
2.4698 -2.4151 -0.8875 0.5982 413 15
2.4822 -2.4163 -0.8901 0.5965 413 15
2.4947 -2.4177 -0.8926 0.5948 413 15
2.5073 -2.4190 -0.8951 0.5931 413 15
2.5200 -2.4203 -0.8977 0.5914 413 15
2.5327 -2.4216 -0.9003 0.5897 413 15
2.5455 -2.4229 -0.9029 0.5880 413 15
2.5584 -2.4243 -0.9056 0.5863 413 15
2.5714 -2.4256 -0.9082 0.5846 413 15
2.5844 -2.4270 -0.9109 0.5829 413 15
2.5975 -2.4283 -0.9136 0.5812 413 15
2.6106 -2.4297 -0.9163 0.5794 413 15
2.6239 -2.4311 -0.9191 0.5777 413 15
2.6371 -2.4323 -0.9218 0.6289 413 15
2.6497 -2.4329 -0.9242 0.6273 413 15
2.6623 -2.4335 -0.9267 0.6256 413 15
2.6750 -2.4340 -0.9292 0.6239 413 15
2.6877 -2.4347 -0.9318 0.6222 413 15
2.7005 -2.4353 -0.9343 0.6205 413 15
2.7134 -2.4359 -0.9369 0.6188 413 15
2.7263 -2.4365 -0.9394 0.6171 413 15
2.7394 -2.4371 -0.9421 0.6154 413 15
2.7525 -2.4377 -0.9447 0.6137 413 15
2.7656 -2.4383 -0.9473 0.6120 413 15
2.7789 -2.4389 -0.9500 0.6103 413 15
2.7922 -2.4396 -0.9526 0.6085 413 15
2.8056 -2.4401 -0.9553 0.6068 413 15
5.3419 -4.6251 -1.8155 0.2474 0 1
5.3522 -4.6130 -1.8154 0.2474 0 1
5.3624 -4.6009 -1.8154 0.2474 0 1
5.3727 -4.5887 -1.8154 0.2475 0 1
5.3828 -4.5766 -1.8153 0.2475 0 1
5.3930 -4.5645 -1.8153 0.2475 0 1
5.4031 -4.5522 -1.8153 0.2475 0 1
5.4132 -4.5400 -1.8152 0.2475 0 1
5.4233 -4.5278 -1.8152 0.2475 0 1
5.4334 -4.5155 -1.8152 0.2475 0 1
5.4434 -4.5032 -1.8151 0.2475 0 1
5.4534 -4.4909 -1.8151 0.2475 0 1
5.4634 -4.4786 -1.8151 0.2475 0 1
5.4733 -4.4663 -1.8150 0.2475 0 1
5.4832 -4.4538 -1.8150 0.2475 0 1
5.4931 -4.4415 -1.8150 0.2475 0 1
5.5030 -4.4291 -1.8150 0.2475 0 1
5.5128 -4.4167 -1.8149 0.2475 0 1
5.5226 -4.4042 -1.8149 0.2475 0 1
5.5323 -4.3917 -1.8149 0.2475 0 1
5.5421 -4.3792 -1.8148 0.2475 0 1
5.5518 -4.3667 -1.8148 0.2475 0 1
5.5615 -4.3542 -1.8148 0.2475 0 1
5.5712 -4.3416 -1.8147 0.2475 0 1
5.5808 -4.3289 -1.8147 0.2475 0 1
5.5904 -4.3163 -1.8147 0.2475 0 1
5.6000 -4.3038 -1.8146 0.2476 0 1
5.6095 -4.2911 -1.8146 0.2476 0 1
5.6190 -4.2784 -1.8146 0.2476 0 1
5.6285 -4.2657 -1.8145 0.2476 0 1
5.6380 -4.2530 -1.8145 0.2476 0 1
5.6474 -4.2403 -1.8145 0.2476 0 1
5.6568 -4.2275 -1.8144 0.2476 0 1
5.6662 -4.2147 -1.8144 0.2476 0 1
5.6755 -4.2019 -1.8144 0.2476 0 1
5.6848 -4.1891 -1.8143 0.2476 0 1
5.6941 -4.1762 -1.8143 0.2476 0 1
5.7034 -4.1634 -1.8143 0.2476 0 1
5.7126 -4.1505 -1.8142 0.2476 0 1
5.7218 -4.1376 -1.8142 0.2476 0 1
5.7310 -4.1246 -1.8142 0.2476 0 1
5.7401 -4.1117 -1.8141 0.2476 0 1
5.7492 -4.0988 -1.8141 0.2476 0 1
5.7583 -4.0858 -1.8141 0.2476 0 1
5.7673 -4.0728 -1.8140 0.2476 0 1
5.7763 -4.0597 -1.8140 0.2476 0 1
5.7853 -4.0467 -1.8140 0.2476 0 1
5.7943 -4.0336 -1.8139 0.2476 0 1
5.8032 -4.0206 -1.8139 0.2477 0 1
5.8121 -4.0075 -1.8139 0.2477 0 1
5.8210 -3.9943 -1.8138 0.2477 0 1
5.8298 -3.9812 -1.8138 0.2477 0 1
5.8386 -3.9680 -1.8138 0.2477 0 1
5.8474 -3.9548 -1.8137 0.2477 0 1
5.8562 -3.9416 -1.8137 0.2477 0 1
5.8649 -3.9284 -1.8137 0.2477 0 1
5.8736 -3.9152 -1.8136 0.2477 0 1
5.8822 -3.9019 -1.8136 0.2477 0 1
5.8909 -3.8886 -1.8136 0.2477 0 1
5.8995 -3.8753 -1.8135 0.2477 0 1
5.9080 -3.8620 -1.8135 0.2477 0 1
5.9166 -3.8487 -1.8135 0.2477 0 1
5.9251 -3.8353 -1.8134 0.2477 0 1
5.9336 -3.8219 -1.8134 0.2477 0 1
5.9420 -3.8085 -1.8134 0.2477 0 1
5.9504 -3.7951 -1.8133 0.2477 0 1
5.9588 -3.7817 -1.8133 0.2477 0 1
5.9672 -3.7682 -1.8133 0.2477 0 1
5.9755 -3.7547 -1.8132 0.2477 0 1
5.9838 -3.7413 -1.8132 0.2477 0 1
5.9921 -3.7277 -1.8132 0.2478 0 1
6.0003 -3.7142 -1.8131 0.2478 0 1
6.0085 -3.7007 -1.8131 0.2478 0 1
6.0167 -3.6871 -1.8131 0.2478 0 1
6.0249 -3.6735 -1.8130 0.2478 0 1
6.0329 -3.6599 -1.8130 0.2478 0 1
6.0411 -3.6463 -1.8130 0.2478 0 1
6.0491 -3.6327 -1.8129 0.2478 0 1
6.0571 -3.6190 -1.8129 0.2478 0 1
6.0651 -3.6054 -1.8129 0.2478 0 1
6.0731 -3.5917 -1.8128 0.2478 0 1
6.0810 -3.5780 -1.8128 0.2478 0 1
6.0889 -3.5643 -1.8128 0.2478 0 1
6.0968 -3.5505 -1.8127 0.2478 0 1
6.1046 -3.5367 -1.8127 0.2478 0 1
6.1124 -3.5230 -1.8127 0.2478 0 1
6.1202 -3.5092 -1.8126 0.2478 0 1
6.1279 -3.4954 -1.8126 0.2478 0 1
6.1356 -3.4816 -1.8126 0.2478 0 1
6.1433 -3.4677 -1.8125 0.2478 0 1
6.1510 -3.4538 -1.8125 0.2478 0 1
6.1586 -3.4400 -1.8124 0.2479 0 1
6.1662 -3.4261 -1.8124 0.2479 0 1
6.1737 -3.4121 -1.8124 0.2479 0 1
6.1812 -3.3982 -1.8123 0.2479 0 1
6.1887 -3.3843 -1.8123 0.2479 0 1
6.1962 -3.3703 -1.8123 0.2479 0 1
6.2036 -3.3563 -1.8122 0.2479 0 1
6.2110 -3.3424 -1.8122 0.2479 0 1
6.2184 -3.3284 -1.8122 0.2479 0 1
6.2257 -3.3143 -1.8121 0.2479 0 1
6.2330 -3.3002 -1.8121 0.2479 0 1
6.2403 -3.2862 -1.8121 0.2479 0 1
6.2475 -3.2721 -1.8120 0.2479 0 1
6.2547 -3.2580 -1.8120 0.2479 0 1
6.2619 -3.2439 -1.8120 0.2479 0 1
6.2690 -3.2298 -1.8119 0.2479 0 1
6.2762 -3.2157 -1.8119 0.2479 0 1
6.2832 -3.2015 -1.8119 0.2479 0 1
6.2903 -3.1874 -1.8118 0.2479 0 1
6.2973 -3.1732 -1.8118 0.2479 0 1
6.3043 -3.1589 -1.8117 0.2479 0 1
6.3112 -3.1447 -1.8117 0.2480 0 1
6.3181 -3.1305 -1.8117 0.2480 0 1
6.3250 -3.1163 -1.8116 0.2480 0 1
6.3319 -3.1020 -1.8116 0.2480 0 1
6.3387 -3.0877 -1.8116 0.2480 0 1
6.3455 -3.0734 -1.8115 0.2480 0 1
6.3522 -3.0591 -1.8115 0.2480 0 1
6.3590 -3.0448 -1.8115 0.2480 0 1
6.3656 -3.0305 -1.8114 0.2480 0 1
6.3723 -3.0161 -1.8114 0.2480 0 1
6.3789 -3.0018 -1.8114 0.2480 0 1
6.3855 -2.9874 -1.8113 0.2480 0 1
6.3921 -2.9730 -1.8113 0.2480 0 1
6.3986 -2.9586 -1.8112 0.2480 0 1
6.4051 -2.9441 -1.8112 0.2480 0 1
6.4116 -2.9297 -1.8112 0.2480 0 1
6.4180 -2.9152 -1.8111 0.2480 0 1
6.4244 -2.9008 -1.8111 0.2480 0 1
6.4307 -2.8863 -1.8111 0.2480 0 1
6.4371 -2.8718 -1.8110 0.2480 0 1
6.4434 -2.8573 -1.8110 0.2481 0 1
6.4496 -2.8428 -1.8110 0.2481 0 1
6.4559 -2.8283 -1.8109 0.2481 0 1
6.4621 -2.8137 -1.8109 0.2481 0 1
6.4683 -2.7991 -1.8108 0.2481 0 1
6.4744 -2.7845 -1.8108 0.2481 0 1
6.4805 -2.7700 -1.8108 0.2481 0 1
6.4866 -2.7554 -1.8107 0.2481 0 1
6.4926 -2.7407 -1.8107 0.2481 0 1
6.4986 -2.7261 -1.8107 0.2481 0 1
6.5046 -2.7114 -1.8106 0.2481 0 1
6.5105 -2.6968 -1.8106 0.2481 0 1
6.5164 -2.6821 -1.8106 0.2481 0 1
6.5223 -2.6674 -1.8105 0.2481 0 1
6.5281 -2.6527 -1.8105 0.2481 0 1
6.5339 -2.6380 -1.8104 0.2481 0 1
6.5397 -2.6233 -1.8104 0.2481 0 1
6.5454 -2.6086 -1.8104 0.2481 0 1
6.5511 -2.5938 -1.8103 0.2481 0 1
6.5568 -2.5791 -1.8103 0.2481 0 1
6.5624 -2.5643 -1.8103 0.2482 0 1
6.5680 -2.5495 -1.8102 0.2482 0 1
6.5736 -2.5347 -1.8102 0.2482 0 1
6.5792 -2.5199 -1.8101 0.2482 0 1
6.5846 -2.5051 -1.8101 0.2482 0 1
6.5901 -2.4903 -1.8101 0.2482 0 1
6.5956 -2.4754 -1.8100 0.2482 0 1
6.6010 -2.4605 -1.8100 0.2482 0 1
6.6063 -2.4457 -1.8100 0.2482 0 1
6.6117 -2.4308 -1.8099 0.2482 0 1
6.6170 -2.4159 -1.8099 0.2482 0 1
6.6222 -2.4010 -1.8099 0.2482 0 1
6.6275 -2.3861 -1.8098 0.2482 0 1
6.6327 -2.3712 -1.8098 0.2482 0 1
6.6379 -2.3562 -1.8097 0.2482 0 1
6.6430 -2.3413 -1.8097 0.2482 0 1
6.6481 -2.3263 -1.8097 0.2482 0 1
6.6532 -2.3114 -1.8096 0.2482 0 1
6.6582 -2.2964 -1.8096 0.2482 0 1
6.6632 -2.2814 -1.8096 0.2482 0 1
6.6682 -2.2663 -1.8095 0.2483 0 1
6.6731 -2.2514 -1.8095 0.2483 0 1
6.6780 -2.2364 -1.8094 0.2483 0 1
6.6829 -2.2213 -1.8094 0.2483 0 1
6.6877 -2.2062 -1.8094 0.2483 0 1
6.6925 -2.1912 -1.8093 0.2483 0 1
6.6972 -2.1761 -1.8093 0.2483 0 1
6.7020 -2.1611 -1.8093 0.2483 0 1
6.7067 -2.1460 -1.8092 0.2483 0 1
6.7113 -2.1308 -1.8092 0.2483 0 1
6.7159 -2.1158 -1.8091 0.2483 0 1
6.7205 -2.1006 -1.8091 0.2483 0 1
6.7251 -2.0855 -1.8091 0.2483 0 1
6.7296 -2.0704 -1.8090 0.2483 0 1
6.7341 -2.0552 -1.8090 0.2483 0 1
6.7385 -2.0401 -1.8090 0.2483 0 1
6.7430 -2.0249 -1.8089 0.2483 0 1
6.7474 -2.0097 -1.8089 0.2483 0 1
6.7517 -1.9945 -1.8088 0.2483 0 1
6.7561 -1.9793 -1.8088 0.2484 0 1
6.7603 -1.9641 -1.8088 0.2484 0 1
6.7646 -1.9489 -1.8087 0.2484 0 1
6.7688 -1.9337 -1.8087 0.2484 0 1
6.7730 -1.9184 -1.8087 0.2484 0 1
6.7771 -1.9032 -1.8086 0.2484 0 1
6.7812 -1.8880 -1.8086 0.2484 0 1
6.7853 -1.8727 -1.8085 0.2484 0 1
6.7893 -1.8574 -1.8085 0.2484 0 1
6.7934 -1.8421 -1.8085 0.2484 0 1
6.7973 -1.8269 -1.8084 0.2484 0 1
6.8013 -1.8115 -1.8084 0.2484 0 1
6.8052 -1.7963 -1.8084 0.2484 0 1
6.8091 -1.7809 -1.8083 0.2484 0 1
6.8129 -1.7656 -1.8083 0.2484 0 1
6.8167 -1.7503 -1.8082 0.2484 0 1
6.8205 -1.7350 -1.8082 0.2484 0 1
6.8242 -1.7196 -1.8082 0.2484 0 1
6.8279 -1.7043 -1.8081 0.2484 0 1
6.8316 -1.6889 -1.8081 0.2484 0 1
6.8352 -1.6735 -1.8081 0.2485 0 1
6.8388 -1.6582 -1.8080 0.2485 0 1
6.8423 -1.6428 -1.8080 0.2485 0 1
6.8459 -1.6274 -1.8079 0.2485 0 1
6.8494 -1.6120 -1.8079 0.2485 0 1
6.8528 -1.5966 -1.8079 0.2485 0 1
6.8562 -1.5812 -1.8078 0.2485 0 1
6.8596 -1.5657 -1.8078 0.2485 0 1
6.8630 -1.5503 -1.8078 0.2485 0 1
6.8663 -1.5348 -1.8077 0.2485 0 1
6.8696 -1.5194 -1.8077 0.2485 0 1
6.8729 -1.5039 -1.8076 0.2485 0 1
6.8761 -1.4885 -1.8076 0.2485 0 1
6.8792 -1.4730 -1.8076 0.2485 0 1
6.8824 -1.4576 -1.8075 0.2485 0 1
6.8855 -1.4421 -1.8075 0.2485 0 1
6.8885 -1.4266 -1.8075 0.2485 0 1
6.8916 -1.4111 -1.8074 0.2485 0 1
6.8946 -1.3956 -1.8074 0.2485 0 1
6.8975 -1.3801 -1.8073 0.2486 0 1
6.9005 -1.3646 -1.8073 0.2486 0 1
6.9034 -1.3491 -1.8073 0.2486 0 1
6.9062 -1.3336 -1.8072 0.2486 0 1
6.9091 -1.3180 -1.8072 0.2486 0 1
6.9119 -1.3025 -1.8071 0.2486 0 1
6.9146 -1.2870 -1.8071 0.2486 0 1
6.9174 -1.2714 -1.8071 0.2486 0 1
6.9201 -1.2559 -1.8070 0.2486 0 1
6.9227 -1.2403 -1.8070 0.2486 0 1
6.9253 -1.2247 -1.8070 0.2486 0 1
6.9279 -1.2092 -1.8069 0.2486 0 1
6.9305 -1.1936 -1.8069 0.2486 0 1
6.9330 -1.1780 -1.8068 0.2486 0 1
6.9355 -1.1624 -1.8068 0.2486 0 1
6.9379 -1.1468 -1.8068 0.2486 0 1
6.9403 -1.1312 -1.8067 0.2486 0 1
6.9427 -1.1156 -1.8067 0.2486 0 1
6.9450 -1.1000 -1.8067 0.2486 0 1
6.9473 -1.0844 -1.8066 0.2487 0 1
6.9496 -1.0688 -1.8066 0.2487 0 1
6.9518 -1.0532 -1.8065 0.2487 0 1
6.9540 -1.0375 -1.8065 0.2487 0 1
6.9562 -1.0219 -1.8065 0.2487 0 1
6.9583 -1.0063 -1.8064 0.2487 0 1
6.9604 -0.9907 -1.8064 0.2487 0 1
6.9625 -0.9750 -1.8063 0.2487 0 1
6.9645 -0.9594 -1.8063 0.2487 0 1
6.9665 -0.9437 -1.8063 0.2487 0 1
6.9684 -0.9281 -1.8062 0.2487 0 1
6.9704 -0.9124 -1.8062 0.2487 0 1
6.9722 -0.8967 -1.8062 0.2487 0 1
6.9741 -0.8811 -1.8061 0.2487 0 1
6.9759 -0.8654 -1.8061 0.2487 0 1
6.9777 -0.8497 -1.8060 0.2487 0 1
6.9794 -0.8341 -1.8060 0.2487 0 1
6.9811 -0.8184 -1.8060 0.2487 0 1
6.9828 -0.8027 -1.8059 0.2487 0 1
6.9844 -0.7870 -1.8059 0.2488 0 1
6.9860 -0.7713 -1.8058 0.2488 0 1
6.9876 -0.7556 -1.8058 0.2488 0 1
6.9891 -0.7399 -1.8058 0.2488 0 1
6.9906 -0.7242 -1.8057 0.2488 0 1
6.9921 -0.7085 -1.8057 0.2488 0 1
6.9935 -0.6928 -1.8057 0.2488 0 1
6.9949 -0.6771 -1.8056 0.2488 0 1
6.9962 -0.6614 -1.8056 0.2488 0 1
6.9976 -0.6457 -1.8055 0.2488 0 1
6.9988 -0.6299 -1.8055 0.2488 0 1
7.0001 -0.6142 -1.8055 0.2488 0 1
7.0013 -0.5985 -1.8054 0.2488 0 1
7.0025 -0.5828 -1.8054 0.2488 0 1
7.0036 -0.5671 -1.8054 0.2488 0 1
7.0047 -0.5514 -1.8053 0.2488 0 1
7.0058 -0.5356 -1.8053 0.2488 0 1
7.0069 -0.5199 -1.8052 0.2488 0 1
7.0078 -0.5041 -1.8052 0.2488 0 1
7.0088 -0.4884 -1.8052 0.2489 0 1
7.0097 -0.4727 -1.8051 0.2489 0 1
7.0106 -0.4569 -1.8051 0.2489 0 1
7.0115 -0.4412 -1.8050 0.2489 0 1
7.0123 -0.4254 -1.8050 0.2489 0 1
7.0131 -0.4097 -1.8050 0.2489 0 1
7.0138 -0.3939 -1.8049 0.2489 0 1
7.0146 -0.3782 -1.8049 0.2489 0 1
7.0152 -0.3624 -1.8049 0.2489 0 1
7.0159 -0.3467 -1.8048 0.2489 0 1
7.0165 -0.3309 -1.8048 0.2489 0 1
7.0171 -0.3152 -1.8047 0.2489 0 1
7.0176 -0.2994 -1.8047 0.2489 0 1
7.0181 -0.2837 -1.8047 0.2489 0 1
7.0186 -0.2679 -1.8046 0.2489 0 1
7.0190 -0.2521 -1.8046 0.2489 0 1
7.0194 -0.2364 -1.8045 0.2489 0 1
7.0198 -0.2206 -1.8045 0.2489 0 1
7.0201 -0.2049 -1.8045 0.2489 0 1
7.0204 -0.1892 -1.8044 0.2490 0 1
7.0207 -0.1734 -1.8044 0.2490 0 1
7.0209 -0.1576 -1.8044 0.2490 0 1
7.0211 -0.1419 -1.8043 0.2490 0 1
7.0212 -0.1261 -1.8043 0.2490 0 1
7.0214 -0.1103 -1.8042 0.2490 0 1
7.0214 -0.0946 -1.8042 0.2490 0 1
7.0215 -0.0788 -1.8042 0.2490 0 1
7.0215 -0.0631 -1.8041 0.2490 0 1
7.0215 -0.0473 -1.8041 0.2490 0 1
7.0214 -0.0316 -1.8041 0.2490 0 1
7.0213 -0.0158 -1.8040 0.2490 0 1
7.0212 -0.0000 -1.8040 0.2490 0 1
7.0210 0.0158 -1.8039 0.2490 0 1
7.0208 0.0314 -1.8039 0.2490 0 1
7.0206 0.0472 -1.8039 0.2490 0 1
7.0203 0.0630 -1.8038 0.2490 0 1
7.0200 0.0788 -1.8038 0.2490 0 1
7.0197 0.0945 -1.8037 0.2490 0 1
7.0193 0.1102 -1.8037 0.2491 0 1
7.0189 0.1260 -1.8037 0.2491 0 1
7.0184 0.1417 -1.8036 0.2491 0 1
7.0179 0.1574 -1.8036 0.2491 0 1
7.0174 0.1732 -1.8036 0.2491 0 1
7.0169 0.1890 -1.8035 0.2491 0 1
7.0163 0.2047 -1.8035 0.2491 0 1
7.0156 0.2204 -1.8034 0.2491 0 1
7.0150 0.2362 -1.8034 0.2491 0 1
7.0143 0.2519 -1.8034 0.2491 0 1
7.0136 0.2676 -1.8033 0.2491 0 1
7.0128 0.2834 -1.8033 0.2491 0 1
7.0120 0.2991 -1.8033 0.2491 0 1
7.0112 0.3148 -1.8032 0.2491 0 1
7.0103 0.3306 -1.8032 0.2491 0 1
7.0094 0.3463 -1.8031 0.2491 0 1
7.0085 0.3620 -1.8031 0.2491 0 1
7.0075 0.3777 -1.8031 0.2491 0 1
7.0064 0.3934 -1.8030 0.2491 0 1
7.0054 0.4091 -1.8030 0.2492 0 1
7.0043 0.4249 -1.8030 0.2492 0 1
7.0032 0.4406 -1.8029 0.2492 0 1
7.0021 0.4563 -1.8029 0.2492 0 1
7.0009 0.4720 -1.8028 0.2492 0 1
6.9996 0.4877 -1.8028 0.2492 0 1
6.9984 0.5034 -1.8028 0.2492 0 1
6.9971 0.5191 -1.8027 0.2492 0 1
6.9958 0.5348 -1.8027 0.2492 0 1
6.9944 0.5504 -1.8026 0.2492 0 1
6.9930 0.5661 -1.8026 0.2492 0 1
6.9916 0.5818 -1.8026 0.2492 0 1
6.9901 0.5974 -1.8025 0.2492 0 1
6.9886 0.6131 -1.8025 0.2492 0 1
6.9870 0.6288 -1.8025 0.2492 0 1
6.9855 0.6445 -1.8024 0.2492 0 1
6.9839 0.6602 -1.8024 0.2492 0 1
6.9822 0.6758 -1.8023 0.2492 0 1
6.9805 0.6914 -1.8023 0.2492 0 1
6.9788 0.7071 -1.8023 0.2493 0 1
6.9771 0.7227 -1.8022 0.2493 0 1
6.9753 0.7384 -1.8022 0.2493 0 1
6.9735 0.7540 -1.8022 0.2493 0 1
6.9716 0.7696 -1.8021 0.2493 0 1
6.9697 0.7853 -1.8021 0.2493 0 1
6.9678 0.8009 -1.8020 0.2493 0 1
6.9659 0.8165 -1.8020 0.2493 0 1
6.9638 0.8321 -1.8020 0.2493 0 1
6.9618 0.8477 -1.8019 0.2493 0 1
6.9598 0.8633 -1.8019 0.2493 0 1
6.9576 0.8789 -1.8019 0.2493 0 1
6.9555 0.8945 -1.8018 0.2493 0 1
6.9533 0.9101 -1.8018 0.2493 0 1
6.9512 0.9257 -1.8017 0.2493 0 1
6.9489 0.9412 -1.8017 0.2493 0 1
6.9466 0.9568 -1.8017 0.2493 0 1
6.9443 0.9724 -1.8016 0.2493 0 1
6.9420 0.9879 -1.8016 0.2493 0 1
6.9396 1.0035 -1.8016 0.2493 0 1
6.9372 1.0191 -1.8015 0.2494 0 1
6.9347 1.0346 -1.8015 0.2494 0 1
6.9322 1.0501 -1.8015 0.2494 0 1
6.9297 1.0657 -1.8014 0.2494 0 1
6.9272 1.0812 -1.8014 0.2494 0 1
6.9246 1.0967 -1.8013 0.2494 0 1
6.9220 1.1122 -1.8013 0.2494 0 1
6.9193 1.1277 -1.8013 0.2494 0 1
6.9166 1.1432 -1.8012 0.2494 0 1
6.9139 1.1588 -1.8012 0.2494 0 1
6.9112 1.1742 -1.8012 0.2494 0 1
6.9083 1.1897 -1.8011 0.2494 0 1
6.9055 1.2052 -1.8011 0.2494 0 1
6.9026 1.2206 -1.8010 0.2494 0 1
6.8997 1.2361 -1.8010 0.2494 0 1
6.8968 1.2515 -1.8010 0.2494 0 1
6.8938 1.2670 -1.8009 0.2494 0 1
6.8908 1.2825 -1.8009 0.2494 0 1
6.8878 1.2979 -1.8009 0.2494 0 1
6.8847 1.3133 -1.8008 0.2495 0 1
6.8817 1.3287 -1.8008 0.2495 0 1
6.8785 1.3442 -1.8007 0.2495 0 1
6.8753 1.3596 -1.8007 0.2495 0 1
6.8721 1.3749 -1.8007 0.2495 0 1
6.8689 1.3903 -1.8006 0.2495 0 1
6.8656 1.4057 -1.8006 0.2495 0 1
6.8623 1.4211 -1.8006 0.2495 0 1
6.8590 1.4364 -1.8005 0.2495 0 1
6.8555 1.4518 -1.8005 0.2495 0 1
6.8521 1.4672 -1.8005 0.2495 0 1
6.8487 1.4825 -1.8004 0.2495 0 1
6.8452 1.4978 -1.8004 0.2495 0 1
6.8417 1.5132 -1.8003 0.2495 0 1
6.8381 1.5285 -1.8003 0.2495 0 1
6.8346 1.5438 -1.8003 0.2495 0 1
6.8309 1.5591 -1.8002 0.2495 0 1
6.8273 1.5744 -1.8002 0.2495 0 1
6.8236 1.5897 -1.8002 0.2495 0 1
6.8199 1.6050 -1.8001 0.2495 0 1
6.8161 1.6202 -1.8001 0.2496 0 1
6.8123 1.6355 -1.8001 0.2496 0 1
6.8085 1.6507 -1.8000 0.2496 0 1
6.8046 1.6660 -1.8000 0.2496 0 1
6.8008 1.6812 -1.7999 0.2496 0 1
6.7968 1.6964 -1.7999 0.2496 0 1
6.7929 1.7116 -1.7999 0.2496 0 1
6.7889 1.7269 -1.7998 0.2496 0 1
6.7848 1.7420 -1.7998 0.2496 0 1
6.7808 1.7572 -1.7998 0.2496 0 1
6.7767 1.7724 -1.7997 0.2496 0 1
6.7726 1.7876 -1.7997 0.2496 0 1
6.7684 1.8027 -1.7997 0.2496 0 1
6.7642 1.8179 -1.7996 0.2496 0 1
6.7600 1.8330 -1.7996 0.2496 0 1
6.7557 1.8481 -1.7996 0.2496 0 1
6.7514 1.8632 -1.7995 0.2496 0 1
6.7471 1.8783 -1.7995 0.2496 0 1
6.7427 1.8935 -1.7994 0.2496 0 1
6.7383 1.9086 -1.7994 0.2496 0 1
6.7339 1.9236 -1.7994 0.2497 0 1
6.7294 1.9387 -1.7993 0.2497 0 1
6.7249 1.9538 -1.7993 0.2497 0 1
6.7204 1.9688 -1.7993 0.2497 0 1
6.7158 1.9838 -1.7992 0.2497 0 1
6.7112 1.9989 -1.7992 0.2497 0 1
6.7066 2.0139 -1.7992 0.2497 0 1
6.7019 2.0289 -1.7991 0.2497 0 1
6.6972 2.0439 -1.7991 0.2497 0 1
6.6925 2.0588 -1.7991 0.2497 0 1
6.6540 2.0634 -1.7900 0.3848 0 2
6.6151 2.0676 -1.7807 0.3868 0 2
6.5212 2.0543 -1.7567 0.3831 0 2
6.4829 2.0583 -1.7476 0.3851 0 2
6.4512 2.0641 -1.7403 0.4474 0 2
6.4190 2.0697 -1.7329 0.4493 0 2
6.3871 2.0753 -1.7255 0.4512 0 2
6.3554 2.0807 -1.7182 0.4532 0 2
6.3240 2.0862 -1.7110 0.4551 0 2
6.2929 2.0916 -1.7038 0.4570 0 2
6.2621 2.0970 -1.6968 0.4589 0 2
6.2538 2.1098 -1.6958 0.2498 0 2
6.2489 2.1238 -1.6958 0.2498 0 2
6.2440 2.1378 -1.6957 0.2499 0 2
6.2391 2.1517 -1.6957 0.2499 0 2
6.2341 2.1657 -1.6957 0.2499 0 2
6.2291 2.1797 -1.6956 0.2499 0 2
6.2241 2.1936 -1.6956 0.2499 0 2
6.2190 2.2075 -1.6956 0.2499 0 2
6.2140 2.2214 -1.6955 0.2499 0 2
6.2088 2.2353 -1.6955 0.2499 0 2
6.2037 2.2492 -1.6955 0.2499 0 2
6.1985 2.2630 -1.6954 0.2499 0 2
6.1933 2.2770 -1.6954 0.2499 0 2
6.2359 2.3084 -1.7085 0.5097 0 2
6.2106 2.3150 -1.7030 0.5322 0 2
6.1872 2.3221 -1.6980 0.5338 0 2
6.1721 2.3322 -1.6953 0.2499 0 2
6.1668 2.3461 -1.6952 0.2499 0 2
6.1614 2.3598 -1.6952 0.2499 0 2
6.1560 2.3736 -1.6952 0.2499 0 2
6.1505 2.3874 -1.6951 0.2499 0 2
6.1450 2.4011 -1.6951 0.2499 0 2
6.1395 2.4149 -1.6951 0.2499 0 2
6.1340 2.4286 -1.6951 0.2499 0 2
6.1284 2.4423 -1.6950 0.2499 0 2
6.1228 2.4560 -1.6950 0.2499 0 2
6.1171 2.4697 -1.6950 0.2499 0 2
6.1115 2.4834 -1.6949 0.2500 0 2
6.1058 2.4970 -1.6949 0.2500 0 2
6.1001 2.5107 -1.6949 0.2500 0 2
6.0943 2.5244 -1.6948 0.2500 0 2
6.0885 2.5379 -1.6948 0.2500 0 2
6.0827 2.5516 -1.6948 0.2500 0 2
6.0768 2.5652 -1.6947 0.2500 0 2
6.0710 2.5787 -1.6947 0.2500 0 2
6.0650 2.5923 -1.6947 0.2500 0 2
6.0591 2.6059 -1.6947 0.2500 0 2
6.0531 2.6194 -1.6946 0.2500 0 2
6.0471 2.6329 -1.6946 0.2500 0 2
6.0411 2.6465 -1.6946 0.2500 0 2
6.0350 2.6600 -1.6945 0.2500 0 2
6.0289 2.6734 -1.6945 0.2500 0 2
6.0228 2.6869 -1.6945 0.2500 0 2
6.0166 2.7004 -1.6944 0.2500 0 2
6.0104 2.7138 -1.6944 0.2500 0 2
6.0043 2.7273 -1.6944 0.2500 0 2
5.9980 2.7407 -1.6944 0.2500 0 2
5.9918 2.7541 -1.6943 0.2500 0 2
5.9855 2.7675 -1.6943 0.2500 0 2
5.9791 2.7808 -1.6943 0.2501 0 2
5.9728 2.7942 -1.6942 0.2501 0 2
5.9663 2.8076 -1.6942 0.2501 0 2
5.9600 2.8209 -1.6942 0.2501 0 2
5.9535 2.8342 -1.6941 0.2501 0 2
5.9470 2.8475 -1.6941 0.2501 0 2
5.9405 2.8608 -1.6941 0.2501 0 2
5.9340 2.8741 -1.6941 0.2501 0 2
5.9274 2.8873 -1.6940 0.2501 0 2
5.9208 2.9005 -1.6940 0.2501 0 2
5.9142 2.9138 -1.6940 0.2501 0 2
5.9075 2.9270 -1.6939 0.2501 0 2
5.9008 2.9402 -1.6939 0.2501 0 2
5.8941 2.9534 -1.6939 0.2501 0 2
5.8874 2.9665 -1.6938 0.2501 0 2
5.8806 2.9797 -1.6938 0.2501 0 2
5.8738 2.9928 -1.6938 0.2501 0 2
5.8670 3.0060 -1.6938 0.2501 0 2
5.8601 3.0190 -1.6937 0.2501 0 2
5.8532 3.0321 -1.6937 0.2501 0 2
5.8463 3.0452 -1.6937 0.2501 0 2
5.8393 3.0583 -1.6936 0.2501 0 2
5.8324 3.0713 -1.6936 0.2501 0 2
5.8254 3.0843 -1.6936 0.2502 0 2
5.8183 3.0974 -1.6936 0.2502 0 2
5.8113 3.1104 -1.6935 0.2502 0 2
5.8042 3.1233 -1.6935 0.2502 0 2
5.7971 3.1363 -1.6935 0.2502 0 2
5.7899 3.1492 -1.6934 0.2502 0 2
5.7827 3.1622 -1.6934 0.2502 0 2
5.7755 3.1751 -1.6934 0.2502 0 2
5.7683 3.1880 -1.6934 0.2502 0 2
5.7610 3.2009 -1.6933 0.2502 0 2
5.7537 3.2137 -1.6933 0.2502 0 2
5.7464 3.2266 -1.6933 0.2502 0 2
5.7391 3.2394 -1.6932 0.2502 0 2
5.7317 3.2523 -1.6932 0.2502 0 2
5.7243 3.2650 -1.6932 0.2502 0 2
5.7168 3.2778 -1.6932 0.2502 0 2
5.7094 3.2906 -1.6931 0.2502 0 2
5.7019 3.3033 -1.6931 0.2502 0 2
5.6943 3.3161 -1.6931 0.2502 0 2
5.6868 3.3288 -1.6930 0.2502 0 2
5.6792 3.3415 -1.6930 0.2502 0 2
5.6716 3.3542 -1.6930 0.2502 0 2
5.6640 3.3668 -1.6930 0.2502 0 2
5.6563 3.3795 -1.6929 0.2502 0 2
5.6486 3.3921 -1.6929 0.2503 0 2
5.6409 3.4047 -1.6929 0.2503 0 2
5.6332 3.4173 -1.6928 0.2503 0 2
5.6254 3.4299 -1.6928 0.2503 0 2
5.6176 3.4424 -1.6928 0.2503 0 2
5.6098 3.4550 -1.6928 0.2503 0 2
5.6019 3.4675 -1.6927 0.2503 0 2
5.5940 3.4800 -1.6927 0.2503 0 2
5.5861 3.4925 -1.6927 0.2503 0 2
5.5781 3.5050 -1.6927 0.2502 0 2
5.5702 3.5174 -1.6926 0.2502 0 2
5.5622 3.5298 -1.6926 0.2502 0 2
5.5541 3.5422 -1.6926 0.2503 0 2
5.5461 3.5546 -1.6925 0.2503 0 2
5.5380 3.5670 -1.6925 0.2503 0 2
5.5299 3.5794 -1.6925 0.2503 0 2
5.5218 3.5917 -1.6925 0.2503 0 2
5.5136 3.6040 -1.6924 0.2503 0 2
5.5054 3.6163 -1.6924 0.2503 0 2
5.4972 3.6286 -1.6924 0.2503 0 2
5.4889 3.6409 -1.6923 0.2503 0 2
5.4807 3.6531 -1.6923 0.2503 0 2
5.4723 3.6654 -1.6923 0.2503 0 2
5.4640 3.6776 -1.6923 0.2503 0 2
5.4557 3.6898 -1.6922 0.2503 0 2
5.4473 3.7020 -1.6922 0.2503 0 2
5.4389 3.7141 -1.6922 0.2503 0 2
5.4304 3.7262 -1.6921 0.2503 0 2
5.4220 3.7384 -1.6921 0.2503 0 2
5.4135 3.7504 -1.6921 0.2503 0 2
5.4050 3.7625 -1.6921 0.2503 0 2
5.3964 3.7746 -1.6920 0.2503 0 2
5.3878 3.7866 -1.6920 0.2503 0 2
5.3792 3.7986 -1.6920 0.2503 0 2
5.3706 3.8106 -1.6920 0.2503 0 2
5.3620 3.8226 -1.6919 0.2503 0 2
5.3533 3.8346 -1.6919 0.2503 0 2
5.3446 3.8465 -1.6919 0.2504 0 2
5.3358 3.8585 -1.6918 0.2504 0 2
5.3271 3.8704 -1.6918 0.2504 0 2
5.3183 3.8823 -1.6918 0.2504 0 2
5.3095 3.8941 -1.6918 0.2504 0 2
5.3006 3.9059 -1.6917 0.2504 0 2
5.2918 3.9177 -1.6917 0.2504 0 2
5.2829 3.9295 -1.6917 0.2504 0 2
5.2740 3.9413 -1.6917 0.2504 0 2
5.2651 3.9531 -1.6916 0.2504 0 2
5.2561 3.9648 -1.6916 0.2504 0 2
5.2471 3.9766 -1.6916 0.2504 0 2
5.2381 3.9883 -1.6915 0.2504 0 2
5.2290 3.9999 -1.6915 0.2504 0 2
5.2199 4.0116 -1.6915 0.2504 0 2
5.2109 4.0232 -1.6915 0.2504 0 2
5.2017 4.0348 -1.6914 0.2504 0 2
5.1926 4.0464 -1.6914 0.2504 0 2
5.1834 4.0581 -1.6914 0.2504 0 2
5.1742 4.0696 -1.6914 0.2504 0 2
5.1650 4.0811 -1.6913 0.2504 0 2
5.1558 4.0926 -1.6913 0.2504 0 2
5.1465 4.1041 -1.6913 0.2504 0 2
5.1371 4.1156 -1.6913 0.2504 0 2
5.1278 4.1271 -1.6912 0.2504 0 2
5.1185 4.1385 -1.6912 0.2505 0 2
5.1091 4.1499 -1.6912 0.2505 0 2
5.0997 4.1613 -1.6912 0.2505 0 2
5.0903 4.1727 -1.6911 0.2505 0 2
5.0808 4.1840 -1.6911 0.2505 0 2
5.0713 4.1954 -1.6911 0.2505 0 2
5.0618 4.2067 -1.6910 0.2505 0 2
5.0523 4.2179 -1.6910 0.2505 0 2
5.0427 4.2292 -1.6910 0.2505 0 2
5.0331 4.2404 -1.6910 0.2505 0 2
5.0235 4.2517 -1.6909 0.2505 0 2
5.0139 4.2629 -1.6909 0.2505 0 2
5.0043 4.2740 -1.6909 0.2505 0 2
4.9946 4.2852 -1.6909 0.2505 0 2
4.9849 4.2963 -1.6908 0.2505 0 2
4.9752 4.3074 -1.6908 0.2505 0 2
4.9654 4.3186 -1.6908 0.2505 0 2
4.9556 4.3296 -1.6908 0.2505 0 2
4.9459 4.3406 -1.6907 0.2505 0 2
4.9360 4.3516 -1.6907 0.2505 0 2
4.9262 4.3627 -1.6907 0.2505 0 2
4.9163 4.3737 -1.6907 0.2505 0 2
4.9064 4.3846 -1.6906 0.2505 0 2
4.8965 4.3956 -1.6906 0.2505 0 2
4.8865 4.4065 -1.6906 0.2505 0 2
4.8766 4.4173 -1.6906 0.2505 0 2
4.8666 4.4282 -1.6905 0.2505 0 2
4.8565 4.4390 -1.6905 0.2506 0 2
4.8465 4.4499 -1.6905 0.2506 0 2
4.8364 4.4607 -1.6905 0.2506 0 2
4.8263 4.4714 -1.6904 0.2506 0 2
4.8162 4.4822 -1.6904 0.2506 0 2
4.8061 4.4929 -1.6904 0.2506 0 2
4.7959 4.5036 -1.6904 0.2506 0 2
4.7857 4.5144 -1.6904 0.2506 0 2
4.7755 4.5250 -1.6903 0.2506 0 2
4.7653 4.5356 -1.6903 0.2506 0 2
4.7550 4.5462 -1.6903 0.2506 0 2
4.7447 4.5569 -1.6903 0.2506 0 2
4.7344 4.5674 -1.6902 0.2506 0 2
4.7241 4.5779 -1.6902 0.2506 0 2
4.7138 4.5885 -1.6902 0.2506 0 2
4.7034 4.5990 -1.6902 0.2506 0 2
4.6930 4.6095 -1.6901 0.2506 0 2
4.6826 4.6199 -1.6901 0.2506 0 2
4.6721 4.6304 -1.6901 0.2506 0 2
4.6617 4.6407 -1.6901 0.2506 0 2
2.4099 -2.4099 -0.9057 0.6051 413 15
2.4220 -2.4112 -0.9082 0.6034 413 15
2.4341 -2.4124 -0.9107 0.6017 413 15
2.4463 -2.4137 -0.9133 0.6000 413 15
2.4586 -2.4150 -0.9158 0.5983 413 15
2.4711 -2.4163 -0.9184 0.5966 413 15
2.4835 -2.4176 -0.9210 0.5950 413 15
2.4961 -2.4189 -0.9237 0.5933 413 15
2.5086 -2.4202 -0.9263 0.5916 413 15
2.5213 -2.4215 -0.9290 0.5899 413 15
2.5340 -2.4228 -0.9317 0.5882 413 15
2.5469 -2.4242 -0.9344 0.5865 413 15
2.5597 -2.4255 -0.9371 0.5848 413 15
2.5726 -2.4267 -0.9398 0.6366 413 15
2.5848 -2.4273 -0.9423 0.6350 413 15
2.5971 -2.4279 -0.9447 0.6333 413 15
2.6094 -2.4284 -0.9472 0.6316 413 15
2.6218 -2.4290 -0.9498 0.6300 413 15
2.6342 -2.4296 -0.9523 0.6283 413 15
2.6467 -2.4302 -0.9548 0.6266 413 15
2.6593 -2.4308 -0.9574 0.6249 413 15
2.6719 -2.4313 -0.9600 0.6232 413 15
2.6846 -2.4320 -0.9626 0.6215 413 15
2.6975 -2.4325 -0.9652 0.6199 413 15
2.7104 -2.4331 -0.9679 0.6182 413 15
2.7232 -2.4337 -0.9706 0.6165 413 15
2.7362 -2.4343 -0.9732 0.6148 413 15
2.7493 -2.4349 -0.9759 0.6131 413 15
2.7625 -2.4355 -0.9787 0.6113 413 15
2.7757 -2.4361 -0.9814 0.6096 413 15
2.7890 -2.4367 -0.9842 0.6079 413 15
2.8024 -2.4373 -0.9870 0.6062 413 15
5.1639 -4.4709 -1.8151 0.2554 0 1
5.1738 -4.4593 -1.8151 0.2554 0 1
5.1837 -4.4476 -1.8151 0.2554 0 1
5.1936 -4.4358 -1.8150 0.2554 0 1
5.2034 -4.4241 -1.8150 0.2554 0 1
5.2132 -4.4123 -1.8150 0.2554 0 1
5.2230 -4.4005 -1.8149 0.2554 0 1
5.2329 -4.3887 -1.8149 0.2555 0 1
5.2426 -4.3769 -1.8149 0.2555 0 1
5.2523 -4.3650 -1.8148 0.2555 0 1
5.2620 -4.3532 -1.8148 0.2555 0 1
5.2717 -4.3413 -1.8148 0.2555 0 1
5.2813 -4.3294 -1.8148 0.2555 0 1
5.2909 -4.3174 -1.8147 0.2555 0 1
5.3005 -4.3055 -1.8147 0.2555 0 1
5.3101 -4.2935 -1.8147 0.2555 0 1
5.3196 -4.2815 -1.8146 0.2555 0 1
5.3291 -4.2695 -1.8146 0.2555 0 1
5.3386 -4.2574 -1.8146 0.2555 0 1
5.3480 -4.2454 -1.8145 0.2555 0 1
5.3574 -4.2333 -1.8145 0.2555 0 1
5.3669 -4.2212 -1.8145 0.2555 0 1
5.3762 -4.2091 -1.8144 0.2555 0 1
5.3855 -4.1969 -1.8144 0.2555 0 1
5.3948 -4.1847 -1.8144 0.2555 0 1
5.4041 -4.1725 -1.8144 0.2555 0 1
5.4134 -4.1603 -1.8143 0.2555 0 1
5.4226 -4.1481 -1.8143 0.2555 0 1
5.4318 -4.1359 -1.8143 0.2555 0 1
5.4410 -4.1236 -1.8142 0.2555 0 1
5.4501 -4.1113 -1.8142 0.2556 0 1
5.4593 -4.0990 -1.8142 0.2556 0 1
5.4683 -4.0866 -1.8141 0.2556 0 1
5.4774 -4.0743 -1.8141 0.2556 0 1
5.4865 -4.0620 -1.8141 0.2556 0 1
5.4955 -4.0496 -1.8140 0.2556 0 1
5.5044 -4.0371 -1.8140 0.2556 0 1
5.5134 -4.0247 -1.8140 0.2556 0 1
5.5223 -4.0122 -1.8139 0.2556 0 1
5.5312 -3.9998 -1.8139 0.2556 0 1
5.5401 -3.9873 -1.8139 0.2556 0 1
5.5489 -3.9748 -1.8138 0.2556 0 1
5.5577 -3.9623 -1.8138 0.2556 0 1
5.5665 -3.9497 -1.8138 0.2556 0 1
5.5752 -3.9371 -1.8138 0.2556 0 1
5.5840 -3.9245 -1.8137 0.2556 0 1
5.5927 -3.9119 -1.8137 0.2556 0 1
5.6013 -3.8993 -1.8137 0.2556 0 1
5.6100 -3.8867 -1.8136 0.2556 0 1
5.6186 -3.8740 -1.8136 0.2556 0 1
5.6272 -3.8613 -1.8136 0.2556 0 1
5.6357 -3.8486 -1.8135 0.2556 0 1
5.6442 -3.8359 -1.8135 0.2557 0 1
5.6527 -3.8231 -1.8135 0.2557 0 1
5.6612 -3.8104 -1.8134 0.2557 0 1
5.6696 -3.7976 -1.8134 0.2557 0 1
5.6780 -3.7848 -1.8134 0.2557 0 1
5.6864 -3.7720 -1.8133 0.2557 0 1
5.6947 -3.7591 -1.8133 0.2557 0 1
5.7030 -3.7462 -1.8133 0.2557 0 1
5.7113 -3.7334 -1.8132 0.2557 0 1
5.7196 -3.7205 -1.8132 0.2557 0 1
5.7278 -3.7076 -1.8132 0.2557 0 1
5.7360 -3.6946 -1.8131 0.2557 0 1
5.7442 -3.6817 -1.8131 0.2557 0 1
5.7523 -3.6687 -1.8131 0.2557 0 1
5.7604 -3.6558 -1.8130 0.2557 0 1
5.7685 -3.6428 -1.8130 0.2557 0 1
5.7766 -3.6297 -1.8130 0.2557 0 1
5.7846 -3.6167 -1.8129 0.2557 0 1
5.7926 -3.6036 -1.8129 0.2557 0 1
5.8006 -3.5906 -1.8129 0.2557 0 1
5.8085 -3.5775 -1.8128 0.2557 0 1
5.8164 -3.5644 -1.8128 0.2557 0 1
5.8243 -3.5512 -1.8128 0.2558 0 1
5.8321 -3.5381 -1.8127 0.2558 0 1
5.8400 -3.5249 -1.8127 0.2558 0 1
5.8478 -3.5118 -1.8127 0.2558 0 1
5.8555 -3.4986 -1.8126 0.2558 0 1
5.8632 -3.4854 -1.8126 0.2558 0 1
5.8710 -3.4722 -1.8126 0.2558 0 1
5.8786 -3.4589 -1.8125 0.2558 0 1
5.8863 -3.4456 -1.8125 0.2558 0 1
5.8939 -3.4323 -1.8125 0.2558 0 1
5.9014 -3.4190 -1.8124 0.2558 0 1
5.9090 -3.4057 -1.8124 0.2558 0 1
5.9165 -3.3924 -1.8124 0.2558 0 1
5.9240 -3.3790 -1.8123 0.2558 0 1
5.9314 -3.3657 -1.8123 0.2558 0 1
5.9389 -3.3523 -1.8123 0.2558 0 1
5.9463 -3.3389 -1.8122 0.2558 0 1
5.9536 -3.3255 -1.8122 0.2558 0 1
5.9610 -3.3121 -1.8122 0.2558 0 1
5.9683 -3.2986 -1.8121 0.2558 0 1
5.9755 -3.2851 -1.8121 0.2558 0 1
5.9828 -3.2716 -1.8121 0.2559 0 1
5.9900 -3.2582 -1.8120 0.2559 0 1
5.9972 -3.2447 -1.8120 0.2559 0 1
6.0044 -3.2312 -1.8120 0.2559 0 1
6.0115 -3.2176 -1.8119 0.2559 0 1
6.0186 -3.2040 -1.8119 0.2559 0 1
6.0256 -3.1904 -1.8119 0.2559 0 1
6.0327 -3.1769 -1.8118 0.2559 0 1
6.0396 -3.1633 -1.8118 0.2559 0 1
6.0466 -3.1496 -1.8118 0.2559 0 1
6.0536 -3.1360 -1.8117 0.2559 0 1
6.0605 -3.1224 -1.8117 0.2559 0 1
6.0673 -3.1087 -1.8117 0.2559 0 1
6.0742 -3.0950 -1.8116 0.2559 0 1
6.0810 -3.0813 -1.8116 0.2559 0 1
6.0878 -3.0676 -1.8116 0.2559 0 1
6.0945 -3.0539 -1.8115 0.2559 0 1
6.1013 -3.0401 -1.8115 0.2559 0 1
6.1079 -3.0264 -1.8115 0.2559 0 1
6.1146 -3.0126 -1.8114 0.2559 0 1
6.1212 -2.9988 -1.8114 0.2559 0 1
6.1278 -2.9850 -1.8114 0.2560 0 1
6.1344 -2.9712 -1.8113 0.2560 0 1
6.1409 -2.9574 -1.8113 0.2560 0 1
6.1475 -2.9435 -1.8112 0.2560 0 1
6.1539 -2.9297 -1.8112 0.2560 0 1
6.1604 -2.9158 -1.8112 0.2560 0 1
6.1668 -2.9020 -1.8111 0.2560 0 1
6.1731 -2.8880 -1.8111 0.2560 0 1
6.1795 -2.8741 -1.8111 0.2560 0 1
6.1858 -2.8602 -1.8110 0.2560 0 1
6.1921 -2.8462 -1.8110 0.2560 0 1
6.1984 -2.8323 -1.8110 0.2560 0 1
6.2046 -2.8183 -1.8109 0.2560 0 1
6.2107 -2.8043 -1.8109 0.2560 0 1
6.2169 -2.7903 -1.8109 0.2560 0 1
6.2230 -2.7763 -1.8108 0.2560 0 1
6.2291 -2.7623 -1.8108 0.2560 0 1
6.2352 -2.7483 -1.8108 0.2560 0 1
6.2412 -2.7342 -1.8107 0.2560 0 1
6.2472 -2.7201 -1.8107 0.2560 0 1
6.2532 -2.7061 -1.8107 0.2561 0 1
6.2591 -2.6920 -1.8106 0.2561 0 1
6.2650 -2.6778 -1.8106 0.2561 0 1
6.2709 -2.6637 -1.8106 0.2561 0 1
6.2768 -2.6496 -1.8105 0.2561 0 1
6.2826 -2.6354 -1.8105 0.2561 0 1
6.2883 -2.6213 -1.8104 0.2561 0 1
6.2941 -2.6071 -1.8104 0.2561 0 1
6.2998 -2.5929 -1.8104 0.2561 0 1
6.3055 -2.5788 -1.8103 0.2561 0 1
6.3111 -2.5646 -1.8103 0.2561 0 1
6.3167 -2.5503 -1.8103 0.2561 0 1
6.3223 -2.5361 -1.8102 0.2561 0 1
6.3279 -2.5219 -1.8102 0.2561 0 1
6.3334 -2.5076 -1.8102 0.2561 0 1
6.3389 -2.4934 -1.8101 0.2561 0 1
6.3443 -2.4791 -1.8101 0.2561 0 1
6.3497 -2.4648 -1.8101 0.2561 0 1
6.3551 -2.4505 -1.8100 0.2561 0 1
6.3605 -2.4362 -1.8100 0.2561 0 1
6.3658 -2.4218 -1.8099 0.2562 0 1
6.3711 -2.4075 -1.8099 0.2562 0 1
6.3764 -2.3931 -1.8099 0.2562 0 1
6.3816 -2.3788 -1.8098 0.2562 0 1
6.3868 -2.3644 -1.8098 0.2562 0 1
6.3920 -2.3500 -1.8098 0.2562 0 1
6.3971 -2.3356 -1.8097 0.2562 0 1
6.4022 -2.3212 -1.8097 0.2562 0 1
6.4072 -2.3068 -1.8097 0.2562 0 1
6.4123 -2.2923 -1.8096 0.2562 0 1
6.4173 -2.2779 -1.8096 0.2562 0 1
6.4222 -2.2635 -1.8096 0.2562 0 1
6.4272 -2.2490 -1.8095 0.2562 0 1
6.4321 -2.2346 -1.8095 0.2562 0 1
6.4370 -2.2201 -1.8094 0.2562 0 1
6.4418 -2.2056 -1.8094 0.2562 0 1
6.4466 -2.1911 -1.8094 0.2562 0 1
6.4514 -2.1765 -1.8093 0.2562 0 1
6.4561 -2.1620 -1.8093 0.2562 0 1
6.4608 -2.1475 -1.8093 0.2562 0 1
6.4655 -2.1329 -1.8092 0.2563 0 1
6.4701 -2.1184 -1.8092 0.2563 0 1
6.4747 -2.1038 -1.8092 0.2563 0 1
6.4793 -2.0893 -1.8091 0.2563 0 1
6.4838 -2.0747 -1.8091 0.2563 0 1
6.4884 -2.0601 -1.8091 0.2563 0 1
6.4929 -2.0455 -1.8090 0.2563 0 1
6.4973 -2.0308 -1.8090 0.2563 0 1
6.5017 -2.0162 -1.8089 0.2563 0 1
6.5061 -2.0016 -1.8089 0.2563 0 1
6.5104 -1.9870 -1.8089 0.2563 0 1
6.5147 -1.9723 -1.8088 0.2563 0 1
6.5190 -1.9576 -1.8088 0.2563 0 1
6.5233 -1.9429 -1.8088 0.2563 0 1
6.5275 -1.9283 -1.8087 0.2563 0 1
6.5317 -1.9136 -1.8087 0.2563 0 1
6.5358 -1.8989 -1.8087 0.2563 0 1
6.5399 -1.8842 -1.8086 0.2563 0 1
6.5440 -1.8695 -1.8086 0.2563 0 1
6.5480 -1.8547 -1.8085 0.2563 0 1
6.5521 -1.8400 -1.8085 0.2564 0 1
6.5560 -1.8252 -1.8085 0.2564 0 1
6.5600 -1.8105 -1.8084 0.2564 0 1
6.5639 -1.7958 -1.8084 0.2564 0 1
6.5678 -1.7810 -1.8084 0.2564 0 1
6.5716 -1.7662 -1.8083 0.2564 0 1
6.5754 -1.7514 -1.8083 0.2564 0 1
6.5792 -1.7366 -1.8083 0.2564 0 1
6.5829 -1.7218 -1.8082 0.2564 0 1
6.5867 -1.7070 -1.8082 0.2564 0 1
6.5904 -1.6922 -1.8081 0.2564 0 1
6.5940 -1.6774 -1.8081 0.2564 0 1
6.5976 -1.6625 -1.8081 0.2564 0 1
6.6012 -1.6477 -1.8080 0.2564 0 1
6.6047 -1.6328 -1.8080 0.2564 0 1
6.6083 -1.6179 -1.8080 0.2564 0 1
6.6118 -1.6031 -1.8079 0.2564 0 1
6.6152 -1.5882 -1.8079 0.2564 0 1
6.6186 -1.5734 -1.8079 0.2564 0 1
6.6220 -1.5584 -1.8078 0.2565 0 1
6.6253 -1.5435 -1.8078 0.2565 0 1
6.6287 -1.5286 -1.8077 0.2565 0 1
6.6319 -1.5137 -1.8077 0.2565 0 1
6.6352 -1.4988 -1.8077 0.2565 0 1
6.6384 -1.4839 -1.8076 0.2565 0 1
6.6416 -1.4690 -1.8076 0.2565 0 1
6.6447 -1.4540 -1.8076 0.2565 0 1
6.6478 -1.4391 -1.8075 0.2565 0 1
6.6509 -1.4242 -1.8075 0.2565 0 1
6.6539 -1.4092 -1.8074 0.2565 0 1
6.6569 -1.3942 -1.8074 0.2565 0 1
6.6599 -1.3793 -1.8074 0.2565 0 1
6.6629 -1.3643 -1.8073 0.2565 0 1
6.6658 -1.3493 -1.8073 0.2565 0 1
6.6686 -1.3343 -1.8073 0.2565 0 1
6.6715 -1.3193 -1.8072 0.2565 0 1
6.6743 -1.3043 -1.8072 0.2565 0 1
6.6771 -1.2893 -1.8072 0.2565 0 1
6.6798 -1.2743 -1.8071 0.2566 0 1
6.6825 -1.2593 -1.8071 0.2566 0 1
6.6852 -1.2442 -1.8070 0.2566 0 1
6.6878 -1.2292 -1.8070 0.2566 0 1
6.6904 -1.2142 -1.8070 0.2566 0 1
6.6930 -1.1992 -1.8069 0.2566 0 1
6.6955 -1.1841 -1.8069 0.2566 0 1
6.6981 -1.1690 -1.8069 0.2566 0 1
6.7005 -1.1540 -1.8068 0.2566 0 1
6.7029 -1.1389 -1.8068 0.2566 0 1
6.7054 -1.1239 -1.8068 0.2566 0 1
6.7077 -1.1087 -1.8067 0.2566 0 1
6.7101 -1.0937 -1.8067 0.2566 0 1
6.7124 -1.0787 -1.8066 0.2566 0 1
6.7146 -1.0635 -1.8066 0.2566 0 1
6.7169 -1.0484 -1.8066 0.2566 0 1
6.7191 -1.0333 -1.8065 0.2566 0 1
6.7213 -1.0183 -1.8065 0.2566 0 1
6.7234 -1.0031 -1.8065 0.2566 0 1
6.7255 -0.9880 -1.8064 0.2567 0 1
6.7275 -0.9729 -1.8064 0.2567 0 1
6.7295 -0.9578 -1.8063 0.2567 0 1
6.7315 -0.9427 -1.8063 0.2567 0 1
6.7335 -0.9276 -1.8063 0.2567 0 1
6.7354 -0.9124 -1.8062 0.2567 0 1
6.7373 -0.8973 -1.8062 0.2567 0 1
6.7392 -0.8821 -1.8062 0.2567 0 1
6.7410 -0.8670 -1.8061 0.2567 0 1
6.7428 -0.8519 -1.8061 0.2567 0 1
6.7446 -0.8367 -1.8060 0.2567 0 1
6.7463 -0.8215 -1.8060 0.2567 0 1
6.7480 -0.8064 -1.8060 0.2567 0 1
6.7496 -0.7912 -1.8059 0.2567 0 1
6.7512 -0.7761 -1.8059 0.2567 0 1
6.7528 -0.7609 -1.8059 0.2567 0 1
6.7544 -0.7457 -1.8058 0.2567 0 1
6.7559 -0.7306 -1.8058 0.2567 0 1
6.7574 -0.7154 -1.8058 0.2567 0 1
6.7588 -0.7002 -1.8057 0.2568 0 1
6.7602 -0.6850 -1.8057 0.2568 0 1
6.7616 -0.6698 -1.8056 0.2568 0 1
6.7630 -0.6547 -1.8056 0.2568 0 1
6.7643 -0.6394 -1.8056 0.2568 0 1
6.7655 -0.6243 -1.8055 0.2568 0 1
6.7668 -0.6090 -1.8055 0.2568 0 1
6.7680 -0.5939 -1.8055 0.2568 0 1
6.7692 -0.5787 -1.8054 0.2568 0 1
6.7703 -0.5635 -1.8054 0.2568 0 1
6.7714 -0.5483 -1.8053 0.2568 0 1
6.7725 -0.5331 -1.8053 0.2568 0 1
6.7736 -0.5179 -1.8053 0.2568 0 1
6.7746 -0.5026 -1.8052 0.2568 0 1
6.7755 -0.4874 -1.8052 0.2568 0 1
6.7765 -0.4722 -1.8052 0.2568 0 1
6.7774 -0.4570 -1.8051 0.2568 0 1
6.7783 -0.4418 -1.8051 0.2568 0 1
6.7791 -0.4265 -1.8051 0.2568 0 1
6.7799 -0.4113 -1.8050 0.2569 0 1
6.7806 -0.3961 -1.8050 0.2569 0 1
6.7814 -0.3809 -1.8049 0.2569 0 1
6.7821 -0.3656 -1.8049 0.2569 0 1
6.7827 -0.3504 -1.8049 0.2569 0 1
6.7834 -0.3352 -1.8048 0.2569 0 1
6.7840 -0.3199 -1.8048 0.2569 0 1
6.7845 -0.3047 -1.8048 0.2569 0 1
6.7850 -0.2895 -1.8047 0.2569 0 1
6.7856 -0.2743 -1.8047 0.2569 0 1
6.7860 -0.2590 -1.8046 0.2569 0 1
6.7864 -0.2438 -1.8046 0.2569 0 1
6.7868 -0.2286 -1.8046 0.2569 0 1
6.7872 -0.2133 -1.8045 0.2569 0 1
6.7875 -0.1981 -1.8045 0.2569 0 1
6.7878 -0.1829 -1.8045 0.2569 0 1
6.7880 -0.1676 -1.8044 0.2569 0 1
6.7883 -0.1524 -1.8044 0.2569 0 1
6.7885 -0.1372 -1.8043 0.2569 0 1
6.7886 -0.1219 -1.8043 0.2570 0 1
6.7887 -0.1067 -1.8043 0.2570 0 1
6.7888 -0.0914 -1.8042 0.2570 0 1
6.7889 -0.0763 -1.8042 0.2570 0 1
6.7889 -0.0610 -1.8042 0.2570 0 1
6.7889 -0.0458 -1.8041 0.2570 0 1
6.7888 -0.0305 -1.8041 0.2570 0 1
6.7887 -0.0153 -1.8041 0.2570 0 1
6.7886 -0.0000 -1.8040 0.2570 0 1
6.7885 0.0152 -1.8040 0.2570 0 1
6.7882 0.0304 -1.8039 0.2570 0 1
6.7880 0.0456 -1.8039 0.2570 0 1
6.7878 0.0609 -1.8039 0.2570 0 1
6.7875 0.0761 -1.8038 0.2570 0 1
6.7871 0.0913 -1.8038 0.2570 0 1
6.7868 0.1066 -1.8038 0.2570 0 1
6.7864 0.1218 -1.8037 0.2570 0 1
6.7860 0.1370 -1.8037 0.2570 0 1
6.7855 0.1523 -1.8036 0.2570 0 1
6.7850 0.1675 -1.8036 0.2571 0 1
6.7845 0.1827 -1.8036 0.2571 0 1
6.7839 0.1979 -1.8035 0.2571 0 1
6.7833 0.2132 -1.8035 0.2571 0 1
6.7827 0.2284 -1.8035 0.2571 0 1
6.7820 0.2436 -1.8034 0.2571 0 1
6.7813 0.2588 -1.8034 0.2571 0 1
6.7805 0.2740 -1.8034 0.2571 0 1
6.7798 0.2892 -1.8033 0.2571 0 1
6.7790 0.3044 -1.8033 0.2571 0 1
6.7782 0.3196 -1.8032 0.2571 0 1
6.7773 0.3348 -1.8032 0.2571 0 1
6.7764 0.3500 -1.8032 0.2571 0 1
6.7754 0.3652 -1.8031 0.2571 0 1
6.7745 0.3804 -1.8031 0.2571 0 1
6.7735 0.3956 -1.8031 0.2571 0 1
6.7724 0.4108 -1.8030 0.2571 0 1
6.7713 0.4260 -1.8030 0.2571 0 1
6.7702 0.4412 -1.8030 0.2571 0 1
6.7691 0.4563 -1.8029 0.2572 0 1
6.7679 0.4715 -1.8029 0.2572 0 1
6.7667 0.4867 -1.8028 0.2572 0 1
6.7654 0.5019 -1.8028 0.2572 0 1
6.7642 0.5171 -1.8028 0.2572 0 1
6.7629 0.5322 -1.8027 0.2572 0 1
6.7615 0.5474 -1.8027 0.2572 0 1
6.7601 0.5625 -1.8027 0.2572 0 1
6.7587 0.5777 -1.8026 0.2572 0 1
6.7573 0.5928 -1.8026 0.2572 0 1
6.7558 0.6080 -1.8026 0.2572 0 1
6.7543 0.6231 -1.8025 0.2572 0 1
6.7527 0.6383 -1.8025 0.2572 0 1
6.7512 0.6534 -1.8024 0.2572 0 1
6.7495 0.6686 -1.8024 0.2572 0 1
6.7478 0.6837 -1.8024 0.2572 0 1
6.7461 0.6988 -1.8023 0.2572 0 1
6.7444 0.7139 -1.8023 0.2572 0 1
6.7427 0.7291 -1.8023 0.2572 0 1
6.7409 0.7442 -1.8022 0.2572 0 1
6.7391 0.7593 -1.8022 0.2573 0 1
6.7372 0.7744 -1.8022 0.2573 0 1
6.7353 0.7895 -1.8021 0.2573 0 1
6.7334 0.8046 -1.8021 0.2573 0 1
6.7314 0.8197 -1.8020 0.2573 0 1
6.7294 0.8347 -1.8020 0.2573 0 1
6.7274 0.8498 -1.8020 0.2573 0 1
6.7254 0.8649 -1.8019 0.2573 0 1
6.7233 0.8800 -1.8019 0.2573 0 1
6.7211 0.8951 -1.8019 0.2573 0 1
6.7190 0.9102 -1.8018 0.2573 0 1
6.7168 0.9252 -1.8018 0.2573 0 1
6.7146 0.9402 -1.8018 0.2573 0 1
6.7123 0.9552 -1.8017 0.2573 0 1
6.7100 0.9703 -1.8017 0.2573 0 1
6.7077 0.9854 -1.8016 0.2573 0 1
6.7053 1.0004 -1.8016 0.2573 0 1
6.7029 1.0154 -1.8016 0.2573 0 1
6.7005 1.0304 -1.8015 0.2573 0 1
6.6980 1.0454 -1.8015 0.2574 0 1
6.6955 1.0604 -1.8015 0.2574 0 1
6.6930 1.0754 -1.8014 0.2574 0 1
6.6904 1.0904 -1.8014 0.2574 0 1
6.6878 1.1054 -1.8014 0.2574 0 1
6.6852 1.1204 -1.8013 0.2574 0 1
6.6825 1.1354 -1.8013 0.2574 0 1
6.6798 1.1504 -1.8013 0.2574 0 1
6.6771 1.1653 -1.8012 0.2574 0 1
6.6744 1.1803 -1.8012 0.2574 0 1
6.6715 1.1952 -1.8011 0.2574 0 1
6.6687 1.2102 -1.8011 0.2574 0 1
6.6658 1.2251 -1.8011 0.2574 0 1
6.6629 1.2400 -1.8010 0.2574 0 1
6.6601 1.2550 -1.8010 0.2574 0 1
6.6571 1.2699 -1.8010 0.2574 0 1
6.6540 1.2848 -1.8009 0.2574 0 1
6.6510 1.2997 -1.8009 0.2574 0 1
6.6480 1.3146 -1.8009 0.2574 0 1
6.6448 1.3295 -1.8008 0.2574 0 1
6.6417 1.3444 -1.8008 0.2575 0 1
6.6386 1.3592 -1.8008 0.2575 0 1
6.6354 1.3741 -1.8007 0.2575 0 1
6.6322 1.3890 -1.8007 0.2575 0 1
6.6289 1.4038 -1.8006 0.2575 0 1
6.6256 1.4186 -1.8006 0.2575 0 1
6.6222 1.4335 -1.8006 0.2575 0 1
6.6189 1.4483 -1.8005 0.2575 0 1
6.6155 1.4631 -1.8005 0.2575 0 1
6.6121 1.4780 -1.8005 0.2575 0 1
6.6086 1.4928 -1.8004 0.2575 0 1
6.6051 1.5075 -1.8004 0.2575 0 1
6.6016 1.5223 -1.8004 0.2575 0 1
6.5980 1.5371 -1.8003 0.2575 0 1
6.5944 1.5519 -1.8003 0.2575 0 1
6.5908 1.5666 -1.8003 0.2575 0 1
6.5871 1.5814 -1.8002 0.2575 0 1
6.5834 1.5962 -1.8002 0.2575 0 1
6.5797 1.6109 -1.8002 0.2575 0 1
6.5760 1.6256 -1.8001 0.2575 0 1
6.5722 1.6403 -1.8001 0.2576 0 1
6.5683 1.6551 -1.8001 0.2576 0 1
6.5645 1.6697 -1.8000 0.2576 0 1
6.5606 1.6845 -1.8000 0.2576 0 1
6.5566 1.6991 -1.7999 0.2576 0 1
6.5527 1.7138 -1.7999 0.2576 0 1
6.5487 1.7285 -1.7999 0.2576 0 1
6.5447 1.7431 -1.7998 0.2576 0 1
6.5406 1.7578 -1.7998 0.2576 0 1
6.5366 1.7724 -1.7998 0.2576 0 1
6.5325 1.7871 -1.7997 0.2576 0 1
6.5283 1.8016 -1.7997 0.2576 0 1
6.5241 1.8163 -1.7997 0.2576 0 1
6.5199 1.8309 -1.7996 0.2576 0 1
6.5156 1.8455 -1.7996 0.2576 0 1
6.5114 1.8601 -1.7996 0.2576 0 1
6.5070 1.8746 -1.7995 0.2576 0 1
6.5027 1.8892 -1.7995 0.2576 0 1
6.4983 1.9037 -1.7995 0.2576 0 1
6.4939 1.9183 -1.7994 0.2576 0 1
6.4895 1.9328 -1.7994 0.2577 0 1
6.4850 1.9473 -1.7994 0.2577 0 1
6.4805 1.9618 -1.7993 0.2577 0 1
6.4759 1.9763 -1.7993 0.2577 0 1
6.4713 1.9908 -1.7993 0.2577 0 1
6.4668 2.0053 -1.7992 0.2577 0 1
6.4621 2.0198 -1.7992 0.2577 0 1
6.4574 2.0342 -1.7992 0.2577 0 1
6.4527 2.0487 -1.7991 0.2577 0 1
6.4453 2.0622 -1.7983 0.3863 0 2
6.4077 2.0661 -1.7891 0.3883 0 2
6.3704 2.0698 -1.7800 0.3902 0 2
6.3336 2.0736 -1.7710 0.3922 0 2
6.2971 2.0774 -1.7621 0.3942 0 2
6.2610 2.0810 -1.7533 0.3962 0 2
6.2308 2.0865 -1.7462 0.4714 0 2
6.2020 2.0923 -1.7394 0.4732 0 2
6.1731 2.0980 -1.7326 0.4638 0 2
6.1432 2.1033 -1.7255 0.4657 0 2
6.1136 2.1085 -1.7185 0.4676 0 2
6.0842 2.1136 -1.7116 0.4695 0 2
6.0550 2.1187 -1.7047 0.4714 0 2
6.0261 2.1238 -1.6979 0.4733 0 2
6.0137 2.1346 -1.6958 0.2579 0 2
6.0088 2.1481 -1.6958 0.2579 0 2
6.0039 2.1615 -1.6957 0.2579 0 2
5.9989 2.1749 -1.6957 0.2579 0 2
5.9939 2.1883 -1.6957 0.2579 0 2
5.9888 2.2018 -1.6956 0.2579 0 2
5.9838 2.2152 -1.6956 0.2579 0 2
5.9787 2.2286 -1.6956 0.2579 0 2
5.9735 2.2419 -1.6955 0.2579 0 2
5.9684 2.2553 -1.6955 0.2579 0 2
5.9632 2.2686 -1.6955 0.2579 0 2
5.9580 2.2820 -1.6955 0.2579 0 2
5.9528 2.2953 -1.6954 0.2579 0 2
5.9475 2.3086 -1.6954 0.2579 0 2
5.9964 2.3430 -1.7108 0.5467 0 2
5.9742 2.3498 -1.7060 0.5483 0 2
5.9521 2.3566 -1.7012 0.5498 0 2
5.9301 2.3633 -1.6964 0.5514 0 2
5.9207 2.3750 -1.6952 0.2579 0 2
5.9152 2.3882 -1.6952 0.2579 0 2
5.9097 2.4014 -1.6952 0.2579 0 2
5.9043 2.4146 -1.6951 0.2579 0 2
5.8987 2.4278 -1.6951 0.2579 0 2
5.8931 2.4410 -1.6951 0.2579 0 2
5.8875 2.4542 -1.6951 0.2579 0 2
5.8819 2.4674 -1.6950 0.2580 0 2
5.8762 2.4805 -1.6950 0.2580 0 2
5.8706 2.4936 -1.6950 0.2580 0 2
5.8649 2.5067 -1.6949 0.2580 0 2
5.8592 2.5199 -1.6949 0.2580 0 2
5.8534 2.5330 -1.6949 0.2580 0 2
5.8476 2.5460 -1.6949 0.2580 0 2
5.8417 2.5591 -1.6948 0.2580 0 2
5.8359 2.5722 -1.6948 0.2580 0 2
5.8300 2.5852 -1.6948 0.2580 0 2
5.8241 2.5982 -1.6947 0.2580 0 2
5.8181 2.6113 -1.6947 0.2580 0 2
5.8121 2.6243 -1.6947 0.2580 0 2
5.8062 2.6372 -1.6946 0.2580 0 2
5.8001 2.6503 -1.6946 0.2580 0 2
5.7941 2.6632 -1.6946 0.2580 0 2
5.7880 2.6762 -1.6946 0.2580 0 2
5.7818 2.6891 -1.6945 0.2580 0 2
5.7757 2.7020 -1.6945 0.2580 0 2
5.7695 2.7149 -1.6945 0.2580 0 2
5.7633 2.7278 -1.6944 0.2580 0 2
5.7571 2.7407 -1.6944 0.2580 0 2
5.7508 2.7536 -1.6944 0.2580 0 2
5.7445 2.7664 -1.6944 0.2581 0 2
5.7382 2.7792 -1.6943 0.2581 0 2
5.7319 2.7920 -1.6943 0.2581 0 2
5.7255 2.8049 -1.6943 0.2581 0 2
5.7191 2.8177 -1.6942 0.2581 0 2
5.7127 2.8304 -1.6942 0.2581 0 2
5.7062 2.8432 -1.6942 0.2581 0 2
5.6997 2.8559 -1.6942 0.2581 0 2
5.6932 2.8687 -1.6941 0.2581 0 2
5.6866 2.8814 -1.6941 0.2581 0 2
5.6800 2.8941 -1.6941 0.2581 0 2
5.6734 2.9068 -1.6940 0.2581 0 2
5.6668 2.9195 -1.6940 0.2581 0 2
5.6602 2.9321 -1.6940 0.2581 0 2
5.6535 2.9448 -1.6940 0.2581 0 2
5.6468 2.9574 -1.6939 0.2581 0 2
5.6400 2.9700 -1.6939 0.2581 0 2
5.6332 2.9826 -1.6939 0.2581 0 2
5.6264 2.9952 -1.6938 0.2581 0 2
5.6196 3.0078 -1.6938 0.2581 0 2
5.6128 3.0203 -1.6938 0.2581 0 2
5.6059 3.0329 -1.6938 0.2581 0 2
5.5990 3.0454 -1.6937 0.2581 0 2
5.5920 3.0579 -1.6937 0.2582 0 2
5.5851 3.0704 -1.6937 0.2582 0 2
5.5781 3.0829 -1.6937 0.2582 0 2
5.5710 3.0953 -1.6936 0.2582 0 2
5.5640 3.1078 -1.6936 0.2582 0 2
5.5569 3.1202 -1.6936 0.2582 0 2
5.5498 3.1326 -1.6935 0.2582 0 2
5.5427 3.1450 -1.6935 0.2582 0 2
5.5355 3.1574 -1.6935 0.2582 0 2
5.5283 3.1697 -1.6935 0.2582 0 2
5.5211 3.1821 -1.6934 0.2582 0 2
5.5139 3.1944 -1.6934 0.2582 0 2
5.5066 3.2067 -1.6934 0.2582 0 2
5.4993 3.2190 -1.6934 0.2582 0 2
5.4920 3.2313 -1.6933 0.2582 0 2
5.4846 3.2436 -1.6933 0.2582 0 2
5.4772 3.2558 -1.6933 0.2582 0 2
5.4698 3.2680 -1.6932 0.2582 0 2
5.4624 3.2803 -1.6932 0.2582 0 2
5.4549 3.2925 -1.6932 0.2582 0 2
5.4474 3.3046 -1.6932 0.2582 0 2
5.4399 3.3168 -1.6931 0.2582 0 2
5.4324 3.3289 -1.6931 0.2582 0 2
5.4248 3.3411 -1.6931 0.2582 0 2
5.4172 3.3532 -1.6931 0.2582 0 2
5.4096 3.3653 -1.6930 0.2582 0 2
5.4019 3.3773 -1.6930 0.2582 0 2
5.3942 3.3894 -1.6930 0.2582 0 2
5.3865 3.4014 -1.6929 0.2582 0 2
5.3788 3.4135 -1.6929 0.2582 0 2
5.3710 3.4254 -1.6929 0.2582 0 2
5.3633 3.4375 -1.6929 0.2582 0 2
5.3554 3.4495 -1.6928 0.2582 0 2
5.3476 3.4614 -1.6928 0.2582 0 2
5.3397 3.4733 -1.6928 0.2582 0 2
5.3318 3.4853 -1.6927 0.2582 0 2
5.3239 3.4971 -1.6927 0.2582 0 2
5.3160 3.5090 -1.6927 0.2583 0 2
5.3080 3.5209 -1.6927 0.2583 0 2
5.3000 3.5328 -1.6926 0.2583 0 2
5.2920 3.5446 -1.6926 0.2583 0 2
5.2839 3.5564 -1.6926 0.2583 0 2
5.2758 3.5681 -1.6926 0.2583 0 2
5.2678 3.5799 -1.6925 0.2583 0 2
5.2596 3.5917 -1.6925 0.2583 0 2
5.2514 3.6034 -1.6925 0.2583 0 2
5.2432 3.6151 -1.6924 0.2583 0 2
5.2350 3.6268 -1.6924 0.2583 0 2
5.2268 3.6385 -1.6924 0.2583 0 2
5.2186 3.6502 -1.6924 0.2583 0 2
5.2103 3.6618 -1.6923 0.2583 0 2
5.2020 3.6735 -1.6923 0.2583 0 2
5.1936 3.6851 -1.6923 0.2583 0 2
5.1853 3.6966 -1.6923 0.2583 0 2
5.1769 3.7082 -1.6922 0.2583 0 2
5.1685 3.7198 -1.6922 0.2583 0 2
5.1600 3.7313 -1.6922 0.2583 0 2
5.1515 3.7428 -1.6922 0.2583 0 2
5.1431 3.7543 -1.6921 0.2583 0 2
5.1345 3.7657 -1.6921 0.2583 0 2
5.1260 3.7772 -1.6921 0.2583 0 2
5.1174 3.7886 -1.6920 0.2584 0 2
5.1088 3.8001 -1.6920 0.2584 0 2
5.1002 3.8115 -1.6920 0.2584 0 2
5.0916 3.8228 -1.6920 0.2584 0 2
5.0829 3.8342 -1.6919 0.2584 0 2
5.0742 3.8455 -1.6919 0.2584 0 2
5.0655 3.8568 -1.6919 0.2584 0 2
5.0567 3.8681 -1.6919 0.2584 0 2
5.0479 3.8794 -1.6918 0.2584 0 2
5.0392 3.8907 -1.6918 0.2584 0 2
5.0304 3.9019 -1.6918 0.2584 0 2
5.0215 3.9131 -1.6918 0.2584 0 2
5.0127 3.9244 -1.6917 0.2584 0 2
5.0037 3.9355 -1.6917 0.2584 0 2
4.9948 3.9467 -1.6917 0.2584 0 2
4.9859 3.9578 -1.6917 0.2584 0 2
4.9769 3.9689 -1.6916 0.2584 0 2
4.9679 3.9800 -1.6916 0.2584 0 2
4.9589 3.9911 -1.6916 0.2584 0 2
4.9498 4.0022 -1.6916 0.2584 0 2
4.9408 4.0132 -1.6915 0.2584 0 2
4.9317 4.0242 -1.6915 0.2584 0 2
4.9226 4.0352 -1.6915 0.2584 0 2
4.9134 4.0462 -1.6915 0.2584 0 2
4.9043 4.0571 -1.6914 0.2584 0 2
4.8951 4.0681 -1.6914 0.2584 0 2
4.8859 4.0790 -1.6914 0.2585 0 2
4.8766 4.0899 -1.6914 0.2585 0 2
4.8674 4.1008 -1.6913 0.2585 0 2
4.8581 4.1116 -1.6913 0.2585 0 2
4.8488 4.1225 -1.6913 0.2585 0 2
4.8394 4.1333 -1.6913 0.2585 0 2
4.8301 4.1440 -1.6912 0.2585 0 2
4.8207 4.1548 -1.6912 0.2585 0 2
4.8113 4.1655 -1.6912 0.2585 0 2
4.8019 4.1763 -1.6912 0.2585 0 2
4.7924 4.1870 -1.6911 0.2585 0 2
