ply
format ascii 1.0
element vertex 589
property float32 x
property float32 y
property float32 z
property float32 CosAngle
property uint32 ObjIdx
property uint32 ObjTag
end_header
4.161679744720459 -2.674550771713257 -0.1320825219154358 0.9242905974388123 0 6
4.146601676940918 -2.6910741329193115 -0.1319831758737564 0.9994168877601624 0 6
4.138417720794678 -2.712089776992798 -0.13210663199424744 0.9183374643325806 0 6
4.139492034912109 -2.7392773628234863 -0.13253051042556763 0.7196827530860901 0 6
30.7603702545166 -27.138418197631836 -1.0952345132827759 0.4058246910572052 0 20
30.431230545043945 -27.090476989746094 -1.0878080129623413 0.7706906795501709 0 20
28.93634796142578 -25.992109298706055 -1.038510799407959 0.6675252318382263 2803 6
30.074764251708984 -27.258182525634766 -1.083720326423645 0.9233633279800415 0 20
29.946483612060547 -27.38631820678711 -1.0834901332855225 0.92355877161026 0 20
29.884178161621094 -27.575214385986328 -1.0856765508651733 0.8178266882896423 0 20
29.857128143310547 -27.79798698425293 -1.0891882181167603 0.4868433177471161 0 20
20.183143615722656 -19.826025009155273 -0.7554269433021545 0.9830939769744873 0 6
18.488222122192383 18.488222122192383 -0.8055469393730164 0.707219123840332 0 3
18.653867721557617 18.488115310668945 -0.8091487884521484 0.7040598392486572 0 3
18.977148056030273 18.641395568847656 -0.8195773363113403 0.7126703858375549 0 3
18.97705078125 18.475614547729492 -0.8160038590431213 0.7157911658287048 0 3
19.08021354675293 18.41093635559082 -0.8169037699699402 0.6944993734359741 0 3
19.25130844116211 18.410829544067383 -0.8206964135169983 0.6912845373153687 0 3
19.42400360107422 18.410722732543945 -0.824549674987793 0.6880559325218201 0 3
19.59827995300293 18.410614013671875 -0.8284528255462646 0.6848142147064209 0 3
15.792948722839355 4.030917644500732 -0.502172589302063 0.3980537950992584 2878 14
15.721972465515137 3.9381444454193115 -0.49935048818588257 0.4312064051628113 2878 14
15.654746055603027 3.8471484184265137 -0.4966641962528229 0.43353843688964844 2878 14
15.588183403015137 3.7571094036102295 -0.49401718378067017 0.43586233258247375 2878 14
15.56005859375 3.676943302154541 -0.49260175228118896 0.5698815584182739 2878 14
15.5386323928833 3.5987401008605957 -0.4914093613624573 0.5746471881866455 2878 14
15.517714500427246 3.5210156440734863 -0.4902450442314148 0.5760110020637512 2878 14
15.496854782104492 3.4436328411102295 -0.4890984892845154 0.5773643255233765 2878 14
15.483983993530273 3.368339776992798 -0.488209992647171 0.6172762513160706 2878 14
15.47499942779541 3.294121026992798 -0.48745909333229065 0.6182283759117126 2878 14
15.465995788574219 3.2201366424560547 -0.48671919107437134 0.6191685795783997 2878 14
15.457499504089355 3.1464648246765137 -0.486002653837204 0.6201412081718445 2878 14
15.452187538146973 3.0736327171325684 -0.48540160059928894 0.6890671253204346 2878 14
15.469277381896973 3.0053417682647705 -0.48551368713378906 0.6889088749885559 2878 14
15.486406326293945 2.93701171875 -0.485633909702301 0.6887373924255371 2878 14
15.503515243530273 2.868642568588257 -0.4857652187347412 0.6885526776313782 2878 14
15.520625114440918 2.800224542617798 -0.4859049916267395 0.6883546710014343 2878 14
15.540741920471191 2.732304573059082 -0.48614737391471863 0.6757881045341492 2878 14
15.561054229736328 2.6643457412719727 -0.4864051640033722 0.6754282116889954 2878 14
15.699628829956055 2.616015672683716 -0.4903668761253357 0.34574094414711 2878 14
15.87744140625 2.572880744934082 -0.4955591559410095 0.34211939573287964 2878 14
16.059101104736328 2.5288281440734863 -0.5008699893951416 0.33849090337753296 2878 14
16.24431610107422 2.483759641647339 -0.5062943696975708 0.3356248438358307 2878 14
16.436620712280273 2.4381444454193115 -0.5119473338127136 0.318407267332077 2878 14
16.63947296142578 2.392402172088623 -0.5179263949394226 0.3147308826446533 2878 14
16.847108840942383 2.3455564975738525 -0.5240585207939148 0.3110479712486267 2878 14
17.05974578857422 2.297617197036743 -0.5303475856781006 0.3072143793106079 2878 14
17.284257888793945 2.2493650913238525 -0.5370110869407654 0.22733798623085022 2878 14
17.52681541442871 2.2014355659484863 -0.5442372560501099 0.300868421792984 2878 14
44.317264556884766 5.365653991699219 -1.3753668069839478 0.9922647476196289 0 3
44.31714630126953 5.165097713470459 -1.374635100364685 0.9927936792373657 0 3
44.31703186035156 4.964726448059082 -1.373929738998413 0.9933030605316162 0 3
44.31689453125 4.764570236206055 -1.3732502460479736 0.9937925338745117 0 3
44.316776275634766 4.564599514007568 -1.3726024627685547 0.9942623376846313 0 3
44.3166389465332 4.364814281463623 -1.3719805479049683 0.994712233543396 0 3
44.31652069091797 4.165205001831055 -1.3713849782943726 0.9951424598693848 0 3
44.31640625 3.965771436691284 -1.3708257675170898 0.995552659034729 0 3
44.31626892089844 3.766484260559082 -1.3702818155288696 0.9959432482719421 0 3
44.3161506652832 3.5673632621765137 -1.3697744607925415 0.9963138103485107 0 3
42.82423782348633 3.254999876022339 -1.3232094049453735 0.9966647028923035 0 3
42.824119567871094 3.0628514289855957 -1.3227647542953491 0.9969955682754517 0 3
42.82400131225586 2.8708202838897705 -1.3223470449447632 0.9973068237304688 0 3
42.93614959716797 2.685927629470825 -1.3254282474517822 0.9975979924201965 0 3
42.93601608276367 2.4936132431030273 -1.3250658512115479 0.9978694915771484 0 3
42.93589782714844 2.301406145095825 -1.3247333765029907 0.9981209635734558 0 3
42.43367004394531 2.0846385955810547 -1.3089377880096436 0.998352587223053 0 3
42.433555603027344 1.8948534727096558 -1.3086583614349365 0.9985642433166504 0 3
42.43343734741211 1.7051464319229126 -1.3084031343460083 0.9987562298774719 0 3
42.43330001831055 1.5155078172683716 -1.308187484741211 0.9989281892776489 0 3
42.433162689208984 1.325927734375 -1.3079813718795776 0.9990803599357605 0 3
42.84269332885742 1.1473827362060547 -1.3204396963119507 0.9992125034332275 0 3
42.42978286743164 0.9468749761581421 -1.3075648546218872 0.9993248581886292 0 3
42.42966842651367 0.7574414014816284 -1.3074465990066528 0.9994173049926758 0 3
42.42955017089844 0.568066418170929 -1.307353138923645 0.9994897842407227 0 3
42.4294319152832 0.3786914050579071 -1.307277798652649 0.9995424747467041 0 3
42.93455123901367 0.19160155951976776 -1.3228050470352173 0.999575138092041 0 3
42.93443298339844 -9.765624781721272e-06 -1.3227887153625488 0.9995880126953125 0 3
42.82204818725586 -0.19109374284744263 -1.3193421363830566 0.9995808005332947 0 3
42.82193374633789 -0.38218748569488525 -1.319374918937683 0.999553918838501 0 3
42.821815490722656 -0.5733007788658142 -1.319441795349121 0.9995068907737732 0 3
42.821678161621094 -0.7644433379173279 -1.3195289373397827 0.9994401931762695 0 3
42.841346740722656 -0.9560546875 -1.3202459812164307 0.9993534088134766 0 3
42.84122848510742 -1.1473535299301147 -1.3203927278518677 0.9992468357086182 0 3
42.84111404418945 -1.3386815786361694 -1.3205581903457642 0.9991202354431152 0 3
13.610156059265137 -0.4860937297344208 -0.4195909798145294 0.7673138380050659 2879 13
13.60855484008789 -0.5468456745147705 -0.4196125566959381 0.7599886059761047 2879 13
42.84074020385742 -1.9130370616912842 -1.3212177753448486 0.99862140417099 0 3
42.84062576293945 -2.104628801345825 -1.3214913606643677 0.9984152913093567 0 3
42.84048843383789 -2.2963085174560547 -1.321790337562561 0.9981893301010132 0 3
42.840370178222656 -2.4880664348602295 -1.3221136331558228 0.9979435205459595 0 3
42.84025192260742 -2.679921865463257 -1.3224672079086304 0.9976779222488403 0 3
42.84013748168945 -2.871904134750366 -1.3228451013565063 0.9973922967910767 0 3
42.84000015258789 -3.063974618911743 -1.3232530355453491 0.9970868825912476 0 3
42.839881896972656 -3.256181478500366 -1.3236852884292603 0.9967616200447083 0 3
42.83976364135742 -3.4485156536102295 -1.3241381645202637 0.9964165091514587 0 3
42.83964920043945 -3.640986204147339 -1.3246304988861084 0.9960514903068542 0 3
42.83951187133789 -3.833613157272339 -1.3251382112503052 0.9956666827201843 0 3
42.83937454223633 -4.026376724243164 -1.3256809711456299 0.995262086391449 0 3
42.839256286621094 -4.219306468963623 -1.3262438774108887 0.9948376417160034 0 3
42.83911895751953 -4.412402153015137 -1.3268369436264038 0.9943933486938477 0 3
42.819217681884766 -4.60354471206665 -1.3268468379974365 0.9939293265342712 0 3
42.8190803527832 -4.79690408706665 -1.3274869918823242 0.9934454560279846 0 3
42.81894302368164 -4.990468502044678 -1.3281604051589966 0.9929418563842773 0 3
42.81882858276367 -5.184237957000732 -1.3288629055023193 0.9924184679985046 0 3
18.031600952148438 -4.260986328125 -0.5708465576171875 0.989176332950592 0 6
45.98038864135742 -18.80573272705078 -1.5305405855178833 0.3777851462364197 0 3
45.40021514892578 -18.80535125732422 -1.5140012502670288 0.3819107413291931 0 3
44.79357147216797 -18.788700103759766 -1.4965667724609375 0.38602885603904724 0 3
44.281951904296875 -18.806913375854492 -1.482258677482605 0.9203032851219177 0 3
44.281795501708984 -19.040546417236328 -1.4850835800170898 0.9185531139373779 0 3
44.281639099121094 -19.275068283081055 -1.4879471063613892 0.9167847037315369 0 3
44.30128860473633 -19.519208908081055 -1.4915120601654053 0.9149981737136841 0 3
44.30111312866211 -19.755693435668945 -1.4944655895233154 0.9131931066513062 0 3
44.30095672607422 -19.99309539794922 -1.4974465370178223 0.911370038986206 0 3
44.30080032348633 -20.231473922729492 -1.5004775524139404 0.9095286726951599 0 3
44.30064392089844 -20.470800399780273 -1.5035558938980103 0.9076694846153259 0 3
44.30048751831055 -20.711122512817383 -1.5066674947738647 0.9057921171188354 0 3
44.300331115722656 -20.952470779418945 -1.5098307132720947 0.9038964509963989 0 3
44.30015563964844 -21.194805145263672 -1.5130325555801392 0.9019832015037537 0 3
44.29999923706055 -21.43819236755371 -1.5162845849990845 0.9000516533851624 0 3
44.299842834472656 -21.682626724243164 -1.5195749998092651 0.898102343082428 0 3
44.299686431884766 -21.928125381469727 -1.522905945777893 0.8961350917816162 0 3
30.57650375366211 -15.3054780960083 -1.0534790754318237 0.6087996363639832 0 20
30.35287094116211 -15.363309860229492 -1.0481288433074951 0.6119090914726257 0 20
30.23613166809082 -15.47411060333252 -1.0464694499969482 0.8777049779891968 0 20
30.123104095458984 -15.586278915405273 -1.044954538345337 0.8789771795272827 0 20
30.06414031982422 -15.726240158081055 -1.0453308820724487 0.9006698131561279 0 20
30.02423667907715 -15.876415252685547 -1.0463980436325073 0.8997521996498108 0 20
30.027069091796875 -16.049774169921875 -1.0489872694015503 0.671333372592926 0 20
30.083026885986328 -16.252704620361328 -1.0534642934799194 0.6684796810150146 0 20
42.91921615600586 -23.435653686523438 -1.506610631942749 0.8776317238807678 0 3
42.91905975341797 -23.684804916381836 -1.510300874710083 0.8754878640174866 0 3
42.51824188232422 -23.71175765991211 -1.4999127388000488 0.48627352714538574 0 3
42.41681671142578 -23.90394401550293 -1.5000704526901245 0.871147871017456 0 3
42.41664123535156 -24.153886795043945 -1.5038692951202393 0.8689518570899963 0 3
42.41644287109375 -24.40507698059082 -1.5077027082443237 0.866738498210907 0 3
42.58021545410156 -24.752899169921875 -1.5174323320388794 0.5017837285995483 0 3
42.412967681884766 -24.90955924987793 -1.5154213905334473 0.8622606992721558 0 3
42.412811279296875 -25.164676666259766 -1.5194127559661865 0.8599958419799805 0 3
42.412635803222656 -25.421152114868164 -1.5234535932540894 0.8577138185501099 0 3
4.185800552368164 -2.6637303829193115 -0.15286071598529816 0.6836382746696472 0 6
4.161581993103027 -2.6744823455810547 -0.15239547193050385 0.9242058396339417 0 6
4.146503925323486 -2.6910057067871094 -0.15229643881320953 0.999325692653656 0 6
4.138300895690918 -2.7120115756988525 -0.15243804454803467 0.9182571172714233 0 6
4.139335632324219 -2.7391698360443115 -0.15292541682720184 0.7196259498596191 0 6
30.507753372192383 -27.158632278442383 -1.258419156074524 0.685592770576477 0 20
28.93648338317871 -25.992225646972656 -1.1983757019042969 0.6674435138702393 2803 6
30.136932373046875 -27.314531326293945 -1.2531293630599976 0.8229454159736633 0 20
30.008378982543945 -27.44293975830078 -1.2528636455535889 0.8231199383735657 0 20
29.954511642456055 -27.640106201171875 -1.2557512521743774 0.7279983162879944 0 20
29.977479934692383 -27.910018920898438 -1.2619205713272095 0.43022698163986206 0 20
20.182655334472656 -19.82552719116211 -0.8716325759887695 0.9830024242401123 0 6
18.488222122192383 18.488222122192383 -0.9130401611328125 0.7071235179901123 0 3
18.653867721557617 18.488115310668945 -0.9171397089958191 0.7039650082588196 0 3
18.976932525634766 18.64116096496582 -0.9289265275001526 0.7125830054283142 0 3
18.976835250854492 18.475400924682617 -0.9248763918876648 0.7157031297683716 0 3
19.08023452758789 18.41093635559082 -0.925904393196106 0.6944055557250977 0 3
19.25130844116211 18.410829544067383 -0.9302146434783936 0.6911911368370056 0 3
19.42398452758789 18.410722732543945 -0.9345734715461731 0.6879633069038391 0 3
19.59830093383789 18.410614013671875 -0.9389979839324951 0.6847213506698608 0 3
15.932870864868164 4.370976448059082 -0.5769433975219727 0.7011734843254089 2878 14
15.88037109375 4.280468463897705 -0.5743449330329895 0.704345703125 2878 14
15.932226181030273 4.218271255493164 -0.5755339860916138 0.7058668732643127 2878 14
15.74658203125 4.094013690948486 -0.5681619048118591 0.39871326088905334 2878 14
15.67763614654541 4.001474380493164 -0.5650240778923035 0.43188005685806274 2878 14
15.610761642456055 3.910292863845825 -0.5619795918464661 0.4342198669910431 2878 14
15.544589042663574 3.820078134536743 -0.5589777827262878 0.43655166029930115 2878 14
15.4946870803833 3.7345800399780273 -0.5565791130065918 0.5715988874435425 2878 14
15.473593711853027 3.6565136909484863 -0.555229127407074 0.5763830542564392 2878 14
15.452909469604492 3.5788867473602295 -0.5539077520370483 0.5777578353881836 2878 14
15.432284355163574 3.5016210079193115 -0.5526041388511658 0.5791217088699341 2878 14
15.413280487060547 3.425058603286743 -0.5513695478439331 0.6194155216217041 2878 14
15.404452323913574 3.3510351181030273 -0.5505143404006958 0.6203793287277222 2878 14
15.395625114440918 3.277236223220825 -0.5496701598167419 0.6213312745094299 2878 14
15.386816024780273 3.2036426067352295 -0.5488402247428894 0.6222712993621826 2878 14
15.378358840942383 3.1303515434265137 -0.5480340719223022 0.6232487559318542 2878 14
15.383867263793945 3.0600390434265137 -0.5477371215820312 0.6920340657234192 2878 14
15.40087890625 2.9920408725738525 -0.5478641390800476 0.6918758749961853 2878 14
15.417890548706055 2.924013614654541 -0.5479998588562012 0.6917044520378113 2878 14
15.434921264648438 2.855947256088257 -0.5481448173522949 0.6915196180343628 2878 14
15.451932907104492 2.787832021713257 -0.548301637172699 0.6913216710090637 2878 14
15.469862937927246 2.719853401184082 -0.5485019683837891 0.6787918210029602 2878 14
15.490057945251465 2.6521873474121094 -0.5487918853759766 0.6784319281578064 2878 14
15.610214233398438 2.601123094558716 -0.5526338219642639 0.3476746082305908 2878 14
15.786093711853027 2.5580761432647705 -0.5584520101547241 0.3440532982349396 2878 14
15.965682983398438 2.5141210556030273 -0.5644020438194275 0.34042543172836304 2878 14
16.149139404296875 2.4692089557647705 -0.5704942345619202 0.337557315826416 2878 14
16.336210250854492 2.4232518672943115 -0.5767122507095337 0.333916038274765 2878 14
16.536073684692383 2.3775389194488525 -0.5833881497383118 0.31665632128715515 2878 14
16.741191864013672 2.330820322036743 -0.590251624584198 0.31297436356544495 2878 14
16.951152801513672 2.2829883098602295 -0.597291111946106 0.3092860281467438 2878 14
17.166229248046875 2.234003782272339 -0.6045102477073669 0.30544769763946533 2878 14
17.400957107543945 2.185624837875366 -0.6124295592308044 0.30300331115722656 2878 14
44.31689453125 5.365614891052246 -1.5588701963424683 0.992139458656311 0 3
44.31675720214844 5.1650390625 -1.5580410957336426 0.9926684498786926 0 3
44.3166389465332 4.964687347412109 -1.5572465658187866 0.9931776523590088 0 3
44.31652069091797 4.764521598815918 -1.556477665901184 0.9936671257019043 0 3
44.31638717651367 4.564550876617432 -1.5557422637939453 0.9941368103027344 0 3
44.31626892089844 4.36477518081665 -1.5550386905670166 0.9945866465568542 0 3
44.316131591796875 4.165165901184082 -1.5543681383132935 0.9950167536735535 0 3
44.31601333618164 3.9657323360443115 -1.5537229776382446 0.9954270124435425 0 3
44.31589889526367 3.7664549350738525 -1.5531182289123535 0.9958174824714661 0 3
44.31576156616211 3.567333936691284 -1.5525425672531128 0.9961879849433899 0 3
42.82386779785156 3.2549705505371094 -1.4997518062591553 0.9965388178825378 0 3
42.82374954223633 3.062822103500366 -1.4992544651031494 0.996869683265686 0 3
42.823631286621094 2.870790958404541 -1.4987871646881104 0.9971808791160583 0 3
42.9357795715332 2.6858983039855957 -1.5022742748260498 0.9974720478057861 0 3
42.93564224243164 2.493593692779541 -1.501863956451416 0.9977433681488037 0 3
42.93552780151367 2.301396369934082 -1.501487135887146 0.9979948401451111 0 3
42.43330001831055 2.084609270095825 -1.4835833311080933 0.9982264041900635 0 3
42.43318176269531 1.8948339223861694 -1.4832720756530762 0.9984381198883057 0 3
42.433067321777344 1.7051268815994263 -1.4829832315444946 0.9986300468444824 0 3
42.43294906616211 1.5154980421066284 -1.4827227592468262 0.9988020062446594 0 3
42.43281173706055 1.3259179592132568 -1.482505440711975 0.9989541172981262 0 3
42.842323303222656 1.147373080253601 -1.4966155290603638 0.9990863800048828 0 3
42.429412841796875 0.9468652009963989 -1.4820328950881958 0.9991986155509949 0 3
42.42929458618164 0.7574414014816284 -1.4818938970565796 0.9992910027503967 0 3
42.42918014526367 0.5680566430091858 -1.4817817211151123 0.9993635416030884 0 3
42.42906188964844 0.37868162989616394 -1.4817086458206177 0.999416172504425 0 3
42.93417739868164 0.1915917992591858 -1.4993059635162354 0.999448835849762 0 3
42.93406295776367 -0.0 -1.4992872476577759 0.9994616508483887 0 3
42.821678161621094 -0.19108398258686066 -1.495381236076355 0.9994545578956604 0 3
42.82155990600586 -0.38218748569488525 -1.4954180717468262 0.9994275569915771 0 3
42.82144546508789 -0.5733007788658142 -1.4954835176467896 0.9993805885314941 0 3
42.82130813598633 -0.7644335627555847 -1.495587944984436 0.9993138909339905 0 3
42.84099578857422 -0.9560449123382568 -1.4964065551757812 0.9992272257804871 0 3
42.840858459472656 -1.1473437547683716 -1.4965614080429077 0.9991205930709839 0 3
42.84074020385742 -1.3386718034744263 -1.496754765510559 0.998993992805481 0 3
13.603144645690918 -0.48583006858825684 -0.4753324091434479 0.9064526557922363 2879 13
13.61050796508789 -0.546923816204071 -0.4756716787815094 0.7480396032333374 2879 13
42.840370178222656 -1.913027286529541 -1.497507095336914 0.9984952211380005 0 3
42.84025192260742 -2.104609251022339 -1.4978119134902954 0.9982892274856567 0 3
42.84011459350586 -2.296279191970825 -1.498151183128357 0.9980632662773132 0 3
42.84000015258789 -2.488037109375 -1.4985178709030151 0.9978175163269043 0 3
42.839881896972656 -2.6799120903015137 -1.4989174604415894 0.9975518584251404 0 3
42.83976364135742 -2.871875047683716 -1.499346375465393 0.9972662925720215 0 3
42.83962631225586 -3.063955068588257 -1.4998083114624023 0.9969609975814819 0 3
42.83951187133789 -3.2561521530151367 -1.5002988576889038 0.9966356754302979 0 3
42.839393615722656 -3.448486328125 -1.5008171796798706 0.9962906837463379 0 3
42.83927536010742 -3.6409568786621094 -1.501364827156067 0.9959257245063782 0 3
42.83913803100586 -3.833574056625366 -1.5019457340240479 0.9955410361289978 0 3
42.83900451660156 -4.026337623596191 -1.5025554895401 0.9951364398002625 0 3
42.83888626098633 -4.21926736831665 -1.5031986236572266 0.9947120547294617 0 3
42.838748931884766 -4.412363052368164 -1.5038704872131348 0.9942678809165955 0 3
42.81884765625 -4.603505611419678 -1.5038800239562988 0.9938037991523743 0 3
42.818729400634766 -4.796875 -1.504612684249878 0.9933200478553772 0 3
42.818572998046875 -4.990429401397705 -1.5053774118423462 0.9928165078163147 0 3
42.81845474243164 -5.184189319610596 -1.5061674118041992 0.992293119430542 0 3
29.17802619934082 -4.728193283081055 -1.0322099924087524 0.9706190824508667 0 28
29.240312576293945 -5.952040672302246 -1.0420321226119995 0.03284424543380737 0 28
29.359315872192383 -6.799609184265137 -1.052383542060852 0.9758703708648682 0 28
18.03109359741211 -4.260859489440918 -0.6469991207122803 0.9890710711479187 0 6
29.364530563354492 -8.055770874023438 -1.0633138418197632 0.9607017636299133 0 28
29.12433433532715 -8.12979507446289 -1.0559226274490356 0.9595023393630981 0 28
29.10824203491211 -8.265487670898438 -1.0566647052764893 0.7163570523262024 0 28
29.10857391357422 -8.406132698059082 -1.058029055595398 0.7153687477111816 0 28
29.108943939208984 -8.547158241271973 -1.0594184398651123 0.7144308686256409 0 28
29.109275817871094 -8.688544273376465 -1.0608336925506592 0.7134444713592529 0 28
29.109609603881836 -8.830312728881836 -1.062268853187561 0.7124786972999573 0 28
29.109941482543945 -8.972451210021973 -1.0637316703796387 0.7114893794059753 0 28
29.110273361206055 -9.114990234375 -1.0652170181274414 0.7104960680007935 0 28
29.110546112060547 -9.257939338684082 -1.0667301416397095 0.7094891667366028 0 28
29.11081886291504 -9.40126895904541 -1.068263053894043 0.7084684371948242 0 28
29.111053466796875 -9.54500961303711 -1.0698299407958984 0.7074724435806274 0 28
29.111249923706055 -9.689160346984863 -1.0714137554168701 0.706434428691864 0 28
29.111425399780273 -9.833740234375 -1.073024868965149 0.7054161429405212 0 28
45.98042678833008 -18.80573272705078 -1.7347702980041504 0.37773391604423523 0 3
45.40021514892578 -18.80535125732422 -1.716023564338684 0.3818591833114624 0 3
44.79357147216797 -18.788700103759766 -1.696267008781433 0.3859768211841583 0 3
44.28154373168945 -18.80672836303711 -1.6800278425216675 0.920187771320343 0 3
44.28138732910156 -19.04037094116211 -1.683229684829712 0.9184378385543823 0 3
44.28123092651367 -19.274883270263672 -1.6864746809005737 0.9166696667671204 0 3
44.30087661743164 -19.519023895263672 -1.6905207633972168 0.9148833155632019 0 3
44.30070114135742 -19.75550651550293 -1.6938585042953491 0.9130784869194031 0 3
44.30054473876953 -19.992910385131836 -1.6972459554672241 0.9112555980682373 0 3
44.30038833618164 -20.231279373168945 -1.700684905052185 0.9094146490097046 0 3
44.30021286010742 -20.47061538696289 -1.7041693925857544 0.9075555205345154 0 3
44.30005645751953 -20.710918426513672 -1.707700490951538 0.9056785702705383 0 3
44.29990005493164 -20.952255249023438 -1.7112841606140137 0.9037832021713257 0 3
44.29974365234375 -21.194608688354492 -1.7149163484573364 0.9018699526786804 0 3
44.29956817626953 -21.437978744506836 -1.718589186668396 0.8999388813972473 0 3
44.29941177368164 -21.682401657104492 -1.7223223447799683 0.8979898691177368 0 3
44.29925537109375 -21.927919387817383 -1.726104974746704 0.8960227966308594 0 3
30.65622901916504 -15.345390319824219 -1.1971681118011475 0.5391014218330383 0 20
30.429609298706055 -15.402148246765137 -1.1909892559051514 0.5418975353240967 0 20
30.288631439208984 -15.50096607208252 -1.188164472579956 0.7810198664665222 0 20
30.17498016357422 -15.61312484741211 -1.1864315271377563 0.7821632623672485 0 20
30.114686965942383 -15.752685546875 -1.186812400817871 0.8016800284385681 0 20
30.075096130371094 -15.90330982208252 -1.188035249710083 0.8008534908294678 0 20
30.096445083618164 -16.08687400817871 -1.1917057037353516 0.59535813331604 0 20
30.189315795898438 -16.31014633178711 -1.1982523202896118 0.2227877676486969 0 20
42.91880798339844 -23.4354190826416 -1.7076297998428345 0.8775219321250916 0 3
42.91863250732422 -23.6845703125 -1.711811900138855 0.8753783106803894 0 3
42.82601547241211 -23.88338851928711 -1.712351679801941 0.8732174634933472 0 3
42.82585906982422 -24.134471893310547 -1.7166318893432617 0.8710389733314514 0 3
42.82568359375 -24.386825561523438 -1.7209733724594116 0.8688431978225708 0 3
42.82552719116211 -24.64044952392578 -1.7253693342208862 0.8666301965713501 0 3
42.82535171508789 -24.895389556884766 -1.7298219203948975 0.864399790763855 0 3
42.82517623901367 -25.151639938354492 -1.7343275547027588 0.8621523976325989 0 3
42.82500076293945 -25.409236907958984 -1.738895058631897 0.8598877787590027 0 3
42.82482147216797 -25.668203353881836 -1.7435253858566284 0.8576059937477112 0 3
4.185664176940918 -2.663642406463623 -0.17325271666049957 0.6835657954216003 0 6
4.161464691162109 -2.6744041442871094 -0.17271225154399872 0.9241056442260742 0 6
4.146386623382568 -2.690927743911743 -0.17261351644992828 0.9992175102233887 0 6
4.138164043426514 -2.711923837661743 -0.17277343571186066 0.9181609153747559 0 6
4.139179706573486 -2.739062547683716 -0.17332443594932556 0.719556987285614 0 6
29.706815719604492 -20.23526382446289 -1.2551873922348022 0.2457498461008072 0 20
29.5801944732666 -20.342851638793945 -1.2536590099334717 0.03317175805568695 0 20
29.484472274780273 -20.471416473388672 -1.253458023071289 0.03317699581384659 0 20
29.444355010986328 -20.638906478881836 -1.2556605339050293 0.34399911761283875 0 20
29.435565948486328 -20.82927703857422 -1.2592315673828125 0.343021959066391 0 20
29.427656173706055 -21.0213565826416 -1.2628947496414185 0.7644219398498535 0 20
29.425859451293945 -21.219051361083984 -1.2668706178665161 0.7620234489440918 0 20
29.424081802368164 -21.417959213256836 -1.2708944082260132 0.7596104145050049 0 20
29.422245025634766 -21.618154525756836 -1.2749722003936768 0.7571823596954346 0 20
16.518047332763672 -12.713876724243164 -0.7279009222984314 0.5785348415374756 0 5
16.518808364868164 -13.070292472839355 -0.7355824708938599 0.5882523655891418 0 5
16.502382278442383 -13.420429229736328 -0.7428327202796936 0.7729769945144653 0 5
16.503847122192383 -13.792724609375 -0.7510899901390076 0.7644266486167908 0 5
16.504316329956055 -13.918681144714355 -0.7539193630218506 0.7615458965301514 0 5
16.505781173706055 -14.30240249633789 -0.7626816630363464 0.7528122663497925 0 5
16.506288528442383 -14.432304382324219 -0.7657097578048706 0.7498714327812195 0 5
16.507793426513672 -14.828222274780273 -0.774880051612854 0.7409586310386658 0 5
16.508319854736328 -14.962333679199219 -0.7780084013938904 0.7379581332206726 0 5
16.52421760559082 -15.111620903015137 -0.781940221786499 0.6382845640182495 0 5
30.06558609008789 -27.742597579956055 -1.4285894632339478 0.27672630548477173 0 20
16.51042938232422 -15.509931564331055 -0.7910522222518921 0.7258102297782898 0 5
16.510955810546875 -15.6497163772583 -0.7942748069763184 0.7227369546890259 0 5
16.511503219604492 -15.790702819824219 -0.7978925108909607 0.7196491956710815 0 5
20.182147979736328 -19.825029373168945 -0.9878758192062378 0.982894241809845 0 6
16.513671875 -16.36699104309082 -0.8119195103645325 0.7071563005447388 0 5
18.488222122192383 18.488222122192383 -1.0205473899841309 0.7070163488388062 0 3
18.653867721557617 18.488115310668945 -1.025145411491394 0.703857958316803 0 3
18.97669792175293 18.64093780517578 -1.0383076667785645 0.7124834656715393 0 3
18.976600646972656 18.475175857543945 -1.0337812900543213 0.7156030535697937 0 3
19.08023452758789 18.41093635559082 -1.0349292755126953 0.6942999958992004 0 3
19.25128936767578 18.410829544067383 -1.0397530794143677 0.69108647108078 0 3
19.42398452758789 18.410722732543945 -1.0446324348449707 0.6878588199615479 0 3
19.59827995300293 18.41060447692871 -1.0495774745941162 0.6846177577972412 0 3
33.54623031616211 31.2326602935791 -1.7890691757202148 0.03746752068400383 0 25
33.691036224365234 31.087987899780273 -1.7893728017807007 0.03746109828352928 0 25
33.83515548706055 30.942548751831055 -1.789675235748291 0.03745477646589279 0 25
33.97861099243164 30.79644012451172 -1.7899761199951172 0.0374484658241272 0 25
34.121463775634766 30.649677276611328 -1.7902758121490479 0.03744214400649071 0 25
34.263553619384766 30.502147674560547 -1.7905738353729248 0.03743595629930496 0 25
34.40494155883789 30.353872299194336 -1.7908703088760376 0.037429872900247574 0 25
34.545780181884766 30.205034255981445 -1.791165828704834 0.03742367401719093 0 25
34.68595504760742 30.0555419921875 -1.7914599180221558 0.03741748631000519 0 25
34.82550811767578 29.90540885925293 -1.791752576828003 0.03741128742694855 0 25
34.96416091918945 29.75444221496582 -1.7920434474945068 0.037405338138341904 0 25
35.10230255126953 29.602924346923828 -1.7923331260681152 0.037399254739284515 0 25
35.239646911621094 29.450674057006836 -1.7926212549209595 0.03739331290125847 0 25
35.376365661621094 29.297786712646484 -1.792907953262329 0.03738734871149063 0 25
35.512420654296875 29.144262313842773 -1.7931934595108032 0.03738139569759369 0 25
35.64781188964844 28.99012565612793 -1.7934774160385132 0.03737542778253555 0 25
35.78240203857422 28.83525276184082 -1.7937597036361694 0.03736960142850876 0 25
35.91634750366211 28.67976951599121 -1.7940406799316406 0.03736375644803047 0 25
36.04961013793945 28.523666381835938 -1.7943202257156372 0.03735791891813278 0 25
36.182167053222656 28.366952896118164 -1.7945982217788696 0.03735208883881569 0 25
36.31396484375 28.20952033996582 -1.794874668121338 0.03734637051820755 0 25
36.4450569152832 28.051483154296875 -1.7951496839523315 0.03734065964818001 0 25
36.57546615600586 27.892841339111328 -1.7954232692718506 0.037334948778152466 0 25
36.70521545410156 27.733598709106445 -1.795695185661316 0.03732921928167343 0 25
36.83414077758789 27.57366180419922 -1.7959656715393066 0.037323616445064545 0 25
36.96234130859375 27.413129806518555 -1.7962346076965332 0.03731802478432655 0 25
37.08976364135742 27.251922607421875 -1.796501874923706 0.03731253743171692 0 25
37.21646499633789 27.090116500854492 -1.7967675924301147 0.03730706498026848 0 25
37.34259796142578 26.927812576293945 -1.797032117843628 0.03730146586894989 0 25
37.467891693115234 26.764833450317383 -1.7972948551177979 0.037295982241630554 0 25
37.592247009277344 26.601112365722656 -1.797555685043335 0.03729073330760002 0 25
37.71611404418945 26.436981201171875 -1.7978155612945557 0.03728526085615158 0 25
37.83913803100586 26.27219581604004 -1.7980735301971436 0.0372798927128315 0 25
37.96160125732422 26.106924057006836 -1.798330307006836 0.03727440536022186 0 25
38.08294677734375 25.940818786621094 -1.7985848188400269 0.03726929426193237 0 25
38.20368957519531 25.77423858642578 -1.7988381385803223 0.037264056503772736 0 25
38.32373046875 25.607099533081055 -1.799089789390564 0.0372588150203228 0 25
38.442909240722656 25.439315795898438 -1.7993398904800415 0.03725368157029152 0 25
38.56134796142578 25.27099609375 -1.7995880842208862 0.03724856674671173 0 25
38.67902374267578 25.10211944580078 -1.799834966659546 0.03724345564842224 0 25
38.79601287841797 24.93270492553711 -1.8000801801681519 0.03723832219839096 0 25
38.91212844848633 24.762645721435547 -1.8003239631652832 0.03723330795764923 0 25
39.02748107910156 24.592060089111328 -1.8005657196044922 0.03722831979393959 0 25
39.14208984375 24.420927047729492 -1.8008060455322266 0.037223316729068756 0 25
39.25595474243164 24.249277114868164 -1.8010449409484863 0.03721831738948822 0 25
39.36882781982422 24.076932907104492 -1.8012815713882446 0.03721354156732559 0 25
39.48107147216797 23.904159545898438 -1.8015170097351074 0.03720865398645401 0 25
39.59239959716797 23.730770111083984 -1.8017504215240479 0.03720390051603317 0 25
39.70298767089844 23.556884765625 -1.8019824028015137 0.03719912841916084 0 25
39.812950134277344 23.38254737854004 -1.8022129535675049 0.03719424828886986 0 25
39.921875 23.207529067993164 -1.8024413585662842 0.03718961030244827 0 25
40.030155181884766 23.0320987701416 -1.8026684522628784 0.03718484938144684 0 25
40.1374397277832 22.85602569580078 -1.8028932809829712 0.03718031570315361 0 25
40.244178771972656 22.67959976196289 -1.8031171560287476 0.03717554733157158 0 25
40.34990310668945 22.502519607543945 -1.803338885307312 0.03717101365327835 0 25
40.45470428466797 22.324872970581055 -1.8035588264465332 0.03716661408543587 0 25
40.55902099609375 22.146875381469727 -1.8037774562835693 0.03716196492314339 0 25
40.66226577758789 21.968280792236328 -1.8039939403533936 0.03715755045413971 0 25
40.76484298706055 21.78926658630371 -1.8042091131210327 0.037153035402297974 0 25
40.86638641357422 21.609628677368164 -1.8044219017028809 0.037148747593164444 0 25
40.96730422973633 21.42957878112793 -1.804633617401123 0.03714431822299957 0 25
41.0671272277832 21.248945236206055 -1.8048428297042847 0.03714016079902649 0 25
41.16642379760742 21.067968368530273 -1.8050510883331299 0.03713575750589371 0 25
41.2646484375 20.88640594482422 -1.805256962776184 0.037131596356630325 0 25
41.36222457885742 20.70443344116211 -1.8054615259170532 0.0371273048222065 0 25
41.458866119384766 20.521963119506836 -1.8056641817092896 0.03712313249707222 0 25
41.554569244384766 20.33895492553711 -1.8058648109436035 0.037119075655937195 0 25
41.649452209472656 20.155517578125 -1.8060637712478638 0.037115033715963364 0 25
41.74367141723633 19.971708297729492 -1.806261420249939 0.037110861390829086 0 25
41.836814880371094 19.787322998046875 -1.8064565658569336 0.03710692748427391 0 25
41.929161071777344 19.60249900817871 -1.806650161743164 0.03710298612713814 0 25
42.02080154418945 19.417314529418945 -1.80684232711792 0.03709894418716431 0 25
42.11148452758789 19.23164939880371 -1.8070324659347534 0.03709501400589943 0 25
42.201229095458984 19.045488357543945 -1.8072205781936646 0.037091195583343506 0 25
42.29013442993164 18.858924865722656 -1.807407021522522 0.037087392061948776 0 25
42.37824249267578 18.671934127807617 -1.8075916767120361 0.037083569914102554 0 25
42.46550750732422 18.484540939331055 -1.8077746629714966 0.03707975894212723 0 25
15.932479858398438 4.370869159698486 -0.6448685526847839 0.7010843753814697 2878 14
15.880000114440918 4.280361175537109 -0.6419674754142761 0.7042564749717712 2878 14
15.700624465942383 4.156943321228027 -0.6339556574821472 0.4301832616329193 2878 14
15.633398056030273 4.064579963684082 -0.6305025219917297 0.432538777589798 2878 14
15.56689453125 3.97320294380188 -0.6271001100540161 0.4348865747451782 2878 14
15.501073837280273 3.882822275161743 -0.6237452030181885 0.4372258484363556 2878 14
15.435956954956055 3.7933788299560547 -0.6204369068145752 0.43955740332603455 2878 14
15.408905982971191 3.7139060497283936 -0.6186768412590027 0.5780985951423645 2878 14
15.388456344604492 3.6363866329193115 -0.61719810962677 0.5794841051101685 2878 14
15.36806583404541 3.5592381954193115 -0.6157371401786804 0.5808585286140442 2878 14
15.347773551940918 3.4824512004852295 -0.6142941117286682 0.5822221040725708 2878 14
15.334394454956055 3.40752911567688 -0.6131458282470703 0.6225084662437439 2878 14
15.325702667236328 3.3339061737060547 -0.6121962070465088 0.623471736907959 2878 14
15.317049980163574 3.260507822036743 -0.6112657785415649 0.624423623085022 2878 14
15.308417320251465 3.187324047088623 -0.6103453636169434 0.6253634691238403 2878 14
15.299999237060547 3.1144042015075684 -0.6094493865966797 0.6263456344604492 2878 14
15.316093444824219 3.046572208404541 -0.6095448136329651 0.6949895024299622 2878 14
15.333046913146973 2.9788670539855957 -0.6096833944320679 0.6948311924934387 2878 14
15.349980354309082 2.9111328125 -0.6098337173461914 0.6946597695350647 2878 14
15.366893768310547 2.8433494567871094 -0.6099963784217834 0.6944751143455505 2878 14
15.383828163146973 2.7755467891693115 -0.6101710200309753 0.6942771673202515 2878 14
15.40072250366211 2.707695245742798 -0.6103560328483582 0.6940659880638123 2878 14
15.419706344604492 2.640146493911743 -0.6106335520744324 0.6814243793487549 2878 14
15.521796226501465 2.586376905441284 -0.614213228225708 0.3496018648147583 2878 14
15.695741653442383 2.5434277057647705 -0.6206423044204712 0.34598100185394287 2878 14
15.49306583404541 2.439687490463257 -0.612190306186676 0.9977166056632996 2878 14
15.5000581741333 2.3699607849121094 -0.6120442152023315 0.9979567527770996 2878 14
15.548495292663574 2.306406259536743 -0.6135401129722595 0.2152746617794037 2878 14
16.43390655517578 2.362841844558716 -0.6480615735054016 0.31857624650001526 2878 14
16.63654327392578 2.3162498474121094 -0.6556381583213806 0.31489476561546326 2878 14
16.843963623046875 2.2685546875 -0.6634039282798767 0.31120726466178894 2878 14
17.05630874633789 2.2197070121765137 -0.6713733673095703 0.3075142800807953 2878 14
17.276893615722656 2.170048713684082 -0.6796630620956421 0.30513322353363037 2878 14
17.490800857543945 2.117685556411743 -0.6877033114433289 0.3015671372413635 2878 14
44.31638717651367 5.164999961853027 -1.7415026426315308 0.9925262928009033 0 3
44.31624984741211 4.964638710021973 -1.7406089305877686 0.9930354356765747 0 3
44.316131591796875 4.764482498168945 -1.7397598028182983 0.9935247898101807 0 3
44.31599426269531 4.564511775970459 -1.73893404006958 0.9939944744110107 0 3
44.315879821777344 4.364736080169678 -1.738146185874939 0.9944442510604858 0 3
44.31576156616211 4.165136814117432 -1.7373974323272705 0.9948742985725403 0 3
44.31562423706055 3.965693235397339 -1.7366764545440674 0.9952844381332397 0 3
44.31550598144531 3.766425609588623 -1.7360053062438965 0.9956748485565186 0 3
44.31536865234375 3.5672948360443115 -1.735351800918579 0.9960454106330872 0 3
26.33138656616211 2.001406192779541 -1.0307565927505493 0.8256558775901794 0 28
26.28191375732422 1.8797167539596558 -1.028483510017395 0.8231348395347595 0 28
42.82326126098633 2.8707714080810547 -1.6752694845199585 0.9970380067825317 0 3
42.93540954589844 2.685868978500366 -1.6791677474975586 0.9973291754722595 0 3
42.935272216796875 2.4935741424560547 -1.678709864616394 0.9976005554199219 0 3
42.93515396118164 2.3013768196105957 -1.678288221359253 0.9978519678115845 0 3
42.43292999267578 2.084599494934082 -1.658276081085205 0.9980834722518921 0 3
42.43281173706055 1.894814372062683 -1.6579227447509766 0.9982951879501343 0 3
27.022069931030273 1.085849642753601 -1.0556056499481201 0.8384067416191101 0 28
26.854217529296875 0.9591015577316284 -1.0488675832748413 0.5493897199630737 0 28
42.43244171142578 1.3259179592132568 -1.657076120376587 0.9988110661506653 0 3
26.959510803222656 0.7220019102096558 -1.052686333656311 0.6271968483924866 0 28
27.038436889648438 0.6033886671066284 -1.055654764175415 0.6330889463424683 0 28
27.11585807800293 0.4840624928474426 -1.0585782527923584 0.6350259184837341 0 28
27.19218635559082 0.3640527129173279 -1.0614871978759766 0.636286199092865 0 28
27.26722526550293 0.24335937201976776 -1.0643631219863892 0.6373946070671082 0 28
27.34048843383789 0.1220117136836052 -1.0671931505203247 0.6398144960403442 0 28
27.411483764648438 -0.0 -1.069954514503479 0.6537789106369019 0 28
27.478769302368164 -0.12261718511581421 -1.0725903511047363 0.6521719098091125 0 28
27.54636573791504 -0.24585936963558197 -1.0752617120742798 0.650416910648346 0 28
27.6142578125 -0.36970701813697815 -1.077962875366211 0.6487851738929749 0 28
27.677791595458984 -0.49409177899360657 -1.0805180072784424 0.6589226126670837 0 28
27.740018844604492 -0.6190527081489563 -1.0830447673797607 0.6637967824935913 0 28
13.654765129089355 -0.3656933605670929 -0.5331762433052063 0.3287702798843384 2879 13
13.616328239440918 -0.4254785180091858 -0.5317459106445312 0.3105776607990265 2879 13
13.571308135986328 -0.48469725251197815 -0.5300659537315369 0.5954176783561707 2879 13
13.577597618103027 -0.545605480670929 -0.530401349067688 0.538442075252533 2879 13
28.038339614868164 -1.252040982246399 -1.0955123901367188 0.8907756209373474 0 28
13.569647789001465 -0.6666308641433716 -0.5303018689155579 0.5222267508506775 2879 13
28.154375076293945 -1.5091015100479126 -1.100526213645935 0.8881039619445801 0 28
28.2125186920166 -1.638515591621399 -1.103071928024292 0.8867586255073547 0 28
28.26984405517578 -1.7684569358825684 -1.105615258216858 0.8898375630378723 0 28
28.326560974121094 -1.8989452123641968 -1.1081534624099731 0.8877992033958435 0 28
28.383514404296875 -2.030029296875 -1.1107239723205566 0.8857434391975403 0 28
28.439002990722656 -2.1616015434265137 -1.1132582426071167 0.8942661285400391 0 28
28.492753982543945 -2.2936131954193115 -1.115755558013916 0.8922669887542725 0 28
28.543357849121094 -2.4259276390075684 -1.1181474924087524 0.8998408317565918 0 28
28.5904483795166 -2.5584959983825684 -1.1204317808151245 0.9153450727462769 0 28
28.635019302368164 -2.6913280487060547 -1.1226332187652588 0.9135468006134033 0 28
28.679744720458984 -2.82470703125 -1.1248716115951538 0.9117302298545837 0 28
28.720741271972656 -2.9582128524780273 -1.126987338066101 0.9272938966751099 0 28
28.757402420043945 -3.091738224029541 -1.128957986831665 0.9340821504592896 0 28
28.79085922241211 -3.2253711223602295 -1.1308233737945557 0.943596363067627 0 28
28.820234298706055 -3.3589353561401367 -1.13255774974823 0.9479404091835022 0 28
28.846914291381836 -3.4925975799560547 -1.1342065334320068 0.9525846242904663 0 28
28.869413375854492 -3.626113176345825 -1.1357133388519287 0.9620339870452881 0 28
28.88945198059082 -3.7596678733825684 -1.1371511220932007 0.9608176946640015 0 28
28.909568786621094 -3.893544912338257 -1.1386137008666992 0.9595823287963867 0 28
28.930213928222656 -4.02786111831665 -1.1401251554489136 0.839977502822876 0 28
28.94693374633789 -4.161943435668945 -1.1415040493011475 0.846998929977417 0 28
28.962947845458984 -4.296259880065918 -1.1428828239440918 0.8497349619865417 0 28
28.976816177368164 -4.430556774139404 -1.144195795059204 0.8487765789031982 0 28
28.989959716796875 -4.565048694610596 -1.1455076932907104 0.8516267538070679 0 28
29.00142478942871 -4.699570178985596 -1.1467763185501099 0.8506137728691101 0 28
29.012908935546875 -4.834394454956055 -1.1480730772018433 0.8496533036231995 0 28
29.024471282958984 -4.969541072845459 -1.1493988037109375 0.8486756086349487 0 28
29.034902572631836 -5.104794979095459 -1.1506986618041992 0.8499693870544434 0 28
29.044822692871094 -5.24026346206665 -1.1520100831985474 0.8496217727661133 0 28
29.054471969604492 -5.375996112823486 -1.1533328294754028 0.8489000797271729 0 28
29.063066482543945 -5.511826038360596 -1.154640793800354 0.8512625098228455 0 28
29.070077896118164 -5.647675514221191 -1.155906319618225 0.852777898311615 0 28
29.07470703125 -5.78331995010376 -1.1571073532104492 0.8562738299369812 0 28
29.077518463134766 -5.918896198272705 -1.1582573652267456 0.8554221987724304 0 28
29.08036994934082 -6.054746150970459 -1.1594359874725342 0.854529082775116 0 28
29.083105087280273 -6.190859317779541 -1.1606342792510986 0.8572583794593811 0 28
29.083377838134766 -6.326708793640137 -1.1617612838745117 0.8564251065254211 0 28
29.083261489868164 -6.462743759155273 -1.1628944873809814 0.8567463159561157 0 28
29.08267593383789 -6.598945140838623 -1.1640398502349854 0.8559003472328186 0 28
29.082069396972656 -6.735400199890137 -1.1652077436447144 0.8551244139671326 0 28
18.03058624267578 -4.2607421875 -0.7231304049491882 0.9889611601829529 0 6
29.080820083618164 -7.00915002822876 -1.1676136255264282 0.8533662557601929 0 28
29.08072280883789 -7.146591663360596 -1.1688801050186157 0.8511041402816772 0 28
29.08134651184082 -7.284511566162109 -1.170199990272522 0.848918080329895 0 28
29.082754135131836 -7.422948837280273 -1.1715770959854126 0.846750795841217 0 28
29.084861755371094 -7.56188440322876 -1.1730111837387085 0.8452946543693542 0 28
29.087127685546875 -7.70120096206665 -1.1744757890701294 0.8440305590629578 0 28
29.089433670043945 -7.840888500213623 -1.1759731769561768 0.8428451418876648 0 28
29.091815948486328 -7.98095703125 -1.1774954795837402 0.8417539000511169 0 28
29.09421730041504 -8.121386528015137 -1.1790473461151123 0.8407758474349976 0 28
29.09663963317871 -8.26220703125 -1.1806305646896362 0.8396501541137695 0 28
29.09908103942871 -8.40340805053711 -1.1822410821914673 0.8384177684783936 0 28
29.101600646972656 -8.54500961303711 -1.1838771104812622 0.8371155858039856 0 28
29.1041202545166 -8.68701171875 -1.1855441331863403 0.8359135985374451 0 28
29.106718063354492 -8.829423904418945 -1.1872429847717285 0.8347182273864746 0 28
29.109296798706055 -8.97225570678711 -1.1889699697494507 0.8334936499595642 0 28
29.111913681030273 -9.115517616271973 -1.1907289028167725 0.8322641253471375 0 28
29.11454963684082 -9.259199142456055 -1.1925156116485596 0.8310178518295288 0 28
29.1171875 -9.403329849243164 -1.1943278312683105 0.8297543525695801 0 28
29.119863510131836 -9.547890663146973 -1.196175217628479 0.8285194635391235 0 28
29.12253761291504 -9.692910194396973 -1.198050856590271 0.8272346258163452 0 28
19.869707107543945 -6.7119140625 -0.8186267018318176 0.4480624794960022 0 5
19.894453048706055 -6.819325923919678 -0.8208935260772705 0.44682618975639343 0 5
19.919315338134766 -6.927333831787109 -0.8231877088546753 0.44558143615722656 0 5
19.944276809692383 -7.035937309265137 -0.8255088329315186 0.44432854652404785 0 5
19.97083854675293 -7.145673751831055 -0.8279181718826294 0.8220016360282898 0 5
20.00064468383789 -7.257187366485596 -0.8304868936538696 0.8194573521614075 0 5
20.030643463134766 -7.369384765625 -0.8330919742584229 0.8168972730636597 0 5
43.671913146972656 -16.288768768310547 -1.8193583488464355 0.3486051559448242 0 2
20.074453353881836 -7.589589595794678 -0.8376961350440979 0.6222018003463745 0 5
20.060272216796875 -7.686708927154541 -0.8385266065597534 0.9333888292312622 0 5
20.06019401550293 -7.789521217346191 -0.8399699926376343 0.9317865967750549 0 5
20.060136795043945 -7.89269495010376 -0.8414322733879089 0.9301658272743225 0 5
20.06005859375 -7.996220588684082 -0.8429203033447266 0.928526759147644 0 5
20.059999465942383 -8.100116729736328 -0.8444244265556335 0.9268689751625061 0 5
20.059921264648438 -8.204394340515137 -0.8459554314613342 0.9251927733421326 0 5
20.05986213684082 -8.309042930603027 -0.847507894039154 0.923498272895813 0 5
20.06185531616211 -8.414960861206055 -0.8491721749305725 0.42878758907318115 0 5
20.06476593017578 -8.521659851074219 -0.8508944511413574 0.42791885137557983 0 5
20.06771469116211 -8.628828048706055 -0.8526446223258972 0.427040696144104 0 5
20.06999969482422 -8.736132621765137 -0.854389488697052 0.45202893018722534 0 5
20.061092376708984 -8.83895492553711 -0.8556821942329407 0.28754565119743347 0 5
20.066991806030273 -8.948700904846191 -0.8576273322105408 0.6287356615066528 0 5
42.30755615234375 -19.09346580505371 -1.8117762804031372 0.037092167884111404 0 2
42.21746063232422 -19.280029296875 -1.811586856842041 0.03709609434008598 0 2
42.12681579589844 -19.466289520263672 -1.8113964796066284 0.03709978610277176 0 2
42.03493881225586 -19.65194320678711 -1.8112034797668457 0.03710383549332619 0 2
41.9423828125 -19.83722686767578 -1.8110089302062988 0.037107765674591064 0 2
41.848846435546875 -20.02202033996582 -1.8108123540878296 0.037111829966306686 0 2
41.75455093383789 -20.206356048583984 -1.8106142282485962 0.03711586445569992 0 2
41.659141540527344 -20.390127182006836 -1.8104139566421509 0.03712015971541405 0 2
41.563201904296875 -20.573593139648438 -1.8102123737335205 0.03712420538067818 0 2
41.46646499633789 -20.756591796875 -1.8100091218948364 0.03712824732065201 0 2
30.55517578125 -15.465712547302246 -1.3367327451705933 0.5395889282226562 0 20
16.485410690307617 -8.436884880065918 -0.7228372097015381 0.43783125281333923 0 5
30.260995864868164 -15.657626152038574 -1.3299225568771362 0.7798214554786682 0 20
16.483808517456055 -8.622568130493164 -0.726116418838501 0.8836929202079773 0 5
30.158769607543945 -15.947558403015137 -1.331634283065796 0.7985103130340576 0 20
30.209178924560547 -16.147119522094727 -1.3370254039764404 0.5930466055870056 0 20
40.76458740234375 -22.0235538482666 -1.8085345029830933 0.03715863078832626 0 2
40.66107177734375 -22.202606201171875 -1.8083170652389526 0.03716304525732994 0 2
