ply
format ascii 1.0
element vertex 610
property float32 x
property float32 y
property float32 z
property float32 CosAngle
property uint32 ObjIdx
property uint32 ObjTag
end_header
27.79167938232422 -14.476210594177246 4.817549705505371 0.8579267859458923 0 3
27.522733688354492 -14.65169906616211 4.793532371520996 0.8622258901596069 0 3
27.25641632080078 -14.82542896270752 4.770130634307861 0.8664549589157104 0 3
26.992685317993164 -14.99746036529541 4.747344970703125 0.8706141710281372 0 3
26.731435775756836 -15.167929649353027 4.725152492523193 0.8747029304504395 0 3
26.472597122192383 -15.336796760559082 4.70355224609375 0.8787208199501038 0 3
26.216142654418945 -15.504179000854492 4.682520866394043 0.8826673030853271 0 3
26.073017120361328 -15.737089157104492 4.681996822357178 0.43123430013656616 0 3
26.442646026611328 -16.28577995300293 4.774434566497803 0.4121738374233246 0 3
26.717782974243164 -16.78792953491211 4.851126670837402 0.447886198759079 0 3
27.159833908081055 -17.407655715942383 4.959556579589844 0.4070979654788971 0 3
27.55140495300293 -18.009490966796875 5.060366153717041 0.39898788928985596 0 3
27.658193588256836 -18.43570327758789 5.110169410705566 0.9048363566398621 0 3
28.215576171875 -19.175350189208984 5.244751930236816 0.3826717138290405 0 3
28.656728744506836 -19.853397369384766 5.35966157913208 0.3744674324989319 0 3
28.709989547729492 -20.27410125732422 5.403445720672607 0.27176573872566223 0 3
28.87564468383789 -20.781951904296875 5.469509124755859 0.39590686559677124 0 3
29.24427604675293 -21.4483585357666 5.575572490692139 0.3883727788925171 0 3
29.62708854675293 -22.140859603881836 5.686226844787598 0.38081094622612 0 3
20.869491577148438 20.869550704956055 4.288631439208984 0.9713086485862732 0 3
21.017499923706055 20.643632888793945 4.280801773071289 0.973085343837738 0 3
21.1650390625 20.418514251708984 4.273343563079834 0.9747840762138367 0 3
21.31201171875 20.194120407104492 4.266247272491455 0.9764044880867004 0 3
12.807597160339355 11.9194917678833 2.542314291000366 0.9779481291770935 0 3
21.604589462280273 19.74751853942871 4.253158092498779 0.9794095754623413 0 3
14.067597389221191 12.628515243530273 2.746973752975464 0.9807957410812378 0 3
14.161542892456055 12.485136032104492 2.7433226108551025 0.9821015000343323 0 3
14.255253791809082 12.342108726501465 2.7398998737335205 0.9833284020423889 0 3
14.348711013793945 12.199394226074219 2.7367053031921387 0.9844762682914734 0 3
14.441933631896973 12.056991577148438 2.733738899230957 0.9855449199676514 0 3
14.534979820251465 11.914921760559082 2.7309961318969727 0.986534595489502 0 3
14.62783145904541 11.773124694824219 2.7284765243530273 0.9874448776245117 0 3
14.72054672241211 11.631601333618164 2.726184129714966 0.9882757663726807 0 3
14.8130464553833 11.490253448486328 2.724111318588257 0.9890274405479431 0 3
14.905467987060547 11.34912109375 2.722261905670166 0.9896995425224304 0 3
14.997753143310547 11.208125114440918 2.7206335067749023 0.9902922511100769 0 3
15.089941024780273 11.067304611206055 2.7192234992980957 0.9908052086830139 0 3
15.182050704956055 10.92665958404541 2.718034505844116 0.9912386536598206 0 3
15.274062156677246 10.786093711853027 2.717066526412964 0.9915924072265625 0 3
15.366015434265137 10.645625114440918 2.7163145542144775 0.9918667078018188 0 3
15.45790958404541 10.505194664001465 2.7157835960388184 0.9920610785484314 0 3
15.549765586853027 10.364843368530273 2.715468645095825 0.992175817489624 0 3
15.6416015625 10.224492073059082 2.715372323989868 0.9922109246253967 0 3
15.733515739440918 10.08414077758789 2.715494394302368 0.9921662211418152 0 3
14.609315872192383 9.1796875 2.507150888442993 0.8443676829338074 0 3
15.972440719604492 9.837324142456055 2.7258191108703613 0.991837739944458 0 3
16.06474494934082 9.696367263793945 2.7266016006469727 0.9915539622306824 0 3
16.15703010559082 9.555273056030273 2.7275989055633545 0.9911906719207764 0 3
16.249393463134766 9.4140625 2.728818416595459 0.9907475113868713 0 3
16.341894149780273 9.272734642028809 2.730259895324707 0.9902247786521912 0 3
16.43441390991211 9.13124942779541 2.731921434402466 0.9896226525306702 0 3
16.527109146118164 8.989569664001465 2.733804941177368 0.9889407753944397 0 3
16.61992073059082 8.847617149353027 2.7359118461608887 0.988179624080658 0 3
16.678436279296875 8.6875 2.73258900642395 0.987339198589325 0 3
16.771366119384766 8.545429229736328 2.7351367473602295 0.9864193797111511 0 3
16.86443328857422 8.403046607971191 2.7379088401794434 0.9854202270507812 0 3
16.957733154296875 8.260390281677246 2.740910530090332 0.9843418002128601 0 3
17.05126953125 8.117402076721191 2.744135618209839 0.9831843972206116 0 3
17.14497947692871 7.974023342132568 2.7475903034210205 0.9819478988647461 0 3
17.238983154296875 7.830331802368164 2.751276731491089 0.9806327819824219 0 3
17.333202362060547 7.686210632324219 2.755195140838623 0.979238748550415 0 3
17.403339385986328 7.531152248382568 2.7554845809936523 0.9777659177780151 0 3
17.49800682067871 7.386327743530273 2.759866952896118 0.9762147068977356 0 3
16.246660232543945 6.686874866485596 2.552927255630493 0.7435280084609985 0 3
17.688241958618164 7.095312118530273 2.769334554672241 0.9728769659996033 0 3
17.783885955810547 6.948984146118164 2.774426221847534 0.9710907936096191 0 3
17.879863739013672 6.802187442779541 2.7797632217407227 0.969226598739624 0 3
17.97620964050293 6.654765605926514 2.7853429317474365 0.967284619808197 0 3
18.072948455810547 6.506718635559082 2.7911717891693115 0.9652649760246277 0 3
18.17009735107422 6.35802698135376 2.797248363494873 0.963167667388916 0 3
18.26771354675293 6.208710670471191 2.8035802841186523 0.9609929323196411 0 3
16.97785186767578 5.600820064544678 2.5978050231933594 0.8882268071174622 0 3
17.062910079956055 5.459570407867432 2.6032214164733887 0.8863788843154907 0 3
17.14826202392578 5.31765604019165 2.608851194381714 0.8844656348228455 0 3
17.23384666442871 5.17507791519165 2.6146984100341797 0.882487416267395 0 3
17.319705963134766 5.031836032867432 2.6207666397094727 0.8804440498352051 0 3
17.407148361206055 4.888242244720459 2.6272571086883545 0.9463304281234741 0 3
17.500469207763672 4.745409965515137 2.634803295135498 0.9436192512512207 0 3
17.594297409057617 4.601718425750732 2.6426098346710205 0.9408324360847473 0 3
17.688730239868164 4.457187175750732 2.6506712436676025 0.9379702210426331 0 3
17.783750534057617 4.311718463897705 2.6590025424957275 0.9350325465202332 0 3
17.879297256469727 4.165390491485596 2.6675963401794434 0.9320194721221924 0 3
17.975526809692383 4.018007755279541 2.676464796066284 0.9289346933364868 0 3
23.181171417236328 4.963554382324219 3.4447789192199707 0.3530007600784302 0 3
22.693300247192383 4.646523475646973 3.3659520149230957 0.36126765608787537 0 3
22.227285385131836 4.343574047088623 3.290916681289673 0.36950552463531494 0 3
21.78154182434082 4.053866863250732 3.21940541267395 0.3777129352092743 0 3
21.35482406616211 3.7764647006988525 3.151186466217041 0.38589006662368774 0 3
20.945703506469727 3.510507822036743 3.0860486030578613 0.3940352499485016 0 3
20.553163528442383 3.2553515434265137 3.0237927436828613 0.4021485149860382 0 3
20.176172256469727 3.0102343559265137 2.964223623275757 0.41022926568984985 0 3
19.813690185546875 2.774648427963257 2.907198429107666 0.4182761609554291 0 3
19.464862823486328 2.5478124618530273 2.8525476455688477 0.42628979682922363 0 3
19.128963470458984 2.3293750286102295 2.8001415729522705 0.43426841497421265 0 3
18.80513572692871 2.118828058242798 2.7498435974121094 0.4422118365764618 0 3
18.492694854736328 1.9157030582427979 2.7015342712402344 0.4501197040081024 0 3
18.19105339050293 1.719570279121399 2.655107259750366 0.4579903781414032 0 3
17.899648666381836 1.5300780534744263 2.6104564666748047 0.46582356095314026 0 3
17.811561584472656 1.3616015911102295 2.5957298278808594 0.8695687651634216 0 3
17.911991119384766 1.2077343463897705 2.6086790561676025 0.8652512431144714 0 3
18.013456344604492 1.0522265434265137 2.621976375579834 0.8608643412590027 0 3
18.115917205810547 0.8951171636581421 2.6356163024902344 0.8564081788063049 0 3
18.219511032104492 0.7363671660423279 2.6496167182922363 0.8518829941749573 0 3
18.324199676513672 0.5759179592132568 2.663980722427368 0.8472898602485657 0 3
18.42997932434082 0.4136718511581421 2.6787168979644775 0.8426284193992615 0 3
18.537031173706055 0.24960936605930328 2.693837881088257 0.8378994464874268 0 3
18.645254135131836 0.08369140326976776 2.7093467712402344 0.833102822303772 0 3
18.75472640991211 -0.08414062112569809 2.725252628326416 0.8282400369644165 0 3
18.865488052368164 -0.2540234327316284 2.7415783405303955 0.8233100771903992 0 3
18.977596282958984 -0.4259375035762787 2.758307933807373 0.8183141350746155 0 3
19.091093063354492 -0.5999413728713989 2.775474786758423 0.8132530450820923 0 3
19.206035614013672 -0.7761328220367432 2.793083429336548 0.8081260323524475 0 3
19.32242202758789 -0.9546484351158142 2.811145067214966 0.802934467792511 0 3
19.440332412719727 -1.1354687213897705 2.829667806625366 0.7976782321929932 0 3
19.559823989868164 -1.318750023841858 2.848665714263916 0.7923579812049866 0 3
19.680898666381836 -1.5044726133346558 2.8681530952453613 0.7869746088981628 0 3
19.80367088317871 -1.6927733421325684 2.888145685195923 0.7815274596214294 0 3
19.92818260192871 -1.8837108612060547 2.9086499214172363 0.7760175466537476 0 3
20.054471969604492 -2.077461004257202 2.9296886920928955 0.7704454660415649 0 3
20.182598114013672 -2.273984432220459 2.951268196105957 0.7648120522499084 0 3
20.31265640258789 -2.4734764099121094 2.973409414291382 0.7591162919998169 0 3
20.44464874267578 -2.676015615463257 2.9961302280426025 0.7533600926399231 0 3
20.5787296295166 -2.8816211223602295 3.019446849822998 0.7475428581237793 0 3
20.71484375 -3.0905468463897705 3.0433690547943115 0.7416664958000183 0 3
20.85320281982422 -3.302851438522339 3.067922353744507 0.7357298731803894 0 3
20.9937686920166 -3.5185351371765137 3.093126058578491 0.7297350764274597 0 3
21.13667869567871 -3.73785138130188 3.119004964828491 0.7236810326576233 0 3
21.00370979309082 -3.9090232849121094 3.1044273376464844 0.6805168390274048 0 20
20.947988510131836 -4.093554496765137 3.1015050411224365 0.7113990187644958 0 20
21.09503936767578 -4.319179534912109 3.128892660140991 0.705172598361969 0 20
21.244707107543945 -4.548906326293945 3.157022714614868 0.6988893151283264 0 20
21.39712905883789 -4.782793045043945 3.1859190464019775 0.692549467086792 0 20
22.048124313354492 -5.136562347412109 3.289565324783325 0.6861557960510254 0 3
21.956815719604492 -5.323476314544678 3.2829480171203613 0.7179742455482483 0 20
21.871639251708984 -5.511132717132568 3.2774877548217773 0.6732009649276733 0 20
22.03595733642578 -5.763398170471191 3.309730052947998 0.6666423082351685 0 20
22.20357322692871 -6.020663738250732 3.3428869247436523 0.6600301861763 0 20
22.374589920043945 -6.283144474029541 3.376990795135498 0.6533651947975159 0 20
23.067811965942383 -6.70177698135376 3.4905552864074707 0.646647572517395 0 3
25.652772903442383 -7.703164100646973 3.8920092582702637 0.7537770867347717 0 3
25.79097557067871 -7.997734069824219 3.9237120151519775 0.6330575346946716 0 3
26.000370025634766 -8.319218635559082 3.966763734817505 0.6261861324310303 0 3
26.214433670043945 -8.64785099029541 4.011104583740234 0.6192646622657776 0 3
26.43328094482422 -8.983905792236328 4.056773662567139 0.6122936010360718 0 3
26.809276580810547 -9.38101577758789 4.127241134643555 0.3924161195755005 0 3
31.526630401611328 -11.350273132324219 4.868948936462402 0.5982052683830261 0 3
31.879804611206055 -11.801718711853027 4.939647197723389 0.7918161749839783 0 3
31.563533782958984 -12.007890701293945 4.90714693069458 0.7970600128173828 0 3
31.25142478942871 -12.21132755279541 4.87547492980957 0.8022391200065613 0 3
30.943260192871094 -12.41226577758789 4.844587326049805 0.8073537349700928 0 3
30.6390323638916 -12.610624313354492 4.814477443695068 0.8124023675918579 0 3
30.338504791259766 -12.806562423706055 4.785128116607666 0.8173854351043701 0 3
30.0416202545166 -13.00015640258789 4.756514549255371 0.8223024010658264 0 3
29.748281478881836 -13.1914644241333 4.72862434387207 0.827152669429779 0 3
29.458290100097656 -13.380546569824219 4.701434135437012 0.8319364786148071 0 3
29.171640396118164 -13.567500114440918 4.674935340881348 0.8366526365280151 0 3
28.88814353942871 -13.752421379089355 4.649097919464111 0.841300904750824 0 3
28.607810974121094 -13.935312271118164 4.623927116394043 0.8458813428878784 0 3
28.330467224121094 -14.116190910339355 4.599393367767334 0.8503933548927307 0 3
28.056034088134766 -14.295233726501465 4.57548713684082 0.8548362851142883 0 3
27.784433364868164 -14.472460746765137 4.552196979522705 0.8592100739479065 0 3
27.51558494567871 -14.64785099029541 4.529508113861084 0.863514244556427 0 3
27.24933624267578 -14.821600914001465 4.507403373718262 0.8677487969398499 0 3
26.9857120513916 -14.99355411529541 4.485875129699707 0.8719130158424377 0 3
26.724578857421875 -15.164003372192383 4.464907169342041 0.8760067820549011 0 3
26.465829849243164 -15.332890510559082 4.44450044631958 0.8800296783447266 0 3
26.20947265625 -15.500214576721191 4.424631118774414 0.8839812278747559 0 3
26.082801818847656 -15.74300765991211 4.426926136016846 0.43160468339920044 0 3
27.014442443847656 -16.637968063354492 4.610207557678223 0.42358094453811646 0 3
27.42209815979004 -17.23042869567871 4.705987453460693 0.4452507197856903 0 3
27.47494125366211 -17.609588623046875 4.741988182067871 0.1602146327495575 0 3
27.522987365722656 -17.99089813232422 4.777960300445557 0.43034201860427856 0 3
27.84537124633789 -18.56050682067871 4.86265230178833 0.4228472113609314 0 3
28.39637565612793 -19.298124313354492 4.988929271697998 0.3829821050167084 0 3
28.840633392333984 -19.98080062866211 5.098282337188721 0.3747676908969879 0 3
29.1304874420166 -20.571073532104492 5.181956768035889 0.36652320623397827 0 3
29.162879943847656 -20.988691329956055 5.221011638641357 0.39254534244537354 0 3
29.707128524780273 -21.787811279296875 5.353254318237305 0.2595946490764618 0 3
29.89519500732422 -22.341211318969727 5.423065185546875 0.37786585092544556 0 3
30.30231285095215 -23.07224464416504 5.534261226654053 0.3702734410762787 0 3
20.872968673706055 20.873046875 4.041096210479736 0.9722777605056763 0 3
21.02099609375 20.647050857543945 4.033714294433594 0.974056601524353 0 3
21.168535232543945 20.421913146972656 4.026683330535889 0.9757572412490845 0 3
21.3155460357666 20.19742202758789 4.020003795623779 0.9773794412612915 0 3
12.80972671508789 11.921464920043945 2.3955724239349365 0.9789248108863831 0 3
13.970390319824219 12.76953125 2.591087579727173 0.3680163621902466 0 3
14.069941520690918 12.630585670471191 2.588416576385498 0.9817759990692139 0 3
14.163866996765137 12.48714828491211 2.5849742889404297 0.9830832481384277 0 3
14.257538795471191 12.344100952148438 2.5817503929138184 0.9843113422393799 0 3
14.351035118103027 12.201386451721191 2.5787365436553955 0.985460638999939 0 3
14.444276809692383 12.059003829956055 2.5759410858154297 0.9865307211875916 0 3
14.53734302520752 11.916913986206055 2.573356866836548 0.9875213503837585 0 3
14.630233764648438 11.775077819824219 2.570986270904541 0.9884327054023743 0 3
14.722929000854492 11.633476257324219 2.5688230991363525 0.989264726638794 0 3
14.8154878616333 11.492109298706055 2.566871166229248 0.9900172352790833 0 3
14.907890319824219 11.35097599029541 2.565126895904541 0.9906899929046631 0 3
15.000214576721191 11.2099609375 2.563591241836548 0.9912833571434021 0 3
15.092382431030273 11.069101333618164 2.5622644424438477 0.9917970299720764 0 3
15.184511184692383 10.928476333618164 2.5611462593078613 0.9922309517860413 0 3
15.276542663574219 10.787851333618164 2.560228109359741 0.9925851821899414 0 3
15.36849594116211 10.647343635559082 2.559521436691284 0.9928596615791321 0 3
15.460410118103027 10.506953239440918 2.55902099609375 0.9930542707443237 0 3
15.552285194396973 10.36654281616211 2.558722972869873 0.9931692481040955 0 3
15.644179344177246 10.2261323928833 2.558631420135498 0.9932042360305786 0 3
14.546972274780273 9.323671340942383 2.365405321121216 0.8561991453170776 0 3
14.613691329956055 9.182421684265137 2.362757444381714 0.8450965881347656 0 3
15.975038528442383 9.838945388793945 2.5684802532196045 0.992830753326416 0 3
16.06734275817871 9.69791030883789 2.5692150592803955 0.992546558380127 0 3
16.159648895263672 9.556836128234863 2.570157527923584 0.9921827912330627 0 3
16.2520694732666 9.415605545043945 2.571305990219116 0.9917392730712891 0 3
16.34453010559082 9.274237632751465 2.5726611614227295 0.9912159442901611 0 3
16.43714714050293 9.132734298706055 2.574228525161743 0.9906129837036133 0 3
16.529823303222656 8.991015434265137 2.5760045051574707 0.9899303913116455 0 3
16.622636795043945 8.849140167236328 2.5779881477355957 0.9891684055328369 0 3
16.68115234375 8.688944816589355 2.574859619140625 0.9883268475532532 0 3
16.774120330810547 8.546854972839355 2.5772619247436523 0.9874060153961182 0 3
16.867225646972656 8.40445327758789 2.5798754692077637 0.986405611038208 0 3
16.960546493530273 8.26171875 2.5827014446258545 0.9853260517120361 0 3
17.054061889648438 8.118749618530273 2.585742235183716 0.984167218208313 0 3
17.147811889648438 7.975390434265137 2.5889978408813477 0.982929527759552 0 3
17.2418155670166 7.831640243530273 2.5924718379974365 0.9816125631332397 0 3
17.3360538482666 7.687480449676514 2.5961644649505615 0.9802169799804688 0 3
17.40620994567871 7.532382488250732 2.596442699432373 0.9787424206733704 0 3
17.500898361206055 7.387578010559082 2.6005663871765137 0.9771894216537476 0 3
16.252187728881836 6.689218521118164 2.4059972763061523 0.7441393733024597 0 3
17.691171646118164 7.09646463394165 2.609489679336548 0.9738479256629944 0 3
17.786834716796875 6.950175762176514 2.614290714263916 0.9720596671104431 0 3
17.882831573486328 6.803281307220459 2.619316339492798 0.9701932668685913 0 3
17.979217529296875 6.655858993530273 2.624579906463623 0.9682490229606628 0 3
18.07597541809082 6.507792949676514 2.6300694942474365 0.9662269353866577 0 3
18.17316436767578 6.359101295471191 2.6357994079589844 0.964127242565155 0 3
18.27079963684082 6.209765434265137 2.641766309738159 0.9619500041007996 0 3
18.36882781982422 6.05968713760376 2.647969961166382 0.9596956372261047 0 3
18.467323303222656 5.908945083618164 2.6544201374053955 0.9573639631271362 0 3
18.566347122192383 5.757421970367432 2.6611132621765137 0.9549553990364075 0 3
18.66581916809082 5.605155944824219 2.668057918548584 0.9524703025817871 0 3
18.765859603881836 5.451992034912109 2.6752538681030273 0.9499084949493408 0 3
18.866464614868164 5.298066139221191 2.6827049255371094 0.947270393371582 0 3
18.96759796142578 5.143280982971191 2.6904137134552 0.9445561766624451 0 3
19.06929588317871 4.987538814544678 2.698382616043091 0.9417662620544434 0 3
19.171640396118164 4.830859184265137 2.706616163253784 0.9389005303382874 0 3
27.633241653442383 6.699726581573486 3.8925719261169434 0.7609560489654541 0 9
27.29929542541504 6.359921932220459 3.83733868598938 0.8832234740257263 0 9
17.97865104675293 4.018710613250732 2.522000789642334 0.9298510551452637 0 3
23.166425704956055 4.960390567779541 3.2433507442474365 0.3536360263824463 0 3
22.679237365722656 4.643632888793945 3.169179677963257 0.36191269755363464 0 3
22.21382713317871 4.340937614440918 3.098566770553589 0.37016040086746216 0 3
21.768651962280273 4.051445007324219 3.031277894973755 0.37837719917297363 0 3
21.342363357543945 3.7741992473602295 2.96708607673645 0.38656362891197205 0 3
20.93376922607422 3.508496046066284 2.9057836532592773 0.394718736410141 0 3
20.541698455810547 3.253535032272339 2.8471922874450684 0.40284156799316406 0 3
20.165136337280273 3.008593797683716 2.791142463684082 0.410931259393692 0 3
19.80304718017578 2.773124933242798 2.7374730110168457 0.4189879596233368 0 3
19.454627990722656 2.546464681625366 2.6860387325286865 0.42701083421707153 0 3
19.119062423706055 2.328202962875366 2.6367175579071045 0.434998482465744 0 3
18.795604705810547 2.117734432220459 2.589376211166382 0.44295167922973633 0 3
18.483495712280273 1.9147655963897705 2.543912410736084 0.45086830854415894 0 3
18.182167053222656 1.7187695503234863 2.5002148151397705 0.4587477743625641 0 3
17.890975952148438 1.529335856437683 2.4581921100616455 0.46659088134765625 0 3
17.814863204956055 1.3618749380111694 2.4459521770477295 0.8704195022583008 0 3
17.91533088684082 1.2079296112060547 2.458160400390625 0.8660967350006104 0 3
18.016836166381836 1.0524218082427979 2.4706883430480957 0.8617046475410461 0 3
18.119354248046875 0.8952929377555847 2.483546018600464 0.857243537902832 0 3
18.22296905517578 0.736523449420929 2.496744394302368 0.8527129292488098 0 3
18.327695846557617 0.5759961009025574 2.510279417037964 0.8481142520904541 0 3
18.433534622192383 0.4137499928474426 2.5241687297821045 0.843447744846344 0 3
18.540605545043945 0.24968749284744263 2.5384178161621094 0.8387131690979004 0 3
18.648866653442383 0.0837109386920929 2.5530333518981934 0.8339112401008606 0 3
18.758378982543945 -0.08414062112569809 2.568028450012207 0.8290424346923828 0 3
18.869197845458984 -0.2540625035762787 2.583411693572998 0.8241066932678223 0 3
18.981367111206055 -0.42597654461860657 2.599184513092041 0.8191051483154297 0 3
19.094940185546875 -0.6000781059265137 2.6153624057769775 0.8140376210212708 0 3
19.209882736206055 -0.7762890458106995 2.6319580078125 0.8089052438735962 0 3
19.3262882232666 -0.9548436999320984 2.648979425430298 0.8037075996398926 0 3
19.444257736206055 -1.1357030868530273 2.6664390563964844 0.7984451651573181 0 3
19.56376838684082 -1.3190233707427979 2.684344530105591 0.7931188344955444 0 3
19.684940338134766 -1.504785180091858 2.702709913253784 0.787729024887085 0 3
19.807811737060547 -1.6930859088897705 2.7215538024902344 0.7822754383087158 0 3
19.932342529296875 -1.8841406106948853 2.740882396697998 0.776759147644043 0 3
20.058691024780273 -2.077890634536743 2.760704278945923 0.7711807489395142 0 3
20.186874389648438 -2.2744531631469727 2.781048536300659 0.7655402421951294 0 3
20.316972732543945 -2.4740233421325684 2.8019189834594727 0.7598384618759155 0 3
20.44902229309082 -2.676562547683716 2.8233325481414795 0.7540752291679382 0 3
20.58316421508789 -2.8822460174560547 2.845303773880005 0.748251736164093 0 3
20.71937370300293 -3.091249942779541 2.8678550720214844 0.7423683404922485 0 3
20.85775375366211 -3.3035545349121094 2.890998363494873 0.73642498254776 0 3
20.998397827148438 -3.519277334213257 2.914759397506714 0.7304226160049438 0 3
21.14140510559082 -3.7386326789855957 2.939142942428589 0.7243620157241821 0 3
21.286815643310547 -3.9617185592651367 2.964184522628784 0.718242883682251 0 3
21.43470573425293 -4.188632488250732 2.989898681640625 0.7120664119720459 0 3
21.585233688354492 -4.419550895690918 3.016303539276123 0.7058325409889221 0 3
21.73843765258789 -4.654648303985596 3.043426513671875 0.6995421051979065 0 3
21.894433975219727 -4.893984317779541 3.071293830871582 0.6931949257850647 0 3
22.053300857543945 -5.137773513793945 3.0999231338500977 0.6867929100990295 0 3
21.949901580810547 -5.321796894073486 3.0919811725616455 0.7190351486206055 0 20
21.876874923706055 -5.512460708618164 3.0885400772094727 0.673822820186615 0 20
22.04130744934082 -5.764804363250732 3.1189355850219727 0.6672568321228027 0 20
22.209041595458984 -6.022148132324219 3.150189161300659 0.660636842250824 0 20
22.380117416381836 -6.284687519073486 3.182330369949341 0.6539642810821533 0 20
23.07357406616211 -6.703476428985596 3.289360284805298 0.6472389101982117 0 3
25.65687370300293 -7.704355239868164 3.6673412322998047 0.7546842098236084 0 3
25.79753875732422 -7.999765396118164 3.6975767612457275 0.633633017539978 0 3
26.007049560546875 -8.3213472366333 3.7381529808044434 0.6267538070678711 0 3
26.221229553222656 -8.650077819824219 3.779949903488159 0.6198241710662842 0 3
26.44025421142578 -8.986289024353027 3.8229918479919434 0.6128448843955994 0 3
26.824159622192383 -9.386210441589355 3.890526056289673 0.3931172788143158 0 3
31.53515625 -11.353300094604492 4.588388442993164 0.5987399220466614 0 3
31.87074089050293 -11.798378944396973 4.652444839477539 0.7929624319076538 0 3
31.554697036743164 -12.004491806030273 4.621845722198486 0.7982122302055359 0 3
31.242704391479492 -12.207929611206055 4.592020034790039 0.8033976554870605 0 3
30.934677124023438 -12.408788681030273 4.562935829162598 0.8085180521011353 0 3
30.63057518005371 -12.607109069824219 4.534584999084473 0.8135727047920227 0 3
30.3301944732666 -12.803046226501465 4.506949424743652 0.8185614943504333 0 3
30.033416748046875 -12.996601104736328 4.480008602142334 0.8234842419624329 0 3
29.74016571044922 -13.187910079956055 4.453740119934082 0.8283404111862183 0 3
29.450361251831055 -13.376953125 4.428142070770264 0.8331291675567627 0 3
29.163837432861328 -13.56386661529541 4.403187274932861 0.8378509879112244 0 3
28.880449295043945 -13.748749732971191 4.378863334655762 0.8425050973892212 0 3
28.60023307800293 -13.931601524353027 4.355155944824219 0.8470906019210815 0 3
28.322998046875 -14.112499237060547 4.332059383392334 0.8516078591346741 0 3
28.0487003326416 -14.291483879089355 4.309548377990723 0.8560560345649719 0 3
27.777177810668945 -14.468632698059082 4.287613391876221 0.8604351282119751 0 3
27.508426666259766 -14.644062042236328 4.266246318817139 0.8647441864013672 0 3
27.242284774780273 -14.81777286529541 4.24543571472168 0.8689836859703064 0 3
26.978769302368164 -14.989765167236328 4.225164890289307 0.8731529116630554 0 3
26.717723846435547 -15.160136222839355 4.205424785614014 0.8772514462471008 0 3
26.459129333496094 -15.32894515991211 4.186207294464111 0.8812784552574158 0 3
26.20281219482422 -15.496288299560547 4.167492389678955 0.8852348327636719 0 3
26.092538833618164 -15.748906135559082 4.172274112701416 0.4319429099559784 0 3
27.024715423583984 -16.64433479309082 4.345040321350098 0.4239121973514557 0 3
27.63079071044922 -17.361581802368164 4.467357158660889 0.41584816575050354 0 3
27.78626823425293 -17.809120178222656 4.518167495727539 0.7023342847824097 0 3
28.06624984741211 -18.34601593017578 4.59028434753418 0.15232843160629272 0 3
28.545927047729492 -19.0274600982666 4.696487903594971 0.15258200466632843 0 3
28.397382736206055 -19.298828125 4.700355052947998 0.4126093089580536 0 3
28.749921798706055 -19.91796875 4.788108825683594 0.40504756569862366 0 3
29.26624870300293 -20.666933059692383 4.904793739318848 0.9175811409950256 0 3
29.8037109375 -21.449901580810547 5.026937007904053 0.3585081398487091 0 3
30.13254737854004 -22.099882125854492 5.115660190582275 0.35019227862358093 0 3
30.663251876831055 -22.91517448425293 5.240456581115723 0.34185293316841125 0 3
30.601131439208984 -23.299726486206055 5.265376091003418 0.36713770031929016 0 3
20.876405715942383 20.876483917236328 3.794034242630005 0.9731807112693787 0 3
21.024492263793945 20.650428771972656 3.7871055603027344 0.9749614596366882 0 3
21.172069549560547 20.425233840942383 3.780503988265991 0.9766640067100525 0 3
21.319042205810547 20.200740814208984 3.7742247581481934 0.9782879948616028 0 3
12.811796188354492 11.9233980178833 2.2491087913513184 0.9798350930213928 0 3
13.966249465942383 12.76578140258789 2.4315600395202637 0.3685281574726105 0 3
14.072245597839355 12.63265609741211 2.430166006088257 0.9826893210411072 0 3
14.16617202758789 12.489237785339355 2.4269323348999023 0.9839980602264404 0 3
14.25992202758789 12.346152305603027 2.4239048957824707 0.9852275848388672 0 3
14.353378295898438 12.203378677368164 2.421076536178589 0.9863781332969666 0 3
14.446660041809082 12.060976028442383 2.418449640274048 0.9874491691589355 0 3
14.539706230163574 11.918828010559082 2.416022777557373 0.9884411096572876 0 3
14.632577896118164 11.776991844177246 2.4137964248657227 0.9893534183502197 0 3
14.72533130645752 11.635390281677246 2.4117650985717773 0.9901862740516663 0 3
14.817890167236328 11.49398422241211 2.409932851791382 0.9909395575523376 0 3
14.91038990020752 11.352792739868164 2.408297061920166 0.9916132092475891 0 3
15.00267505645752 11.211835861206055 2.406852960586548 0.9922071695327759 0 3
15.094843864440918 11.070937156677246 2.4056079387664795 0.9927213788032532 0 3
15.186952590942383 10.930194854736328 2.4045543670654297 0.9931557774543762 0 3
15.27904224395752 10.789589881896973 2.4036998748779297 0.9935103058815002 0 3
15.37099552154541 10.649101257324219 2.403032064437866 0.9937851428985596 0 3
15.462929725646973 10.50863265991211 2.402562141418457 0.9939799904823303 0 3
15.554842948913574 10.368203163146973 2.4022815227508545 0.9940950274467468 0 3
15.646698951721191 10.227811813354492 2.4021971225738525 0.9941301345825195 0 3
14.5474214553833 9.323905944824219 2.220484495162964 0.8571128249168396 0 3
14.618104934692383 9.185194969177246 2.2186033725738525 0.8457682132720947 0 3
15.977675437927246 9.840546607971191 2.4114415645599365 0.9937561750411987 0 3
16.0699405670166 9.699491500854492 2.4121336936950684 0.9934717416763306 0 3
16.16226577758789 9.558398246765137 2.4130163192749023 0.9931075572967529 0 3
16.25468635559082 9.41714859008789 2.4140965938568115 0.9926634430885315 0 3
16.34716796875 9.27578067779541 2.4153709411621094 0.9921396970748901 0 3
16.439823150634766 9.134218215942383 2.416841983795166 0.9915359616279602 0 3
16.532499313354492 8.992499351501465 2.418508291244507 0.9908527731895447 0 3
16.625391006469727 8.850526809692383 2.420372247695923 0.9900898933410645 0 3
16.683866500854492 8.690351486206055 2.417431592941284 0.9892474412918091 0 3
16.77681541442871 8.548202514648438 2.419687509536743 0.9883254766464233 0 3
16.869979858398438 8.4058198928833 2.422142267227173 0.9873239994049072 0 3
16.963319778442383 8.263105392456055 2.4247984886169434 0.9862434267997742 0 3
17.056875228881836 8.120078086853027 2.4276514053344727 0.9850831627845764 0 3
17.150625228881836 7.97667932510376 2.430711507797241 0.9838441014289856 0 3
17.244647979736328 7.832929611206055 2.4339709281921387 0.9825258851051331 0 3
17.338905334472656 7.68874979019165 2.4374377727508545 0.9811286330223083 0 3
17.409101486206055 7.533593654632568 2.437697649002075 0.9796525239944458 0 3
16.181249618530273 6.830507755279541 2.257098436355591 0.9294943809509277 0 3
16.257715225219727 6.691464900970459 2.259298086166382 0.74470055103302 0 3
17.694101333618164 7.09765625 2.4499499797821045 0.9747525453567505 0 3
17.789785385131836 6.951327800750732 2.454460382461548 0.9729624390602112 0 3
17.885839462280273 6.804413795471191 2.4591832160949707 0.9710938930511475 0 3
17.982206344604492 6.656972408294678 2.4641222953796387 0.9691475629806519 0 3
18.079004287719727 6.508867263793945 2.469278573989868 0.9671233296394348 0 3
18.176172256469727 6.360156059265137 2.474656820297241 0.9650214314460754 0 3
18.273828506469727 6.210781097412109 2.480257511138916 0.9628416895866394 0 3
18.37191390991211 6.060702800750732 2.486088752746582 0.9605846405029297 0 3
18.470468521118164 5.909921646118164 2.492141008377075 0.9582504630088806 0 3
18.56947135925293 5.758398532867432 2.498431444168091 0.9558395147323608 0 3
18.668964385986328 5.606054782867432 2.504948616027832 0.9533515572547913 0 3
18.769062042236328 5.452929496765137 2.5117039680480957 0.9507869482040405 0 3
18.869667053222656 5.298964500427246 2.518702268600464 0.9481459259986877 0 3
18.97083854675293 5.144160270690918 2.52593994140625 0.9454287886619568 0 3
19.072538375854492 4.988398551940918 2.5334253311157227 0.9426356554031372 0 3
19.17496109008789 4.831718444824219 2.5411620140075684 0.9397668838500977 0 3
27.621366500854492 6.696835994720459 3.6524157524108887 0.7621158361434937 0 9
27.241424560546875 6.346405982971191 3.5944981575012207 0.8860695362091064 0 9
17.981796264648438 4.019413948059082 2.367833137512207 0.9306976199150085 0 3
23.151777267456055 4.957324028015137 3.042628049850464 0.3542475402355194 0 3
22.66517448425293 4.640780925750732 2.973088264465332 0.3625333905220032 0 3
22.20037078857422 4.338359355926514 2.9068920612335205 0.3707897365093231 0 3
21.755762100219727 4.049023151397705 2.8438000679016113 0.3790159821510315 0 3
21.329999923706055 3.77203106880188 2.783609628677368 0.3872114419937134 0 3
20.921953201293945 3.506523370742798 2.72613525390625 0.3953748941421509 0 3
20.530330657958984 3.2517576217651367 2.671198606491089 0.4035063683986664 0 3
20.15412139892578 3.0069921016693115 2.6186375617980957 0.41160547733306885 0 3
19.79248046875 2.7716405391693115 2.5683140754699707 0.41967102885246277 0 3
19.444433212280273 2.545156240463257 2.5200865268707275 0.4277021288871765 0 3
19.109237670898438 2.326953172683716 2.4738316535949707 0.43569907546043396 0 3
18.7861328125 2.1167187690734863 2.4294395446777344 0.44366055727005005 0 3
18.47429656982422 1.9137890338897705 2.386802911758423 0.4515862762928009 0 3
18.173280715942383 1.7179101705551147 2.3458240032196045 0.45947468280792236 0 3
17.882421493530273 1.52859365940094 2.3064122200012207 0.46732592582702637 0 3
17.81816291809082 1.362148404121399 2.2964587211608887 0.8712108731269836 0 3
17.918670654296875 1.2081639766693115 2.30792236328125 0.8668838739395142 0 3
17.01531219482422 0.9938671588897705 2.190333127975464 0.49064943194389343 0 3
16.760663986206055 0.828125 2.1565098762512207 0.4983447790145874 0 3
16.513731002807617 0.6674023270606995 2.123880624771118 0.5060005784034729 0 3
16.274198532104492 0.5114452838897705 2.0923962593078613 0.5136144757270813 0 3
16.041582107543945 0.3600390553474426 2.061993360519409 0.5211873650550842 0 3
16.114511489868164 0.21699218451976776 2.0710301399230957 0.8394712805747986 0 3
16.2086124420166 0.07277343422174454 2.0829553604125977 0.8346639275550842 0 3
16.303808212280273 -0.07316406071186066 2.0951929092407227 0.8297900557518005 0 3
16.400136947631836 -0.22078125178813934 2.107741594314575 0.8248497247695923 0 3
18.985097885131836 -0.426093727350235 2.4403600692749023 0.8198405504226685 0 3
19.098670959472656 -0.6001562476158142 2.4555468559265137 0.8147676587104797 0 3
19.21369171142578 -0.7764452695846558 2.47113037109375 0.8096293807029724 0 3
19.330175399780273 -0.9550390243530273 2.4871153831481934 0.8044260144233704 0 3
19.448183059692383 -1.1359374523162842 2.503509521484375 0.799157977104187 0 3
19.567773818969727 -1.3192577362060547 2.520329475402832 0.7938258051872253 0 3
19.689022064208984 -1.5051171779632568 2.537576913833618 0.7884296774864197 0 3
19.811874389648438 -1.6934765577316284 2.555269718170166 0.7829703688621521 0 3
19.936464309692383 -1.8844921588897705 2.5734190940856934 0.7774485349655151 0 3
20.062891006469727 -2.0783398151397705 2.5920372009277344 0.7718636393547058 0 3
20.191152572631836 -2.274960994720459 2.611142635345459 0.7662169933319092 0 3
20.3212890625 -2.4745311737060547 2.6307384967803955 0.7605087161064148 0 3
20.453397750854492 -2.677187442779541 2.6508471965789795 0.7547394037246704 0 3
20.587596893310547 -2.8828516006469727 2.671483039855957 0.7489094734191895 0 3
20.723867416381836 -3.091913938522339 2.692664623260498 0.7430194616317749 0 3
20.862342834472656 -3.304277181625366 2.714393138885498 0.7370697259902954 0 3
21.0030460357666 -3.5200390815734863 2.7367053031921387 0.7310611009597778 0 3
21.1461124420166 -3.739492177963257 2.759608030319214 0.7249935865402222 0 3
21.291582107543945 -3.962578058242798 2.7831225395202637 0.718867838382721 0 3
21.43960952758789 -4.189589977264404 2.807276487350464 0.7126846313476562 0 3
21.59017562866211 -4.420547008514404 2.8320727348327637 0.7064440250396729 0 3
21.74345588684082 -4.655683517456055 2.857548713684082 0.700146496295929 0 3
21.89954948425293 -4.895097732543945 2.883715867996216 0.6937924027442932 0 3
22.058496475219727 -5.138984203338623 2.9105992317199707 0.6873834729194641 0 3
22.220428466796875 -5.387362957000732 2.938234806060791 0.6809195876121521 0 3
22.385507583618164 -5.640625 2.966636896133423 0.6743997931480408 0 3
22.553768157958984 -5.898828029632568 2.9958348274230957 0.6678267121315002 0 3
22.72542953491211 -6.162187576293945 3.0258629322052 0.6611998081207275 0 3
22.90056610107422 -6.430898189544678 3.0567455291748047 0.6545185446739197 0 3
23.079315185546875 -6.705156326293945 3.0885119438171387 0.6477858424186707 0 3
25.343358993530273 -7.610214710235596 3.400491952896118 0.7740100026130676 0 3
25.804100036621094 -8.00185489654541 3.471816301345825 0.6341649293899536 0 3
26.013750076293945 -8.323515892028809 3.5099363327026367 0.6272783279418945 0 3
26.228046417236328 -8.65234375 3.5491819381713867 0.6203412413597107 0 3
26.44722557067871 -8.988652229309082 3.589614152908325 0.6133542060852051 0 3
26.83900260925293 -9.391366958618164 3.6540820598602295 0.3933301568031311 0 3
31.543651580810547 -11.356386184692383 4.308306694030762 0.5992338061332703 0 3
31.861738204956055 -11.795039176940918 4.366045951843262 0.7940550446510315 0 3
31.545799255371094 -12.001112937927246 4.337342262268066 0.799310564994812 0 3
31.23397445678711 -12.204550743103027 4.309356689453125 0.8045016527175903 0 3
30.926132202148438 -12.405312538146973 4.282073974609375 0.80962735414505 0 3
30.62215805053711 -12.603632926940918 4.25547456741333 0.8146873712539673 0 3
30.321884155273438 -12.799511909484863 4.229545593261719 0.8196820020675659 0 3
30.0252628326416 -12.99306583404541 4.204268932342529 0.82461017370224 0 3
29.732128143310547 -13.18431568145752 4.179629802703857 0.8294717073440552 0 3
29.44243049621582 -13.373397827148438 4.155606746673584 0.8342658281326294 0 3
29.155996322631836 -13.560234069824219 4.132198333740234 0.8389927744865417 0 3
28.872793197631836 -13.745078086853027 4.109379768371582 0.8436517715454102 0 3
28.592636108398438 -13.927928924560547 4.087137222290039 0.8482425808906555 0 3
28.315536499023438 -14.10878849029541 4.065461158752441 0.8527647852897644 0 3
28.041316986083984 -14.287773132324219 4.044342041015625 0.8572177290916443 0 3
27.769960403442383 -14.464882850646973 4.023770809173584 0.8616010546684265 0 3
27.50128936767578 -14.640292167663574 4.003719329833984 0.8659152984619141 0 3
27.235301971435547 -14.813905715942383 3.9841954708099365 0.8701590299606323 0 3
26.971874237060547 -14.985937118530273 3.965176820755005 0.874332845211029 0 3
26.710927963256836 -15.15625 3.9466540813446045 0.8784360289573669 0 3
26.452392578125 -15.325078010559082 3.9286253452301025 0.8824677467346191 0 3
26.196189880371094 -15.492362976074219 3.91106915473938 0.8864283561706543 0 3
26.102294921875 -15.754745483398438 3.918006420135498 0.43225452303886414 0 3
27.0882511138916 -16.683456420898438 4.088332653045654 0.07701584696769714 0 3
27.641483306884766 -17.3682804107666 4.19517183303833 0.4161418676376343 0 3
27.791717529296875 -17.8126163482666 4.242074012756348 0.40803611278533936 0 3
28.193065643310547 -18.428945541381836 4.328406810760498 0.39989712834358215 0 3
28.847646713256836 -19.228553771972656 4.455220699310303 0.14444908499717712 0 3
29.161542892456055 -19.81816291809082 4.53098726272583 0.4099036753177643 0 3
29.501922607421875 -20.438945770263672 4.612193584442139 0.3752915561199188 0 3
29.37582015991211 -20.74427604675293 4.621405124664307 0.3572946786880493 0 3
29.738603591918945 -21.403066635131836 4.708511829376221 0.3870697319507599 0 3
30.32679557800293 -22.2423038482666 4.833052635192871 0.35041290521621704 0 3
30.75333023071289 -22.982421875 4.933707237243652 0.928276538848877 0 3
20.87984275817871 20.879920959472656 3.547416925430298 0.9740174412727356 0 3
21.0279483795166 20.653846740722656 3.540931224822998 0.975800096988678 0 3
21.175506591796875 20.428632736206055 3.534761905670166 0.9775043725967407 0 3
21.32255744934082 20.2041015625 3.528892755508423 0.9791300296783447 0 3
12.813944816589355 11.925390243530273 2.1029138565063477 0.9806787967681885 0 3
12.9165620803833 11.806288719177246 2.102276563644409 0.7900351285934448 0 3
13.004277229309082 11.67398452758789 2.099414110183716 0.7911137342453003 0 3
13.091835975646973 11.5419921875 2.096738338470459 0.7921237945556641 0 3
13.179238319396973 11.410468101501465 2.094248056411743 0.7930652499198914 0 3
13.26650333404541 11.279296875 2.091947078704834 0.7939378619194031 0 3
13.353710174560547 11.1484956741333 2.0898289680480957 0.7947418689727783 0 3
13.440839767456055 11.018007278442383 2.087898015975952 0.795477032661438 0 3
13.527871131896973 10.887812614440918 2.086151123046875 0.796143114566803 0 3
13.6148042678833 10.757890701293945 2.084587335586548 0.7967404127120972 0 3
13.701757431030273 10.628202438354492 2.0832066535949707 0.7972685694694519 0 3
14.912753105163574 11.354687690734863 2.251746892929077 0.9924688935279846 0 3
15.005097389221191 11.213593482971191 2.2503979206085205 0.9930633902549744 0 3
15.097323417663574 11.072714805603027 2.249232053756714 0.9935782551765442 0 3
15.189414024353027 10.931991577148438 2.248248338699341 0.9940130710601807 0 3
15.28148365020752 10.791327476501465 2.2474451065063477 0.9943679571151733 0 3
15.373496055603027 10.650819778442383 2.246826171875 0.9946430921554565 0 3
15.465429306030273 10.5103120803833 2.2463841438293457 0.9948381781578064 0 3
15.557382583618164 10.369882583618164 2.246124267578125 0.9949533343315125 0 3
15.649237632751465 10.229472160339355 2.246042490005493 0.9949884414672852 0 3
14.547792434692383 9.32421875 2.075864315032959 0.857968270778656 0 3
14.622480392456055 9.187968254089355 2.074669122695923 0.8463823199272156 0 3
15.980253219604492 9.842108726501465 2.254687547683716 0.9946140646934509 0 3
16.07255744934082 9.701093673706055 2.255330801010132 0.9943293929100037 0 3
16.16488265991211 9.559921264648438 2.2561607360839844 0.9939647316932678 0 3
16.257362365722656 9.418671607971191 2.257171630859375 0.993520200252533 0 3
16.349863052368164 9.277265548706055 2.2583606243133545 0.9929959177970886 0 3
16.442480087280273 9.135722160339355 2.259735107421875 0.9923916459083557 0 3
16.535194396972656 8.993926048278809 2.2612950801849365 0.9917076826095581 0 3
16.62808609008789 8.851991653442383 2.2630369663238525 0.9909440279006958 0 3
16.686582565307617 8.69179630279541 2.260291814804077 0.9901006817817688 0 3
16.77958869934082 8.54964828491211 2.2623987197875977 0.9891777634620667 0 3
16.87271499633789 8.407206535339355 2.2646946907043457 0.9881753921508789 0 3
16.96613311767578 8.264452934265137 2.267176389694214 0.987093448638916 0 3
17.059648513793945 8.121405601501465 2.269848585128784 0.9859322905540466 0 3
17.15347671508789 7.978007793426514 2.272705078125 0.9846917986869812 0 3
17.247461318969727 7.834198951721191 2.2757556438446045 0.9833722114562988 0 3
17.341777801513672 7.690019130706787 2.2789976596832275 0.9819736480712891 0 3
17.411972045898438 7.534882545471191 2.2792418003082275 0.9804959893226624 0 3
16.181678771972656 6.83068323135376 2.1100902557373047 0.9304239153862 0 3
16.263280868530273 6.693710803985596 2.1128063201904297 0.7452113628387451 0 3
17.697050094604492 7.098827838897705 2.2906994819641113 0.9755908846855164 0 3
17.792753219604492 6.952460765838623 2.2949156761169434 0.973798930644989 0 3
17.888750076293945 6.805566310882568 2.299330949783325 0.9719286561012268 0 3
17.98519515991211 6.658085823059082 2.303952693939209 0.9699802994728088 0 3
18.08203125 6.509960651397705 2.308774471282959 0.9679538011550903 0 3
18.179237365722656 6.361210823059082 2.3138060569763184 0.9658496379852295 0 3
18.276893615722656 6.211835861206055 2.319042921066284 0.9636679887771606 0 3
18.375 6.061738014221191 2.324493408203125 0.9614086151123047 0 3
18.473554611206055 5.910937309265137 2.330157518386841 0.9590721130371094 0 3
18.57257843017578 5.759335994720459 2.3360326290130615 0.9566584229469299 0 3
18.67216682434082 5.607031345367432 2.342130184173584 0.9541680812835693 0 3
18.772245407104492 5.453866958618164 2.348452091217041 0.9516007304191589 0 3
18.87289047241211 5.299882888793945 2.354992628097534 0.9489571452140808 0 3
18.974042892456055 5.145039081573486 2.361762523651123 0.9462370872497559 0 3
19.07581901550293 4.9892578125 2.368760824203491 0.9434410333633423 0 3
19.178260803222656 4.832539081573486 2.375991106033325 0.9405693411827087 0 3
27.609569549560547 6.694023132324219 3.4129796028137207 0.7632239460945129 0 9
27.92624855041504 6.50597620010376 3.4447717666625977 0.7716115117073059 0 9
17.984882354736328 4.020117282867432 2.2139368057250977 0.9314908385276794 0 3
23.13716697692871 4.954218864440918 2.8425865173339844 0.35483476519584656 0 3
22.65121078491211 4.637890338897705 2.7776598930358887 0.3631294071674347 0 3
22.186952590942383 4.335702896118164 2.715848445892334 0.37139445543289185 0 3
21.742948532104492 4.046699047088623 2.656939744949341 0.37962859869003296 0 3
21.31767463684082 3.769843578338623 2.6007397174835205 0.3878324329853058 0 3
20.910058975219727 3.504531145095825 2.5470690727233887 0.3960045576095581 0 3
20.518945693969727 3.2499217987060547 2.4957690238952637 0.4041444957256317 0 3
20.14322280883789 3.0053515434265137 2.446685791015625 0.412251740694046 0 3
19.781932830810547 2.7701170444488525 2.399691104888916 0.4203255772590637 0 3
19.434295654296875 2.5437889099121094 2.354651927947998 0.4283650815486908 0 3
19.09941291809082 2.3257811069488525 2.3114562034606934 0.4363703727722168 0 3
18.776580810546875 2.1156444549560547 2.269998788833618 0.4443400502204895 0 3
18.46515655517578 1.9128905534744263 2.230181932449341 0.4522729814052582 0 3
18.164453506469727 1.7170312404632568 2.191911458969116 0.46016979217529297 0 3
17.87384796142578 1.5278515815734863 2.1551036834716797 0.46802908182144165 0 3
17.541269302368164 1.3409374952316284 2.1134679317474365 0.4758501350879669 0 3
17.270097732543945 1.1643749475479126 2.079454183578491 0.4836333394050598 0 3
17.22021484375 1.005898356437683 2.072275400161743 0.11583535373210907 0 3
17.18486213684082 0.8491015434265137 2.067018985748291 0.11612999439239502 0 3
17.14826202392578 0.6930468678474426 2.061784505844116 0.11642478406429291 0 3
16.339061737060547 0.5134570002555847 1.9638891220092773 0.5143653750419617 0 3
16.33283233642578 0.36656248569488525 1.9626379013061523 0.8449140191078186 0 3
17.031112670898438 0.2293359339237213 2.0462169647216797 0.11731050163507462 0 3
16.989667892456055 0.07625000178813934 2.0410754680633545 0.11760614067316055 0 3
16.94706916809082 -0.07605468481779099 2.0359556674957275 0.11790183186531067 0 3
16.90328025817871 -0.2275976538658142 2.030860662460327 0.11819764971733093 0 3
16.858339309692383 -0.37837889790534973 2.025789737701416 0.11849360913038254 0 3
16.81230354309082 -0.5283203125 2.020742177963257 0.11878947913646698 0 3
16.76509666442871 -0.677539050579071 2.015718936920166 0.11908552050590515 0 3
16.8008975982666 -0.830078125 2.0208349227905273 0.8050910830497742 0 3
16.90349578857422 -0.9873437285423279 2.034158945083618 0.7998173832893372 0 3
17.007421493530273 -1.146640658378601 2.047825813293457 0.794480562210083 0 3
17.11279296875 -1.3081250190734863 2.061845541000366 0.7890788316726685 0 3
17.219608306884766 -1.4719140529632568 2.076223134994507 0.7836132049560547 0 3
19.94060516357422 -1.8849217891693115 2.406242609024048 0.7780843377113342 0 3
20.06705093383789 -2.0787694454193115 2.4236583709716797 0.7724943161010742 0 3
20.195350646972656 -2.2754297256469727 2.441520929336548 0.7668417096138 0 3
20.325586318969727 -2.475039005279541 2.459851026535034 0.7611275315284729 0 3
20.457792282104492 -2.677734375 2.478656053543091 0.7553524374961853 0 3
20.591991424560547 -2.8835155963897705 2.497957706451416 0.7495164275169373 0 3
20.728378295898438 -3.092578172683716 2.5177624225616455 0.7436200976371765 0 3
20.866893768310547 -3.3049802780151367 2.5380918979644775 0.7376644611358643 0 3
21.007715225219727 -3.5208592414855957 2.5589599609375 0.7316492795944214 0 3
21.15083885192871 -3.740312337875366 2.5803771018981934 0.7255759835243225 0 3
21.29638671875 -3.9634764194488525 2.602374315261841 0.719443678855896 0 3
