ply
format ascii 1.0
element vertex 848
property float x
property float y
property float z
end_header
9.45958423614502 4.478521823883057 -1.80323326587677
9.479287147521973 4.428604602813721 -1.806989073753357
9.418256759643555 3.943895101547241 -1.795355200767517
9.435613632202148 3.9069337844848633 -1.798663854598999
9.453034400939941 3.8698360919952393 -1.8019847869873047
9.47052001953125 3.817803382873535 -1.8053178787231445
9.42042350769043 3.282428741455078 -1.795768141746521
9.434527397155762 3.228377342224121 -1.7984567880630493
9.448673248291016 3.188927412033081 -1.8011534214019775
9.462862014770508 3.1493589878082275 -1.8038581609725952
9.477093696594238 3.1096713542938232 -1.8065710067749023
9.40852165222168 2.543241024017334 -1.79349946975708
9.419340133666992 2.4872944355010986 -1.795561671257019
9.431268692016602 2.446235418319702 -1.7978355884552002
9.442139625549316 2.404794931411743 -1.7999078035354614
9.451944351196289 2.3629860877990723 -1.8017768859863281
9.462862014770508 2.3213584423065186 -1.8038581609725952
9.472710609436035 2.2793710231781006 -1.805735468864441
9.482579231262207 2.2372958660125732 -1.8076165914535522
9.409602165222168 1.4849529266357422 -1.7937054634094238
9.416091918945312 1.4418390989303589 -1.7949424982070923
9.422590255737305 1.3986657857894897 -1.796181321144104
9.42801284790039 1.3552768230438232 -1.7972148656845093
9.434527397155762 1.3119889497756958 -1.7984567880630493
9.439963340759277 1.2684950828552246 -1.7994929552078247
9.445405006408691 1.2249510288238525 -1.8005304336547852
9.45085334777832 1.18135666847229 -1.8015689849853516
9.456308364868164 1.1377121210098267 -1.802608847618103
9.460677146911621 1.108673095703125 -1.8034415245056152
9.466142654418945 1.0649410486221313 -1.8044835329055786
9.47052001953125 1.021040439605713 -1.8053178787231445
9.474902153015137 0.9770992398262024 -1.8061531782150269
9.479287147521973 0.9331173300743103 -1.806989073753357
9.48367691040039 0.8890947103500366 -1.8078259229660034
9.48367691040039 -0.8890947103500366 -1.8078259229660034
8.790642738342285 -0.8653289079666138 -1.6757162809371948
8.396023750305176 -0.8658398985862732 -1.600492000579834
8.337064743041992 -0.8988398313522339 -1.5892529487609863
8.337064743041992 -0.9379197955131531 -1.5892529487609863
8.337064743041992 -0.976999819278717 -1.5892529487609863
8.337064743041992 -1.003053069114685 -1.5892529487609863
8.337913513183594 -1.0422391891479492 -1.5894147157669067
9.445405006408691 -1.2249510288238525 -1.8005304336547852
9.439963340759277 -1.2684950828552246 -1.7994929552078247
9.434527397155762 -1.3119889497756958 -1.7984567880630493
9.42801284790039 -1.3552768230438232 -1.7972148656845093
9.422590255737305 -1.3986657857894897 -1.796181321144104
9.416091918945312 -1.4418390989303589 -1.7949424982070923
9.409602165222168 -1.4849529266357422 -1.7937054634094238
9.482579231262207 -2.2372958660125732 -1.8076165914535522
9.472710609436035 -2.2793710231781006 -1.805735468864441
9.353734016418457 -2.2945878505706787 -1.7830555438995361
9.177682876586914 -2.2944207191467285 -1.7494958639144897
9.031973838806152 -2.300330877304077 -1.7217199802398682
8.891783714294434 -2.3063063621520996 -1.6949962377548218
8.881179809570312 -2.345186471939087 -1.6929748058319092
8.870600700378418 -2.397834300994873 -1.6909582614898682
8.93542766571045 -2.9319372177124023 -1.7033158540725708
8.92180347442627 -2.969287633895874 -1.7007187604904175
8.908221244812012 -3.0065245628356934 -1.698129653930664
8.89468002319336 -3.0436482429504395 -1.6955482959747314
8.881179809570312 -3.094536066055298 -1.6929748058319092
8.928610801696777 -3.599346160888672 -1.7020163536071777
8.912097930908203 -3.6483898162841797 -1.6988686323165894
8.895645141601562 -3.6833531856536865 -1.6957324743270874
8.879254341125488 -3.7181878089904785 -1.6926078796386719
8.937376976013184 -4.175430774688721 -1.7036875486373901
8.91791820526123 -4.222076892852783 -1.699978232383728
8.899511337280273 -4.2550787925720215 -1.6964693069458008
8.880216598510742 -4.301354885101318 -1.6927913427352905
8.940303802490234 -4.721597671508789 -1.7042453289031982
8.91986083984375 -4.766550540924072 -1.7003483772277832
8.898544311523438 -4.8107757568359375 -1.6962850093841553
8.876367568969727 -4.840394496917725 -1.6920576095581055
8.92180347442627 -5.29732084274292 -1.7007187604904175
8.898544311523438 -5.3391265869140625 -1.6962850093841553
8.874444961547852 -5.366265773773193 -1.6916910409927368
8.932504653930664 -5.792171001434326 -1.7027586698532104
8.90628433227539 -5.8308329582214355 -1.6977603435516357
8.880216598510742 -5.883143424987793 -1.6927913427352905
8.997254371643066 -6.368369102478027 -1.7151015996932983
8.968688011169434 -6.40420389175415 -1.7096562385559082
8.940303802490234 -6.453781604766846 -1.7042453289031982
9.008137702941895 -6.868704795837402 -1.7171761989593506
8.977534294128418 -6.915506839752197 -1.711342453956604
8.947138786315918 -6.948012351989746 -1.7055482864379883
8.963781356811523 -7.353102207183838 -1.7087209224700928
8.883105278015137 -7.356321811676025 -1.6933419704437256
8.802923202514648 -7.3586931228637695 -1.6780571937561035
8.616808891296387 -7.60702657699585 -1.642579197883606
8.616808891296387 -7.674345016479492 -1.642579197883606
8.616808891296387 -8.091721534729004 -1.642579197883606
8.616808891296387 -8.172504425048828 -1.642579197883606
6.374104976654053 6.154995441436768 -1.2250233888626099
6.431150913238525 6.149787902832031 -1.2359868288040161
8.819982528686523 7.993109226226807 -1.695090413093567
8.856216430664062 7.956756591796875 -1.7020540237426758
8.806708335876465 7.499462604522705 -1.6925392150878906
8.839969635009766 7.458724498748779 -1.6989316940307617
8.81618595123291 6.970296859741211 -1.6943607330322266
8.847607612609863 6.939842224121094 -1.70039963722229
8.814289093017578 6.47299337387085 -1.6939960718154907
8.84378719329834 6.439382553100586 -1.6996653079986572
8.801977157592773 5.996346950531006 -1.6916300058364868
8.828537940979004 5.959262847900391 -1.6967345476150513
8.854301452636719 5.921314239501953 -1.701686143875122
9.180768966674805 5.723635673522949 -1.764428973197937
9.273262023925781 5.723341464996338 -1.7822051048278809
9.366567611694336 5.722387313842773 -1.8001371622085571
9.346263885498047 5.271876811981201 -1.7962350845336914
9.368709564208984 5.225983619689941 -1.8005489110946655
9.392341613769531 5.1804633140563965 -1.8050905466079712
9.336676597595215 4.7266926765441895 -1.794392466545105
9.356939315795898 4.678469657897949 -1.7982866764068604
9.378362655639648 4.6452202796936035 -1.8024041652679443
9.39880657196045 4.596603870391846 -1.8063331842422485
9.346263885498047 4.118197441101074 -1.7962350845336914
9.364426612854004 4.08230447769165 -1.7997256517410278
9.382659912109375 4.031611442565918 -1.8032299280166626
9.399885177612305 3.9949512481689453 -1.8065404891967773
9.344131469726562 3.4894490242004395 -1.7958252429962158
9.360146522521973 3.4369287490844727 -1.7989031076431274
9.375143051147461 3.398489475250244 -1.8017853498458862
9.390188217163086 3.359926700592041 -1.8046767711639404
9.405281066894531 3.321239948272705 -1.8075774908065796
9.337740898132324 2.7867319583892822 -1.7945970296859741
9.34946346282959 2.7464048862457275 -1.7968500852584839
9.362285614013672 2.7062857151031494 -1.799314260482788
9.374070167541504 2.6657512187957764 -1.8015791177749634
9.385884284973145 2.625114679336548 -1.803849697113037
9.396650314331055 2.5840790271759033 -1.80591881275177
9.33348560333252 1.8958642482757568 -1.7937792539596558
9.342000007629395 1.8538031578063965 -1.7954156398773193
9.350530624389648 1.8116652965545654 -1.7970551252365112
9.359076499938965 1.7694504261016846 -1.798697590827942
9.366567611694336 1.7269608974456787 -1.8001371622085571
9.374070167541504 1.6844033002853394 -1.8015791177749634
9.381585121154785 1.6564360857009888 -1.803023338317871
9.389111518859863 1.6137535572052002 -1.8044699430465698
9.395572662353516 1.5708223581314087 -1.8057116270065308
9.403121948242188 1.5280073881149292 -1.8071625232696533
9.403121948242188 -1.5280073881149292 -1.8071625232696533
9.395572662353516 -1.5708223581314087 -1.8057116270065308
9.389111518859863 -1.6137535572052002 -1.8044699430465698
9.381585121154785 -1.6564360857009888 -1.803023338317871
9.374070167541504 -1.6844033002853394 -1.8015791177749634
9.366567611694336 -1.7269608974456787 -1.8001371622085571
9.359076499938965 -1.7694504261016846 -1.798697590827942
9.350530624389648 -1.8116652965545654 -1.7970551252365112
9.342000007629395 -1.8538031578063965 -1.7954156398773193
9.33348560333252 -1.8958642482757568 -1.7937792539596558
8.860047340393066 -2.4365131855010986 -1.702790379524231
8.849519729614258 -2.475100040435791 -1.7007670402526855
8.846652030944824 -2.5157666206359863 -1.7002159357070923
8.826635360717773 -2.5514492988586426 -1.696368932723999
8.815237045288086 -2.5894758701324463 -1.6941784620285034
8.803869247436523 -2.6274046897888184 -1.6919935941696167
8.867720603942871 -3.131413698196411 -1.7042649984359741
8.853344917297363 -3.167837381362915 -1.7015022039413452
8.83901596069336 -3.2041432857513428 -1.6987483501434326
8.82473373413086 -3.2403318881988525 -1.6960034370422363
8.810497283935547 -3.2901699542999268 -1.6932673454284668
8.862923622131348 -3.766742467880249 -1.7033430337905884
8.845697402954102 -3.8008854389190674 -1.700032353401184
8.828537940979004 -3.8486905097961426 -1.6967345476150513
8.811444282531738 -3.882542848587036 -1.6934494972229004
8.861005783081055 -4.333585739135742 -1.702974557876587
8.841877937316895 -4.37949275970459 -1.69929838180542
8.821882247924805 -4.410941123962402 -1.695455551147461
8.801977157592773 -4.456000804901123 -1.6916300058364868
8.85525894165039 -4.884228706359863 -1.701870083808899
8.833297729492188 -4.927323818206787 -1.697649359703064
8.811444282531738 -4.970205307006836 -1.6934494972229004
8.850475311279297 -5.407087326049805 -1.7009507417678833
8.826635360717773 -5.447689056396484 -1.696368932723999
8.801977157592773 -5.48748254776001 -1.6916300058364868
8.854301452636719 -5.921314239501953 -1.701686143875122
8.82758617401123 -5.958620548248291 -1.6965516805648804
8.801031112670898 -5.995702743530273 -1.6914482116699219
8.911128044128418 -6.488415241241455 -1.7126073837280273
8.882142066955566 -6.522823333740234 -1.7070367336273193
8.915977478027344 -6.993469715118408 -1.7135393619537354
8.884069442749023 -7.023967266082764 -1.707406997680664
8.723245620727539 -7.360238552093506 -1.6764987707138062
8.644997596740723 -7.361755847930908 -1.661460518836975
8.616808891296387 -7.741663932800293 -1.6560429334640503
8.616808891296387 -7.808982849121094 -1.6560429334640503
8.616808891296387 -8.239823341369629 -1.6560429334640503
8.616808891296387 -8.320606231689453 -1.6560429334640503
6.261082172393799 6.153470039367676 -1.2130846977233887
6.3170881271362305 6.149290561676025 -1.223935842514038
8.748397827148438 8.078598976135254 -1.6950020790100098
8.78498649597168 8.03002643585205 -1.702091097831726
8.739997863769531 7.579216957092285 -1.6933746337890625
8.773695945739746 7.539895057678223 -1.6999036073684692
8.754007339477539 7.057918548583984 -1.6960889101028442
8.78498649597168 7.014262676239014 -1.702091097831726
8.756814956665039 6.553928375244141 -1.6966328620910645
8.785928726196289 6.520806312561035 -1.7022737264633179
8.747464179992676 6.0685529708862305 -1.6948211193084717
8.774636268615723 6.032562255859375 -1.7000856399536133
9.001208305358887 5.72420597076416 -1.7439842224121094
9.090102195739746 5.723923683166504 -1.7612072229385376
9.274312019348145 5.3906941413879395 -1.7968980073928833
9.298524856567383 5.346651554107666 -1.8015891313552856
9.321802139282227 5.301774978637695 -1.8060991764068604
9.272212982177734 4.853424072265625 -1.796491265296936
9.294304847717285 4.80689811706543 -1.8007714748382568
9.315442085266113 4.774164199829102 -1.804866909980774
9.271162986755371 4.287912845611572 -1.7962878942489624
9.290088653564453 4.238602638244629 -1.7999546527862549
9.309090614318848 4.203636169433594 -1.8036363124847412
9.328171730041504 4.153951168060303 -1.80733323097229
9.264872550964355 3.6914725303649902 -1.7950689792633057
9.280616760253906 3.654242753982544 -1.7981194257736206
9.297469139099121 3.6172964572906494 -1.801384687423706
9.313323974609375 3.5652568340301514 -1.8044565916061401
9.329233169555664 3.527616500854492 -1.8075389862060547
9.259635925292969 3.038318157196045 -1.7940545082092285
9.273262023925781 2.9993207454681396 -1.7966946363449097
9.285876274108887 2.9598729610443115 -1.7991385459899902
9.299579620361328 2.906118631362915 -1.8017935752868652
9.312265396118164 2.866431713104248 -1.8042514324188232
9.32498550415039 2.82663631439209 -1.806715965270996
9.260683059692383 2.2283518314361572 -1.7942572832107544
9.270113945007324 2.1871676445007324 -1.7960846424102783
9.27956485748291 2.1458992958068848 -1.7979156970977783
9.289034843444824 2.1045470237731934 -1.799750566482544
9.298524856567383 2.063110113143921 -1.8015891313552856
9.308032989501953 2.0215885639190674 -1.8034313917160034
9.31650161743164 1.9797565937042236 -1.8050721883773804
9.32498550415039 1.9378485679626465 -1.806715965270996
9.257543563842773 1.041473627090454 -1.7936489582061768
9.262777328491211 0.998643159866333 -1.7946630716323853
9.266968727111816 0.955656111240387 -1.7954751253128052
9.271162986755371 0.9126301407814026 -1.7962878942489624
9.275362014770508 0.8695651888847351 -1.7971014976501465
9.27851390838623 0.8263676762580872 -1.7977120876312256
9.282719612121582 0.7832294702529907 -1.7985268831253052
9.285876274108887 0.7544774413108826 -1.7991385459899902
9.289034843444824 0.7111917734146118 -1.799750566482544
9.292196273803711 0.6678766012191772 -1.8003629446029663
8.355772972106934 0.5614035129547119 -1.6189310550689697
8.355772972106934 0.5222358107566833 -1.6189310550689697
8.354921340942383 0.4830188751220703 -1.618765950202942
8.354921340942383 0.4438551664352417 -1.618765950202942
8.354068756103516 0.4046502113342285 -1.618600845336914
8.354068756103516 0.3785437345504761 -1.618600845336914
9.308032989501953 0.37813884019851685 -1.8034313917160034
9.310149192810059 0.33458346128463745 -1.8038413524627686
9.311206817626953 0.2909752130508423 -1.804046392440796
9.312265396118164 0.2473570555448532 -1.8042514324188232
9.313323974609375 0.20372897386550903 -1.8044565916061401
9.314383506774902 0.16009096801280975 -1.804661750793457
9.314383506774902 0.13098351657390594 -1.804661750793457
9.315442085266113 0.08733227103948593 -1.804866909980774
9.315442085266113 0.043666135519742966 -1.804866909980774
9.315442085266113 0.0 -1.804866909980774
9.315442085266113 -0.043666135519742966 -1.804866909980774
9.315442085266113 -0.08733227103948593 -1.804866909980774
9.314383506774902 -0.13098351657390594 -1.804661750793457
9.314383506774902 -0.16009096801280975 -1.804661750793457
9.313323974609375 -0.20372897386550903 -1.8044565916061401
9.312265396118164 -0.2473570555448532 -1.8042514324188232
9.311206817626953 -0.2909752130508423 -1.804046392440796
9.310149192810059 -0.33458346128463745 -1.8038413524627686
9.308032989501953 -0.37813884019851685 -1.8034313917160034
9.30591869354248 -0.4216744303703308 -1.8030216693878174
9.304861068725586 -0.4507042169570923 -1.8028168678283691
9.30274772644043 -0.4942084848880768 -1.8024075031280518
9.299579620361328 -0.5376319885253906 -1.8017935752868652
9.297469139099121 -0.5810918211936951 -1.801384687423706
9.295358657836914 -0.6245319247245789 -1.8009757995605469
9.292196273803711 -0.6678766012191772 -1.8003629446029663
9.289034843444824 -0.7111917734146118 -1.799750566482544
9.285876274108887 -0.7544774413108826 -1.7991385459899902
9.282719612121582 -0.7832294702529907 -1.7985268831253052
9.27851390838623 -0.8263676762580872 -1.7977120876312256
9.275362014770508 -0.8695651888847351 -1.7971014976501465
8.78404426574707 -0.8646793961524963 -1.7019085884094238
8.39000415802002 -0.8652191758155823 -1.6255632638931274
8.358330726623535 -0.9011325240135193 -1.6194266080856323
8.358330726623535 -0.9403122067451477 -1.6194266080856323
9.32498550415039 -1.9378485679626465 -1.806715965270996
9.31650161743164 -1.9797565937042236 -1.8050721883773804
9.308032989501953 -2.0215885639190674 -1.8034313917160034
9.298524856567383 -2.063110113143921 -1.8015891313552856
9.289034843444824 -2.1045470237731934 -1.799750566482544
9.27956485748291 -2.1458992958068848 -1.7979156970977783
9.270113945007324 -2.1871676445007324 -1.7960846424102783
9.260683059692383 -2.2283518314361572 -1.7942572832107544
8.791585922241211 -2.664949655532837 -1.7033698558807373
8.780278205871582 -2.7026796340942383 -1.701179027557373
8.768061637878418 -2.7400193214416504 -1.6988118886947632
8.755878448486328 -2.790936231613159 -1.6964514255523682
8.742795944213867 -2.8277480602264404 -1.6939167976379395
8.730683326721191 -2.864755392074585 -1.6915698051452637
8.795361518859863 -3.3257462978363037 -1.704101324081421
8.780278205871582 -3.3612003326416016 -1.701179027557373
8.765247344970703 -3.410228967666626 -1.698266625404358
8.750267028808594 -3.445417642593384 -1.695364236831665
8.73533821105957 -3.4804861545562744 -1.6924717426300049
8.794417381286621 -3.916264057159424 -1.70391845703125
8.77651596069336 -3.9631454944610596 -1.7004499435424805
8.758687019348145 -3.9961509704589844 -1.6969956159591675
8.740930557250977 -4.042680263519287 -1.693555235862732
8.782160758972168 -4.500857830047607 -1.7015436887741089
8.762434959411621 -4.5318217277526855 -1.6977217197418213
8.741863250732422 -4.57581901550293 -1.693735957145691
8.788756370544434 -4.998605251312256 -1.7028216123580933
8.76618480682373 -5.04055643081665 -1.6984484195709229
8.743729591369629 -5.082292556762695 -1.6940975189208984
8.777456283569336 -5.527054309844971 -1.7006322145462036
8.753071784973145 -5.566406726837158 -1.695907711982727
8.773695945739746 -6.03191614151001 -1.6999036073684692
8.747464179992676 -6.0685529708862305 -1.6948211193084717
8.853344917297363 -6.5708417892456055 -1.7153356075286865
8.823782920837402 -6.604050159454346 -1.7096079587936401
8.853344917297363 -7.06884241104126 -1.7153356075286865
8.821882247924805 -7.112642765045166 -1.7092397212982178
8.616808891296387 -7.405069828033447 -1.6695066690444946
8.616808891296387 -7.472388744354248 -1.6695066690444946
8.616808891296387 -7.8763017654418945 -1.6695066690444946
8.616808891296387 -7.9570841789245605 -1.6695066690444946
8.616808891296387 -8.387925148010254 -1.6695066690444946
8.616808891296387 -8.468707084655762 -1.6695066690444946
6.150150299072266 6.150150299072266 -1.2012012004852295
6.20559024810791 6.14741325378418 -1.2120293378829956
6.531653881072998 6.133631229400635 -1.275713562965393
8.71303939819336 8.114018440246582 -1.701765537261963
8.67153549194336 7.655340194702148 -1.6936593055725098
8.705632209777832 7.617428302764893 -1.7003188133239746
8.658703804016113 7.170489311218262 -1.6911531686782837
8.690855026245117 7.129217147827148 -1.6974326372146606
8.72231674194336 7.086882591247559 -1.7035775184631348
8.667865753173828 6.676965236663818 -1.692942500114441
8.698237419128418 6.632406234741211 -1.6988744735717773
8.72696304321289 6.599765777587891 -1.7044849395751953
8.666031837463379 6.188088417053223 -1.6925843954086304
8.693621635437012 6.153454303741455 -1.6979730129241943
8.720459938049316 6.117947578430176 -1.7032147645950317
8.746529579162598 5.72624397277832 -1.7083066701889038
8.825684547424316 5.722904682159424 -1.7237664461135864
8.913066864013672 5.723860263824463 -1.7408334016799927
9.201393127441406 5.520835876464844 -1.7971470355987549
9.226263999938965 5.478094577789307 -1.8020046949386597
9.250226020812988 5.434507846832275 -1.8066847324371338
9.18488597869873 5.008633136749268 -1.7939231395721436
9.206562995910645 4.977298259735107 -1.7981568574905396
9.22834300994873 4.931395530700684 -1.8024107217788696
9.250226020812988 4.885275363922119 -1.8066847324371338
9.193132400512695 4.45292329788208 -1.7955336570739746
9.212775230407715 4.404858112335205 -1.7993701696395874
9.232502937316895 4.371013164520264 -1.8032232522964478
9.252315521240234 4.322566032409668 -1.8070927858352661
9.197260856628418 3.8513529300689697 -1.796339988708496
9.214848518371582 3.815523147583008 -1.7997750043869019
9.231462478637695 3.779129981994629 -1.8030200004577637
9.248137474060059 3.7281553745269775 -1.806276798248291
9.190037727355957 3.245232105255127 -1.7949292659759521
9.20449447631836 3.207190990447998 -1.797752857208252
9.217958450317383 3.1542701721191406 -1.8003826141357422
9.232502937316895 3.1159698963165283 -1.8032232522964478
9.246049880981445 3.0772008895874023 -1.8058691024780273
9.18591594696045 2.5261268615722656 -1.7941242456436157
9.197260856628418 2.4861345291137695 -1.796339988708496
9.208633422851562 2.431654691696167 -1.7985610961914062
9.218996047973633 2.391177177429199 -1.800585150718689
9.229382514953613 2.3506083488464355 -1.8026137351989746
9.239792823791504 2.309948205947876 -1.8046469688415527
9.250226020812988 2.269196033477783 -1.8066847324371338
9.189007759094238 1.5362871885299683 -1.7947280406951904
9.19622802734375 1.4943870306015015 -1.7961382865905762
9.202425956726074 1.4522578716278076 -1.7973488569259644
9.208633422851562 1.4100719690322876 -1.7985610961914062
9.214848518371582 1.3678289651870728 -1.7997750043869019
9.221071243286133 1.3255290985107422 -1.8009905815124512
9.227303504943848 1.2831718921661377 -1.8022077083587646
9.232502937316895 1.2406176328659058 -1.8032232522964478
9.237709045410156 1.1980153322219849 -1.8042399883270264
9.242919921875 1.155364990234375 -1.805257797241211
9.248137474060059 1.1126664876937866 -1.806276798248291
9.253360748291016 1.0843781232833862 -1.8072969913482666
8.359183311462402 -0.9795918464660645 -1.6326531171798706
8.360036849975586 -1.00581693649292 -1.632819652557373
8.360036849975586 -1.0450046062469482 -1.632819652557373
9.237709045410156 -1.1980153322219849 -1.8042399883270264
9.232502937316895 -1.2406176328659058 -1.8032232522964478
9.227303504943848 -1.2831718921661377 -1.8022077083587646
9.221071243286133 -1.3255290985107422 -1.8009905815124512
9.214848518371582 -1.3678289651870728 -1.7997750043869019
9.208633422851562 -1.4100719690322876 -1.7985610961914062
9.202425956726074 -1.4522578716278076 -1.7973488569259644
9.19622802734375 -1.4943870306015015 -1.7961382865905762
9.189007759094238 -1.5362871885299683 -1.7947280406951904
9.250226020812988 -2.269196033477783 -1.8066847324371338
9.177682876586914 -2.2944207191467285 -1.7925162315368652
9.007146835327148 -2.2940077781677246 -1.75920832157135
8.859089851379395 -2.2978262901306152 -1.7302908897399902
8.724174499511719 -2.303727388381958 -1.7039403915405273
8.67153549194336 -2.344024658203125 -1.6936593055725098
8.661450386047363 -2.381898880004883 -1.6916896104812622
8.717676162719727 -2.9013514518737793 -1.7026710510253906
8.704707145690918 -2.9378387928009033 -1.7001380920410156
8.690855026245117 -2.9739019870758057 -1.6974326372146606
8.677966117858887 -3.023728847503662 -1.6949152946472168
8.664198875427246 -3.0595452785491943 -1.6922262907028198
8.719532012939453 -3.515061140060425 -1.7030335664749146
8.703782081604004 -3.563110828399658 -1.6999574899673462
8.687169075012207 -3.5970306396484375 -1.696712613105774
8.67153549194336 -3.6312055587768555 -1.6936593055725098
8.723245620727539 -4.0753912925720215 -1.703758955001831
8.704707145690918 -4.1211347579956055 -1.7001380920410156
8.686247825622559 -4.153111934661865 -1.6965327262878418
8.667865753173828 -4.198497295379639 -1.692942500114441
8.72138786315918 -4.605983257293701 -1.703396201133728
8.701008796691895 -4.649601936340332 -1.6994158029556274
8.679804801940918 -4.692519664764404 -1.6952744722366333
8.658703804016113 -4.7216997146606445 -1.6911531686782837
8.72138786315918 -5.123815536499023 -1.703396201133728
8.698237419128418 -5.164578437805176 -1.6988744735717773
8.675209045410156 -5.205125331878662 -1.694376826286316
8.727892875671387 -5.604943752288818 -1.7046664953231812
8.702857971191406 -5.643259525299072 -1.6997768878936768
8.677046775817871 -5.6807541847229 -1.6947357654571533
8.719532012939453 -6.11729621887207 -1.7030335664749146
8.692699432373047 -6.152801513671875 -1.697792887687683
8.665115356445312 -6.18743371963501 -1.692405343055725
8.794417381286621 -6.650778293609619 -1.7176597118377686
8.765247344970703 -6.68350076675415 -1.711962342262268
8.73533821105957 -6.728940010070801 -1.7061207294464111
8.78969955444336 -7.141631126403809 -1.716738224029541
8.757750511169434 -7.1840925216674805 -1.7104982137680054
8.726033210754395 -7.226246356964111 -1.7043033838272095
8.616808891296387 -7.539707660675049 -1.682970404624939
8.616808891296387 -7.60702657699585 -1.682970404624939
8.616808891296387 -8.024402618408203 -1.682970404624939
8.616808891296387 -8.091721534729004 -1.682970404624939
8.616808891296387 -8.536026000976562 -1.682970404624939
6.431150913238525 6.149787902832031 -1.2661328315734863
6.488712787628174 6.154138565063477 -1.2774653434753418
8.60323429107666 7.729468822479248 -1.6937618255615234
8.63770580291748 7.692956447601318 -1.7005482912063599
8.595110893249512 7.252124786376953 -1.6921623945236206
8.626790046691895 7.211457252502441 -1.698399305343628
8.608658790588379 6.752417087554932 -1.6948297023773193
8.638616561889648 6.708425521850586 -1.7007275819778442
8.610468864440918 6.269497394561768 -1.6951860189437866
8.638616561889648 6.236001491546631 -1.7007275819778442
8.601428031921387 5.80596399307251 -1.693406105041504
8.626790046691895 5.769165992736816 -1.698399305343628
8.67153549194336 5.744892597198486 -1.7072086334228516
9.12757682800293 5.633426189422607 -1.7969915866851807
9.152050018310547 5.591330528259277 -1.8018099069595337
9.176654815673828 5.549008846282959 -1.8066539764404297
9.116403579711914 5.142221450805664 -1.7947919368743896
9.13979721069336 5.098292827606201 -1.7993974685668945
9.162285804748535 5.0535736083984375 -1.8038250207901
9.112346649169922 4.613125801086426 -1.793993353843689
9.133682250976562 4.566841125488281 -1.7981938123703003
9.153072357177734 4.533631324768066 -1.8020111322402954
9.173572540283203 4.4864501953125 -1.8060470819473267
9.12757682800293 4.021838665008545 -1.7969915866851807
9.144898414611816 3.9866042137145996 -1.8004019260406494
9.162285804748535 3.936919689178467 -1.8038250207901
9.179739952087402 3.9013895988464355 -1.807261347770691
9.115388870239258 3.446756362915039 -1.7945921421051025
9.13062858581543 3.409719228744507 -1.7975925207138062
9.145919799804688 3.358267307281494 -1.800602912902832
9.160237312316895 3.3205859661102295 -1.8034216165542603
9.175627708435059 3.283154010772705 -1.8064515590667725
9.115388870239258 2.7631022930145264 -1.7945921421051025
9.12757682800293 2.724011182785034 -1.7969915866851807
9.13979721069336 2.6848154067993164 -1.7993974685668945
9.152050018310547 2.645514488220215 -1.8018099069595337
9.163311004638672 2.605816602706909 -1.8040268421173096
9.174599647521973 2.5660207271575928 -1.8062492609024048
9.112346649169922 1.9363737106323242 -1.793993353843689
9.120463371276855 1.8953462839126587 -1.7955912351608276
9.128593444824219 1.8542455434799194 -1.797191858291626
9.136738777160645 1.813071608543396 -1.798795461654663
9.144898414611816 1.7718241214752197 -1.8004019260406494
9.153072357177734 1.7305028438568115 -1.8020111322402954
9.160237312316895 1.6889187097549438 -1.8034216165542603
9.167412757873535 1.6472694873809814 -1.8048343658447266
9.175627708435059 1.6200716495513916 -1.8064515590667725
9.181797981262207 1.578121542930603 -1.8076664209365845
9.111333847045898 0.24201980233192444 -1.793793797492981
9.112346649169922 0.199332594871521 -1.793993353843689
9.113360404968262 0.15663589537143707 -1.794192910194397
9.114375114440918 0.1281708925962448 -1.794392466545105
9.114375114440918 0.0854472666978836 -1.794392466545105
9.115388870239258 0.04272838681936264 -1.7945921421051025
9.115388870239258 0.0 -1.7945921421051025
9.115388870239258 -0.04272838681936264 -1.7945921421051025
9.114375114440918 -0.0854472666978836 -1.794392466545105
9.114375114440918 -0.1281708925962448 -1.794392466545105
9.113360404968262 -0.15663589537143707 -1.794192910194397
9.112346649169922 -0.199332594871521 -1.793993353843689
9.111333847045898 -0.24201980233192444 -1.793793797492981
9.181797981262207 -1.578121542930603 -1.8076664209365845
9.175627708435059 -1.6200716495513916 -1.8064515590667725
9.167412757873535 -1.6472694873809814 -1.8048343658447266
9.160237312316895 -1.6889187097549438 -1.8034216165542603
9.153072357177734 -1.7305028438568115 -1.8020111322402954
9.144898414611816 -1.7718241214752197 -1.8004019260406494
9.136738777160645 -1.813071608543396 -1.798795461654663
9.128593444824219 -1.8542455434799194 -1.797191858291626
9.120463371276855 -1.8953462839126587 -1.7955912351608276
9.112346649169922 -1.9363737106323242 -1.793993353843689
8.65047550201416 -2.4194297790527344 -1.7030622959136963
8.639527320861816 -2.4568655490875244 -1.7009069919586182
8.689932823181152 -2.5119338035583496 -1.710830569267273
8.617714881896973 -2.531453847885132 -1.6966127157211304
8.605945587158203 -2.5683369636535645 -1.6942956447601318
8.594208717346191 -2.6051197052001953 -1.6919848918914795
8.65047550201416 -3.095248222351074 -1.7030622959136963
8.636795043945312 -3.13083815574646 -1.7003690004348755
8.6222505569458 -3.165982484817505 -1.6975054740905762
8.608658790588379 -3.2147960662841797 -1.6948297023773193
8.594208717346191 -3.249685287475586 -1.6919848918914795
8.655044555664062 -3.678394079208374 -1.703961968421936
8.638616561889648 -3.7119054794311523 -1.7007275819778442
8.6222505569458 -3.7587621212005615 -1.6975054740905762
8.605042457580566 -3.7915966510772705 -1.6941176652908325
8.648648262023926 -4.229729652404785 -1.7027027606964111
8.6295166015625 -4.2743072509765625 -1.698936104774475
8.610468864440918 -4.305234432220459 -1.6951860189437866
8.59150505065918 -4.349449634552002 -1.6914525032043457
8.63770580291748 -4.76423454284668 -1.7005482912063599
8.616808891296387 -4.806563377380371 -1.6964342594146729
8.595110893249512 -4.848179817199707 -1.6921623945236206
8.652302742004395 -5.231939315795898 -1.7034220695495605
8.628607749938965 -5.271539688110352 -1.6987570524215698
8.605042457580566 -5.310924530029297 -1.6941176652908325
8.652302742004395 -5.732150554656982 -1.7034220695495605
8.625882148742676 -5.768558502197266 -1.6982204914093018
8.60052490234375 -5.805354118347168 -1.6932283639907837
8.63770580291748 -6.235343933105469 -1.7005482912063599
8.609563827514648 -6.268838882446289 -1.6950079202651978
8.704707145690918 -6.759749412536621 -1.713739275932312
8.674290657043457 -6.803896427154541 -1.707750916481018
8.693621635437012 -7.267324447631836 -1.7115567922592163
8.660534858703613 -7.307326316833496 -1.705042839050293
8.616808891296387 -7.674345016479492 -1.6964342594146729
8.616808891296387 -7.741663932800293 -1.6964342594146729
8.616808891296387 -8.172504425048828 -1.6964342594146729
8.616808891296387 -8.239823341369629 -1.6964342594146729
6.3170881271362305 6.149290561676025 -1.253547191619873
6.374104976654053 6.154995441436768 -1.2648614645004272
8.533333778381348 7.800000190734863 -1.693333387374878
8.569037437438965 7.765690326690674 -1.7004183530807495
8.528891563415527 7.3295159339904785 -1.69245183467865
8.561872482299805 7.2909698486328125 -1.698996663093567
8.546687126159668 6.823995590209961 -1.6959832906723022
8.578010559082031 6.781989574432373 -1.7021989822387695
8.525341033935547 6.380684852600098 -1.6917473077774048
8.552933692932129 6.3478803634643555 -1.6972228288650513
8.582504272460938 6.302776336669922 -1.7030906677246094
8.548471450805664 5.877073764801025 -1.6963372230529785
8.575316429138184 5.841934680938721 -1.7016644477844238
9.001208305358887 5.72420597076416 -1.786177396774292
9.077008247375488 5.715678691864014 -1.801218867301941
9.102222442626953 5.674666881561279 -1.8062222003936768
9.046935081481934 5.258531093597412 -1.7952512502670288
9.070978164672852 5.2158122062683105 -1.8000221252441406
9.094138145446777 5.172291278839111 -1.8046181201934814
9.049933433532715 4.737074851989746 -1.7958462238311768
9.070978164672852 4.691396236419678 -1.8000221252441406
9.092120170593262 4.6597113609313965 -1.8042175769805908
9.053934097290039 4.187444686889648 -1.796640157699585
9.072986602783203 4.13955020904541 -1.800420880317688
9.091111183166504 4.1052045822143555 -1.8040173053741455
9.109307289123535 4.056488513946533 -1.8076281547546387
9.051933288574219 3.6066298484802246 -1.7962430715560913
9.067965507507324 3.5705113410949707 -1.799424409866333
9.084053993225098 3.5342648029327393 -1.8026169538497925
9.100199699401855 3.483670234680176 -1.8058209419250488
9.051933288574219 2.970165729522705 -1.7962430715560913
9.06495475769043 2.9319465160369873 -1.798827052116394
9.078014373779297 2.8936169147491455 -1.801418423652649
9.090102195739746 2.8406569957733154 -1.8038171529769897
9.103233337402344 2.802089214324951 -1.8064229488372803
9.046935081481934 2.2193262577056885 -1.7952512502670288
9.056937217712402 2.179325580596924 -1.7972360849380493
9.065958023071289 2.1389994621276855 -1.7990261316299438
9.076003074645996 2.098825693130493 -1.801019310951233
9.085062026977539 2.0583343505859375 -1.8028168678283691
9.094138145446777 2.0177619457244873 -1.8046181201934814
9.103233337402344 1.9771085977554321 -1.8064229488372803
9.043938636779785 1.1304923295974731 -1.7946566343307495
9.048933982849121 1.0886999368667603 -1.7956478595733643
9.053934097290039 1.0610079765319824 -1.796640157699585
9.057938575744629 1.0190181732177734 -1.7974348068237305
9.062949180603027 0.9770992398262024 -1.798429012298584
9.066962242126465 0.935030460357666 -1.7992252111434937
9.070978164672852 0.8929243683815002 -1.8000221252441406
9.074996948242188 0.8507809638977051 -1.800819754600525
9.079020500183105 0.8086002469062805 -1.8016180992126465
9.082039833068848 0.7662971019744873 -1.8022172451019287
9.086069107055664 0.7382431030273438 -1.8030169010162354
9.089093208312988 0.6958837509155273 -1.803617000579834
9.092120170593262 0.6534960865974426 -1.8042175769805908
8.383135795593262 0.5632418990135193 -1.6635284423828125
8.383135795593262 0.5239459872245789 -1.6635284423828125
8.382277488708496 0.4846004247665405 -1.663358211517334
8.382277488708496 0.44530850648880005 -1.663358211517334
8.382277488708496 0.40601658821105957 -1.663358211517334
8.381420135498047 0.37978309392929077 -1.663188099861145
9.107281684875488 0.3699833154678345 -1.8072261810302734
9.109307289123535 0.3273657262325287 -1.8076281547546387
9.110320091247559 0.2846975028514862 -1.8078291416168213
9.110320091247559 -0.2846975028514862 -1.8078291416168213
9.109307289123535 -0.3273657262325287 -1.8076281547546387
9.107281684875488 -0.3699833154678345 -1.8072261810302734
9.106269836425781 -0.41262784600257874 -1.8070253133773804
9.10424518585205 -0.44098687171936035 -1.8066236972808838
9.102222442626953 -0.48355555534362793 -1.8062222003936768
9.099188804626465 -0.526046872138977 -1.8056203126907349
9.09716796875 -0.568572998046875 -1.805219292640686
9.094138145446777 -0.6110124588012695 -1.8046181201934814
9.092120170593262 -0.6534960865974426 -1.8042175769805908
9.089093208312988 -0.6958837509155273 -1.803617000579834
9.086069107055664 -0.7382431030273438 -1.8030169010162354
9.082039833068848 -0.7662971019744873 -1.8022172451019287
9.079020500183105 -0.8086002469062805 -1.8016180992126465
9.074996948242188 -0.8507809638977051 -1.800819754600525
8.777456283569336 -0.8640308380126953 -1.741776466369629
8.384851455688477 -0.8646878004074097 -1.663869023323059
8.385709762573242 -0.904084324836731 -1.6640392541885376
8.386568069458008 -0.9434889554977417 -1.6642097234725952
8.386568069458008 -0.9828009605407715 -1.6642097234725952
8.38742733001709 -1.0091123580932617 -1.6643800735473633
8.388285636901855 -1.048535704612732 -1.6645504236221313
9.103233337402344 -1.9771085977554321 -1.8064229488372803
9.094138145446777 -2.0177619457244873 -1.8046181201934814
9.085062026977539 -2.0583343505859375 -1.8028168678283691
9.076003074645996 -2.098825693130493 -1.801019310951233
9.065958023071289 -2.1389994621276855 -1.7990261316299438
9.056937217712402 -2.179325580596924 -1.7972360849380493
9.046935081481934 -2.2193262577056885 -1.7952512502670288
8.582504272460938 -2.6418020725250244 -1.7030906677246094
8.570830345153809 -2.67838454246521 -1.7007741928100586
8.559188842773438 -2.7282416820526123 -1.6984641551971436
8.546687126159668 -2.7643191814422607 -1.6959832906723022
8.534222602844238 -2.8002917766571045 -1.6935096979141235
8.57980728149414 -3.2844574451446533 -1.702555537223816
8.564558029174805 -3.332148551940918 -1.6995295286178589
8.549363136291504 -3.36631178855896 -1.6965142488479614
8.535111427307129 -3.4007084369659424 -1.6936861276626587
8.587902069091797 -3.8243002891540527 -1.7041618824005127
8.570830345153809 -3.8702657222747803 -1.7007741928100586
8.553827285766602 -3.9026834964752197 -1.6973999738693237
8.536001205444336 -3.9479002952575684 -1.6938626766204834
8.571727752685547 -4.393010139465332 -1.700952172279358
8.552041053771973 -4.423008441925049 -1.6970455646514893
8.532444953918457 -4.466201305389404 -1.6931569576263428
8.573521614074707 -4.876190662384033 -1.701308250427246
8.551148414611816 -4.916910171508789 -1.6968684196472168
8.529779434204102 -4.957934379577637 -1.692628026008606
8.580705642700195 -5.349534034729004 -1.7027338743209839
8.557400703430176 -5.388488292694092 -1.6981092691421509
8.533333778381348 -5.426666736602783 -1.693333387374878
8.574419021606445 -5.841322898864746 -1.7014862298965454
8.548471450805664 -5.877073764801025 -1.6963372230529785
8.581604957580566 -6.3021159172058105 -1.7029122114181519
8.62043571472168 -6.397979736328125 -1.7106176614761353
8.59150505065918 -6.430204391479492 -1.7048767805099487
8.644085884094238 -6.834230422973633 -1.7153106927871704
8.614089965820312 -6.87781286239624 -1.7093585729599
8.628607749938965 -7.347798824310303 -1.7122392654418945
8.595110893249512 -7.386423110961914 -1.7055922746658325
8.616808891296387 -7.808982849121094 -1.7098979949951172
8.599621772766113 -7.860591888427734 -1.7064875364303589
8.616808891296387 -8.320606231689453 -1.7098979949951172
8.595110893249512 -8.366803169250488 -1.7055922746658325
6.261082172393799 6.153470039367676 -1.2522164583206177
8.46368408203125 7.881805896759033 -1.6927368640899658
8.498806953430176 7.848116874694824 -1.6997613906860352
8.46368408203125 7.405723571777344 -1.6927368640899658
8.496162414550781 7.3677659034729 -1.699232578277588
8.485601425170898 6.8945512771606445 -1.6971203088760376
8.516477584838867 6.866410255432129 -1.7032955884933472
8.468058586120605 6.456894874572754 -1.693611741065979
8.496162414550781 6.425222873687744 -1.699232578277588
8.468934059143066 5.994417667388916 -1.693786859512329
8.501452445983887 5.964300632476807 -1.700290560722351
8.521793365478516 5.911993980407715 -1.704358696937561
8.739997863769531 5.7219672203063965 -1.7479995489120483
8.825684547424316 5.722904682159424 -1.7651368379592896
8.913066864013672 5.723860263824463 -1.7826133966445923
8.976550102233887 5.38593053817749 -1.795310139656067
9.000219345092773 5.343880653381348 -1.8000439405441284
9.024014472961426 5.301608085632324 -1.8048027753829956
8.986397743225098 4.85827112197876 -1.7972794771194458
9.008137702941895 4.813723564147949 -1.8016273975372314
9.028986930847168 4.768434047698975 -1.8057974576950073
8.97851848602295 4.34896993637085 -1.795703649520874
8.997254371643066 4.301812171936035 -1.7994508743286133
9.016068458557129 4.268545150756836 -1.8032137155532837
9.034961700439453 4.2210211753845215 -1.8069924116134644
8.986397743225098 3.7630538940429688 -1.7972794771194458
9.00318717956543 3.727882146835327 -1.8006374835968018
9.020039558410645 3.6925787925720215 -1.804007887840271
9.035958290100098 3.642620801925659 -1.8071917295455933
8.983441352844238 3.1722776889801025 -1.796688199043274
8.997254371643066 3.1349806785583496 -1.7994508743286133
9.011110305786133 3.083489179611206 -1.8022220134735107
9.025008201599121 3.045940399169922 -1.8050016164779663
9.037952423095703 3.007943630218506 -1.8075904846191406
8.973600387573242 2.5098040103912354 -1.79472017288208
8.984426498413086 2.470717191696167 -1.7968852519989014
8.995278358459473 2.4315361976623535 -1.7990556955337524
9.006156921386719 2.378188133239746 -1.8012312650680542
9.016068458557129 2.3385426998138428 -1.8032137155532837
9.026997566223145 2.2990634441375732 -1.8053994178771973
9.036954879760742 2.2592387199401855 -1.8073910474777222
8.97065258026123 1.6119141578674316 -1.794130563735962
8.977534294128418 1.5850958824157715 -1.7955068349838257
8.984426498413086 1.5441982746124268 -1.7968852519989014
8.991329193115234 1.5032378435134888 -1.798265814781189
8.998242378234863 1.462214469909668 -1.7996485233306885
9.00417709350586 1.4209716320037842 -1.800835371017456
9.01011848449707 1.3796744346618652 -1.8020237684249878
9.016068458557129 1.338322639465332 -1.8032137155532837
9.022026062011719 1.2969162464141846 -1.8044053316116333
9.027992248535156 1.2554551362991333 -1.8055983781814575
9.033966064453125 1.2139390707015991 -1.8067930936813354
9.038949966430664 1.172238826751709 -1.807789921760559
9.038949966430664 -1.172238826751709 -1.807789921760559
9.033966064453125 -1.2139390707015991 -1.8067930936813354
9.027992248535156 -1.2554551362991333 -1.8055983781814575
9.022026062011719 -1.2969162464141846 -1.8044053316116333
9.016068458557129 -1.338322639465332 -1.8032137155532837
9.01011848449707 -1.3796744346618652 -1.8020237684249878
9.00417709350586 -1.4209716320037842 -1.800835371017456
8.998242378234863 -1.462214469909668 -1.7996485233306885
8.991329193115234 -1.5032378435134888 -1.798265814781189
8.984426498413086 -1.5441982746124268 -1.7968852519989014
8.977534294128418 -1.5850958824157715 -1.7955068349838257
8.97065258026123 -1.6119141578674316 -1.794130563735962
9.036954879760742 -2.2592387199401855 -1.8073910474777222
9.007146835327148 -2.2940077781677246 -1.8014293909072876
8.842832565307617 -2.293609619140625 -1.7685664892196655
8.692699432373047 -2.2954158782958984 -1.7385399341583252
8.561872482299805 -2.3143813610076904 -1.7123745679855347
8.470685958862305 -2.3294384479522705 -1.6941370964050293
8.460187911987305 -2.366208791732788 -1.692037582397461
8.521793365478516 -2.8361594676971436 -1.704358696937561
8.509400367736816 -2.871922731399536 -1.7018800973892212
8.496162414550781 -2.907280683517456 -1.699232578277588
8.482965469360352 -2.9557833671569824 -1.696593165397644
8.469809532165527 -2.990901470184326 -1.6939619779586792
8.519134521484375 -3.4342761039733887 -1.703826904296875
8.504100799560547 -3.4813661575317383 -1.7008200883865356
8.488239288330078 -3.5146617889404297 -1.6976479291915894
8.47331428527832 -3.5482001304626465 -1.6946628093719482
8.518248558044434 -3.9796195030212402 -1.7036497592926025
8.501452445983887 -4.024906635284424 -1.700290560722351
8.482965469360352 -4.055918216705322 -1.696593165397644
8.464558601379395 -4.100020885467529 -1.6929117441177368
8.512937545776367 -4.4958953857421875 -1.702587604522705
8.492639541625977 -4.538254261016846 -1.6985279321670532
8.472437858581543 -4.580411434173584 -1.6944875717163086
8.507633209228516 -4.998234272003174 -1.7015266418457031
8.485601425170898 -5.038326263427734 -1.6971203088760376
8.462809562683105 -5.077685832977295 -1.6925619840621948
8.509400367736816 -5.464630603790283 -1.7018800973892212
8.484723091125488 -5.50181245803833 -1.6969445943832397
8.460187911987305 -5.538779258728027 -1.692037582397461
8.521793365478516 -5.911993980407715 -1.704358696937561
8.496162414550781 -5.9605889320373535 -1.699232578277588
8.469809532165527 -5.995037078857422 -1.6939619779586792
8.56276798248291 -6.475593090057373 -1.71255362033844
8.534222602844238 -6.507344722747803 -1.706844449043274
8.583403587341309 -6.920368671417236 -1.716680645942688
8.552041053771973 -6.948533058166504 -1.7104082107543945
8.56276798248291 -7.425525188446045 -1.71255362033844
8.529779434204102 -7.46355676651001 -1.7059558629989624
8.564558029174805 -7.908834457397461 -1.712911605834961
8.529779434204102 -7.943356990814209 -1.7059558629989624
8.558295249938965 -8.411199569702148 -1.7116589546203613
6.150150299072266 6.150150299072266 -1.2396396398544312
6.20559024810791 6.14741325378418 -1.2508143186569214
6.488712787628174 6.154138565063477 -1.307881236076355
6.531653881072998 6.133631229400635 -1.3165364265441895
8.396883964538574 7.4784746170043945 -1.6924968957901
8.430585861206055 7.442626476287842 -1.6992899179458618
8.392582893371582 7.015674591064453 -1.6916300058364868
8.424516677856445 6.976552963256836 -1.6980665922164917
8.454949378967285 6.935700416564941 -1.7042006254196167
8.40981388092041 6.5307464599609375 -1.6951031684875488
8.439270973205566 6.500875473022461 -1.701040506362915
8.414997100830078 6.074576377868652 -1.6961479187011719
8.441879272460938 6.028029441833496 -1.7015663385391235
8.571727752685547 5.732342720031738 -1.727738857269287
8.655959129333496 5.734572887420654 -1.744716763496399
8.903380393981934 5.495054721832275 -1.79458749294281
8.927637100219727 5.454228401184082 -1.7994768619537354
8.952027320861816 5.41317892074585 -1.80439293384552
8.920831680297852 4.976151466369629 -1.798105239868164
8.942255020141602 4.932212829589844 -1.802423357963562
8.964762687683105 4.888597011566162 -1.8069599866867065
8.918889045715332 4.459444522857666 -1.7977136373519897
8.93932819366455 4.427760601043701 -1.8018332719802856
8.958880424499512 4.3814520835876465 -1.8057743310928345
8.91791820526123 3.929457902908325 -1.797518014907837
8.93542766571045 3.8952879905700684 -1.8010470867156982
8.95300579071045 3.846994638442993 -1.804590106010437
8.969670295715332 3.81210994720459 -1.807949185371399
8.91015911102295 3.3691537380218506 -1.7959538698196411
8.925691604614258 3.333188056945801 -1.7990847826004028
8.940303802490234 3.2827675342559814 -1.8020298480987549
8.954962730407715 3.2461740970611572 -1.80498468875885
8.968688011169434 3.209108829498291 -1.8077512979507446
8.903380393981934 2.7405717372894287 -1.79458749294281
8.915006637573242 2.702361583709717 -1.7969311475753784
8.927637100219727 2.664341688156128 -1.7994768619537354
8.93932819366455 2.625927448272705 -1.8018332719802856
8.950071334838867 2.587129831314087 -1.8039987087249756
8.961820602416992 2.5485177040100098 -1.8063669204711914
8.907252311706543 1.9345438480377197 -1.7953680753707886
8.915977478027344 1.8946452140808105 -1.7971266508102417
8.923747062683105 1.854466199874878 -1.7986928224563599
8.932504653930664 1.8144149780273438 -1.8004579544067383
8.940303802490234 1.7740914821624756 -1.8020298480987549
8.948115348815918 1.7336974143981934 -1.8036046028137207
8.955942153930664 1.693232774734497 -1.8051819801330566
8.962800979614258 1.6525163650512695 -1.8065645694732666
8.411540985107422 0.5651504397392273 -1.695451259613037
8.410677909851074 0.5256673693656921 -1.695277214050293
8.410677909851074 0.48624229431152344 -1.695277214050293
8.40981388092041 0.44677138328552246 -1.6951031684875488
8.40981388092041 0.4073503613471985 -1.6951031684875488
8.40981388092041 0.38106971979141235 -1.6951031684875488
8.915006637573242 0.3621721565723419 -1.7969311475753784
8.916948318481445 0.32045280933380127 -1.7973222732543945
8.91791820526123 0.27868494391441345 -1.797518014907837
8.918889045715332 0.23690800368785858 -1.7977136373519897
8.91986083984375 0.19512194395065308 -1.7979093790054321
8.920831680297852 0.15332679450511932 -1.798105239868164
8.92180347442627 0.1254628598690033 -1.7983009815216064
8.92180347442627 0.0836419090628624 -1.7983009815216064
8.922775268554688 0.04182551056146622 -1.7984968423843384
8.922775268554688 0.0 -1.7984968423843384
8.922775268554688 -0.04182551056146622 -1.7984968423843384
8.92180347442627 -0.0836419090628624 -1.7983009815216064
8.92180347442627 -0.1254628598690033 -1.7983009815216064
