ply
format ascii 1.0
element vertex 599
property float32 x
property float32 y
property float32 z
property float32 CosAngle
property uint32 ObjIdx
property uint32 ObjTag
end_header
35.401493072509766 -7.248496055603027 3.4368951320648193 0.8354616761207581 0 3
33.01041030883789 -7.068222522735596 3.210792064666748 0.9940598607063293 0 3
32.05363082885742 -7.164843559265137 3.123858690261841 0.6408470869064331 0 3
31.68741226196289 -7.382246017456055 3.094507932662964 0.5194822549819946 0 3
31.563627243041992 -7.652714729309082 3.0889978408813477 0.9203317165374756 0 3
31.41165542602539 -7.9150390625 3.08095383644104 0.9272578358650208 0 3
31.219749450683594 -8.165390014648438 3.0691943168640137 0.9903234243392944 0 3
31.176347732543945 -8.453749656677246 3.0722649097442627 0.989334225654602 0 3
25.228540420532227 -7.084648132324219 2.4923059940338135 0.12365139275789261 0 3
24.416215896606445 -7.093574047088623 2.4182493686676025 0.43109968304634094 0 3
9.115976333618164 -2.737382650375366 0.9052677750587463 0.951600193977356 1050 7
9.113605499267578 -2.8260936737060547 0.9075157046318054 0.6918887495994568 1050 7
9.113188743591309 -2.915898323059082 0.9100446701049805 0.9461715817451477 1050 7
21.47871971130371 -7.08556604385376 2.151134967803955 0.16784532368183136 0 3
21.020145416259766 -7.144140243530273 2.111543655395508 0.470905601978302 0 3
20.687055587768555 -7.238710880279541 2.084526538848877 0.7251807451248169 0 3
20.44938850402832 -7.362226486206055 2.0671546459198 0.7312750816345215 0 3
20.274330139160156 -7.505448818206787 2.056187868118286 0.9081296324729919 0 3
20.125682830810547 -7.656503677368164 2.0479979515075684 0.9117604494094849 0 3
20.00733757019043 -7.817773342132568 2.0430119037628174 0.9918195605278015 0 3
19.9208927154541 -7.990819931030273 2.0414302349090576 0.99258953332901 0 3
19.83696746826172 -8.1646089553833 2.040254592895508 0.9671851992607117 0 3
19.807363510131836 -8.361113548278809 2.0448453426361084 0.9650134444236755 0 3
19.77762222290039 -8.558534622192383 2.0496253967285156 0.9627639055252075 0 3
19.417415618896484 -8.610390663146973 2.0202243328094482 0.41076114773750305 0 3
18.964340209960938 -8.613984107971191 1.9810514450073242 0.418883740901947 0 3
18.431312561035156 -8.572284698486328 1.9333295822143555 0.4295635521411896 0 3
18.01626968383789 -8.576777458190918 1.897789716720581 0.43759962916374207 0 3
17.70423698425293 -8.624003410339355 1.8730043172836304 0.44304773211479187 0 3
17.314105987548828 -8.62710952758789 1.8398462533950806 0.45103174448013306 0 3
16.865419387817383 -8.593358993530273 1.800294041633606 0.4514787793159485 0 3
13.792360305786133 -7.184218406677246 1.4790821075439453 0.9419068694114685 0 3
13.723520278930664 -7.305703163146973 1.4786735773086548 0.4747636318206787 0 3
13.41174030303955 -7.294960975646973 1.4520930051803589 0.8711690306663513 0 3
12.96658706665039 -7.204413890838623 1.410826563835144 0.6199725866317749 0 3
12.876659393310547 -7.306464672088623 1.4081205129623413 0.8353477716445923 0 3
12.736913681030273 -7.379081726074219 1.4000276327133179 0.8401774168014526 0 3
12.5987548828125 -7.450878620147705 1.392132043838501 0.8449398875236511 0 3
12.446533203125 -7.512460708618164 1.3827118873596191 0.9686222076416016 0 3
12.44328784942627 -7.663730144500732 1.3899388313293457 0.9928570985794067 0 3
12.365837097167969 -7.769980430603027 1.3890217542648315 0.993512749671936 0 3
12.28847599029541 -7.876073837280273 1.3882148265838623 0.994088351726532 0 3
12.211200714111328 -7.982089519500732 1.3875242471694946 0.9945840239524841 0 3
12.133991241455078 -8.087987899780273 1.3869450092315674 0.9949995279312134 0 3
11.999155044555664 -8.154608726501465 1.3798444271087646 0.9870449900627136 0 3
10.770700454711914 -7.461953163146973 1.2462300062179565 0.9812120199203491 0 3
10.223562240600586 -7.219550609588623 1.1903752088546753 0.8899559378623962 0 3
10.189933776855469 -7.333749771118164 1.1940717697143555 0.587921679019928 0 3
10.001440048217773 -7.335253715515137 1.1796537637710571 0.5951086282730103 0 3
9.817426681518555 -7.336718559265137 1.1656702756881714 0.6022475957870483 0 3
9.481245040893555 -7.219003677368164 1.1334025859832764 0.7250748872756958 0 3
9.39696979522705 -7.289023399353027 1.1311033964157104 0.9042991399765015 0 3
9.293097496032715 -7.343007564544678 1.1264903545379639 0.9080036878585815 0 3
9.190070152282715 -7.396543025970459 1.1220035552978516 0.9116353392601013 0 3
9.087848663330078 -7.449667930603027 1.1176429986953735 0.9151926636695862 0 3
8.948049545288086 -7.470370769500732 1.1086530685424805 0.9925090074539185 0 3
8.891862869262695 -7.559921741485596 1.1100538969039917 0.07272638380527496 0 3
8.908456802368164 -7.712851524353027 1.1207233667373657 0.9915549755096436 0 3
8.84665298461914 -7.799355506896973 1.1217048168182373 0.9906828999519348 0 3
8.7847261428833 -7.886034965515137 1.1227891445159912 0.9897312521934509 0 3
8.72268009185791 -7.972890377044678 1.1239588260650635 0.9886996746063232 0 3
8.660502433776855 -8.059921264648438 1.1252238750457764 0.9875885844230652 0 3
8.59817886352539 -8.147148132324219 1.1265825033187866 0.9863978624343872 0 3
8.447832107543945 -8.149824142456055 1.1164213418960571 0.9502211809158325 0 3
8.448195457458496 -8.297890663146973 1.1262726783752441 0.8064189553260803 0 3
30.96885108947754 30.968828201293945 3.8013763427734375 0.7104464769363403 0 3
30.97335433959961 30.422245025634766 3.768260955810547 0.7166903614997864 0 3
30.9777774810791 29.88505744934082 3.7360143661499023 0.7228766083717346 0 3
30.982128143310547 29.356952667236328 3.704606294631958 0.7290040850639343 0 3
5.221852779388428 4.859745979309082 0.619149923324585 0.7355256080627441 1167 15
5.222619533538818 4.773691177368164 0.6141355633735657 0.741532027721405 1167 15
5.223371505737305 4.689023494720459 0.6092488169670105 0.7474777102470398 1167 15
5.224113464355469 4.605683326721191 0.6044895648956299 0.7533634901046753 1167 15
5.224841117858887 4.523612976074219 0.599850594997406 0.7591896653175354 1167 15
5.225561618804932 4.442792892456055 0.5953318476676941 0.7649542093276978 1167 15
5.226266860961914 4.363183498382568 0.5909257531166077 0.7706564664840698 1167 15
5.226965427398682 4.284765720367432 0.5866318941116333 0.7762962579727173 1167 15
5.227648735046387 4.207441329956055 0.5824470520019531 0.7818742394447327 1167 15
5.228327751159668 4.131210803985596 0.5783677697181702 0.7873889207839966 1167 15
5.228991508483887 4.056015491485596 0.5743913054466248 0.7928414940834045 1167 15
5.229650974273682 3.981874942779541 0.5705140829086304 0.7982280254364014 1167 15
5.230299949645996 3.90869140625 0.5667338371276855 0.8035524487495422 1167 15
5.230939865112305 3.83648419380188 0.5630500912666321 0.8088107705116272 1167 15
5.231569766998291 3.76519513130188 0.5594572424888611 0.8140044808387756 1167 15
5.232192039489746 3.69482421875 0.5559543967247009 0.8191327452659607 1167 15
5.232807636260986 3.625312328338623 0.5525388717651367 0.8241943717002869 1167 15
5.233415603637695 3.5566210746765137 0.5492112636566162 0.829191267490387 1167 15
5.234015941619873 3.48876953125 0.5459657311439514 0.8341198563575745 1167 15
5.234609127044678 3.421699047088623 0.5428016781806946 0.8389819264411926 1167 15
5.235192775726318 3.355410099029541 0.5397181510925293 0.8437753915786743 1167 15
5.235774040222168 3.2898435592651367 0.5367118716239929 0.8485025763511658 1167 15
5.236345291137695 3.2250194549560547 0.5337806344032288 0.8531597256660461 1167 15
5.236911296844482 3.160878896713257 0.5309244990348816 0.8577494025230408 1167 15
5.237473011016846 3.0974414348602295 0.5281419157981873 0.8622695803642273 1167 15
5.238024711608887 3.0346288681030273 0.5254288911819458 0.8667211532592773 1167 15
5.238574028015137 2.972480297088623 0.5227870345115662 0.8711009621620178 1167 15
5.239116191864014 2.910937547683716 0.5202125310897827 0.8754127621650696 1167 15
5.239650726318359 2.8499999046325684 0.5177043080329895 0.879652202129364 1167 15
5.240185260772705 2.789628744125366 0.5152629017829895 0.8838219046592712 1167 15
5.240710258483887 2.729804515838623 0.5128843784332275 0.8879212737083435 1167 15
5.241230487823486 2.670546770095825 0.5105686783790588 0.8919477462768555 1167 15
5.280519962310791 2.631113290786743 0.5120741128921509 0.4364601969718933 1167 15
5.403700828552246 2.6322264671325684 0.5217078924179077 0.42745551466941833 1167 15
5.531862735748291 2.633496046066284 0.53177809715271 0.41936013102531433 1167 15
5.665075778961182 2.6348047256469727 0.5422883629798889 0.4112327992916107 1167 15
5.8036789894104 2.6361522674560547 0.553268551826477 0.4030705392360687 1167 15
5.948019981384277 2.637578010559082 0.5647487044334412 0.39487722516059875 1167 15
6.098481178283691 2.639042854309082 0.5767621994018555 0.3866509199142456 1167 15
6.255502700805664 2.6405858993530273 0.5893473625183105 0.37839409708976746 1167 15
6.419548034667969 2.642206907272339 0.602544367313385 0.3701073229312897 1167 15
6.591113090515137 2.6438865661621094 0.6163941621780396 0.3617919385433197 1167 15
6.77078104019165 2.645644426345825 0.630949854850769 0.35344475507736206 1167 15
6.959145545959473 2.6475000381469727 0.6462623476982117 0.3450700044631958 1167 15
34.21440505981445 12.665995597839355 3.166640043258667 0.9374223947525024 0 3
34.46412658691406 12.407851219177246 3.1793103218078613 0.8983346223831177 0 3
35.28284454345703 12.34603500366211 3.2444889545440674 0.3215641975402832 0 3
36.3504524230957 12.3544921875 3.332329034805298 0.3130876421928406 0 3
37.4775390625 12.36343765258789 3.4253392219543457 0.30458611249923706 0 3
38.32201385498047 12.26171875 3.4923198223114014 0.9516628384590149 0 3
38.32505798339844 11.884550094604492 3.4827423095703125 0.9542818665504456 0 3
38.32807922363281 11.509413719177246 3.4734838008880615 0.9568241238594055 0 3
38.33108901977539 11.13623046875 3.4645566940307617 0.9592891931533813 0 3
38.33407974243164 10.764921188354492 3.4559569358825684 0.9616771936416626 0 3
38.33705520629883 10.395448684692383 3.447672128677368 0.9639875292778015 0 3
38.34001541137695 10.027694702148438 3.439709424972534 0.9662203788757324 0 3
38.342952728271484 9.661601066589355 3.4320507049560547 0.9683755040168762 0 3
38.53203201293945 9.342246055603027 3.441328763961792 0.3686138689517975 0 3
39.506317138671875 9.203808784484863 3.520825147628784 0.3602908253669739 0 3
41.982791900634766 9.38427734375 3.733868360519409 0.07000892609357834 0 3
46.30847930908203 6.484687328338623 4.058623790740967 0.9477501511573792 0 6
47.29363250732422 -7.056035041809082 4.150341510772705 0.5849461555480957 0 3
43.778324127197266 -6.933808326721191 3.8471336364746094 0.31544917821884155 0 3
43.18042755126953 -7.236991882324219 3.800168991088867 0.8160455226898193 0 3
43.02549743652344 -7.608691215515137 3.792393207550049 0.8910089731216431 0 3
42.6882209777832 -7.944843769073486 3.76879620552063 0.9580331444740295 0 3
35.86968231201172 -7.009511470794678 3.172245979309082 0.34916719794273376 0 3
35.40272521972656 -7.248749732971191 3.1365716457366943 0.8360592722892761 0 3
33.011756896972656 -7.068495750427246 2.9302427768707275 0.9947651624679565 0 3
32.05458450317383 -7.165058612823486 2.850877046585083 0.6413090825080872 0 3
31.689149856567383 -7.382616996765137 2.8241569995880127 0.5198436379432678 0 3
31.59493064880371 -7.660292625427246 2.8217692375183105 0.9246201515197754 0 3
31.412782669067383 -7.915331840515137 2.8117382526397705 0.9279202222824097 0 3
31.22102928161621 -8.165741920471191 2.8010172843933105 0.9910258054733276 0 3
24.699472427368164 -6.697480201721191 2.2212400436401367 0.9594975709915161 0 3
24.888519287109375 -6.989160060882568 2.243788480758667 0.2769552767276764 0 3
24.41660499572754 -7.093671798706055 2.206895351409912 0.43141600489616394 0 3
9.116369247436523 -2.737499952316284 0.8261716961860657 0.9522730708122253 1050 7
9.098776817321777 -2.821523427963257 0.8268397450447083 0.865510106086731 1050 7
9.099349975585938 -2.9114842414855957 0.8292326331138611 0.712996780872345 1050 7
23.533031463623047 -7.763280868530273 2.1508522033691406 0.986228883266449 0 3
21.045955657958984 -7.152910232543945 1.9293335676193237 0.47127383947372437 0 3
20.704120635986328 -7.244668006896973 1.9038779735565186 0.7257056832313538 0 3
20.46625518798828 -7.368300437927246 1.8880113363265991 0.7318048477172852 0 3
20.288095474243164 -7.51052713394165 1.877719521522522 0.9087916016578674 0 3
20.139354705810547 -7.661698818206787 1.8702458143234253 0.9124248027801514 0 3
20.020004272460938 -7.822714805603027 1.8656061887741089 0.9925257563591003 0 3
19.933509826660156 -7.995898246765137 1.864159345626831 0.9932964444160461 0 3
19.849945068359375 -8.169960975646973 1.863127589225769 0.9677898287773132 0 3
19.820384979248047 -8.366621017456055 1.8673264980316162 0.965613603591919 0 3
19.79068374633789 -8.564199447631836 1.8716950416564941 0.9633594751358032 0 3
19.417436599731445 -8.6104097366333 1.8436368703842163 0.4110688865184784 0 3
18.9643497467041 -8.614004135131836 1.8078645467758179 0.41919779777526855 0 3
18.4432315826416 -8.577832221984863 1.7654694318771362 0.42044970393180847 0 3
18.02092170715332 -8.578984260559082 1.7323451042175293 0.42848923802375793 0 3
17.627954483032227 -8.58681583404541 1.7019151449203491 0.4884380102157593 0 3
17.31414031982422 -8.627089500427246 1.6790122985839844 0.4513694941997528 0 3
16.990516662597656 -8.657089233398438 1.655108094215393 0.8854340314865112 0 3
13.792956352233887 -7.184492111206055 1.3498499393463135 0.9425731897354126 0 3
13.723520278930664 -7.305703163146973 1.349417805671692 0.47511976957321167 0 3
13.412372589111328 -7.295292854309082 1.3252134323120117 0.8717818856239319 0 3
12.96673583984375 -7.204472541809082 1.2875159978866577 0.6204309463500977 0 3
12.87695026397705 -7.306621074676514 1.2850632667541504 0.8359552621841431 0 3
12.737204551696777 -7.379238128662109 1.277674674987793 0.8407885432243347 0 3
12.599044799804688 -7.451054573059082 1.2704722881317139 0.8455544114112854 0 3
12.446906089782715 -7.5126953125 1.2618815898895264 0.9693195819854736 0 3
12.476938247680664 -7.684453010559082 1.2718656063079834 0.9942715167999268 0 3
12.40035343170166 -7.791640281677246 1.2711411714553833 0.9948418140411377 0 3
12.323840141296387 -7.898749828338623 1.2705134153366089 0.9953320026397705 0 3
12.24740219116211 -8.005742073059082 1.269987940788269 0.9957420229911804 0 3
12.17101764678955 -8.112675666809082 1.2695691585540771 0.9960717558860779 0 3
11.999601364135742 -8.154921531677246 1.2592750787734985 0.9877488613128662 0 3
10.77102279663086 -7.46218729019165 1.1373258829116821 0.9819134473800659 0 3
10.224027633666992 -7.219902038574219 1.0863703489303589 0.8905830383300781 0 3
10.18994140625 -7.33376932144165 1.0896961688995361 0.5883623957633972 0 3
10.001447677612305 -7.335253715515137 1.0765342712402344 0.5955546498298645 0 3
9.817431449890137 -7.336718559265137 1.0637730360031128 0.6026992201805115 0 3
9.481328010559082 -7.219081878662109 1.0343317985534668 0.7256120443344116 0 3
9.397170066833496 -7.28917932510376 1.0322513580322266 0.9049587249755859 0 3
9.29330062866211 -7.343144416809082 1.0280412435531616 0.9086654186248779 0 3
9.190258979797363 -7.396698951721191 1.0239454507827759 0.9123005270957947 0 3
9.088029861450195 -7.44982385635376 1.0199652910232544 0.9158605933189392 0 3
8.948312759399414 -7.470585823059082 1.011772632598877 0.9932245016098022 0 3
8.895407676696777 -7.562949180603027 1.0134251117706299 0.07275155931711197 0 3
8.880227088928223 -7.688398361206055 1.019516110420227 0.9931104183197021 0 3
8.817849159240723 -7.773964881896973 1.0203245878219604 0.9923233985900879 0 3
8.755363464355469 -7.859687328338623 1.0212172269821167 0.9914565086364746 0 3
8.692763328552246 -7.945527076721191 1.0221928358078003 0.9905097484588623 0 3
8.63003921508789 -8.031561851501465 1.0232523679733276 0.989483118057251 0 3
8.567182540893555 -8.117773056030273 1.0243983268737793 0.9883769750595093 0 3
8.448156356811523 -8.150156021118164 1.0188660621643066 0.9508973360061646 0 3
8.448620796203613 -8.298280715942383 1.0278693437576294 0.8069835901260376 0 3
30.875438690185547 30.875429153442383 3.427408456802368 0.7108896374702454 0 3
30.975126266479492 30.42398452758789 3.4080188274383545 0.7171379327774048 0 3
30.979536056518555 29.886756896972656 3.3788537979125977 0.7233282923698425 0 3
30.98386573791504 29.358592987060547 3.3504490852355957 0.7294601798057556 0 3
5.222146034240723 4.860019207000732 0.5599604845046997 0.7359857559204102 1167 15
5.222909927368164 4.773964881896973 0.5554240345954895 0.7419957518577576 1167 15
5.22366189956665 4.689277172088623 0.551006019115448 0.7479464411735535 1167 15
5.224399089813232 4.605937480926514 0.5467008948326111 0.7538356781005859 1167 15
5.22512674331665 4.523867130279541 0.5425053238868713 0.7596653699874878 1167 15
5.225841999053955 4.443046569824219 0.538416862487793 0.7654333710670471 1167 15
5.226547718048096 4.363437175750732 0.5344315767288208 0.7711405158042908 1167 15
5.227241039276123 4.284980297088623 0.5305494666099548 0.7767849564552307 1167 15
5.227927207946777 4.207656383514404 0.5267643332481384 0.7823664546012878 1167 15
5.228598594665527 4.131425857543945 0.5230748057365417 0.7878844738006592 1167 15
5.229265213012695 4.056230545043945 0.5194776654243469 0.7933405637741089 1167 15
5.22991943359375 3.982070207595825 0.5159708857536316 0.7987316250801086 1167 15
5.230566501617432 3.908886671066284 0.5125523209571838 0.8040592670440674 1167 15
5.231203556060791 3.836679697036743 0.5092207193374634 0.8093208074569702 1167 15
5.231835842132568 3.7654101848602295 0.5059705972671509 0.8145178556442261 1167 15
5.232455730438232 3.695019483566284 0.5028032064437866 0.8196491599082947 1167 15
5.233068943023682 3.62548828125 0.4997144937515259 0.8247153759002686 1167 15
5.233676433563232 3.556816339492798 0.49670425057411194 0.8297140002250671 1167 15
5.234272480010986 3.488945245742798 0.49376845359802246 0.8346469402313232 1167 15
5.234865665435791 3.421875 0.4909074306488037 0.839512050151825 1167 15
5.235451698303223 3.3555662631988525 0.4881178140640259 0.84430992603302 1167 15
5.236027717590332 3.2899999618530273 0.4853990077972412 0.8490400314331055 1167 15
5.236596584320068 3.225175619125366 0.48274824023246765 0.8537001013755798 1167 15
5.237163066864014 3.1610546112060547 0.48016494512557983 0.8582926988601685 1167 15
5.237721920013428 3.0975780487060547 0.47764813899993896 0.8628169298171997 1167 15
5.238273620605469 3.034785032272339 0.4751954674720764 0.8672698736190796 1167 15
5.238820552825928 2.9726171493530273 0.47280532121658325 0.8716537356376648 1167 15
5.239362716674805 2.9110546112060547 0.4704762101173401 0.875968337059021 1167 15
5.239899635314941 2.85009765625 0.46820876002311707 0.8802118897438049 1167 15
5.240427017211914 2.789726495742798 0.466000497341156 0.884384036064148 1167 15
5.240954399108887 2.729921817779541 0.46384841203689575 0.8884847164154053 1167 15
5.241474628448486 2.670664072036743 0.4617539942264557 0.8925150632858276 1167 15
5.280549049377441 2.6311328411102295 0.46309706568717957 0.4367560148239136 1167 15
5.4036865234375 2.632206916809082 0.4718055725097656 0.4286940395832062 1167 15
5.531769752502441 2.633437395095825 0.48090529441833496 0.41965344548225403 1167 15
5.664982795715332 2.6347460746765137 0.49041029810905457 0.41151782870292664 1167 15
5.803576469421387 2.636113166809082 0.5003401041030884 0.40335285663604736 1167 15
5.947912693023682 2.6375389099121094 0.51072096824646 0.39515420794487 1167 15
6.098373889923096 2.6390037536621094 0.5215864181518555 0.38692206144332886 1167 15
6.255390644073486 2.6405467987060547 0.5329667329788208 0.37865978479385376 1167 15
6.419418811798096 2.642148494720459 0.5448997616767883 0.37036800384521484 1167 15
6.590986251831055 2.6438281536102295 0.5574262738227844 0.36204415559768677 1167 15
6.770637035369873 2.6456053256988525 0.5705879330635071 0.35369443893432617 1167 15
6.958993911743164 2.6474609375 0.5844349265098572 0.3453139662742615 1167 15
7.156730651855469 2.6493945121765137 0.5990205407142639 0.3369061350822449 1167 15
7.364621639251709 2.651425838470459 0.6144041419029236 0.3284685015678406 1167 15
7.583478927612305 2.653574228286743 0.6306501626968384 0.3200070261955261 1167 15
7.814208984375 2.655839681625366 0.6478303670883179 0.31151753664016724 1167 15
8.057929039001465 2.6582422256469727 0.6660301089286804 0.30300605297088623 1167 15
38.323665618896484 12.2622652053833 3.158419132232666 0.9522706270217896 0 3
38.32670211791992 11.885038375854492 3.149752140045166 0.9548915028572083 0 3
38.32972717285156 11.509902000427246 3.1413824558258057 0.9574354290962219 0 3
38.332725524902344 11.13671875 3.133305549621582 0.9599021673202515 0 3
38.33571243286133 10.765390396118164 3.1255321502685547 0.9622917175292969 0 3
38.338680267333984 10.39589786529541 3.1180388927459717 0.9646036624908447 0 3
38.341636657714844 10.028124809265137 3.1108288764953613 0.9668381810188293 0 3
38.34457778930664 9.66201114654541 3.10390567779541 0.9689946174621582 0 3
38.53263473510742 9.342402458190918 3.1122186183929443 0.36885935068130493 0 3
39.5069465637207 9.203964233398438 3.184107542037964 0.3605307340621948 0 3
46.30952453613281 6.484843730926514 3.6704986095428467 0.9483748078346252 0 6
47.295169830322266 -7.056249618530273 3.753488779067993 0.5853257775306702 0 3
43.77925109863281 -6.933945178985596 3.4792656898498535 0.3156574070453644 0 3
43.18197250366211 -7.237265586853027 3.436810255050659 0.8165725469589233 0 3
43.02708053588867 -7.608964443206787 3.4297807216644287 0.8915836215019226 0 3
42.68985366821289 -7.945156097412109 3.408447742462158 0.9586495757102966 0 3
35.87038040161133 -7.009628772735596 2.868875741958618 0.34937870502471924 0 3
35.40396499633789 -7.248984336853027 2.8366618156433105 0.8365998268127441 0 3
32.47011184692383 -6.952538967132568 2.606484889984131 0.366119921207428 0 3
31.9768009185791 -7.147655963897705 2.571934223175049 0.641722559928894 0 3
31.643617630004883 -7.372011661529541 2.550356864929199 0.8509112000465393 0 3
31.405214309692383 -7.614316463470459 2.5365452766418457 0.8555434942245483 0 3
31.272417068481445 -7.879980087280273 2.53143310546875 0.9740152955055237 0 3
31.171674728393555 -8.152812004089355 2.5290985107421875 0.9918073415756226 0 3
24.73744010925293 -6.707773208618164 2.0118625164031982 0.958678126335144 0 3
30.163827896118164 -8.47054672241211 2.459272861480713 0.2755346894264221 0 3
24.556396484375 -7.134296894073486 2.007234573364258 0.43170541524887085 0 3
9.116762161254883 -2.737617015838623 0.7471799850463867 0.9528812766075134 1050 7
9.083139419555664 -2.816660165786743 0.7464674115180969 0.9842288494110107 1050 7
9.079726219177246 -2.9051952362060547 0.748298168182373 0.9382886290550232 1050 7
21.53948211669922 -7.105624675750732 1.7803492546081543 0.16809366643428802 0 3
20.987157821655273 -7.132909774780273 1.7399152517318726 0.0735766738653183 0 3
20.704652786254883 -7.244882583618164 1.7218189239501953 0.7261815667152405 0 3
20.466777801513672 -7.368476390838623 1.707467794418335 0.7322844862937927 0 3
20.356035232543945 -7.535683631896973 1.7038041353225708 0.4093753397464752 0 3
20.247793197631836 -7.702968597412109 1.7004642486572266 0.9645484089851379 0 3
20.131210327148438 -7.866191387176514 1.696532130241394 0.9667824506759644 0 3
20.015161514282227 -8.028632164001465 1.6927573680877686 0.968938410282135 0 3
19.85077667236328 -8.17031192779541 1.684989094734192 0.96840900182724 0 3
19.82122039794922 -8.366972923278809 1.6887894868850708 0.9662312269210815 0 3
19.79151725769043 -8.564531326293945 1.6927375793457031 0.963975727558136 0 3
19.41744613647461 -8.610390663146973 1.6672908067703247 0.4113488793373108 0 3
18.964359283447266 -8.614004135131836 1.6349684000015259 0.4194832742214203 0 3
18.64765167236328 -8.672890663146973 1.6143009662628174 0.4275834262371063 0 3
18.225223541259766 -8.676249504089355 1.5844089984893799 0.43565061688423157 0 3
17.628021240234375 -8.586874961853027 1.5391309261322021 0.4887691140174866 0 3
17.314130783081055 -8.62710952758789 1.518423318862915 0.45167720317840576 0 3
16.9913330078125 -8.657500267028809 1.4968681335449219 0.8859952688217163 0 3
13.793546676635742 -7.184823989868164 1.220793604850769 0.9431750178337097 0 3
13.723529815673828 -7.305703163146973 1.220349907875061 0.4754432737827301 0 3
13.413002967834473 -7.295663833618164 1.1985163688659668 0.8723350167274475 0 3
12.967329025268555 -7.204823970794678 1.164401650428772 0.780436635017395 0 3
12.877238273620605 -7.306777000427246 1.1621726751327515 0.8365061283111572 0 3
12.737483024597168 -7.379433631896973 1.1554896831512451 0.841343343257904 0 3
12.599323272705078 -7.451210975646973 1.1489814519882202 0.8461117148399353 0 3
12.447287559509277 -7.512929439544678 1.1412180662155151 0.9699512720108032 0 3
12.477357864379883 -7.68468713760376 1.1502524614334106 0.9949159622192383 0 3
12.400766372680664 -7.791913986206055 1.149592399597168 0.9954866170883179 0 3
12.324254989624023 -7.899003505706787 1.1490293741226196 0.9959771633148193 0 3
12.247812271118164 -8.006034851074219 1.148552417755127 0.9963874220848083 0 3
12.171422958374023 -8.11294937133789 1.1481733322143555 0.9967173933982849 0 3
12.000048637390137 -8.155234336853027 1.1388660669326782 0.9883854389190674 0 3
10.771345138549805 -7.46240234375 1.0285704135894775 0.9825534820556641 0 3
10.224489212036133 -7.22021484375 0.9824928045272827 0.8911499977111816 0 3
10.189948081970215 -7.33376932144165 0.9854685664176941 0.5887629985809326 0 3
10.001440048217773 -7.335273265838623 0.9735645651817322 0.5959607362747192 0 3
9.817428588867188 -7.336738109588623 0.9620267748832703 0.6031099557876587 0 3
9.481412887573242 -7.219160079956055 0.9353998899459839 0.7261008024215698 0 3
9.39736557006836 -7.28933572769165 0.9335383176803589 0.9055569767951965 0 3
9.293493270874023 -7.343320369720459 0.929729163646698 0.9092659950256348 0 3
9.190448760986328 -7.396855354309082 0.9260267615318298 0.9129022359848022 0 3
9.08821964263916 -7.449960708618164 0.9224256873130798 0.9164655804634094 0 3
8.94857406616211 -7.470800399780273 0.9150129556655884 0.993872344493866 0 3
8.898927688598633 -7.565937519073486 0.9168522357940674 0.07277298718690872 0 3
8.909059524536133 -7.713359355926514 0.9249925017356873 0.9929086565971375 0 3
8.847248077392578 -7.799882411956787 0.9258042573928833 0.9920352101325989 0 3
8.785319328308105 -7.886562347412109 0.9266954064369202 0.9910820722579956 0 3
8.723268508911133 -7.97341775894165 0.9276636838912964 0.9900491237640381 0 3
8.661086082458496 -8.06044864654541 0.9287083148956299 0.9889366030693054 0 3
8.598759651184082 -8.147695541381836 0.9298298358917236 0.9877442121505737 0 3
8.448486328125 -8.150468826293945 0.9214457273483276 0.9515089392662048 0 3
8.449042320251465 -8.298690795898438 0.9295982122421265 0.8074933886528015 0 3
30.972421646118164 30.972421646118164 3.075002431869507 0.7112846970558167 0 3
30.97689437866211 30.42574119567871 3.048208475112915 0.7175367474555969 0 3
30.98128890991211 29.888456344604492 3.022120952606201 0.7237308621406555 0 3
30.985605239868164 29.360214233398438 2.996718168258667 0.7298666834831238 0 3
5.222438812255859 4.860292911529541 0.5008400082588196 0.7363958358764648 1167 15
5.223197937011719 4.774218559265137 0.49678298830986023 0.7424102425575256 1167 15
5.223947525024414 4.689531326293945 0.4928300380706787 0.7483640909194946 1167 15
5.224684715270996 4.606171607971191 0.488980233669281 0.7542579174041748 1167 15
5.225409984588623 4.524120807647705 0.48522812128067017 0.7600894570350647 1167 15
5.226122856140137 4.443281173706055 0.4815705716609955 0.765861988067627 1167 15
5.226826190948486 4.363671779632568 0.478007048368454 0.7715722322463989 1167 15
5.227519512176514 4.285214900970459 0.4745326042175293 0.7772197127342224 1167 15
5.228200435638428 4.207870960235596 0.47114789485931396 0.7828055024147034 1167 15
5.228871822357178 4.131640434265137 0.4678477346897125 0.788326621055603 1167 15
5.229536056518555 4.056445121765137 0.46462997794151306 0.793785572052002 1167 15
5.230190277099609 3.9822654724121094 0.4614933729171753 0.7991810441017151 1167 15
5.2308349609375 3.9091014862060547 0.45843610167503357 0.8045101761817932 1167 15
5.231472015380859 3.8368749618530273 0.45545515418052673 0.8097758889198303 1167 15
5.232099533081055 3.7655858993530273 0.4525480568408966 0.8149771690368652 1167 15
5.232717037200928 3.695195198059082 0.4497145116329193 0.8201113939285278 1167 15
5.233332633972168 3.625663995742798 0.4469526708126068 0.8251804113388062 1167 15
5.233935356140137 3.5569920539855957 0.4442600905895233 0.8301815986633301 1167 15
5.234533786773682 3.4891209602355957 0.4416346549987793 0.8351173400878906 1167 15
5.235121726989746 3.422050714492798 0.43907514214515686 0.8399850726127625 1167 15
5.235705375671387 3.3557422161102295 0.43657973408699036 0.8447855710983276 1167 15
5.236281394958496 3.290175676345825 0.4341481029987335 0.8495181798934937 1167 15
5.236850261688232 3.225332021713257 0.4317762553691864 0.8541824221611023 1167 15
5.237414360046387 3.161210775375366 0.4294663965702057 0.8587774038314819 1167 15
5.237971305847168 3.097734212875366 0.4272150993347168 0.8633043169975281 1167 15
5.238523006439209 3.034921884536743 0.42502057552337646 0.8677610754966736 1167 15
5.239069938659668 2.9727537631988525 0.4228837490081787 0.8721474409103394 1167 15
5.239609241485596 2.91119122505188 0.4208006262779236 0.8764643669128418 1167 15
5.240143775939941 2.850234270095825 0.41877180337905884 0.880710244178772 1167 15
5.240673542022705 2.789863109588623 0.4167957901954651 0.8848846554756165 1167 15
5.241196155548096 2.730039119720459 0.4148716628551483 0.8889889121055603 1167 15
5.241716384887695 2.670781135559082 0.4129984974861145 0.8930203318595886 1167 15
5.280573844909668 2.631152391433716 0.41418319940567017 0.43702250719070435 1167 15
5.40371561050415 2.6322264671325684 0.42197126150131226 0.4289553463459015 1167 15
5.53167724609375 2.6333982944488525 0.43010085821151733 0.41991811990737915 1167 15
5.664882659912109 2.6346874237060547 0.4386015236377716 0.4117777943611145 1167 15
5.803476333618164 2.6360740661621094 0.44748151302337646 0.4036078155040741 1167 15
5.947802543640137 2.637460947036743 0.45676618814468384 0.3954017758369446 1167 15
6.09826135635376 2.638964891433716 0.4664829969406128 0.38716721534729004 1167 15
6.255270957946777 2.6404881477355957 0.4766603112220764 0.37890002131462097 1167 15
6.419296741485596 2.64208984375 0.487333208322525 0.37060075998306274 1167 15
6.590859413146973 2.643789052963257 0.4985356032848358 0.36227431893348694 1167 15
6.770505428314209 2.6455469131469727 0.5103083848953247 0.35391703248023987 1167 15
6.958849906921387 2.647402286529541 0.5226911902427673 0.3455319404602051 1167 15
7.156586647033691 2.6493358612060547 0.5357374548912048 0.33711880445480347 1167 15
7.364457607269287 2.6513671875 0.5494938492774963 0.32867881655693054 1167 15
7.58331298828125 2.653515577316284 0.5640232563018799 0.3202119469642639 1167 15
7.813976764678955 2.6557421684265137 0.5793827772140503 0.3117177188396454 1167 15
8.057680130004883 2.6581249237060547 0.595659613609314 0.30319929122924805 1167 15
8.315481185913086 2.6606640815734863 0.6129270792007446 0.2946581542491913 1167 15
8.58871078491211 2.663339853286743 0.6312782168388367 0.2860919237136841 1167 15
8.878825187683105 2.666191339492798 0.6508182883262634 0.27750352025032043 1167 15
38.33435821533203 11.137167930603027 2.802457094192505 0.9604498147964478 0 3
38.33734130859375 10.765859603881836 2.7955029010772705 0.962840735912323 0 3
38.34030532836914 10.396307945251465 2.7888023853302 0.9651543498039246 0 3
38.34326171875 10.028534889221191 2.7823545932769775 0.9673900008201599 0 3
38.346195220947266 9.662402153015137 2.7761614322662354 0.9695478081703186 0 3
38.53321838378906 9.342538833618164 2.783522367477417 0.36907994747161865 0 3
39.50761795043945 9.2041015625 2.84782338142395 0.36074596643447876 0 3
46.31057357788086 6.48498010635376 3.282959461212158 0.9489389061927795 0 6
47.29668045043945 -7.056484222412109 3.357114791870117 0.585669219493866 0 3
43.78020095825195 -6.934101581573486 3.11183762550354 0.3158441483974457 0 3
43.18352127075195 -7.237519264221191 3.0739026069641113 0.8170515298843384 0 3
43.02865982055664 -7.609257698059082 3.067606210708618 0.8920974731445312 0 3
42.691490173339844 -7.94542932510376 3.0485308170318604 0.9592006802558899 0 3
35.87074661254883 -7.009706974029541 2.5658679008483887 0.3496190905570984 0 3
32.51552963256836 -6.657577991485596 2.330047130584717 0.8727248311042786 0 3
32.57841110229492 -6.975722312927246 2.3389413356781006 0.997198224067688 0 3
31.977752685546875 -7.147871017456055 2.3003296852111816 0.6420972943305969 0 3
31.644697189331055 -7.372284889221191 2.281041145324707 0.8514047861099243 0 3
31.40628433227539 -7.614550590515137 2.2686946392059326 0.8560388088226318 0 3
31.27359390258789 -7.880253791809082 2.264127254486084 0.9745755195617676 0 3
31.172948837280273 -8.153143882751465 2.2620432376861572 0.9923750758171082 0 3
30.18319320678711 -8.18441390991211 2.1954689025878906 0.9577935934066772 0 3
30.16790008544922 -8.471698760986328 2.199796199798584 0.27738335728645325 0 3
24.441898345947266 -7.101035118103027 1.786827564239502 0.4319601356983185 0 3
9.11715316772461 -2.737734317779541 0.668285071849823 0.9534246325492859 1050 7
9.095380783081055 -2.820449113845825 0.6685172915458679 0.929472804069519 1050 7
9.093031883239746 -2.9094531536102295 0.6702390909194946 0.7767965793609619 1050 7
21.62081527709961 -7.132460594177246 1.598304271697998 0.9835852980613708 0 3
21.242347717285156 -7.219648361206055 1.575052261352539 0.32849177718162537 0 3
20.7052001953125 -7.245038986206055 1.5399836301803589 0.7266076803207397 0 3
20.467304229736328 -7.368671894073486 1.5271494388580322 0.7327149510383606 0 3
20.35745620727539 -7.536210536956787 1.5239378213882446 0.4095976650714874 0 3
20.24849510192871 -7.703222274780273 1.5208966732025146 0.9651064872741699 0 3
20.13190460205078 -7.866425514221191 1.5173851251602173 0.9673417806625366 0 3
20.015850067138672 -8.028925895690918 1.5140082836151123 0.9694991707801819 0 3
19.851606369018555 -8.170644760131836 1.5070682764053345 0.9689624309539795 0 3
19.822046279907227 -8.36734390258789 1.5104655027389526 0.9667832851409912 0 3
19.792348861694336 -8.564882278442383 1.5140022039413452 0.964526355266571 0 3
19.4174747467041 -8.6104097366333 1.4911789894104004 0.4116005003452301 0 3
18.964393615722656 -8.614004135131836 1.4622361660003662 0.4197399318218231 0 3
18.647674560546875 -8.6729097366333 1.4437867403030396 0.42784544825553894 0 3
18.254131317138672 -8.6899995803833 1.4192975759506226 0.4359121024608612 0 3
17.62810516357422 -8.5869140625 1.3765608072280884 0.4890666604042053 0 3
17.314149856567383 -8.62710952758789 1.3580350875854492 0.4519537687301636 0 3
16.992143630981445 -8.657910346984863 1.338819980621338 0.8864961266517639 0 3
13.794139862060547 -7.185136795043945 1.0918930768966675 0.9437128305435181 0 3
13.723556518554688 -7.305722713470459 1.0914421081542969 0.47573408484458923 0 3
13.387412071228027 -7.28173828125 1.0698673725128174 0.4843743145465851 0 3
12.967997550964355 -7.20519495010376 1.0414496660232544 0.7808749675750732 0 3
12.87752914428711 -7.306972503662109 1.0394376516342163 0.8370006084442139 0 3
12.737771034240723 -7.379589557647705 1.033462405204773 0.8418401479721069 0 3
12.59959888458252 -7.451386451721191 1.0276368856430054 0.8466122150421143 0 3
12.44766616821289 -7.513144493103027 1.0207031965255737 0.9705166816711426 0 3
12.444538116455078 -7.664472579956055 1.0260459184646606 0.9947894215583801 0 3
12.367074966430664 -7.770741939544678 1.0253678560256958 0.995446503162384 0 3
12.289704322814941 -7.876855373382568 1.0247766971588135 0.9960232973098755 0 3
12.212419509887695 -7.982890605926514 1.0242652893066406 0.996519923210144 0 3
12.135199546813965 -8.088808059692383 1.0238368511199951 0.9969363212585449 0 3
12.000494956970215 -8.155527114868164 1.0186076164245605 0.988955020904541 0 3
10.771662712097168 -7.462616920471191 0.9199506640434265 0.983126699924469 0 3
10.224955558776855 -7.220546722412109 0.8787479996681213 0.8916558623313904 0 3
10.189948081970215 -7.33376932144165 0.8813709616661072 0.5891239047050476 0 3
10.001449584960938 -7.335273265838623 0.8707261681556702 0.5963256359100342 0 3
9.817434310913086 -7.336738109588623 0.8604066371917725 0.6034794449806213 0 3
9.48150634765625 -7.219218730926514 0.8366157412528992 0.7265386581420898 0 3
9.397562980651855 -7.289492130279541 0.834945797920227 0.9060928821563721 0 3
9.293684005737305 -7.343476295471191 0.8315388560295105 0.9098049998283386 0 3
9.19064712524414 -7.397011756896973 0.8282279968261719 0.9134430885314941 0 3
9.088410377502441 -7.450136661529541 0.8250068426132202 0.9170086979866028 0 3
8.948840141296387 -7.471015453338623 0.8183790445327759 0.9944526553153992 0 3
8.90242862701416 -7.568906307220459 0.8203291296958923 0.07278838753700256 0 3
8.909358024597168 -7.713632583618164 0.8273136615753174 0.9934840202331543 0 3
8.847543716430664 -7.800156116485596 0.8280421495437622 0.9926102161407471 0 3
8.78561782836914 -7.88683557510376 0.8288392424583435 0.9916563630104065 0 3
8.723562240600586 -7.973691463470459 0.8297029137611389 0.990622878074646 0 3
8.661376953125 -8.060722351074219 0.830636739730835 0.9895095825195312 0 3
8.599044799804688 -8.147968292236328 0.8316407799720764 0.9883164167404175 0 3
8.448808670043945 -8.150761604309082 0.8241520524024963 0.9520556926727295 0 3
8.449467658996582 -8.299120903015137 0.8314509391784668 0.8079475164413452 0 3
30.97420310974121 30.974199295043945 2.712409019470215 0.711631178855896 0 3
30.978660583496094 30.427459716796875 2.688767671585083 0.717886745929718 0 3
30.983036041259766 29.89013671875 2.665759325027466 0.7240843176841736 0 3
30.987342834472656 29.361913681030273 2.643345832824707 0.7302230596542358 0 3
5.222729206085205 4.860566139221191 0.44178175926208496 0.7367557287216187 1167 15
5.223488807678223 4.774492263793945 0.43820327520370483 0.7427729964256287 1167 15
5.224235534667969 4.689804553985596 0.43471601605415344 0.7487297058105469 1167 15
5.224970817565918 4.6064453125 0.43132033944129944 0.7546262741088867 1167 15
5.225690841674805 4.524355411529541 0.4280094802379608 0.7604631185531616 1167 15
5.226403713226318 4.443534851074219 0.42478376626968384 0.7662383317947388 1167 15
5.227104187011719 4.363906383514404 0.42164015769958496 0.7719512581825256 1167 15
5.227795124053955 4.285449028015137 0.418576180934906 0.7776015996932983 1167 15
5.228476524353027 4.208105564117432 0.41558852791786194 0.7831899523735046 1167 15
5.229147911071777 4.131855487823486 0.41267743706703186 0.7887151837348938 1167 15
5.229806900024414 4.056660175323486 0.4098394811153412 0.7941765189170837 1167 15
5.230461120605469 3.98248028755188 0.40707290172576904 0.7995746731758118 1167 15
5.231103420257568 3.909296751022339 0.4043756127357483 0.8049077391624451 1167 15
5.231735706329346 3.837089776992798 0.4017466604709625 0.8101759552955627 1167 15
5.232363224029541 3.7657811641693115 0.39918243885040283 0.8153797388076782 1167 15
5.232980728149414 3.69537091255188 0.3966819643974304 0.8205177187919617 1167 15
5.233591079711914 3.6258397102355957 0.3942458927631378 0.8255892395973206 1167 15
5.234194278717041 3.5571680068969727 0.39187103509902954 0.830592930316925 1167 15
5.234789848327637 3.4892969131469727 0.38955503702163696 0.8355308771133423 1167 15
5.235378265380859 3.4222068786621094 0.3872978091239929 0.8404024243354797 1167 15
5.235959529876709 3.355898380279541 0.3850958049297333 0.8452053666114807 1167 15
5.236535549163818 3.2903318405151367 0.38295042514801025 0.849940299987793 1167 15
5.237104415893555 3.2255077362060547 0.3808596730232239 0.8546066880226135 1167 15
5.237666130065918 3.1613476276397705 0.37882155179977417 0.8592052459716797 1167 15
5.23822021484375 3.097890615463257 0.37683501839637756 0.8637328147888184 1167 15
5.238771915435791 3.0350584983825684 0.3749001920223236 0.8681932687759399 1167 15
5.239316463470459 2.972890615463257 0.373014360666275 0.8725818395614624 1167 15
5.239853382110596 2.911328077316284 0.37117674946784973 0.8769006729125977 1167 15
5.240387916564941 2.8503711223602295 0.3693879544734955 0.881148636341095 1167 15
5.240917682647705 2.7899999618530273 0.36764419078826904 0.8853252530097961 1167 15
5.241440296173096 2.730175733566284 0.3659478724002838 0.8894315361976624 1167 15
5.241957664489746 2.6708984375 0.3642945885658264 0.8934661149978638 1167 15
5.280595779418945 2.631171703338623 0.3653242290019989 0.437256783246994 1167 15
5.403742790222168 2.632265567779541 0.37219420075416565 0.4291876256465912 1167 15
5.531620979309082 2.633378744125366 0.3793589770793915 0.4210805892944336 1167 15
5.664782524108887 2.634648323059082 0.38685423135757446 0.4120098054409027 1167 15
5.803369045257568 2.6360156536102295 0.3946862816810608 0.4038330912590027 1167 15
5.947697639465332 2.6374218463897705 0.40287551283836365 0.39562493562698364 1167 15
6.098146915435791 2.6388866901397705 0.41144484281539917 0.38738372921943665 1167 15
6.255153656005859 2.640429735183716 0.4204224944114685 0.3791119158267975 1167 15
6.419177055358887 2.6420507431030273 0.4298350512981415 0.3708105981349945 1167 15
6.590729713439941 2.643730401992798 0.4397163391113281 0.362477570772171 1167 15
6.770363807678223 2.6454882621765137 0.45009931921958923 0.3541160523891449 1167 15
6.958710670471191 2.6473240852355957 0.46102187037467957 0.3457261025905609 1167 15
7.15643310546875 2.6492772102355957 0.47252729535102844 0.3373088240623474 1167 15
7.364296913146973 2.651308536529541 0.48466017842292786 0.32886433601379395 1167 15
7.583102703094482 2.653437376022339 0.49747174978256226 0.321636825799942 1167 15
7.813737392425537 2.6556639671325684 0.5110191106796265 0.31189700961112976 1167 15
8.057416915893555 2.6580467224121094 0.5253742933273315 0.3033744990825653 1167 15
8.31521224975586 2.660585880279541 0.5406034588813782 0.2948285937309265 1167 15
8.588430404663086 2.663261651992798 0.5567899942398071 0.286257803440094 1167 15
8.878510475158691 2.6661131381988525 0.5740217566490173 0.277665376663208 1167 15
38.335994720458984 11.137656211853027 2.4719653129577637 0.9609321355819702 0 3
38.33897399902344 10.766308784484863 2.465825080871582 0.9633244872093201 0 3
38.34193420410156 10.396777153015137 2.45992112159729 0.9656392335891724 0 3
38.34488296508789 10.028944969177246 2.4542319774627686 0.9678761959075928 0 3
38.347816467285156 9.662832260131836 2.4487693309783936 0.970035195350647 0 3
38.5338134765625 9.34267520904541 2.4551918506622314 0.3692745864391327 0 3
39.508235931396484 9.204237937927246 2.5119144916534424 0.36093685030937195 0 3
46.31162643432617 6.48513650894165 2.895571231842041 0.9494346976280212 0 6
47.29821014404297 -7.056718826293945 2.9611828327178955 0.5859693288803101 0 3
43.78110885620117 -6.934277057647705 2.7447729110717773 0.31601476669311523 0 3
43.13554763793945 -7.229472637176514 2.708266496658325 0.8174885511398315 0 3
42.83252716064453 -7.574570178985596 2.693397045135498 0.9571738839149475 0 3
36.199676513671875 -6.737226486206055 2.2800230979919434 0.9751079678535461 0 3
35.87143325805664 -7.009843826293945 2.263214588165283 0.34980309009552 0 3
32.56662368774414 -6.668066024780273 2.0583996772766113 0.9715889096260071 0 3
35.13663864135742 -7.523476600646973 2.225022792816162 0.8423587083816528 0 3
32.07398223876953 -7.169394493103027 2.0350723266601562 0.6424078941345215 0 3
31.717514038085938 -7.389237880706787 2.016582489013672 0.8518628478050232 0 3
31.478559494018555 -7.632089614868164 2.0056653022766113 0.8564998507499695 0 3
31.337167739868164 -7.896288871765137 2.001091718673706 0.9750655889511108 0 3
31.23552703857422 -8.169511795043945 1.9992048740386963 0.9927013516426086 0 3
31.192182540893555 -8.458046913146973 2.001206874847412 0.9917072057723999 0 3
30.35270881652832 -8.52359390258789 1.9521790742874146 0.27746328711509705 0 3
24.44227409362793 -7.101152420043945 1.5760657787322998 0.4321885108947754 0 3
9.117544174194336 -2.737851619720459 0.5894740223884583 0.9539032578468323 1050 7
9.11824893951416 -2.8275389671325684 0.5911372303962708 0.9512202143669128 1050 7
9.1189546585083 -2.917734384536743 0.5928574800491333 0.948460578918457 1050 7
21.6216983795166 -7.132753849029541 1.4098005294799805 0.9840808510780334 0 3
21.2425479888916 -7.2197265625 1.38926100730896 0.9427157044410706 0 3
20.705732345581055 -7.24523401260376 1.3583515882492065 0.7269835472106934 0 3
20.467830657958984 -7.368866920471191 1.3470313549041748 0.7330955862998962 0 3
20.358877182006836 -7.53673791885376 1.3442569971084595 0.40979230403900146 0 3
20.24919319152832 -7.703476428985596 1.341525673866272 0.9655994176864624 0 3
20.132596969604492 -7.86669921875 1.338424801826477 0.967835545539856 0 3
20.01653289794922 -8.02919864654541 1.3354465961456299 0.9699941873550415 0 3
19.852436065673828 -8.170995712280273 1.3293397426605225 0.9694498181343079 0 3
19.8228759765625 -8.367655754089355 1.3323365449905396 0.9672697186470032 0 3
19.793182373046875 -8.56527328491211 1.3354536294937134 0.9650112986564636 0 3
19.41748046875 -8.6104097366333 1.315268635749817 0.41182467341423035 0 3
18.964393615722656 -8.614023208618164 1.2897727489471436 0.41996845602989197 0 3
18.647686004638672 -8.672929763793945 1.2734657526016235 0.42807814478874207 0 3
18.22526741027832 -8.67626953125 1.249887466430664 0.4361548125743866 0 3
17.628192901611328 -8.5869722366333 1.2141770124435425 0.489330917596817 0 3
17.31415557861328 -8.627128601074219 1.1978367567062378 0.4521998167037964 0 3
16.992958068847656 -8.658320426940918 1.18094003200531 0.8869367241859436 0 3
13.794734001159668 -7.185449123382568 0.963121771812439 0.9441865086555481 0 3
13.723549842834473 -7.305703163146973 0.9626902341842651 0.4759923815727234 0 3
13.414259910583496 -7.296347618103027 0.9455643892288208 0.8732635974884033 0 3
12.968668937683105 -7.20556640625 0.9186546206474304 0.7812600135803223 0 3
12.877824783325195 -7.30712890625 0.9168375730514526 0.8374374508857727 0 3
12.738059043884277 -7.379745960235596 0.9115629196166992 0.8422795534133911 0 3
12.599884986877441 -7.451542854309082 0.9064304828643799 0.8470542430877686 0 3
12.448037147521973 -7.513359069824219 0.900320291519165 0.9710161685943604 0 3
12.478195190429688 -7.685214519500732 0.907453715801239 0.9960016012191772 0 3
12.401594161987305 -7.792441368103027 0.9069331288337708 0.9965731501579285 0 3
12.325078010559082 -7.899550437927246 0.9064860343933105 0.9970641732215881 0 3
12.248627662658691 -8.006562232971191 0.9061130881309509 0.9974749088287354 0 3
12.172243118286133 -8.113476753234863 0.905813455581665 0.9978053569793701 0 3
12.000937461853027 -8.155800819396973 0.8984788060188293 0.9894572496414185 0 3
10.771982192993164 -7.462851524353027 0.8114509582519531 0.9836332201957703 0 3
10.225419998168945 -7.220878601074219 0.7751283049583435 0.892100989818573 0 3
10.189960479736328 -7.333788871765137 0.7774024605751038 0.5894443392753601 0 3
10.00146484375 -7.335273265838623 0.7680109739303589 0.5966499447822571 0 3
9.817445755004883 -7.336738109588623 0.758908212184906 0.6038076877593994 0 3
9.481586456298828 -7.219277381896973 0.7379127144813538 0.7269285917282104 0 3
9.397761344909668 -7.289648056030273 0.7364634275436401 0.9065678119659424 0 3
9.293876647949219 -7.343613147735596 0.7334592938423157 0.9102814197540283 0 3
9.19083023071289 -7.397167682647705 0.7305375337600708 0.9139223098754883 0 3
9.08859634399414 -7.450292587280273 0.7276993989944458 0.917489767074585 0 3
8.949103355407715 -7.471230506896973 0.7218611240386963 0.994965136051178 0 3
8.90590763092041 -7.571855068206787 0.7238386273384094 0.07280018925666809 0 3
8.909658432006836 -7.713886737823486 0.7297440767288208 0.9939920902252197 0 3
