ply
format ascii 1.0
element vertex 614
property float32 x
property float32 y
property float32 z
property float32 CosAngle
property uint32 ObjIdx
property uint32 ObjTag
end_header
9.834238052368164 8.361151695251465 7.311277866363525 0.8614070415496826 0 9
9.916699409484863 8.279082298278809 7.317068099975586 0.8607255816459656 0 9
9.998945236206055 8.196542739868164 7.323164463043213 0.8600086569786072 0 9
10.080937385559082 8.113574028015137 7.329575538635254 0.8592566251754761 0 9
12.517069816589355 9.890507698059082 9.035919189453125 0.9033680558204651 0 9
12.612558364868164 9.783339500427246 9.041094779968262 0.9028511047363281 0 9
12.708144187927246 9.676015853881836 9.046976089477539 0.9022642970085144 0 9
17.99771499633789 13.450156211853027 12.726235389709473 0.42495977878570557 0 9
18.204530715942383 13.351698875427246 12.787175178527832 0.5050408840179443 0 9
18.183944702148438 13.087186813354492 12.689685821533203 0.5089209079742432 0 9
18.16242218017578 12.82583999633789 12.593831062316895 0.5127943754196167 0 9
18.140039443969727 12.567558288574219 12.499590873718262 0.5166606903076172 0 9
18.531503677368164 12.594061851501465 12.690926551818848 0.4879224896430969 0 9
18.812694549560547 12.539765357971191 12.805872917175293 0.48354285955429077 0 9
19.099512100219727 12.484882354736328 12.92434024810791 0.4791106581687927 0 9
19.392324447631836 12.429296493530273 13.046459197998047 0.4746261239051819 0 9
19.691308975219727 12.372987747192383 13.172350883483887 0.47008973360061646 0 9
19.90234375 12.257753372192383 13.23936939239502 0.7812710404396057 0 9
19.891658782958984 12.006308555603027 13.160065650939941 0.7859787344932556 0 9
19.880937576293945 11.757616996765137 13.082600593566895 0.7906334400177002 0 9
19.870019912719727 11.51171875 13.006897926330566 0.7952345609664917 0 9
9.16542911529541 9.165449142456055 7.201199054718018 0.8618133068084717 0 9
9.165273666381836 9.002226829528809 7.137307167053223 0.40841561555862427 0 9
9.004374504089355 8.68685531616211 6.951024055480957 0.03403419256210327 0 9
9.024335861206055 8.551015853881836 6.9069037437438965 0.42203962802886963 0 9
8.95669937133789 8.335624694824219 6.7975897789001465 0.4288269579410553 0 9
8.890800476074219 8.126601219177246 6.691940784454346 0.4355972409248352 0 9
8.826542854309082 7.923652172088623 6.58979606628418 0.4423488974571228 0 9
9.760233879089355 8.60482406616211 7.228888988494873 0.858512282371521 0 9
9.844100952148438 8.522968292236328 7.234059810638428 0.8578983545303345 0 9
9.927714347839355 8.440683364868164 7.239541053771973 0.8572489023208618 0 9
10.01107406616211 8.357890129089355 7.245328426361084 0.8565640449523926 0 9
10.094160079956055 8.274667739868164 7.251428127288818 0.8558441400527954 0 9
10.177011489868164 8.190937042236328 7.257833480834961 0.8550887107849121 0 9
10.259628295898438 8.106738090515137 7.26455020904541 0.8542976975440979 0 9
10.341972351074219 8.022089958190918 7.271580696105957 0.8534720540046692 0 9
12.718202590942383 9.68375015258789 8.88086986541748 0.9057278633117676 0 9
17.89371109008789 13.372363090515137 12.410492897033691 0.4294127821922302 0 9
18.255859375 13.389296531677246 12.57780647277832 0.4237005412578583 0 9
18.479394912719727 13.299882888793945 12.649078369140625 0.5031049251556396 0 9
18.455272674560547 13.032675743103027 12.552002906799316 0.5069960355758667 0 9
18.43035125732422 12.768671989440918 12.456568717956543 0.5108801126480103 0 9
18.404569625854492 12.5078125 12.362754821777344 0.5147570967674255 0 9
18.687265396118164 12.456191062927246 12.47703742980957 0.48904499411582947 0 9
18.97101593017578 12.400897979736328 12.591684341430664 0.48459234833717346 0 9
19.260623931884766 12.344862937927246 12.70985221862793 0.4800869822502136 0 9
19.55630874633789 12.2881441116333 12.831661224365234 0.47552943229675293 0 9
19.858339309692383 12.230664253234863 12.95725154876709 0.47092026472091675 0 9
19.952831268310547 12.043222427368164 12.947877883911133 0.7872028350830078 0 9
19.94169807434082 11.793554306030273 12.871420860290527 0.791878879070282 0 9
19.930389404296875 11.546698570251465 12.796727180480957 0.7965009212493896 0 9
21.121131896972656 11.984628677368164 13.49162769317627 0.44722533226013184 0 9
9.252128601074219 9.252187728881836 7.128781795501709 0.8576173782348633 0 9
9.258749961853027 9.094061851501465 7.070699691772461 0.40613070130348206 0 9
9.185077667236328 8.861093521118164 6.953395843505859 0.41298213601112366 0 9
9.113378524780273 8.635371208190918 6.840189456939697 0.4198167324066162 0 9
9.043652534484863 8.4165620803833 6.730876445770264 0.4266345500946045 0 9
8.975781440734863 8.20425796508789 6.625275135040283 0.4334353804588318 0 9
8.909628868103027 7.998183250427246 6.523187637329102 0.44021856784820557 0 9
8.845136642456055 7.798085689544678 6.424474716186523 0.44698217511177063 0 9
9.93765640258789 8.60400390625 7.161623954772949 0.8536849021911621 0 9
10.022187232971191 8.520936965942383 7.167099952697754 0.8530324697494507 0 9
10.106386184692383 8.437460899353027 7.172886848449707 0.8523445129394531 0 9
10.19033145904541 8.353476524353027 7.178979396820068 0.8516213893890381 0 9
10.27408218383789 8.26904296875 7.1853837966918945 0.8508621454238892 0 9
10.357597351074219 8.1841402053833 7.192095756530762 0.8500679135322571 0 9
10.440780639648438 8.098730087280273 7.199119567871094 0.849238395690918 0 9
12.728222846984863 9.691347122192383 8.716022491455078 0.909129798412323 0 9
17.791757583618164 13.296191215515137 12.10122013092041 0.433836430311203 0 9
18.150468826293945 13.312050819396973 12.263411521911621 0.4280984103679657 0 9
18.51935577392578 13.328632354736328 12.431336402893066 0.42231571674346924 0 9
18.754980087280273 13.244277000427246 12.509186744689941 0.5011634230613708 0 9
18.678125381469727 12.94033145904541 12.379948616027832 0.2326214462518692 0 9
18.371131896972656 12.48509693145752 12.101710319519043 0.23796948790550232 0 9
18.07906150817871 12.0508394241333 11.837581634521484 0.24327947199344635 0 9
19.981874465942383 13.0615816116333 13.006153106689453 0.6763762831687927 0 9
20.047832489013672 12.849374771118164 12.973506927490234 0.7739606499671936 0 9
20.036602020263672 12.5899019241333 12.89259147644043 0.7788180112838745 0 9
20.025253295898438 12.333515167236328 12.813555717468262 0.7836218476295471 0 9
20.01380729675293 12.079999923706055 12.73633861541748 0.7883728742599487 0 9
20.00224494934082 11.829394340515137 12.660901069641113 0.793070375919342 0 9
19.990625381469727 11.58154296875 12.587201118469238 0.7977136373519897 0 9
20.472421646118164 11.61654281616211 12.82441520690918 0.7883694171905518 0 9
20.537538528442383 11.411015510559082 12.800537109375 0.7898402810096741 0 9
20.6015625 11.205761909484863 12.777215003967285 0.7912817001342773 0 9
9.339706420898438 9.33974552154541 7.055651664733887 0.8533636331558228 0 9
9.353301048278809 9.186874389648438 7.003321170806885 0.4038180708885193 0 9
9.277265548706055 8.950057983398438 6.885971546173096 0.41069966554641724 0 9
9.203378677368164 8.720643997192383 6.772761821746826 0.41756516695022583 0 9
9.13150405883789 8.498320579528809 6.6634721755981445 0.4244137406349182 0 9
9.061601638793945 8.282675743103027 6.557920932769775 0.43124496936798096 0 9
8.993456840515137 8.073476791381836 6.455930233001709 0.4380573630332947 0 9
8.927108764648438 7.870370864868164 6.357321739196777 0.4448521137237549 0 9
8.862382888793945 7.673066139221191 6.261951923370361 0.45162707567214966 0 9
10.117558479309082 8.602030754089355 7.093936443328857 0.8487581014633179 0 9
10.202655792236328 8.517792701721191 7.099716663360596 0.848067045211792 0 9
10.28749942779541 8.43310546875 7.105804920196533 0.8473403453826904 0 9
10.3721284866333 8.347929954528809 7.112204551696777 0.8465782403945923 0 9
10.456464767456055 8.262304306030273 7.1189117431640625 0.8457803726196289 0 9
12.642343521118164 9.80648422241211 8.546826362609863 0.9130647778511047 0 9
12.73818302154541 9.698925971984863 8.552399635314941 0.9124698638916016 0 9
17.69189453125 13.221542358398438 11.79814624786377 0.43823105096817017 0 9
18.047225952148438 13.236289024353027 11.955385208129883 0.43246737122535706 0 9
18.412578582763672 13.251757621765137 12.11815071105957 0.42665889859199524 0 9
18.619335174560547 13.148515701293945 12.17605972290039 0.2329290211200714 0 9
18.311307907104492 12.686230659484863 11.899685859680176 0.23833885788917542 0 9
18.018301010131836 12.245331764221191 11.637372970581055 0.24371092021465302 0 9
18.967870712280273 12.643280982971191 12.176871299743652 0.5070312023162842 0 9
18.935096740722656 12.377382278442383 12.08402156829834 0.5109273195266724 0 9
20.096132278442383 12.88037109375 12.750666618347168 0.6794642806053162 0 9
20.098201751708984 12.628613471984863 12.679548263549805 0.7798921465873718 0 9
20.086444854736328 12.371191024780273 12.601577758789062 0.7847176194190979 0 9
20.074569702148438 12.11669921875 12.52540397644043 0.7894896864891052 0 9
20.06267547607422 11.865097045898438 12.450993537902832 0.7942081093788147 0 9
20.05058479309082 11.61636734008789 12.378310203552246 0.7988719940185547 0 9
20.69109344482422 11.740644454956055 12.708162307739258 0.7835137844085693 0 9
20.756561279296875 11.53271484375 12.684247970581055 0.7849910259246826 0 9
20.820838928222656 11.32503890991211 12.660897254943848 0.7864391803741455 0 9
9.428163528442383 9.428202629089355 6.981777191162109 0.8490515947341919 0 9
9.448945045471191 9.280839920043945 6.935168743133545 0.40147870779037476 0 9
9.370468139648438 9.040019035339355 6.817795276641846 0.4083896279335022 0 9
9.294355392456055 8.806836128234863 6.704595565795898 0.41528505086898804 0 9
9.220312118530273 8.58095645904541 6.5953521728515625 0.4221634864807129 0 9
9.14828109741211 8.361952781677246 6.489886283874512 0.42902475595474243 0 9
9.078164100646973 8.149531364440918 6.387999534606934 0.4358668923377991 0 9
9.009882926940918 7.943339824676514 6.289527893066406 0.4426911473274231 0 9
10.127616882324219 8.768476486206055 7.01455545425415 0.8450839519500732 0 9
10.213886260986328 8.68398380279541 7.02002477645874 0.8444256782531738 0 9
10.2998628616333 8.599003791809082 7.02579927444458 0.8437317609786987 0 9
10.38564395904541 8.51357364654541 7.031880855560303 0.8430018424987793 0 9
10.471132278442383 8.427656173706055 7.038273334503174 0.8422362804412842 0 9
10.556425094604492 8.341249465942383 7.044977188110352 0.8414350152015686 0 9
12.65218734741211 9.814062118530273 8.384475708007812 0.9163455963134766 0 9
12.748085975646973 9.706425666809082 8.389949798583984 0.9157481789588928 0 9
17.795391082763672 13.298925399780273 11.632758140563965 0.43526771664619446 0 9
17.94597625732422 13.162089347839355 11.653509140014648 0.436806857585907 0 9
18.307968139648438 13.176445007324219 11.811253547668457 0.4309728145599365 0 9
18.255741119384766 12.891698837280273 11.702428817749023 0.2386072427034378 0 9
17.96160125732422 12.443944931030273 11.44185733795166 0.2440408617258072 0 9
19.1382999420166 13.006464958190918 12.116556167602539 0.8380568027496338 0 9
19.27312469482422 12.846698760986328 12.128410339355469 0.5011821389198303 0 9
19.23748016357422 12.57503890991211 12.034455299377441 0.5050948262214661 0 9
19.201093673706055 12.306737899780273 11.942143440246582 0.5089993476867676 0 9
20.15966796875 12.667245864868164 12.467072486877441 0.7809129953384399 0 9
20.147480010986328 12.408788681030273 12.390176773071289 0.7857596278190613 0 9
20.13521385192871 12.153300285339355 12.31505298614502 0.7905527353286743 0 9
20.12289047241211 11.900702476501465 12.24167537689209 0.795291543006897 0 9
20.110429763793945 11.651015281677246 12.169991493225098 0.799976110458374 0 9
20.91259765625 11.866289138793945 12.5904541015625 0.7786049246788025 0 9
20.978281021118164 11.655879020690918 12.566503524780273 0.7800887823104858 0 9
21.042831420898438 11.445780754089355 12.543121337890625 0.7815428972244263 0 9
9.517518997192383 9.517597198486328 6.9071502685546875 0.8446818590164185 0 9
9.545682907104492 9.37587833404541 6.866212844848633 0.3991107940673828 0 9
9.464823722839355 9.13101577758789 6.748829364776611 0.4060526192188263 0 9
9.386347770690918 8.894003868103027 6.635663986206055 0.4129774272441864 0 9
9.310038566589355 8.664472579956055 6.526497840881348 0.41988492012023926 0 9
9.235878944396973 8.442030906677246 6.421131610870361 0.4267747700214386 0 9
9.163769721984863 8.226308822631836 6.319371700286865 0.43364769220352173 0 9
9.093476295471191 8.017030715942383 6.221060276031494 0.44050049781799316 0 9
10.224081993103027 8.851972579956055 6.939885139465332 0.8406970500946045 0 9
10.311230659484863 8.766737937927246 6.945347309112549 0.8400362730026245 0 9
10.398163795471191 8.681015014648438 6.951115131378174 0.839339017868042 0 9
10.484804153442383 8.594843864440918 6.957190990447998 0.8386061787605286 0 9
10.571210861206055 8.50820255279541 6.963573455810547 0.8378374576568604 0 9
12.565996170043945 9.929179191589355 8.218558311462402 0.9200927019119263 0 9
12.661913871765137 9.82162094116211 8.223280906677246 0.9195640683174133 0 9
12.7578706741333 9.713906288146973 8.22865104675293 0.9189640283584595 0 9
18.55011749267578 13.86294937133789 11.88385009765625 0.9538272619247437 0 9
18.01398468017578 13.211933135986328 11.463937759399414 0.4347074031829834 0 9
17.269102096557617 12.428789138793945 10.918461799621582 0.22933676838874817 0 9
17.90902328491211 12.646855354309082 11.250813484191895 0.2442682981491089 0 9
18.953710556030273 13.131269454956055 11.832611083984375 0.42340612411499023 0 9
19.119394302368164 12.993632316589355 11.862762451171875 0.842478334903717 0 9
19.55402374267578 13.033984184265137 12.059344291687012 0.6512150168418884 0 9
19.546875 12.777323722839355 11.983732223510742 0.49922847747802734 0 9
19.507558822631836 12.503144264221191 11.890337944030762 0.503149688243866 0 9
19.467636108398438 12.232421875 11.798588752746582 0.5070620775222778 0 9
20.70003890991211 12.749062538146973 12.4756441116333 0.606852114200592 0 9
20.724102020263672 12.50869083404541 12.421961784362793 0.6094744205474854 0 9
20.71548843383789 12.251172065734863 12.350394248962402 0.22891470789909363 0 9
20.004297256469727 11.589491844177246 11.8638916015625 0.10397328436374664 0 9
21.13687515258789 11.99355411529541 12.471234321594238 0.7736430168151855 0 9
21.202831268310547 11.78066349029541 12.447263717651367 0.7751331329345703 0 9
21.267635345458984 11.568085670471191 12.423856735229492 0.7765936851501465 0 9
8.788496017456055 8.788554191589355 6.249138832092285 0.9492121934890747 0 9
8.89046859741211 8.73232364654541 6.265655517578125 0.9467102885246277 0 9
8.992812156677246 8.675643920898438 6.2826433181762695 0.9441500902175903 0 9
9.095526695251465 8.61849594116211 6.300120830535889 0.9415310621261597 0 9
9.40078067779541 8.748906135559082 6.456886291503906 0.4175778925418854 0 9
9.324414253234863 8.522968292236328 6.35164213180542 0.42449700832366943 0 9
9.25015640258789 8.303945541381836 6.25004243850708 0.43139803409576416 0 9
9.177929878234863 8.091484069824219 6.151899337768555 0.4382796883583069 0 9
10.321561813354492 8.93636703491211 6.86442232131958 0.83625328540802 0 9
10.409628868103027 8.850371360778809 6.86987829208374 0.8355896472930908 0 9
10.497421264648438 8.763925552368164 6.87563943862915 0.8348895311355591 0 9
10.585039138793945 8.676992416381836 6.881705284118652 0.834153413772583 0 9
10.672343254089355 8.589570045471191 6.88808012008667 0.8333814144134521 0 9
12.575605392456055 9.936738014221191 8.058562278747559 0.9232507944107056 0 9
12.67154312133789 9.8291015625 8.063197135925293 0.9227199554443359 0 9
12.767578125 9.721327781677246 8.06846809387207 0.9221174120903015 0 9
17.31134796142578 12.937187194824219 10.866066932678223 0.226732075214386 0 9
17.081151962280273 12.527792930603027 10.650569915771484 0.23131996393203735 0 9
17.860136032104492 12.854198455810547 11.063904762268066 0.24439525604248047 0 9
18.470136642456055 13.043144226074219 11.368781089782715 0.4335845410823822 0 9
18.846094131469727 13.0566987991333 11.527584075927734 0.4276116192340851 0 9
19.100683212280273 12.980937004089355 11.611589431762695 0.8468429446220398 0 9
19.55500030517578 13.034628868103027 11.816168785095215 0.653915524482727 0 9
19.838260650634766 12.967753410339355 11.916499137878418 0.6484096050262451 0 9
19.82124900817871 12.704179763793945 11.837307929992676 0.4972655773162842 0 9
19.778223037719727 12.42757797241211 11.744515419006348 0.5011943578720093 0 9
19.734609603881836 12.154472351074219 11.6533784866333 0.5051141977310181 0 9
20.610057830810547 12.439863204956055 12.103899002075195 0.6154182553291321 0 9
21.05208969116211 12.450273513793945 12.297377586364746 0.226199671626091 0 9
20.497264862060547 11.875097274780273 11.910527229309082 0.23354686796665192 0 9
21.36406135559082 12.12246036529541 12.35047721862793 0.768628716468811 0 9
21.430273056030273 11.907050132751465 12.326478958129883 0.7701249718666077 0 9
21.495370864868164 11.691933631896973 12.30305290222168 0.7715916633605957 0 9
7.984941005706787 -7.84289026260376 5.627501487731934 0.6266381740570068 0 3
8.829765319824219 8.829824447631836 6.150017738342285 0.9486606121063232 0 9
8.932324409484863 8.7734375 6.1663432121276855 0.9461489319801331 0 9
9.035253524780273 8.716601371765137 6.183143615722656 0.9435780048370361 0 9
9.138612747192383 8.659276962280273 6.200427532196045 0.9409482479095459 0 9
9.242362976074219 8.601484298706055 6.218193054199219 0.9382598996162415 0 9
9.34658145904541 8.543164253234863 6.236448287963867 0.9355129599571228 0 9
9.33755874633789 8.38232421875 6.179976463317871 0.4291188716888428 0 9
9.263222694396973 8.166679382324219 6.082034587860107 0.43602919578552246 0 9
10.420097351074219 9.02164077758789 6.78815221786499 0.8317523002624512 0 9
10.509042739868164 8.934941291809082 6.7935967445373535 0.8310858011245728 0 9
10.597773551940918 8.847734451293945 6.799346923828125 0.8303831815719604 0 9
10.686307907104492 8.760039329528809 6.8054022789001465 0.8296439051628113 0 9
12.489140510559082 10.0518159866333 7.895717144012451 0.9268072247505188 0 9
12.585078239440918 9.944257736206055 7.899645805358887 0.9263461828231812 0 9
12.68115234375 9.836543083190918 7.904195308685303 0.9258129596710205 0 9
12.777265548706055 9.728691101074219 7.909363746643066 0.9252081513404846 0 9
16.899805068969727 12.629590034484863 10.390689849853516 0.23320913314819336 0 9
17.08447265625 12.530195236206055 10.434662818908691 0.556172788143158 0 9
18.775760650634766 13.51318359375 11.393112182617188 0.8488986492156982 0 9
18.8780460357666 13.331151962280273 11.38209056854248 0.8497207164764404 0 9
18.74052619934082 12.983573913574219 11.228486061096191 0.4317878484725952 0 9
19.08220672607422 12.9683198928833 11.362977981567383 0.85114985704422 0 9
19.184160232543945 12.787402153015137 11.354884147644043 0.851756751537323 0 9
19.839237213134766 12.96841812133789 11.673263549804688 0.6510429382324219 0 9
20.12740135192871 12.900390625 11.774202346801758 0.6454620361328125 0 9
20.09619140625 12.627324104309082 11.689153671264648 0.4952928423881531 0 9
20.47347640991211 12.60953140258789 11.84229564666748 0.6186765432357788 0 9
20.49822235107422 12.372382164001465 11.79190444946289 0.6213202476501465 0 9
21.332265853881836 12.615976333618164 12.206076622009277 0.6226244568824768 0 9
20.822246551513672 12.063398361206055 11.851811408996582 0.23084668815135956 0 9
21.59423828125 12.253066062927246 12.228119850158691 0.7635619640350342 0 9
21.660741806030273 12.035078048706055 12.204107284545898 0.765064537525177 0 9
21.71402359008789 11.810897827148438 12.173904418945312 0.5003328323364258 0 9
21.756757736206055 11.582226753234863 12.139065742492676 0.5017690062522888 0 9
8.42691421508789 -7.842499732971191 5.669545650482178 0.6117697358131409 0 3
8.276796340942383 -7.842636585235596 5.61570930480957 0.6176343560218811 0 3
8.129530906677246 -7.842753887176514 5.563333034515381 0.6234495043754578 0 3
7.984960556030273 -7.842909812927246 5.51235818862915 0.6292141675949097 0 3
8.513261795043945 8.513319969177246 5.806698322296143 0.689314067363739 0 9
8.974238395690918 8.814589500427246 6.066911697387695 0.9455230236053467 0 9
9.07779312133789 8.757597923278809 6.0835185050964355 0.9429417252540588 0 9
9.181737899780273 8.700136184692383 6.100601673126221 0.9403012990951538 0 9
9.286112785339355 8.642168045043945 6.118162155151367 0.9376021027565002 0 9
9.390897750854492 8.583730697631836 6.136213779449463 0.9348442554473877 0 9
9.425820350646973 8.461621284484863 6.109158992767334 0.42681100964546204 0 9
9.349432945251465 8.24267578125 6.011442184448242 0.43374887108802795 0 9
9.708183288574219 8.405292510986328 6.193343162536621 0.9262208342552185 0 9
10.609609603881836 9.02040958404541 6.716479778289795 0.8265255689620972 0 9
10.6992769241333 8.932440757751465 6.722218990325928 0.8258200883865356 0 9
14.119550704956055 11.574394226074219 8.805499076843262 0.9603671431541443 0 9
16.49898338317871 13.279159545898438 10.214673042297363 0.5468560457229614 0 9
16.415897369384766 12.9712495803833 10.090761184692383 0.5535709857940674 0 9
16.948984146118164 13.147069931030273 10.345471382141113 0.23029875755310059 0 9
16.724590301513672 12.73421859741211 10.13833236694336 0.23500388860702515 0 9
17.1490421295166 12.815878868103027 10.325479507446289 0.5526248216629028 0 9
17.07160186767578 12.520819664001465 10.210785865783691 0.558832049369812 0 9
16.99593734741211 12.232206344604492 10.099441528320312 0.5649933815002441 0 9
18.85986328125 13.318359375 11.135538101196289 0.8539637923240662 0 9
18.961952209472656 13.136933326721191 11.125723838806152 0.8547172546386719 0 9
19.01675796508789 12.923906326293945 11.089396476745605 0.4298689365386963 0 9
19.165721893310547 12.775156021118164 11.108940124511719 0.8560082912445068 0 9
19.810819625854492 12.949843406677246 11.415021896362305 0.4176064431667328 0 9
20.12837791442871 12.901054382324219 11.5308198928833 0.6480286717414856 0 9
20.33851432800293 12.779589653015137 11.584986686706543 0.6218079328536987 0 9
20.363359451293945 12.541757583618164 11.53458023071289 0.6245254278182983 0 9
21.02388572692871 12.689706802368164 11.84372615814209 0.630908191204071 0 9
21.333377838134766 12.616640090942383 11.953789710998535 0.6250990629196167 0 9
21.154979705810547 12.25619125366211 11.79171371459961 0.22813080251216888 0 9
20.5958194732666 11.6865816116333 11.421101570129395 0.23553355038166046 0 9
21.45992088317871 11.923515319824219 11.840433120727539 0.5057939887046814 0 9
21.50224494934082 11.695663452148438 11.805386543273926 0.5072954893112183 0 9
21.545116424560547 11.469609260559082 11.77193546295166 0.5087372064590454 0 9
21.58853530883789 11.245195388793945 11.740035057067871 0.510119616985321 0 9
21.632558822631836 11.022382736206055 11.70968246459961 0.5114415884017944 0 9
8.735937118530273 -7.842226505279541 5.662001132965088 0.6023081541061401 0 3
8.579863548278809 -7.842343807220459 5.606273174285889 0.6082951426506042 0 3
8.426894187927246 -7.842499732971191 5.5520758628845215 0.61423259973526 0 3
8.276816368103027 -7.842617034912109 5.499356746673584 0.6201212406158447 0 3
8.190077781677246 -7.901171684265137 5.48865270614624 0.43408793210983276 0 3
8.118788719177246 -7.974355220794678 5.488620281219482 0.4340905249118805 0 3
8.50331974029541 8.503358840942383 5.678183078765869 0.6928400993347168 0 9
8.521484375 8.369921684265137 5.639919281005859 0.6975399851799011 0 9
9.120351791381836 8.798651695251465 5.9837493896484375 0.9422413110733032 0 9
9.224902153015137 8.741034507751465 6.0006303787231445 0.939590573310852 0 9
9.329901695251465 8.682890892028809 6.017986297607422 0.936880886554718 0 9
9.435312271118164 8.624335289001465 6.03582763671875 0.9341117739677429 0 9
9.515097618103027 8.541757583618164 6.037563800811768 0.4244738817214966 0 9
9.4365234375 8.319472312927246 5.940088272094727 0.431439608335495 0 9
9.754511833190918 8.445429801940918 6.09229040145874 0.9254542589187622 0 9
10.711249351501465 9.106816291809082 6.638499736785889 0.8219095468521118 0 9
10.801875114440918 9.018105506896973 6.644229412078857 0.8212012052536011 0 9
15.828339576721191 12.975234031677246 9.663981437683105 0.4645147919654846 0 9
16.58642578125 13.349531173706055 10.05327033996582 0.5461170077323914 0 9
16.501874923706055 13.039179801940918 9.930682182312012 0.5528587102890015 0 9
16.555194854736328 12.841601371765137 9.892997741699219 0.23670634627342224 0 9
17.21515655517578 13.107733726501465 10.216656684875488 0.5489433407783508 0 9
17.136112213134766 12.806230545043945 10.101122856140137 0.5552218556404114 0 9
17.05890655517578 12.511484146118164 9.989006996154785 0.5614537596702576 0 9
16.983436584472656 12.2232027053833 9.880162239074707 0.5676392912864685 0 9
18.841875076293945 13.305644035339355 10.891401290893555 0.8581490516662598 0 9
18.943828582763672 13.124433517456055 10.881811141967773 0.8589053750038147 0 9
19.04570198059082 12.943573951721191 10.873156547546387 0.8595893979072571 0 9
19.299022674560547 12.86400318145752 10.95140266418457 0.42782896757125854 0 9
19.685527801513672 12.867948532104492 11.104731559753418 0.4196866750717163 0 9
20.129413604736328 12.90169906616211 11.289352416992188 0.6505510807037354 0 9
20.42265510559082 12.83251953125 11.388751029968262 0.6448730230331421 0 9
20.57648468017578 12.67300796508789 11.410639762878418 0.7067662477493286 0 9
20.52339744567871 12.38759708404541 11.319091796875 0.7124824523925781 0 9
21.129179000854492 12.495820045471191 11.590843200683594 0.5078347325325012 0 9
21.170135498046875 12.264941215515137 11.552469253540039 0.5095214247703552 0 9
20.917030334472656 11.868788719177246 11.355731010437012 0.23283135890960693 0 9
21.253690719604492 11.808886528015137 11.480490684509277 0.5127161145210266 0 9
21.296152114868164 11.583613395690918 11.446831703186035 0.5142236948013306 0 9
21.33919906616211 11.36001968383789 11.41469955444336 0.5156713128089905 0 9
21.382831573486328 11.138007164001465 11.38407039642334 0.5170588493347168 0 9
9.057538986206055 -7.84191370010376 5.656984329223633 0.5925155282020569 0 3
8.8950777053833 -7.842050552368164 5.59926700592041 0.5986228585243225 0 3
8.735918045043945 -7.842226505279541 5.543158531188965 0.6046820878982544 0 3
8.58023452758789 -7.842695236206055 5.488836765289307 0.42663729190826416 0 3
8.509491920471191 -7.919335842132568 5.488805294036865 0.42663970589637756 0 3
8.437968254089355 -7.995351314544678 5.488773822784424 0.42664265632629395 0 3
8.365819931030273 -8.07070255279541 5.488741397857666 0.42664486169815063 0 3
8.2930269241333 -8.145448684692383 5.488708972930908 0.42664724588394165 0 3
8.493515014648438 8.493515014648438 5.550960540771484 0.6963188648223877 0 9
8.511698722839355 8.360312461853027 5.513599872589111 0.7010374665260315 0 9
9.162968635559082 8.839784622192383 5.88382625579834 0.9414770603179932 0 9
9.268163681030273 8.781991958618164 5.900504112243652 0.938815712928772 0 9
9.373749732971191 8.723769187927246 5.9176506996154785 0.9360954761505127 0 9
9.479843139648438 8.664979934692383 5.935272693634033 0.9333161115646362 0 9
9.586386680603027 8.605722427368164 5.953378677368164 0.9304777383804321 0 9
9.524609565734863 8.39712905883789 5.8679728507995605 0.42910081148147583 0 9
9.800976753234863 8.485605239868164 5.991063117980957 0.9246251583099365 0 9
10.814062118530273 9.194218635559082 6.559637069702148 0.8172374367713928 0 9
13.729043006896973 11.461854934692383 8.265068054199219 0.7851780652999878 0 9
13.905937194824219 11.39925765991211 8.309619903564453 0.7809682488441467 0 9
16.13445281982422 12.985780715942383 9.571271896362305 0.4608079195022583 0 9
16.146718978881836 12.758476257324219 9.51020336151123 0.4637671113014221 0 9
17.242401123046875 13.37466812133789 10.084461212158203 0.9836469292640686 0 9
17.2021484375 13.097870826721191 9.9917573928833 0.5514787435531616 0 9
17.123319625854492 12.796659469604492 9.878853797912598 0.5577811598777771 0 9
17.046289443969727 12.502225875854492 9.76927375793457 0.5640376210212708 0 9
16.97101593017578 12.21425724029541 9.662903785705566 0.5702463388442993 0 9
19.110858917236328 13.49560546875 10.811864852905273 0.9633018374443054 0 9
19.123476028442383 13.248847007751465 10.751285552978516 0.6403185725212097 0 9
19.280254364013672 13.102968215942383 10.7728853225708 0.6698111295700073 0 9
19.517459869384766 13.009570121765137 10.83973217010498 0.9608254432678223 0 9
19.587615966796875 12.803905487060547 10.814419746398926 0.42566782236099243 0 9
20.130409240722656 12.90234375 11.049734115600586 0.6530294418334961 0 9
20.42367172241211 12.833125114440918 11.147026062011719 0.6473296880722046 0 9
20.66228485107422 12.725839614868164 11.214447975158691 0.7065480947494507 0 9
20.608301162719727 12.438827514648438 11.124104499816895 0.7122862935066223 0 9
20.554882049560547 12.156210899353027 11.035924911499023 0.7179779410362244 0 9
20.96890640258789 12.148359298706055 11.199222564697266 0.5163966417312622 0 9
21.010663986206055 11.9219331741333 11.16390609741211 0.5180301666259766 0 9
21.05286979675293 11.697343826293945 11.130102157592773 0.519603431224823 0 9
21.095584869384766 11.474492073059082 11.0977783203125 0.5211170315742493 0 9
21.138769149780273 11.25331974029541 11.066922187805176 0.5225701332092285 0 9
9.392792701721191 -7.841660022735596 5.65457820892334 0.5823957920074463 0 3
9.223359107971191 -7.841777324676514 5.594761371612549 0.5886227488517761 0 3
9.057558059692383 -7.841933250427246 5.536642551422119 0.5948014855384827 0 3
8.909453392028809 -7.854745864868164 5.4889936447143555 0.4191606044769287 0 3
8.838515281677246 -7.934335708618164 5.488961696624756 0.41916319727897644 0 3
8.766913414001465 -8.013300895690918 5.488931179046631 0.4191652834415436 0 3
8.694570541381836 -8.091620445251465 5.488898277282715 0.4191682040691376 0 3
8.621562004089355 -8.169296264648438 5.488865852355957 0.4191703200340271 0 3
8.547831535339355 -8.246308326721191 5.488832950592041 0.4191727936267853 0 3
8.473398208618164 -8.322636604309082 5.488799095153809 0.41917556524276733 0 3
8.483749389648438 8.483808517456055 5.424992561340332 0.6997506022453308 0 9
8.5020112991333 8.350781440734863 5.388519287109375 0.7044867873191833 0 9
8.5200777053833 8.21957015991211 5.352989196777344 0.7091623544692993 0 9
9.311484336853027 8.823046684265137 5.800201892852783 0.9379773736000061 0 9
9.417695045471191 8.7646484375 5.817137241363525 0.9352467656135559 0 9
9.524394035339355 8.70572280883789 5.834542274475098 0.9324570894241333 0 9
9.631562232971191 8.64632797241211 5.852423191070557 0.9296078681945801 0 9
9.613632202148438 8.475565910339355 5.795048713684082 0.42673230171203613 0 9
10.825273513793945 9.372499465942383 6.474465847015381 0.813186526298523 0 9
13.556249618530273 11.525644302368164 8.045602798461914 0.7921764850616455 0 9
13.731307983398438 11.463749885559082 8.088106155395508 0.7880138158798218 0 9
13.908242225646973 11.401171684265137 8.131712913513184 0.7837880849838257 0 9
16.232460021972656 13.064647674560547 9.421688079833984 0.23983275890350342 0 9
16.444530487060547 12.993866920471191 9.47669792175293 0.45708686113357544 0 9
16.453807830810547 12.76292896270752 9.415637969970703 0.46005111932754517 0 9
16.418397903442383 12.501112937927246 9.330792427062988 0.07750609517097473 0 9
17.11064338684082 12.787187576293945 9.658583641052246 0.5603032112121582 0 9
17.033788681030273 12.49306583404541 9.551528930664062 0.566582977771759 0 9
16.958709716796875 12.20541000366211 9.447601318359375 0.5728154182434082 0 9
18.0390625 12.738749504089355 9.985372543334961 0.9756498336791992 0 9
22.05253791809082 15.278124809265137 12.130563735961914 0.37132197618484497 0 9
19.281171798706055 13.103593826293945 10.540998458862305 0.672308623790741 0 9
19.559804916381836 13.037851333618164 10.628923416137695 0.6667470335960388 0 9
19.843202590942383 12.970975875854492 10.71920394897461 0.6611316204071045 0 9
20.131444931030273 12.902968406677246 10.811904907226562 0.6554630398750305 0 9
20.424707412719727 12.833788871765137 10.9071044921875 0.6497418284416199 0 9
20.64970588684082 12.718085289001465 10.965855598449707 0.5179585218429565 0 9
20.690370559692383 12.488320350646973 10.927474021911621 0.519777774810791 0 9
20.638906478881836 12.205878257751465 10.841999053955078 0.7177554368972778 0 9
20.58511734008789 11.92601490020752 10.757084846496582 0.7234212160110474 0 9
20.53189468383789 11.650273323059082 10.674182891845703 0.7290395498275757 0 9
20.857324600219727 11.58871078491211 10.788864135742188 0.5264554023742676 0 9
20.90019416809082 11.3682222366333 10.757817268371582 0.5279746055603027 0 9
22.74578094482422 12.108769416809082 11.651371002197266 0.7472665309906006 0 9
31.784080505371094 13.082011222839355 15.541298866271973 0.3309837281703949 0 9
9.742694854736328 -7.841328144073486 5.654879570007324 0.5719541907310486 0 3
9.56581974029541 -7.841484069824219 5.592845439910889 0.5782976746559143 0 3
9.392753601074219 -7.841640472412109 5.532597064971924 0.5845952033996582 0 3
9.248788833618164 -7.86339807510376 5.489155292510986 0.41165533661842346 0 3
9.177773475646973 -7.946054458618164 5.489123344421387 0.41165801882743835 0 3
9.106054306030273 -8.028066635131836 5.4890923500061035 0.41166019439697266 0 3
9.033574104309082 -8.109453201293945 5.489059925079346 0.41166234016418457 0 3
8.96035099029541 -8.190155982971191 5.489027500152588 0.41166481375694275 0 3
8.886425971984863 -8.270195007324219 5.488994598388672 0.4116673469543457 0 3
8.811777114868164 -8.349570274353027 5.488961219787598 0.41167008876800537 0 3
8.736445426940918 -8.4282808303833 5.488928318023682 0.4116724729537964 0 3
8.660370826721191 -8.506308555603027 5.488893985748291 0.4116750955581665 0 3
8.474140167236328 8.474140167236328 5.300243854522705 0.7031347751617432 0 9
8.492422103881836 8.341386795043945 5.264653205871582 0.7078879475593567 0 9
8.510527610778809 8.210331916809082 5.229976654052734 0.7125819325447083 0 9
8.528417587280273 8.081093788146973 5.196187496185303 0.717215359210968 0 9
9.461718559265137 8.805624961853027 5.716436862945557 0.9343345165252686 0 9
9.569023132324219 8.746562004089355 5.733620643615723 0.9315344095230103 0 9
9.676875114440918 8.686972618103027 5.75127649307251 0.928674578666687 0 9
9.703632354736328 8.554999351501465 5.721321105957031 0.4243350625038147 0 9
10.929570198059082 9.46273422241211 6.393764019012451 0.8084059953689575 0 9
16.043046951293945 13.640058517456055 9.313190460205078 0.6648232936859131 0 9
15.967734336853027 13.330917358398438 9.199617385864258 0.3876732587814331 0 9
16.40443229675293 13.447460174560547 9.381295204162598 0.38016584515571594 0 9
16.742578506469727 13.475234031677246 9.505125045776367 0.4473941922187805 0 9
16.751249313354492 13.236210823059082 9.442206382751465 0.4503752589225769 0 9
16.673906326293945 12.933711051940918 9.332804679870605 0.5572800040245056 0 9
16.764883041381836 12.764902114868164 9.319204330444336 0.4563194215297699 0 9
16.769922256469727 12.53255844116211 9.259099006652832 0.4592818021774292 0 9
17.021406173706055 12.484004020690918 9.33573055267334 0.5690892934799194 0 9
16.946523666381836 12.196640014648438 9.234224319458008 0.5753447413444519 0 9
18.121288299560547 12.79677677154541 9.811352729797363 0.9748131036758423 0 9
18.266210556030273 12.654960632324219 9.827930450439453 0.9731689095497131 0 9
18.411367416381836 12.512421607971191 9.845196723937988 0.9714620113372803 0 9
19.55111312866211 13.03197193145752 10.391681671142578 0.6387470960617065 0 9
19.820547103881836 12.956191062927246 10.472681999206543 0.6338067650794983 0 9
20.094472885131836 12.879355430603027 10.555912017822266 0.6288094520568848 0 9
20.373046875 12.8013277053833 10.64144515991211 0.6237552762031555 0 9
20.65638542175293 12.722147941589355 10.729353904724121 0.6186448335647583 0 9
20.778223037719727 12.541386604309082 10.733734130859375 0.7117491364479065 0 9
20.72298812866211 12.255624771118164 10.647951126098633 0.7174835801124573 0 9
20.668378829956055 11.974218368530273 10.56422233581543 0.7231703996658325 0 9
20.614238739013672 11.697031021118164 10.482481002807617 0.7288093566894531 0 9
20.66679573059082 11.482831954956055 10.456366539001465 0.533271849155426 0 9
22.92771339416504 12.47103500366211 11.54318618774414 0.740489661693573 0 9
22.993066787719727 12.240448951721191 11.520306587219238 0.741960346698761 0 9
23.05730438232422 12.010214805603027 11.497990608215332 0.7434001564979553 0 9
31.37154197692871 12.912226676940918 15.00390625 0.17720817029476166 0 9
10.108593940734863 -7.841015338897705 5.658008098602295 0.5611939430236816 0 3
9.923554420471191 -7.841171741485596 5.593626022338867 0.567653238773346 0 3
9.74267578125 -7.841328144073486 5.531134605407715 0.5740669965744019 0 3
9.598808288574219 -7.868535041809082 5.489321708679199 0.4041222333908081 0 3
9.52773380279541 -7.954316139221191 5.489290714263916 0.4041246473789215 0 3
9.45589828491211 -8.039491653442383 5.489258766174316 0.40412694215774536 0 3
9.383280754089355 -8.123984336853027 5.489226341247559 0.40412941575050354 0 3
9.309941291809082 -8.207831382751465 5.489194393157959 0.4041316509246826 0 3
9.235819816589355 -8.291015625 5.489161491394043 0.40413400530815125 0 3
9.16097640991211 -8.373515129089355 5.489128112792969 0.40413641929626465 0 3
9.085390090942383 -8.455351829528809 5.4890947341918945 0.40413904190063477 0 3
9.009100914001465 -8.53652286529541 5.48906135559082 0.40414154529571533 0 3
8.932050704956055 -8.616991996765137 5.4890265464782715 0.4041440188884735 0 3
8.854296684265137 -8.696757316589355 5.488991737365723 0.40414655208587646 0 3
8.464550971984863 8.464609146118164 5.17668342590332 0.7064706087112427 0 9
8.482929229736328 8.332011222839355 5.141960144042969 0.711241602897644 0 9
8.501054763793945 8.201250076293945 5.108130931854248 0.7159520983695984 0 9
8.519003868103027 8.072187423706055 5.075169563293457 0.7206020951271057 0 9
9.505800247192383 8.8466796875 5.6155314445495605 0.9333586692810059 0 9
9.613788604736328 8.78744125366211 5.63248872756958 0.9305481910705566 0 9
9.722265243530273 8.727714538574219 5.6499152183532715 0.9276783466339111 0 9
9.831289291381836 8.667441368103027 5.6678147315979 0.9247491359710693 0 9
15.691874504089355 13.585976600646973 8.975855827331543 0.4756722152233124 0 9
15.987772941589355 13.592967987060547 9.074933052062988 0.47047895193099976 0 9
15.982284545898438 13.343046188354492 9.003482818603516 0.38871994614601135 0 9
16.419668197631836 13.4599609375 9.181463241577148 0.38118478655815125 0 9
16.718534469604492 13.455859184265137 9.280662536621094 0.6546924710273743 0 9
16.848163604736328 13.312792778015137 9.285910606384277 0.5496324300765991 0 9
16.506874084472656 12.804140090942383 9.034090042114258 0.07712148129940033 0 9
17.07697296142578 13.002519607543945 9.28184700012207 0.4495987594127655 0 9
17.08003807067871 12.76431655883789 9.220866203308105 0.452571839094162 0 9
17.009140014648438 12.47499942779541 9.121796607971191 0.5715576410293579 0 9
16.934432983398438 12.187929153442383 9.022688865661621 0.5778356194496155 0 9
16.861347198486328 11.90707015991211 8.926443099975586 0.5840659737586975 0 9
18.34929656982422 12.71255874633789 9.6533784866333 0.9722601175308228 0 9
19.28300666809082 13.104843139648438 10.082293510437012 0.677165687084198 0 9
19.50062370300293 12.998339653015137 10.13464069366455 0.6427141427993774 0 9
19.76900291442871 12.922480583190918 10.213438034057617 0.6377558708190918 0 9
20.041776657104492 12.84554672241211 10.294395446777344 0.6327404975891113 0 9
20.319198608398438 12.767460823059082 10.377581596374512 0.6276680827140808 0 9
20.601287841796875 12.688261032104492 10.463078498840332 0.6225395202636719 0 9
20.863262176513672 12.592753410339355 10.53830623626709 0.7114080190658569 0 9
20.80712890625 12.30540943145752 10.4537353515625 0.7171632647514343 0 9
20.75164031982422 12.0224609375 10.37120246887207 0.7228706479072571 0 9
20.696680068969727 11.743749618530273 10.290637969970703 0.7285300493240356 0 9
22.089258193969727 12.273163795471191 10.92782974243164 0.5960634350776672 0 9
31.13263511657715 15.16527271270752 14.97550106048584 0.9768458604812622 0 9
32.46101379394531 13.70263671875 15.237056732177734 0.12610125541687012 0 9
30.846426010131836 12.69613265991211 14.425106048583984 0.18087588250637054 0 9
32.14619064331055 12.894882202148438 14.97818660736084 0.3308556079864502 0 9
13.633163452148438 0.06119140610098839 5.895651817321777 0.7165679931640625 0 6
13.614765167236328 -0.06109374761581421 5.887697219848633 0.9894130825996399 0 6
13.631855010986328 -0.1835351586341858 5.895560264587402 0.9076814651489258 0 6
13.660331726074219 -0.30656248331069946 5.908847332000732 0.6419035196304321 0 6
13.685683250427246 -0.43003904819488525 5.92124080657959 0.5285800695419312 0 6
13.719921112060547 -0.5544335842132568 5.937979221343994 0.47461575269699097 0 6
13.795390129089355 -0.9300976395606995 5.979294776916504 0.19533564150333405 0 6
13.77310562133789 -1.0528515577316284 5.973500728607178 0.585372805595398 0 6
13.761836051940918 -1.176308512687683 5.97296667098999 0.8960580825805664 0 6
13.7573823928833 -1.3004297018051147 5.975839614868164 0.9924213290214539 0 6
10.491738319396973 -7.840644359588623 5.664091110229492 0.5501206517219543 0 3
10.297890663146973 -7.840839862823486 5.59721040725708 0.5566936135292053 0 3
10.108573913574219 -7.841015338897705 5.532341957092285 0.563221275806427 0 3
9.960000038146973 -7.869980335235596 5.489493370056152 0.39656198024749756 0 3
9.888925552368164 -7.959023475646973 5.489462375640869 0.3965641260147095 0 3
9.817011833190918 -8.0474214553833 5.4894304275512695 0.3965663015842438 0 3
9.744336128234863 -8.13515567779541 5.48939847946167 0.3965684175491333 0 3
9.670878410339355 -8.222246170043945 5.4893670082092285 0.39657092094421387 0 3
9.596620559692383 -8.308671951293945 5.4893341064453125 0.3965735137462616 0 3
9.521601676940918 -8.39443302154541 5.48930025100708 0.3965757489204407 0 3
9.445819854736328 -8.479511260986328 5.489266872406006 0.39657798409461975 0 3
9.369257926940918 -8.563905715942383 5.489232540130615 0.39658036828041077 0 3
9.291972160339355 -8.647597312927246 5.489198684692383 0.3965829014778137 0 3
9.213906288146973 -8.730586051940918 5.489163875579834 0.3965858519077301 0 3
9.135116577148438 -8.812910079956055 5.489128112792969 0.39658796787261963 0 3
9.055585861206055 -8.894472122192383 5.48909330368042 0.3965906798839569 0 3
8.455097198486328 8.455156326293945 5.054275989532471 0.7097593545913696 0 9
8.47353458404541 8.322772979736328 5.020417213439941 0.7145465612411499 0 9
8.49169921875 8.192187309265137 4.9874186515808105 0.7192739248275757 0 9
8.50966739654541 8.063339233398438 4.9552717208862305 0.7239404916763306 0 9
8.527461051940918 7.936112880706787 4.923945903778076 0.7285458445549011 0 9
9.658632278442383 8.828417778015137 5.531139373779297 0.9294990301132202 0 9
9.767753601074219 8.768573760986328 5.548333644866943 0.9266189336776733 0 9
10.55013656616211 9.30126953125 5.945085525512695 0.9645818471908569 0 9
10.612051010131836 9.187910079956055 5.933271408081055 0.9665026664733887 0 9
15.873827934265137 13.4961519241333 8.807063102722168 0.475528746843338 0 9
15.996718406677246 13.355116844177246 8.808379173278809 0.38974058628082275 0 9
16.434804916381836 13.472382545471191 8.982653617858887 0.3821789622306824 0 9
16.677324295043945 13.422656059265137 9.04897403717041 0.6586294770240784 0 9
16.921875 13.371034622192383 9.11618709564209 0.653773844242096 0 9
16.845077514648438 13.0664644241333 9.01126766204834 0.5555656552314758 0 9
17.151248931884766 13.059121131896973 9.111991882324219 0.5612429976463318 0 9
17.073223114013672 12.759238243103027 9.009330749511719 0.5676387548446655 0 9
16.996992111206055 12.46605396270752 8.90969467163086 0.5739863514900208 0 9
17.3980655670166 12.521601676940918 9.060640335083008 0.45177775621414185 0 9
17.39568328857422 12.28441333770752 9.001614570617676 0.454740047454834 0 9
18.4326171875 12.77025318145752 9.478493690490723 0.9712850451469421 0 9
20.983261108398438 14.260272979736328 10.723825454711914 0.882025420665741 0 9
19.450761795043945 12.965116500854492 9.880746841430664 0.6466373801231384 0 9
19.71806526184082 12.889179229736328 9.95736026763916 0.6416617035865784 0 9
19.989765167236328 12.81216812133789 10.03608512878418 0.6366286873817444 0 9
20.265975952148438 12.734062194824219 10.11698055267334 0.6315382122993469 0 9
20.546913146972656 12.65478515625 10.20010757446289 0.6263914108276367 0 9
20.832754135131836 12.574257850646973 10.285541534423828 0.6211882829666138 0 9
20.891386032104492 12.355234146118164 10.259334564208984 0.7167941331863403 0 9
20.834980010986328 12.070741653442383 10.178009986877441 0.7225215435028076 0 9
21.72119140625 12.325136184692383 10.556475639343262 0.6052456498146057 0 9
22.028358459472656 12.239355087280273 10.65192985534668 0.5998218059539795 0 9
26.702421188354492 13.007206916809082 12.55478286743164 0.9588418006896973 0 9
26.793241500854492 12.75521469116211 12.543160438537598 0.9597299695014954 0 9
31.524433135986328 14.661913871765137 14.695842742919922 0.976421594619751 0 9
31.63765525817871 14.370624542236328 14.687906265258789 0.9769490957260132 0 9
31.750194549560547 14.07933521270752 14.680891036987305 0.9774158000946045 0 9
31.862089157104492 13.788046836853027 14.674799919128418 0.9778215885162354 0 9
31.35482406616211 13.235702514648438 14.385884284973145 0.13101105391979218 0 9
31.164569854736328 12.827089309692383 14.24520206451416 0.3412347435951233 0 9
31.701757431030273 12.716581344604492 14.43796157836914 0.17726290225982666 0 9
32.30298614501953 12.622363090515137 14.659603118896484 0.9788352251052856 0 9
32.10337829589844 11.558027267456055 14.422516822814941 0.35167837142944336 0 9
13.870038986206055 0.062285155057907104 5.862829685211182 0.7070215940475464 0 6
13.76839828491211 -0.0617382787168026 5.819857597351074 0.6692624092102051 0 6
13.903104782104492 -0.1871679574251175 5.877261638641357 0.95303875207901 0 6
13.760878562927246 -1.8011717796325684 5.866237163543701 0.9906628131866455 0 6
10.491718292236328 -7.840663909912109 5.536349773406982 0.5520634055137634 0 3
10.3330659866333 -7.867617130279541 5.489670753479004 0.3889744281768799 0 3
10.261953353881836 -7.959980487823486 5.489639759063721 0.3889766037464142 0 3
10.190038681030273 -8.0517578125 5.4896087646484375 0.388978511095047 0 3
10.117304801940918 -8.142851829528809 5.48957633972168 0.38898107409477234 0 3
10.043749809265137 -8.233281135559082 5.489543914794922 0.38898327946662903 0 3
9.96939468383789 -8.323046684265137 5.489511013031006 0.3889857232570648 0 3
9.894179344177246 -8.412128448486328 5.48947811126709 0.3889881670475006 0 3
9.81826114654541 -8.5005464553833 5.489445209503174 0.3889904022216797 0 3
9.741483688354492 -8.58828067779541 5.489410400390625 0.3889928162097931 0 3
9.663984298706055 -8.6753511428833 5.489376068115234 0.38899505138397217 0 3
9.585644721984863 -8.761679649353027 5.4893412590026855 0.3889975845813751 0 3
9.506523132324219 -8.847304344177246 5.4893059730529785 0.3890003561973572 0 3
9.426679611206055 -8.932207107543945 5.4892706871032715 0.3890027403831482 0 3
9.346074104309082 -9.016386985778809 5.489234447479248 0.3890051245689392 0 3
9.2647066116333 -9.099883079528809 5.489198684692383 0.3890077471733093 0 3
8.445722579956055 8.445780754089355 4.932992935180664 0.7129985690116882 0 9
8.46419906616211 8.313612937927246 4.899977684020996 0.7178033590316772 0 9
8.482401847839355 8.183241844177246 4.867811679840088 0.7225465178489685 0 9
8.500429153442383 8.054570198059082 4.836469650268555 0.7272288203239441 0 9
8.518241882324219 7.927577972412109 4.805927753448486 0.731850266456604 0 9
9.703574180603027 8.869511604309082 5.42955207824707 0.9283865690231323 0 9
9.813359260559082 8.80947208404541 5.446507453918457 0.9254964590072632 0 9
