ply
format ascii 1.0
element vertex 608
property float32 x
property float32 y
property float32 z
property float32 CosAngle
property uint32 ObjIdx
property uint32 ObjTag
end_header
28.419822692871094 25.976816177368164 3.3419206142425537 0.6447996497154236 0 9
28.834901809692383 25.885019302368164 3.363273859024048 0.6118294596672058 0 9
26.940683364868164 23.751367568969727 3.117344379425049 0.8277700543403625 0 9
27.01496124267578 23.3892765045166 3.1015210151672363 0.8319933414459229 0 9
20.551836013793945 17.47327995300293 2.3413984775543213 0.8645263314247131 0 9
20.815311431884766 17.377811431884766 2.3535549640655518 0.8600610494613647 0 9
21.081600189208984 17.28138542175293 2.3660268783569336 0.8555278778076172 0 9
21.3507022857666 17.18388557434082 2.3788135051727295 0.8509269952774048 0 9
28.18816375732422 22.273046493530273 3.118227481842041 0.6310760974884033 0 9
21.51433563232422 16.68816375732422 2.3632876873016357 0.44649431109428406 0 9
21.28646469116211 16.20747947692871 2.3221797943115234 0.45439860224723816 0 9
21.066387176513672 15.7432222366333 2.2826647758483887 0.4622647762298584 0 9
20.85367202758789 15.294511795043945 2.244647741317749 0.47009339928627014 0 9
25.054628372192383 18.031972885131836 2.6792986392974854 0.9697967767715454 0 9
25.27146339416504 17.84587860107422 2.6852498054504395 0.9676483869552612 0 9
25.4892578125 17.658964157104492 2.6914420127868652 0.9654222726821899 0 9
25.59859275817871 17.396757125854492 2.6863865852355957 0.2528700828552246 0 9
25.927928924560547 17.282421112060547 2.7045674324035645 0.960737407207489 0 9
20.04736328125 13.104315757751465 2.0787978172302246 0.7419496774673462 0 9
20.31365203857422 13.019648551940918 2.094212532043457 0.7364889979362488 0 9
20.583866119384766 12.933671951293945 2.1100211143493652 0.7309716939926147 0 9
20.93745994567871 12.89517593383789 2.1343116760253906 0.7302300333976746 0 9
20.713769912719727 12.50234317779541 2.0999867916107178 0.1649865359067917 0 9
21.455272674560547 12.688573837280273 2.1635234355926514 0.7203702926635742 0 9
21.719648361206055 12.583144187927246 2.1787075996398926 0.715349555015564 0 9
21.987871170043945 12.47630786895752 2.194291830062866 0.710269033908844 0 9
22.22687530517578 12.349492073059082 2.2069897651672363 0.7901196479797363 0 9
22.460819244384766 12.21695327758789 2.2192413806915283 0.7857568264007568 0 9
27.980897903442383 14.895546913146973 2.7513318061828613 0.695056676864624 0 9
38.190467834472656 19.89271354675293 3.7375152111053467 0.9396138787269592 0 9
37.81130599975586 19.265722274780273 3.6833348274230957 0.5858699679374695 0 9
38.30599594116211 19.086660385131836 3.714686155319214 0.5809252858161926 0 9
37.83693313598633 18.430858612060547 3.6530065536499023 0.6523926854133606 0 9
22.715545654296875 10.81386661529541 2.183640956878662 0.5752934217453003 0 9
23.104101181030273 10.745527267456055 2.2116267681121826 0.5680134892463684 0 9
23.50273323059082 10.675410270690918 2.240523099899292 0.5606877207756042 0 9
23.91193389892578 10.603378295898438 2.2703757286071777 0.5533162951469421 0 9
24.332304000854492 10.529492378234863 2.3012173175811768 0.5459001660346985 0 9
24.198827743530273 10.21484375 2.279832601547241 0.8383059501647949 0 9
24.150115966796875 9.939804077148438 2.2667441368103027 0.8431456685066223 0 9
24.101972579956055 9.66796875 2.2539877891540527 0.8479172587394714 0 9
24.05437469482422 9.399101257324219 2.2415530681610107 0.8526213765144348 0 9
24.007205963134766 9.13314437866211 2.229433298110962 0.8572568297386169 0 9
38.956268310546875 14.421308517456055 3.6055126190185547 0.3366110324859619 0 9
34.432518005371094 12.39638614654541 3.176396369934082 0.9469348192214966 0 9
34.576560974121094 12.098769187927246 3.1795380115509033 0.9459987878799438 0 9
34.72101593017578 11.800604820251465 3.1829473972320557 0.944985032081604 0 9
34.86579895019531 11.501757621765137 3.186633348464966 0.9438934326171875 0 9
37.21126937866211 11.90625 3.3910980224609375 0.6529015302658081 0 9
35.835174560546875 11.112343788146973 3.2564685344696045 0.12708275020122528 0 9
36.98771286010742 11.10683536529541 3.35201096534729 0.7906429767608643 0 9
36.84075927734375 10.703164100646973 3.329850435256958 0.7959041595458984 0 9
36.69581985473633 10.304804801940918 3.3082518577575684 0.8011006116867065 0 9
36.55265426635742 9.911483764648438 3.287199020385742 0.8062320351600647 0 9
36.41138458251953 9.523183822631836 3.2666752338409424 0.811297595500946 0 9
39.85105514526367 10.041522979736328 3.567037343978882 0.3847086429595947 0 9
39.97228240966797 9.691367149353027 3.5699565410614014 0.1327248215675354 0 9
39.84585952758789 9.282832145690918 3.5510852336883545 0.4430990219116211 0 9
38.970703125 8.710917472839355 3.465980052947998 0.808961033821106 0 9
39.21857452392578 8.3974609375 3.4811832904815674 0.5258673429489136 0 9
39.479217529296875 8.08333969116211 3.4977385997772217 0.8016169667243958 0 9
39.73714828491211 7.765195369720459 3.514274835586548 0.7978441715240479 0 9
39.97079849243164 7.439023494720459 3.528886079788208 0.9224669933319092 0 9
48.53511428833008 -6.796483993530273 4.253767013549805 0.31261077523231506 0 3
47.19322204589844 -7.041054725646973 4.1415276527404785 0.3210824429988861 0 3
39.55466842651367 -6.264843463897705 3.475986957550049 0.32414716482162476 0 3
38.527400970458984 -6.45714807510376 3.3906707763671875 0.3325898051261902 0 3
37.486228942871094 -6.629101276397705 3.3041484355926514 0.34100550413131714 0 3
36.26874923706055 -6.75011682510376 3.2020769119262695 0.9330334663391113 0 3
35.64275360107422 -6.965175628662109 3.152174711227417 0.35775408148765564 0 3
34.6982421875 -7.104511737823486 3.074162483215332 0.3677724599838257 0 3
33.86865234375 -7.252011775970459 3.0063085556030273 0.37607279419898987 0 3
27.703475952148438 -6.19249963760376 2.4639029502868652 0.9198909997940063 0 3
26.905799865722656 -6.268261432647705 2.397859811782837 0.3909285068511963 0 3
26.56525421142578 -6.440859317779541 2.372565746307373 0.3991098999977112 0 3
25.606834411621094 -6.452382564544678 2.2920525074005127 0.40740135312080383 0 3
25.047225952148438 -6.550995826721191 2.2471301555633545 0.4155452847480774 0 3
24.508983612060547 -6.645859241485596 2.204110860824585 0.42365625500679016 0 3
24.231815338134766 -6.804746150970459 2.1845860481262207 0.43161940574645996 0 3
23.72767448425293 -6.893535137176514 2.1446309089660645 0.43966144323349 0 3
23.241561889648438 -6.97912073135376 2.1062686443328857 0.447668194770813 0 3
22.772539138793945 -7.061738014221191 2.0694236755371094 0.4556388258934021 0 3
22.319608688354492 -7.141503810882568 2.034008502960205 0.4635727107524872 0 3
21.8818359375 -7.218613147735596 1.9999403953552246 0.47146907448768616 0 3
21.45849609375 -7.293144226074219 1.967152714729309 0.4793277680873871 0 3
21.048768997192383 -7.365312099456787 1.935577630996704 0.4871476888656616 0 3
20.65199089050293 -7.43517541885376 1.9051451683044434 0.4949280619621277 0 3
20.267459869384766 -7.502890586853027 1.8758065700531006 0.5026687383651733 0 3
19.89453125 -7.568573951721191 1.8475064039230347 0.5103691220283508 0 3
19.532617568969727 -7.632304668426514 1.820189118385315 0.5180283784866333 0 3
19.18128776550293 -7.694179534912109 1.7938122749328613 0.5256457924842834 0 3
18.839941024780273 -7.754296779632568 1.7683300971984863 0.5332207679748535 0 3
18.508163452148438 -7.812734127044678 1.7436981201171875 0.540752649307251 0 3
18.185449600219727 -7.869550704956055 1.7198821306228638 0.5482416749000549 0 3
17.87140655517578 -7.924843788146973 1.6968380212783813 0.5556861162185669 0 3
17.565664291381836 -7.978710651397705 1.6745415925979614 0.5630854368209839 0 3
17.267772674560547 -8.03115177154541 1.6529521942138672 0.5704400539398193 0 3
16.977519989013672 -8.082245826721191 1.6320433616638184 0.5777482986450195 0 3
16.708866119384766 -8.139121055603027 1.6131738424301147 0.6190101504325867 0 3
16.48126983642578 -8.212128639221191 1.5982552766799927 0.8011797666549683 0 3
16.517127990722656 -8.415898323059082 1.608994960784912 0.7958319187164307 0 3
16.55353546142578 -8.622441291809082 1.6200131177902222 0.7904198169708252 0 3
16.590370178222656 -8.83187484741211 1.6313143968582153 0.7849438786506653 0 3
16.62777328491211 -9.04427719116211 1.6429089307785034 0.7794053554534912 0 3
16.66568374633789 -9.259726524353027 1.6548000574111938 0.7738034725189209 0 3
16.704160690307617 -9.478320121765137 1.6670047044754028 0.7681391835212708 0 3
16.743242263793945 -9.700175285339355 1.67952299118042 0.7624133229255676 0 3
16.782909393310547 -9.925371170043945 1.6923675537109375 0.7566258907318115 0 3
16.823183059692383 -10.154120445251465 1.7055519819259644 0.7507773637771606 0 3
16.86410140991211 -10.386465072631836 1.7190814018249512 0.7448687553405762 0 3
16.905643463134766 -10.622538566589355 1.7329684495925903 0.738899827003479 0 3
16.9478702545166 -10.862480163574219 1.747225046157837 0.732871413230896 0 3
16.990819931030273 -11.106425285339355 1.7618566751480103 0.7267841100692749 0 3
17.03449249267578 -11.3544921875 1.77688467502594 0.7206380367279053 0 3
17.078964233398438 -11.60683536529541 1.7923150062561035 0.7144342064857483 0 3
17.12415885925293 -11.863632202148438 1.8081622123718262 0.7081727981567383 0 3
17.170156478881836 -12.125078201293945 1.8244378566741943 0.7018542289733887 0 3
17.217031478881836 -12.391249656677246 1.8411632776260376 0.6954788565635681 0 3
17.26478385925293 -12.662382125854492 1.8583462238311768 0.6890479326248169 0 3
17.313379287719727 -12.938612937927246 1.876007080078125 0.6825613379478455 0 3
17.362987518310547 -13.22021484375 1.8941607475280762 0.6760197281837463 0 3
17.413515090942383 -13.50732421875 1.9128249883651733 0.6694232821464539 0 3
17.465097427368164 -13.800155639648438 1.9320158958435059 0.662773609161377 0 3
17.5176944732666 -14.098983764648438 1.9517574310302734 0.6560700535774231 0 3
17.5714054107666 -14.403944969177246 1.9720687866210938 0.649313747882843 0 3
17.626211166381836 -14.715429306030273 1.9929659366607666 0.6425051093101501 0 3
17.47576141357422 -14.857988357543945 1.9909511804580688 0.5035055875778198 0 3
17.080604553222656 -14.788241386413574 1.9609795808792114 0.5112012624740601 0 3
16.697168350219727 -14.720507621765137 1.9320495128631592 0.5188557505607605 0 3
16.324785232543945 -14.654804229736328 1.9041128158569336 0.5264691114425659 0 3
15.963066101074219 -14.590898513793945 1.8771182298660278 0.5340397357940674 0 3
15.611445426940918 -14.528827667236328 1.8510290384292603 0.5415665507316589 0 3
15.269393920898438 -14.468437194824219 1.8258007764816284 0.5490503311157227 0 3
14.936542510986328 -14.409628868103027 1.801391839981079 0.5564896464347839 0 3
14.612441062927246 -14.352421760559082 1.7777690887451172 0.5638843774795532 0 3
26.796815872192383 26.796756744384766 2.9746532440185547 0.7467430233955383 0 9
27.25439453125 26.769393920898438 2.9986510276794434 0.7407671809196472 0 9
27.71939468383789 26.741561889648438 3.023280620574951 0.7347322702407837 0 9
28.192108154296875 26.713241577148438 3.0485637187957764 0.7286388278007507 0 9
28.61747932434082 26.632909774780273 3.0685906410217285 0.6354988813400269 0 9
28.863866806030273 26.382694244384766 3.0694901943206787 0.6066797375679016 0 9
28.774511337280273 25.830820083618164 3.035210609436035 0.6135314106941223 0 9
28.687206268310547 25.2911319732666 3.0019285678863525 0.6203329563140869 0 9
28.63880729675293 24.795175552368164 2.9734606742858887 0.5386922955513 0 9
32.33623123168945 27.492441177368164 3.331584930419922 0.5992624163627625 0 9
32.90005874633789 27.466875076293945 3.3641417026519775 0.1230458915233612 0 9
21.113983154296875 17.30792999267578 2.143002510070801 0.8547982573509216 0 9
30.868553161621094 24.844276428222656 3.110304594039917 0.4067922532558441 0 9
28.292734146118164 22.35564422607422 2.8304286003112793 0.6291723251342773 0 9
21.47982406616211 16.661405563354492 2.133812189102173 0.4475163519382477 0 9
21.55746078491211 16.413827896118164 2.1268022060394287 0.35343486070632935 0 9
28.9254093170166 21.616424560546875 2.8344523906707764 0.34851178526878357 0 9
25.099061965942383 18.408124923706055 2.4432079792022705 0.379955530166626 0 9
25.825096130371094 18.586463928222656 2.4975426197052 0.3716898262500763 0 9
30.593612670898438 21.604238510131836 2.9398303031921387 0.5944101214408875 0 9
32.892303466796875 22.787811279296875 3.1409411430358887 0.35236138105392456 0 9
35.41546630859375 24.068281173706055 3.3611090183258057 0.3480457067489624 0 9
31.670116424560547 21.109920501708984 2.9875614643096924 0.43475377559661865 0 9
32.45341873168945 21.213788986206055 3.043365478515625 0.42678210139274597 0 9
33.00464630126953 21.153730392456055 3.0771281719207764 0.5446690320968628 0 9
20.603124618530273 12.945761680603027 1.9099780321121216 0.7384498715400696 0 9
20.855253219604492 12.844531059265137 1.9225832223892212 0.7336081862449646 0 9
21.110780715942383 12.741971969604492 1.9355199337005615 0.7287055253982544 0 9
21.369863510131836 12.638046264648438 1.9487991333007812 0.7237417101860046 0 9
21.63261604309082 12.532753944396973 1.962422490119934 0.7187175154685974 0 9
21.899160385131836 12.425956726074219 1.976398229598999 0.7136334180831909 0 9
22.1558780670166 12.310077667236328 1.9895178079605103 0.7931914925575256 0 9
22.388690948486328 12.177695274353027 2.00052809715271 0.7888256907463074 0 9
22.62419891357422 12.043925285339355 2.011828899383545 0.7843943238258362 0 9
38.217185974121094 19.906600952148438 3.382388114929199 0.8391366004943848 0 9
38.94249725341797 19.84210968017578 3.4306817054748535 0.5355526208877563 0 9
38.01253890991211 18.9404296875 3.33364200592041 0.5858089327812195 0 9
37.83015441894531 18.42753791809082 3.303004026412964 0.6529541015625 0 9
38.29119110107422 18.228710174560547 3.3288450241088867 0.5901392698287964 0 9
38.93003845214844 18.106016159057617 3.3701164722442627 0.5829121470451355 0 9
23.484472274780273 10.667109489440918 2.024650812149048 0.5615052580833435 0 9
23.8931827545166 10.595077514648438 2.0515992641448975 0.554128885269165 0 9
24.31296730041504 10.521113395690918 2.0794522762298584 0.546707272529602 0 9
24.212148666381836 10.220449447631836 2.062896966934204 0.8384168148040771 0 9
24.163339614868164 9.945253372192383 2.051053047180176 0.8432595729827881 0 9
24.115097045898438 9.673222541809082 2.039504289627075 0.8480345010757446 0 9
35.79115295410156 13.985156059265137 3.01625657081604 0.9256053566932678 0 9
37.94562530517578 14.43578052520752 3.186767578125 0.34693536162376404 0 9
43.01222610473633 15.485292434692383 3.5883538722991943 0.7312340140342712 0 9
42.79519271850586 14.974628448486328 3.5588841438293457 0.737287700176239 0 9
42.58169937133789 14.4722261428833 3.530184745788574 0.7432821989059448 0 9
36.855587005615234 12.158143997192383 3.046295642852783 0.25326046347618103 0 9
37.25312423706055 11.919609069824219 3.0701873302459717 0.7811843752861023 0 9
36.66267395019531 11.368964195251465 3.012996196746826 0.12429915368556976 0 9
36.95386505126953 11.096659660339355 3.0286200046539307 0.7919062972068787 0 9
36.80726623535156 10.693437576293945 3.008620500564575 0.7971711754798889 0 9
36.662635803222656 10.295488357543945 2.989122152328491 0.802371084690094 0 9
36.51988220214844 9.902616500854492 2.97011661529541 0.8075058460235596 0 9
41.18525314331055 10.771777153015137 3.341546058654785 0.16797009110450745 0 9
40.70914077758789 10.257753372192383 3.2953124046325684 0.0803370252251625 0 9
40.378787994384766 9.789921760559082 3.261326313018799 0.6822544932365417 0 9
39.22724533081055 9.138690948486328 3.1615726947784424 0.17189118266105652 0 9
39.24277114868164 8.771718978881836 3.156341552734375 0.4511382281780243 0 9
38.637577056884766 8.273046493530273 3.101564884185791 0.45910605788230896 0 9
39.33458709716797 8.053730010986328 3.1515917778015137 0.8051127791404724 0 9
39.59093475341797 7.73660135269165 3.1664416790008545 0.8013372421264648 0 9
39.8498420715332 7.41650390625 3.181696653366089 0.7974951863288879 0 9
40.11142349243164 7.093281269073486 3.1973650455474854 0.7935863733291626 0 9
48.27785110473633 -6.760488033294678 3.8265092372894287 0.30831703543663025 0 3
47.13503646850586 -7.032382488250732 3.740779399871826 0.9456133246421814 0 3
39.55476379394531 -6.264863014221191 3.143510103225708 0.3243671655654907 0 3
38.52750015258789 -6.457187175750732 3.066362142562866 0.33281540870666504 0 3
37.48630905151367 -6.629140377044678 2.988112211227417 0.34123724699020386 0 3
36.26896286010742 -6.750155925750732 2.8958024978637695 0.9336643815040588 0 3
35.64282989501953 -6.965195178985596 2.8506734371185303 0.3579973578453064 0 3
34.71437454223633 -7.107792854309082 2.7814040184020996 0.36785227060317993 0 3
28.091522216796875 -6.014999866485596 2.255002021789551 0.37464195489883423 0 3
27.43017578125 -6.131406307220459 2.2062442302703857 0.3827233910560608 0 3
27.066152572631836 -6.3056640625 2.1814334392547607 0.3911663293838501 0 3
26.45296859741211 -6.413632869720459 2.1365630626678467 0.39938104152679443 0 3
25.8643741607666 -6.517284870147705 2.0936686992645264 0.4075639247894287 0 3
25.2989444732666 -6.616855144500732 2.0526208877563477 0.4157138466835022 0 3
24.75521469116211 -6.712597370147705 2.013313055038452 0.423830509185791 0 3
24.231855392456055 -6.804765701293945 1.9756344556808472 0.43191295862197876 0 3
23.72769546508789 -6.8935546875 1.939500093460083 0.4399603009223938 0 3
23.241640090942383 -6.979140281677246 1.9048110246658325 0.4479721784591675 0 3
22.77259635925293 -7.061738014221191 1.8714852333068848 0.45594853162765503 0 3
22.31962776184082 -7.141523361206055 1.8394585847854614 0.4638877809047699 0 3
21.881893157958984 -7.218593597412109 1.8086493015289307 0.47178950905799866 0 3
21.458534240722656 -7.293163776397705 1.7789995670318604 0.47965362668037415 0 3
21.048809051513672 -7.365312099456787 1.7504388093948364 0.4874786138534546 0 3
20.65203094482422 -7.435194969177246 1.722921371459961 0.49526458978652954 0 3
20.267459869384766 -7.502910137176514 1.6963903903961182 0.5030108094215393 0 3
19.894512176513672 -7.568613052368164 1.6707967519760132 0.5107164978981018 0 3
19.532655715942383 -7.63232421875 1.6460915803909302 0.5183806419372559 0 3
19.18132781982422 -7.694179534912109 1.622239589691162 0.5260028839111328 0 3
18.84000015258789 -7.754296779632568 1.599190354347229 0.5335833430290222 0 3
18.508182525634766 -7.812714576721191 1.5769180059432983 0.5411210060119629 0 3
18.185468673706055 -7.869570255279541 1.55537748336792 0.5486142635345459 0 3
17.871463775634766 -7.924843788146973 1.5345404148101807 0.5560637712478638 0 3
17.565664291381836 -7.978710651397705 1.5143734216690063 0.5634684562683105 0 3
17.267791748046875 -8.031171798706055 1.4948498010635376 0.5708280801773071 0 3
16.977519989013672 -8.082265853881836 1.4759411811828613 0.578140914440155 0 3
16.708887100219727 -8.139121055603027 1.458875060081482 0.6194311380386353 0 3
16.481386184692383 -8.212187767028809 1.445393681526184 0.8017207384109497 0 3
16.51726531982422 -8.415956497192383 1.455106496810913 0.7963692545890808 0 3
16.553592681884766 -8.622519493103027 1.4650673866271973 0.790953516960144 0 3
16.59048843383789 -8.83193302154541 1.4752905368804932 0.7854740023612976 0 3
16.627870559692383 -9.04433536529541 1.4857739210128784 0.7799311280250549 0 3
16.665800094604492 -9.259784698486328 1.4965280294418335 0.7743257284164429 0 3
16.70427703857422 -9.47835922241211 1.5075634717941284 0.7686576247215271 0 3
16.74333953857422 -9.700234413146973 1.5188872814178467 0.762927770614624 0 3
16.78302764892578 -9.925429344177246 1.5305050611495972 0.7571365833282471 0 3
16.823320388793945 -10.154179573059082 1.5424294471740723 0.751284122467041 0 3
16.864160537719727 -10.386542320251465 1.554663062095642 0.7453711628913879 0 3
16.905742645263672 -10.622597694396973 1.5672216415405273 0.7393983602523804 0 3
16.947988510131836 -10.862558364868164 1.5801135301589966 0.7333657741546631 0 3
16.990957260131836 -11.106484413146973 1.593349575996399 0.7272741794586182 0 3
17.03462791442871 -11.354570388793945 1.6069375276565552 0.7211239337921143 0 3
17.079082489013672 -11.606913566589355 1.6208940744400024 0.7149156928062439 0 3
17.124277114868164 -11.863730430603027 1.635223388671875 0.7086502313613892 0 3
17.170312881469727 -12.12515640258789 1.6499422788619995 0.70232754945755 0 3
17.217166900634766 -12.391327857971191 1.6650704145431519 0.69594806432724 0 3
17.264902114868164 -12.662460327148438 1.680609107017517 0.6895123720169067 0 3
17.313535690307617 -12.938730239868164 1.696580410003662 0.6830209493637085 0 3
17.36312484741211 -13.220312118530273 1.7130004167556763 0.6764751672744751 0 3
17.413633346557617 -13.507421493530273 1.7298812866210938 0.6698745489120483 0 3
17.465213775634766 -13.80029296875 1.7472387552261353 0.6632199287414551 0 3
17.517850875854492 -14.099061965942383 1.7650866508483887 0.6565124988555908 0 3
17.571542739868164 -14.404101371765137 1.7834548950195312 0.6497510671615601 0 3
17.626386642456055 -14.715526580810547 1.8023507595062256 0.6429378986358643 0 3
17.47574234008789 -14.8579683303833 1.8005160093307495 0.5038495063781738 0 3
17.08056640625 -14.788203239440918 1.773411512374878 0.5115506649017334 0 3
16.69709014892578 -14.720507621765137 1.7472444772720337 0.5192109942436218 0 3
16.324785232543945 -14.654765129089355 1.7219815254211426 0.5268288850784302 0 3
15.963066101074219 -14.5908784866333 1.6975722312927246 0.5344041585922241 0 3
15.611367225646973 -14.52880859375 1.6739766597747803 0.5419371128082275 0 3
15.269354820251465 -14.46841812133789 1.651162028312683 0.549425482749939 0 3
14.9365234375 -14.409628868103027 1.629085659980774 0.5568695068359375 0 3
14.612401962280273 -14.352401733398438 1.6077221632003784 0.5642698407173157 0 3
31.876893997192383 31.87679672241211 3.164797306060791 0.3258689343929291 0 9
27.280996322631836 26.795507431030273 2.684521436691284 0.7404987215995789 0 9
27.746639251708984 26.767850875854492 2.706592559814453 0.7344603538513184 0 9
28.220077514648438 26.73970603942871 2.7292544841766357 0.7283631563186646 0 9
28.70146369934082 26.7110538482666 2.7525112628936768 0.7222079634666443 0 9
28.802928924560547 26.327011108398438 2.739471673965454 0.6083354949951172 0 9
28.714452743530273 25.776893615722656 2.7089362144470215 0.6151915788650513 0 9
28.627986907958984 25.23892593383789 2.6792967319488525 0.6219972372055054 0 9
28.571523666381836 24.736913681030273 2.6531219482421875 0.5402926206588745 0 9
32.997928619384766 28.05501937866211 3.0406482219696045 0.6895082592964172 0 9
33.11404037475586 27.645526885986328 3.0283617973327637 0.6923060417175293 0 9
32.7487678527832 26.845409393310547 2.97280216217041 0.8589582443237305 0 9
31.482362747192383 25.338281631469727 2.8370819091796875 0.4095132350921631 0 9
28.39790916442871 22.438749313354492 2.5408661365509033 0.6272259950637817 0 9
28.90523338317871 22.421133041381836 2.5681467056274414 0.6205636262893677 0 9
29.62773323059082 22.55857276916504 2.614241600036621 0.5717939734458923 0 9
28.898319244384766 21.596172332763672 2.532674789428711 0.3490522503852844 0 9
30.647029876708984 22.477148056030273 2.6681458950042725 0.6617153882980347 0 9
31.106718063354492 22.3876953125 2.6905617713928223 0.6562023162841797 0 9
36.09257888793945 24.52845573425293 3.0635626316070557 0.8756960034370422 0 9
31.603904724121094 21.06576156616211 2.6663947105407715 0.4359317123889923 0 9
32.38425827026367 21.168554306030273 2.716092109680176 0.4279552698135376 0 9
33.17230224609375 21.26119041442871 2.7660696506500244 0.8945306539535522 0 9
25.559354782104492 16.059940338134766 2.119157552719116 0.9314510822296143 0 9
20.773788452148438 12.794355392456055 1.7127904891967773 0.7369365096092224 0 9
21.02779197692871 12.69189453125 1.7242687940597534 0.7320305705070496 0 9
21.285253524780273 12.588007926940918 1.7360472679138184 0.7270638942718506 0 9
21.54634666442871 12.482772827148438 1.7481341361999512 0.7220367193222046 0 9
21.811229705810547 12.376073837280273 1.7605379819869995 0.7169492840766907 0 9
22.079940795898438 12.267870903015137 1.7732696533203125 0.7118021845817566 0 9
22.317108154296875 12.138769149780273 1.7834932804107666 0.7918408513069153 0 9
22.551464080810547 12.005194664001465 1.7935351133346558 0.7874066829681396 0 9
43.25996017456055 22.533300399780273 3.4242730140686035 0.6311886310577393 0 9
38.83460998535156 19.787128448486328 3.0597972869873047 0.5373704433441162 0 9
38.48976516723633 19.17822265625 3.0189452171325684 0.5446422696113586 0 9
37.73765563964844 18.38249969482422 2.946892023086548 0.28389960527420044 0 9
38.28327941894531 18.22494125366211 2.9766106605529785 0.5906230211257935 0 9
38.921913146972656 18.102264404296875 3.013502836227417 0.5833916068077087 0 9
39.25448989868164 17.830116271972656 3.0267419815063477 0.7521040439605713 0 9
35.59421920776367 15.78369140625 2.7334811687469482 0.9140337705612183 0 9
35.622520446777344 15.415136337280273 2.724914073944092 0.9169063568115234 0 9
24.225448608398438 10.226054191589355 1.846010446548462 0.8384702205657959 0 9
24.176523208618164 9.95068359375 1.8354028463363647 0.8433159589767456 0 9
35.706581115722656 14.322871208190918 2.7008583545684814 0.9250743389129639 0 9
35.73435592651367 13.962968826293945 2.693366050720215 0.9276461005210876 0 9
38.263553619384766 14.556718826293945 2.8740322589874268 0.6912354230880737 0 9
43.01287078857422 15.485527038574219 3.2093639373779297 0.7316718101501465 0 9
42.79583740234375 14.974823951721191 3.1830155849456787 0.7377293109893799 0 9
42.58228302001953 14.472421646118164 3.157341241836548 0.743727445602417 0 9
42.37218475341797 13.97802734375 3.132333278656006 0.749665379524231 0 9
37.548709869384766 12.014199256896973 2.7676727771759033 0.11958551406860352 0 9
37.06837844848633 11.494765281677246 2.7245571613311768 0.7877834439277649 0 9
36.92017364501953 11.086562156677246 2.7062370777130127 0.7931159138679504 0 9
36.77392578125 10.68375015258789 2.68837833404541 0.7983840107917786 0 9
36.629608154296875 10.2861909866333 2.6709768772125244 0.803587019443512 0 9
40.76423645019531 11.053534507751465 2.965111017227173 0.1694035530090332 0 9
41.24675750732422 10.787851333618164 2.993048667907715 0.9907426834106445 0 9
41.356346130371094 10.42080020904541 2.994088649749756 0.7336128354072571 0 9
40.3889045715332 9.792363166809082 2.9175682067871094 0.6825017333030701 0 9
39.89388656616211 9.294023513793945 2.8756606578826904 0.44313913583755493 0 9
39.265995025634766 8.776933670043945 2.8246171474456787 0.45114800333976746 0 9
38.938926696777344 8.337597846984863 2.795588970184326 0.8122643828392029 0 9
39.82253646850586 8.15365219116211 2.8536579608917236 0.9238539338111877 0 9
39.8093147277832 7.779296875 2.8475914001464844 0.925822377204895 0 9
48.319236755371094 -6.766288757324219 3.425252676010132 0.9489867091178894 0 3
47.135311126708984 -7.032421588897705 3.345659017562866 0.9461895823478699 0 3
39.55486297607422 -6.264902114868164 2.8114824295043945 0.32456523180007935 0 3
38.5275764465332 -6.457206726074219 2.7424724102020264 0.333018958568573 0 3
37.48640441894531 -6.629159927368164 2.6724853515625 0.34144556522369385 0 3
36.269161224365234 -6.750155925750732 2.5899498462677 0.9342318773269653 0 3
35.64291000366211 -6.965234279632568 2.5495712757110596 0.3582158088684082 0 3
34.730430603027344 -7.11111307144165 2.4887642860412598 0.36790746450424194 0 3
33.89950942993164 -7.25857400894165 2.433788299560547 0.3762178122997284 0 3
27.70585823059082 -6.193007469177246 1.9930275678634644 0.38315349817276 0 3
27.06623077392578 -6.3056640625 1.9510201215744019 0.391404926776886 0 3
26.452987670898438 -6.413652420043945 1.9108837842941284 0.3996250033378601 0 3
25.864492416381836 -6.517265319824219 1.8725173473358154 0.4078127145767212 0 3
25.29898452758789 -6.616874694824219 1.835807204246521 0.41596776247024536 0 3
24.755292892456055 -6.712597370147705 1.8006517887115479 0.42408937215805054 0 3
24.23193359375 -6.804784774780273 1.7669552564620972 0.4321765899658203 0 3
23.727733612060547 -6.893593788146973 1.7346343994140625 0.4402293562889099 0 3
22.82712745666504 -6.854706764221191 1.6732250452041626 0.4482453167438507 0 3
22.366464614868164 -6.93582010269165 1.6439557075500488 0.45622625946998596 0 3
21.921600341796875 -7.01416015625 1.6158196926116943 0.4641706645488739 0 3
21.491680145263672 -7.089863300323486 1.5887539386749268 0.47207722067832947 0 3
21.248046875 -7.221621036529541 1.575478196144104 0.7430616617202759 0 3
21.048847198486328 -7.365331649780273 1.5655484199523926 0.4877769947052002 0 3
20.652069091796875 -7.435194969177246 1.5409340858459473 0.4955674707889557 0 3
20.267518997192383 -7.5029296875 1.517203688621521 0.503318190574646 0 3
19.894569396972656 -7.568613052368164 1.4943135976791382 0.5110284686088562 0 3
19.53271484375 -7.63232421875 1.47222101688385 0.5186973810195923 0 3
19.181386947631836 -7.694199085235596 1.450885534286499 0.5263246893882751 0 3
18.84000015258789 -7.754335880279541 1.4302736520767212 0.5339097380638123 0 3
18.508222579956055 -7.812714576721191 1.410353660583496 0.5414515733718872 0 3
18.18550682067871 -7.869589805603027 1.3910870552062988 0.5489498972892761 0 3
17.871484756469727 -7.924863338470459 1.3724486827850342 0.5564040541648865 0 3
17.565683364868164 -7.978730201721191 1.354414701461792 0.5638132095336914 0 3
17.267831802368164 -8.031190872192383 1.3369512557983398 0.5711770057678223 0 3
16.977558135986328 -8.082304954528809 1.320039987564087 0.5784947872161865 0 3
16.708887100219727 -8.139179229736328 1.3047765493392944 0.6198102235794067 0 3
16.481464385986328 -8.212225914001465 1.2927254438400269 0.8022077679634094 0 3
16.517362594604492 -8.416034698486328 1.3014119863510132 0.7968523502349854 0 3
16.553730010986328 -8.622577667236328 1.3103234767913818 0.7914337515830994 0 3
16.590604782104492 -8.831992149353027 1.319464087486267 0.785950779914856 0 3
16.628007888793945 -9.044374465942383 1.328841209411621 0.7804044485092163 0 3
16.665918350219727 -9.2598237991333 1.3384612798690796 0.7747955918312073 0 3
16.70443344116211 -9.47841739654541 1.3483309745788574 0.7691239714622498 0 3
16.74347686767578 -9.700292587280273 1.3584567308425903 0.7633903622627258 0 3
16.783143997192383 -9.925507545471191 1.368849515914917 0.7575954794883728 0 3
16.82339859008789 -10.154257774353027 1.3795123100280762 0.7517396211624146 0 3
16.864316940307617 -10.386601448059082 1.3904534578323364 0.7458235025405884 0 3
16.9058780670166 -10.622694969177246 1.4016872644424438 0.7398461699485779 0 3
16.948123931884766 -10.86263656616211 1.413216471672058 0.7338102459907532 0 3
16.99105453491211 -11.106562614440918 1.4250531196594238 0.7277151346206665 0 3
17.0347843170166 -11.35464859008789 1.4372097253799438 0.7215611338615417 0 3
17.079179763793945 -11.607011795043945 1.4496896266937256 0.7153491973876953 0 3
17.124433517456055 -11.863808631896973 1.4625054597854614 0.7090797424316406 0 3
17.17041015625 -12.125272750854492 1.4756749868392944 0.7027530670166016 0 3
17.21728515625 -12.39144515991211 1.4892001152038574 0.6963697671890259 0 3
17.265039443969727 -12.662558555603027 1.5031005144119263 0.6899300813674927 0 3
17.313671112060547 -12.93880844116211 1.5173842906951904 0.6834352016448975 0 3
17.363262176513672 -13.220409393310547 1.5320669412612915 0.6768850088119507 0 3
17.413808822631836 -13.507518768310547 1.5471645593643188 0.6702800393104553 0 3
17.46533203125 -13.800390243530273 1.5626873970031738 0.6636215448379517 0 3
17.517988204956055 -14.099199295043945 1.5786535739898682 0.6569095849990845 0 3
17.571659088134766 -14.40419864654541 1.5950804948806763 0.6501444578170776 0 3
17.626502990722656 -14.715643882751465 1.6119869947433472 0.6433271765708923 0 3
17.475664138793945 -14.857929229736328 1.6103253364562988 0.5041599273681641 0 3
17.080547332763672 -14.788164138793945 1.5860848426818848 0.5118651390075684 0 3
16.69709014892578 -14.720487594604492 1.5626848936080933 0.5195297002792358 0 3
16.324766159057617 -14.654726028442383 1.5400866270065308 0.5271526575088501 0 3
15.963007926940918 -14.5908784866333 1.5182552337646484 0.534733235836029 0 3
15.611367225646973 -14.528769493103027 1.4971529245376587 0.5422698259353638 0 3
15.269315719604492 -14.468379020690918 1.476747989654541 0.5497638583183289 0 3
14.936503410339355 -14.409608840942383 1.4570056200027466 0.5572121143341064 0 3
14.612401962280273 -14.352362632751465 1.4378982782363892 0.564616322517395 0 3
32.691307067871094 32.69124984741211 2.86277437210083 0.7981721758842468 0 9
32.95082092285156 32.36443328857422 2.859940767288208 0.798961877822876 0 9
27.773944854736328 26.794179916381836 2.3896467685699463 0.7341387271881104 0 9
28.248046875 26.7662296295166 2.4096786975860596 0.7280383110046387 0 9
29.00472640991211 26.9932804107666 2.453457832336426 0.6277406811714172 0 9
28.74232292175293 26.27161979675293 2.411212921142578 0.6099501848220825 0 9
28.654726028442383 25.72327995300293 2.384399652481079 0.6168103218078613 0 9
28.569061279296875 25.186952590942383 2.358366012573242 0.6236197352409363 0 9
32.55329895019531 28.184295654296875 2.6662662029266357 0.3923591673374176 0 9
32.76163864135742 27.8541202545166 2.662748098373413 0.6948594450950623 0 9
32.87786865234375 27.4483585357666 2.652061939239502 0.6976588368415833 0 9
32.75701141357422 26.8521671295166 2.6227669715881348 0.8592098355293274 0 9
33.17478561401367 26.70037078857422 2.636911630630493 0.8545981645584106 0 9
28.503807067871094 22.52243995666504 2.2494773864746094 0.6252371668815613 0 9
29.17607307434082 22.631210327148438 2.2864155769348145 0.6814701557159424 0 9
29.450273513793945 22.423418045043945 2.2920382022857666 0.5755527019500732 0 9
28.87138557434082 21.576053619384766 2.2318193912506104 0.34956902265548706 0 9
30.499277114868164 22.36880874633789 2.3420424461364746 0.5632637143135071 0 9
30.956737518310547 22.27974510192871 2.3617196083068848 0.6597405076026917 0 9
31.714862823486328 21.139726638793945 2.3601062297821045 0.3399297297000885 0 9
32.31550598144531 21.1236515045166 2.390596628189087 0.4290997385978699 0 9
33.12253952026367 21.22931671142578 2.436108112335205 0.42108413577079773 0 9
33.2082405090332 20.866092681884766 2.4285342693328857 0.8991565704345703 0 9
20.8990421295166 12.871522903442383 1.5198476314544678 0.820033073425293 0 9
21.117733001708984 12.746171951293945 1.5273678302764893 0.8159950375556946 0 9
21.338632583618164 12.619569778442383 1.5350884199142456 0.8118896484375 0 9
26.67253875732422 15.452616691589355 1.9087532758712769 0.8912736177444458 0 9
26.93355369567871 15.282577514648438 1.9175366163253784 0.8871886134147644 0 9
22.262069702148438 12.108827590942383 1.5692214965820312 0.7098572254180908 0 9
42.77402114868164 22.770605087280273 3.000540018081665 0.6356953978538513 0 9
43.42498016357422 22.61929702758789 3.031846284866333 0.6291326284408569 0 9
38.72736358642578 19.732500076293945 2.691392183303833 0.5391516089439392 0 9
38.38492202758789 19.1259765625 2.655557870864868 0.546427309513092 0 9
37.81665802001953 18.420995712280273 2.60469651222229 0.6539438962936401 0 9
38.275447845458984 18.221210479736328 2.6249186992645264 0.5910664200782776 0 9
38.85263442993164 18.070018768310547 2.6532766819000244 0.7580083012580872 0 9
39.5392951965332 17.959510803222656 2.6890525817871094 0.6334289908409119 0 9
35.537010192871094 15.758339881896973 2.4071383476257324 0.916003942489624 0 9
35.56541061401367 15.390448570251465 2.399613857269287 0.9188781976699829 0 9
35.593711853027344 15.024824142456055 2.3923280239105225 0.9216775894165039 0 9
35.7512092590332 14.714648246765137 2.3939366340637207 0.883217453956604 0 9
41.138553619384766 16.50179672241211 2.7446422576904297 0.49137505888938904 0 9
38.24845504760742 14.550956726074219 2.5339882373809814 0.6918848752975464 0 9
38.8146858215332 13.191913604736328 2.5384750366210938 0.6911664009094238 0 9
42.702205657958984 14.0869140625 2.7843339443206787 0.6437139511108398 0 9
37.36648178100586 11.95589828491211 2.4293291568756104 0.25081759691238403 0 9
38.72722625732422 12.00917911529541 2.5106897354125977 0.24268972873687744 0 9
36.88654327392578 11.076444625854492 2.3848135471343994 0.7942715287208557 0 9
36.740623474121094 10.674042701721191 2.3690969944000244 0.7995424866676331 0 9
36.59669876098633 10.276952743530273 2.3537654876708984 0.80474853515625 0 9
41.10603332519531 11.146191596984863 2.6372475624084473 0.9923019409179688 0 9
41.23419952392578 10.78456974029541 2.6391561031341553 0.9915856122970581 0 9
41.362518310546875 10.422402381896973 2.6412744522094727 0.9907892942428589 0 9
40.39902114868164 9.794804573059082 2.574033260345459 0.6827024221420288 0 9
40.87876892089844 9.523476600646973 2.599046230316162 0.6761317849159241 0 9
41.3679084777832 9.24673843383789 2.6247622966766357 0.669506847858429 0 9
41.866912841796875 8.96451187133789 2.651216745376587 0.6628278493881226 0 9
48.31953048706055 -6.766308307647705 3.0212223529815674 0.9494986534118652 0 3
47.13556671142578 -7.032460689544678 2.950998544692993 0.9466999769210815 0 3
39.55498123168945 -6.26492166519165 2.4798223972320557 0.32474106550216675 0 3
38.527713775634766 -6.457206726074219 2.4189538955688477 0.3331994414329529 0 3
37.48650360107422 -6.62917947769165 2.357226610183716 0.3416306972503662 0 3
36.00294876098633 -6.700624942779541 2.2676327228546143 0.35003265738487244 0 3
35.170467376708984 -6.872870922088623 2.218994617462158 0.5060784816741943 0 3
34.64582061767578 -7.093808650970459 2.1898252964019775 0.36675727367401123 0 3
33.81394577026367 -7.240293025970459 2.141260862350464 0.37507447600364685 0 3
27.705917358398438 -6.193007469177246 1.7579232454299927 0.383361279964447 0 3
27.066328048706055 -6.305644512176514 1.7208635807037354 0.39161741733551025 0 3
26.453046798706055 -6.413652420043945 1.6854665279388428 0.39984187483787537 0 3
25.864492416381836 -6.517304420471191 1.6516250371932983 0.40803420543670654 0 3
25.299081802368164 -6.616874694824219 1.6192458868026733 0.41619348526000977 0 3
24.755311965942383 -6.712636470794678 1.5882354974746704 0.4243195652961731 0 3
24.23193359375 -6.80480432510376 1.5585161447525024 0.43241143226623535 0 3
23.304609298706055 -6.770644187927246 1.5027176141738892 0.4404674768447876 0 3
22.827186584472656 -6.854706764221191 1.4758398532867432 0.4484889507293701 0 3
22.36654281616211 -6.935800552368164 1.45002281665802 0.4564740061759949 0 3
22.115447998046875 -7.076171875 1.4378091096878052 0.46442341804504395 0 3
21.50749969482422 -7.095117092132568 1.4023668766021729 0.4755885899066925 0 3
21.30513572692871 -7.241034984588623 1.3933557271957397 0.8750168085098267 0 3
21.048885345458984 -7.365370750427246 1.3808629512786865 0.488041490316391 0 3
20.652109146118164 -7.435194969177246 1.3591573238372803 0.4958364963531494 0 3
20.267499923706055 -7.502968788146973 1.338224172592163 0.5035918354988098 0 3
19.894588470458984 -7.56863260269165 1.3180346488952637 0.5113060474395752 0 3
19.532733917236328 -7.632363319396973 1.298547387123108 0.5189791917800903 0 3
19.181386947631836 -7.694218635559082 1.2797305583953857 0.5266106128692627 0 3
18.840057373046875 -7.754316329956055 1.2615481615066528 0.5341998338699341 0 3
18.50826072692871 -7.812753677368164 1.2439755201339722 0.5417457818984985 0 3
18.01398468017578 -7.795371055603027 1.2154107093811035 0.5499541759490967 0 3
17.7032413482666 -7.850273132324219 1.1991524696350098 0.5574119091033936 0 3
17.56576156616211 -7.978730201721191 1.194638967514038 0.564119279384613 0 3
17.26786994934082 -8.031190872192383 1.1792395114898682 0.5714873671531677 0 3
16.977577209472656 -8.082304954528809 1.1643236875534058 0.5788092017173767 0 3
16.708925247192383 -8.139199256896973 1.1508615016937256 0.6201462149620056 0 3
16.48158073425293 -8.212285041809082 1.140231966972351 0.802639365196228 0 3
16.517480850219727 -8.416054725646973 1.1478958129882812 0.7972816824913025 0 3
16.5538272857666 -8.6226167678833 1.1557531356811523 0.7918598055839539 0 3
16.590723037719727 -8.83203125 1.1638164520263672 0.7863737940788269 0 3
16.628124237060547 -9.04443359375 1.1720892190933228 0.7808245420455933 0 3
16.666034698486328 -9.259882926940918 1.1805752515792847 0.7752125263214111 0 3
16.70454978942871 -9.478476524353027 1.189278244972229 0.7695379257202148 0 3
16.74361228942871 -9.700331687927246 1.1982113122940063 0.7638014554977417 0 3
16.783222198486328 -9.92562484741211 1.2073767185211182 0.7580033540725708 0 3
16.823514938354492 -10.1543550491333 1.2167816162109375 0.7521440386772156 0 3
16.86443328857422 -10.386679649353027 1.2264363765716553 0.7462243437767029 0 3
16.905996322631836 -10.622754096984863 1.236342191696167 0.7402448058128357 0 3
16.948261260986328 -10.86269474029541 1.2465121746063232 0.7342052459716797 0 3
16.991230010986328 -11.106620788574219 1.2569533586502075 0.7281064987182617 0 3
17.034881591796875 -11.35472583770752 1.2676763534545898 0.7219494581222534 0 3
17.079315185546875 -11.60708999633789 1.278680682182312 0.71573406457901 0 3
17.12451171875 -11.86392593383789 1.289988398551941 0.7094606161117554 0 3
17.1705265045166 -12.125350952148438 1.3016005754470825 0.7031306028366089 0 3
17.2174015045166 -12.391523361206055 1.3135329484939575 0.6967440247535706 0 3
17.26513671875 -12.662675857543945 1.3257921934127808 0.690300703048706 0 3
17.31380844116211 -12.938886642456055 1.338391661643982 0.6838024258613586 0 3
17.3633975982666 -13.220487594604492 1.3513442277908325 0.6772487759590149 0 3
17.413925170898438 -13.507616996765137 1.3646600246429443 0.6706405282020569 0 3
17.46548843383789 -13.800507545471191 1.378353238105774 0.6639779806137085 0 3
17.518104553222656 -14.099315643310547 1.3924355506896973 0.6572625637054443 0 3
17.571796417236328 -14.404315948486328 1.4069247245788574 0.6504933834075928 0 3
17.626659393310547 -14.715781211853027 1.4218353033065796 0.6436722874641418 0 3
17.475664138793945 -14.85791015625 1.4203563928604126 0.5044351816177368 0 3
17.080507278442383 -14.788164138793945 1.3989737033843994 0.5121450424194336 0 3
16.697050094604492 -14.720468521118164 1.3783364295959473 0.5198138952255249 0 3
16.324745178222656 -14.65468692779541 1.3584027290344238 0.527441143989563 0 3
15.962987899780273 -14.590839385986328 1.3391497135162354 0.5350253582000732 0 3
15.611347198486328 -14.528749465942383 1.3205339908599854 0.5425666570663452 0 3
15.269296646118164 -14.468379020690918 1.3025389909744263 0.5500638484954834 0 3
14.936464309692383 -14.40956974029541 1.285122036933899 0.5575171709060669 0 3
14.6123628616333 -14.352362632751465 1.268270492553711 0.5649246573448181 0 3
32.91046905517578 32.9103889465332 2.4969019889831543 0.7932352423667908 0 9
33.17148208618164 32.581172943115234 2.4944231510162354 0.7940254807472229 0 9
31.46888542175293 28.7637882232666 2.2872326374053955 0.906592845916748 0 9
31.854393005371094 28.595624923706055 2.2964980602264404 0.9029324054718018 0 9
32.24314498901367 28.42611312866211 2.306036949157715 0.8991986513137817 0 9
32.635154724121094 28.255155563354492 2.3158345222473145 0.8953921794891357 0 9
33.024864196777344 28.077909469604492 2.3255157470703125 0.9209227561950684 0 9
32.76523208618164 26.858924865722656 2.272911310195923 0.8594033122062683 0 9
33.183162689208984 26.707128524780273 2.285183906555176 0.8547890782356262 0 9
31.35824203491211 24.777889251708984 2.144101858139038 0.5731868743896484 0 9
29.04068374633789 22.52619171142578 1.9717352390289307 0.6849740743637085 0 9
29.275096893310547 22.290058135986328 1.973988652229309 0.5792723298072815 0 9
29.788925170898438 22.261737823486328 1.995080828666687 0.5731489062309265 0 9
30.31394386291504 22.232831954956055 2.0167927742004395 0.566977322101593 0 9
30.808359146118164 22.172948837280273 2.036362648010254 0.6632339358329773 0 9
33.05111312866211 21.183534622192383 2.1060690879821777 0.422195166349411 0 9
33.198631286621094 20.860057830810547 2.103454828262329 0.8998452425003052 0 9
23.517480850219727 14.484179496765137 1.481758713722229 0.7149261236190796 0 9
42.935916900634766 22.856836318969727 2.609483480453491 0.6335998773574829 0 9
43.794803619384766 22.811914443969727 2.6491334438323975 0.5748084783554077 0 9
42.84767532348633 21.83187484741211 2.579880714416504 0.3355453312397003 0 9
37.85548782348633 18.439960479736328 2.2590041160583496 0.9841996431350708 0 6
39.69287109375 18.46089744567871 2.3484883308410645 0.9835370779037476 0 6
39.53205108642578 17.95621109008789 2.3293392658233643 0.6338474750518799 0 9
41.455039978027344 18.38263702392578 2.432830810546875 0.7958465218544006 0 9
41.33814239501953 17.88851547241211 2.4164438247680664 0.8012412190437317 0 9
39.642948150634766 16.734081268310547 2.308485746383667 0.5064001679420471 0 9
40.40845489501953 16.63150405883789 2.3442697525024414 0.49866947531700134 0 9
41.19806671142578 16.525644302368164 2.3813769817352295 0.49089887738227844 0 9
38.23337936401367 14.545233726501465 2.194563627243042 0.6924870610237122 0 9
38.60267639160156 13.897733688354492 2.2010841369628906 0.6909394860267639 0 9
36.97132873535156 11.829472541809082 2.0824942588806152 0.25361907482147217 0 9
38.30419921875 11.8779878616333 2.151479482650757 0.2454870045185089 0 9
36.85302734375 11.06640625 2.0643041133880615 0.7953730821609497 0 9
36.707481384277344 10.664433479309082 2.0507030487060547 0.8006463646888733 0 9
40.42724609375 11.352656364440918 2.252736806869507 0.1800917536020279 0 9
41.0934944152832 11.142792701721191 2.2841904163360596 0.9930776357650757 0 9
41.22159957885742 10.781289100646973 2.2858455181121826 0.9923610687255859 0 9
41.34990310668945 10.419218063354492 2.287682056427002 0.9915643334388733 0 9
41.478416442871094 10.056503295898438 2.289707660675049 0.9906875491142273 0 9
41.60722732543945 9.693182945251465 2.291921854019165 0.989730715751648 0 9
47.90656280517578 -2.7982616424560547 2.574493646621704 0.24224138259887695 0 6
48.31976318359375 -6.766308307647705 2.6175649166107178 0.9499460458755493 0 3
47.13581848144531 -7.03249979019165 2.556734800338745 0.9471460580825806 0 3
39.44857406616211 -6.248066425323486 2.142717123031616 0.3248950242996216 0 3
38.390995025634766 -6.434277057647705 2.0883214473724365 0.3333573341369629 0 3
37.38568115234375 -6.611328125 2.036790370941162 0.34179240465164185 0 3
36.42869186401367 -6.779843807220459 1.9878826141357422 0.35020044445991516 0 3
35.516502380371094 -6.940488338470459 1.9414281845092773 0.3585801124572754 0 3
34.64593505859375 -7.093789100646973 1.8972485065460205 0.36693108081817627 0 3
33.81404113769531 -7.240312576293945 1.855177879333496 0.37525174021720886 0 3
27.705995559692383 -6.193027019500732 1.52305269241333 0.3835430145263672 0 3
27.06636619567871 -6.305683612823486 1.4909417629241943 0.39180314540863037 0 3
26.453125 -6.413652420043945 1.4602739810943604 0.4000316262245178 0 3
25.864530563354492 -6.517343521118164 1.4309569597244263 0.40822798013687134 0 3
25.299100875854492 -6.616894245147705 1.402901530265808 0.41639113426208496 0 3
24.75537109375 -6.712636470794678 1.3760381937026978 0.4245207905769348 0 3
24.232011795043945 -6.80480432510376 1.3502856492996216 0.43261659145355225 0 3
23.72783088684082 -6.893593788146973 1.3255865573883057 0.44067734479904175 0 3
23.0064640045166 -6.908535003662109 1.2887011766433716 0.8921099901199341 0 3
22.564315795898438 -6.997167587280273 1.2673985958099365 0.4566914737224579 0 3
22.11552619934082 -7.076191425323486 1.2457070350646973 0.46464359760284424 0 3
21.760488510131836 -7.178534984588623 1.2292907238006592 0.05297541990876198 0 3
21.305273056030273 -7.241074085235596 1.2071938514709473 0.8754286766052246 0 3
20.85074234008789 -7.295995712280273 1.185107707977295 0.4982316792011261 0 3
20.458477020263672 -7.36550760269165 1.1665219068527222 0.4966815114021301 0 3
20.077909469604492 -7.432773113250732 1.1485772132873535 0.5044397115707397 0 3
19.71660041809082 -7.500898361206055 1.1317178010940552 0.857619047164917 0 3
