ply
format ascii 1.0
element vertex 1362
property float32 x
property float32 y
property float32 z
property float32 CosAngle
property uint32 ObjIdx
property uint32 ObjTag
end_header
22.0769 -5.8271 -0.4707 0.7484 0 3
22.0462 -5.7660 -0.4698 0.7498 0 3
22.0155 -5.7053 -0.4689 0.7513 0 3
21.9850 -5.6448 -0.4680 0.7528 0 3
21.9546 -5.5845 -0.4671 0.7543 0 3
21.9244 -5.5244 -0.4661 0.7558 0 3
21.8942 -5.4646 -0.4652 0.7572 0 3
21.8642 -5.4050 -0.4643 0.7587 0 3
21.8343 -5.3457 -0.4635 0.7601 0 3
21.8045 -5.2865 -0.4626 0.7616 0 3
21.7748 -5.2276 -0.4617 0.7630 0 3
21.7452 -5.1689 -0.4608 0.7645 0 3
21.7158 -5.1105 -0.4599 0.7659 0 3
21.6864 -5.0522 -0.4591 0.7674 0 3
21.6572 -4.9942 -0.4582 0.7688 0 3
21.6280 -4.9364 -0.4574 0.7702 0 3
21.5990 -4.8788 -0.4565 0.7717 0 3
21.5701 -4.8215 -0.4557 0.7731 0 3
20.9354 -4.6303 -0.4421 0.7745 0 3
20.9075 -4.5749 -0.4413 0.7759 0 3
20.8797 -4.5197 -0.4404 0.7773 0 3
20.8520 -4.4648 -0.4396 0.7787 0 3
20.8244 -4.4101 -0.4389 0.7801 0 3
20.7969 -4.3555 -0.4381 0.7815 0 3
20.7695 -4.3011 -0.4373 0.7829 0 3
20.7422 -4.2470 -0.4365 0.7843 0 3
20.7150 -4.1929 -0.4357 0.7857 0 3
20.6879 -4.1392 -0.4350 0.7871 0 3
20.6609 -4.0855 -0.4342 0.7885 0 3
20.6339 -4.0321 -0.4335 0.7898 0 3
20.6070 -3.9789 -0.4327 0.7912 0 3
20.5803 -3.9259 -0.4320 0.7926 0 3
20.5537 -3.8730 -0.4312 0.7940 0 3
20.5271 -3.8203 -0.4305 0.7953 0 3
20.5007 -3.7678 -0.4297 0.7967 0 3
20.4743 -3.7155 -0.4290 0.7980 0 3
20.4480 -3.6634 -0.4283 0.7994 0 3
20.4218 -3.6114 -0.4276 0.8007 0 3
20.3957 -3.5596 -0.4269 0.8021 0 3
20.3697 -3.5080 -0.4261 0.8034 0 3
20.3438 -3.4565 -0.4254 0.8047 0 3
20.3179 -3.4052 -0.4247 0.8061 0 3
20.2921 -3.3541 -0.4240 0.8074 0 3
20.2665 -3.3031 -0.4233 0.8087 0 3
20.2409 -3.2524 -0.4227 0.8100 0 3
20.2154 -3.2018 -0.4220 0.8113 0 3
20.1900 -3.1513 -0.4213 0.8126 0 3
20.1646 -3.1010 -0.4206 0.8139 0 3
20.1393 -3.0509 -0.4199 0.8152 0 3
20.1141 -3.0009 -0.4193 0.8165 0 3
20.0890 -2.9511 -0.4186 0.8178 0 3
20.0640 -2.9014 -0.4180 0.8191 0 3
20.0391 -2.8519 -0.4173 0.8204 0 3
20.0141 -2.8026 -0.4167 0.8217 0 3
19.9894 -2.7534 -0.4160 0.8230 0 3
19.9647 -2.7043 -0.4154 0.8242 0 3
19.9400 -2.6555 -0.4147 0.8255 0 3
19.9155 -2.6067 -0.4141 0.8268 0 3
19.8910 -2.5582 -0.4135 0.8280 0 3
19.8665 -2.5097 -0.4128 0.8293 0 3
19.8422 -2.4614 -0.4122 0.8305 0 3
19.8179 -2.4132 -0.4116 0.8318 0 3
19.7937 -2.3652 -0.4110 0.8330 0 3
19.7696 -2.3174 -0.4104 0.8343 0 3
19.7456 -2.2696 -0.4098 0.8355 0 3
19.7216 -2.2221 -0.4092 0.8367 0 3
19.6977 -2.1746 -0.4086 0.8379 0 3
19.6738 -2.1273 -0.4080 0.8392 0 3
19.6500 -2.0801 -0.4074 0.8404 0 3
19.6263 -2.0331 -0.4068 0.8416 0 3
19.6027 -1.9862 -0.4062 0.8428 0 3
19.5791 -1.9394 -0.4056 0.8440 0 3
19.5556 -1.8928 -0.4051 0.8452 0 3
19.5321 -1.8463 -0.4045 0.8464 0 3
19.5088 -1.7999 -0.4039 0.8476 0 3
19.4855 -1.7537 -0.4034 0.8488 0 3
19.4623 -1.7076 -0.4028 0.8500 0 3
19.4391 -1.6616 -0.4022 0.8511 0 3
19.4160 -1.6157 -0.4017 0.8523 0 3
19.3929 -1.5700 -0.4011 0.8535 0 3
19.3700 -1.5244 -0.4006 0.8547 0 3
19.3470 -1.4789 -0.4000 0.8558 0 3
19.3242 -1.4336 -0.3995 0.8570 0 3
19.3013 -1.3884 -0.3990 0.8581 0 3
19.2786 -1.3432 -0.3984 0.8593 0 3
19.2559 -1.2982 -0.3979 0.8604 0 3
19.2333 -1.2534 -0.3974 0.8616 0 3
19.2108 -1.2086 -0.3969 0.8627 0 3
19.1883 -1.1640 -0.3963 0.8638 0 3
19.1658 -1.1195 -0.3958 0.8650 0 3
19.1435 -1.0750 -0.3953 0.8661 0 3
19.1211 -1.0308 -0.3948 0.8672 0 3
19.0989 -0.9866 -0.3943 0.8683 0 3
19.0766 -0.9425 -0.3938 0.8694 0 3
19.0545 -0.8986 -0.3933 0.8705 0 3
19.0324 -0.8547 -0.3928 0.8716 0 3
19.0104 -0.8110 -0.3923 0.8727 0 3
18.9884 -0.7674 -0.3918 0.8738 0 3
18.9664 -0.7238 -0.3913 0.8749 0 3
18.9446 -0.6804 -0.3908 0.8760 0 3
18.9227 -0.6371 -0.3904 0.8771 0 3
18.9010 -0.5939 -0.3899 0.8781 0 3
18.8792 -0.5509 -0.3894 0.8792 0 3
18.8576 -0.5079 -0.3889 0.8803 0 3
18.8360 -0.4650 -0.3885 0.8813 0 3
18.8144 -0.4222 -0.3880 0.8824 0 3
18.7929 -0.3796 -0.3875 0.8834 0 3
18.7714 -0.3370 -0.3871 0.8845 0 3
18.7500 -0.2945 -0.3866 0.8855 0 3
18.7287 -0.2521 -0.3862 0.8866 0 3
18.7074 -0.2098 -0.3857 0.8876 0 3
18.6861 -0.1677 -0.3853 0.8886 0 3
18.6649 -0.1256 -0.3848 0.8897 0 3
18.6437 -0.0837 -0.3844 0.8907 0 3
18.6226 -0.0418 -0.3839 0.8917 0 3
18.6016 0.0000 -0.3835 0.8927 0 3
18.5806 0.0417 -0.3831 0.8937 0 3
18.5596 0.0834 -0.3826 0.8947 0 3
18.5387 0.1248 -0.3822 0.8957 0 3
18.5178 0.1662 -0.3818 0.8967 0 3
18.5256 0.2079 -0.3820 0.4502 0 3
18.6079 0.2506 -0.3837 0.4482 0 3
18.6910 0.2937 -0.3854 0.4462 0 3
18.7748 0.3371 -0.3871 0.4442 0 3
18.8594 0.3810 -0.3889 0.4422 0 3
18.9448 0.4252 -0.3907 0.4402 0 3
19.0309 0.4699 -0.3925 0.4382 0 3
19.1179 0.5150 -0.3943 0.4362 0 3
19.2055 0.5604 -0.3961 0.4341 0 3
19.2941 0.6064 -0.3980 0.4321 0 3
19.3836 0.6527 -0.3999 0.4301 0 3
19.4737 0.6996 -0.4017 0.4281 0 3
19.5649 0.7468 -0.4037 0.4260 0 3
19.6569 0.7945 -0.4056 0.4240 0 3
19.7497 0.8426 -0.4076 0.4220 0 3
19.8435 0.8912 -0.4095 0.4199 0 3
19.9382 0.9403 -0.4115 0.4179 0 3
20.0337 0.9899 -0.4135 0.4159 0 3
20.1303 1.0399 -0.4156 0.4138 0 3
20.2278 1.0905 -0.4176 0.4118 0 3
20.3263 1.1416 -0.4197 0.4097 0 3
20.4257 1.1931 -0.4218 0.4077 0 3
20.5262 1.2452 -0.4240 0.4056 0 3
20.6277 1.2978 -0.4261 0.4036 0 3
20.7302 1.3510 -0.4283 0.4015 0 3
21.8957 1.4763 -0.4524 0.3995 0 3
22.0057 1.5333 -0.4548 0.3974 0 3
22.1168 1.5909 -0.4572 0.3954 0 3
22.2291 1.6492 -0.4596 0.3933 0 3
22.3426 1.7080 -0.4620 0.3912 0 3
22.4573 1.7675 -0.4644 0.3892 0 3
22.5732 1.8276 -0.4669 0.3871 0 3
8.5934 0.7152 -0.1778 0.2018 0 6
8.5478 0.7307 -0.1769 0.8560 0 6
8.5348 0.7488 -0.1766 0.9792 0 6
8.5292 0.7677 -0.1766 0.9796 0 6
8.5299 0.7870 -0.1767 0.9752 0 6
8.5372 0.8070 -0.1768 0.8341 0 6
8.5571 0.8283 -0.1772 0.5268 0 6
22.7202 2.2507 -0.4707 0.9286 0 3
22.6949 2.2996 -0.4703 0.9295 0 3
22.6762 2.3491 -0.4700 0.9168 0 3
22.7745 2.4110 -0.4722 0.3642 0 3
22.9005 2.4763 -0.4749 0.3621 0 3
23.0279 2.5423 -0.4776 0.3600 0 3
23.1568 2.6092 -0.4804 0.3579 0 3
23.2872 2.6768 -0.4833 0.3559 0 3
23.4192 2.7452 -0.4861 0.3538 0 3
23.5527 2.8145 -0.4890 0.3517 0 3
23.6879 2.8846 -0.4920 0.3496 0 3
23.8246 2.9555 -0.4950 0.3474 0 3
23.9631 3.0273 -0.4980 0.3453 0 3
24.1033 3.1000 -0.5010 0.3432 0 3
24.2452 3.1735 -0.5041 0.3411 0 3
24.3888 3.2480 -0.5073 0.3390 0 3
24.5343 3.3234 -0.5104 0.3369 0 3
24.6816 3.3998 -0.5137 0.3348 0 3
24.8307 3.4771 -0.5169 0.3327 0 3
24.9818 3.5555 -0.5202 0.3306 0 3
25.1348 3.6348 -0.5236 0.3284 0 3
25.2898 3.7152 -0.5270 0.3263 0 3
25.4468 3.7966 -0.5304 0.3242 0 3
25.6059 3.8791 -0.5339 0.3221 0 3
25.7671 3.9627 -0.5375 0.3200 0 3
25.9305 4.0474 -0.5411 0.3178 0 3
26.0961 4.1333 -0.5447 0.3157 0 3
26.2639 4.2203 -0.5484 0.3136 0 3
26.4340 4.3085 -0.5522 0.3114 0 3
26.6064 4.3979 -0.5560 0.3093 0 3
26.7813 4.4886 -0.5598 0.3072 0 3
26.9586 4.5805 -0.5638 0.3050 0 3
27.1384 4.6737 -0.5677 0.3029 0 3
27.3208 4.7683 -0.5718 0.3008 0 3
27.5057 4.8642 -0.5759 0.2986 0 3
27.6934 4.9615 -0.5800 0.2965 0 3
27.8837 5.0602 -0.5843 0.2943 0 3
28.0769 5.1604 -0.5886 0.2922 0 3
28.2729 5.2620 -0.5929 0.2900 0 3
28.4719 5.3651 -0.5973 0.2879 0 3
28.6738 5.4699 -0.6018 0.2858 0 3
30.3508 5.8604 -0.6373 0.2836 0 3
30.5695 5.9738 -0.6422 0.2814 0 3
30.7916 6.0890 -0.6471 0.2793 0 3
30.8353 6.1695 -0.6483 0.9606 0 3
30.8015 6.2347 -0.6479 0.9612 0 3
30.7678 6.2998 -0.6475 0.9618 0 3
30.7341 6.3648 -0.6471 0.9624 0 3
30.7004 6.4297 -0.6467 0.9630 0 3
30.6733 6.4959 -0.6464 0.8697 0 3
30.8743 6.6109 -0.6510 0.2642 0 3
31.1143 6.7353 -0.6563 0.2620 0 3
31.3583 6.8618 -0.6618 0.2599 0 3
31.6065 6.9905 -0.6674 0.2577 0 3
31.8587 7.1213 -0.6730 0.2555 0 3
32.1154 7.2544 -0.6788 0.2533 0 3
32.3765 7.3897 -0.6847 0.2512 0 3
32.6421 7.5275 -0.6906 0.2490 0 3
32.9124 7.6677 -0.6967 0.2468 0 3
33.1875 7.8103 -0.7029 0.2447 0 3
33.4675 7.9555 -0.7092 0.2425 0 3
36.0327 8.6507 -0.7640 0.2403 0 3
36.3426 8.8114 -0.7710 0.2381 0 3
12.9154 3.1621 -0.2741 0.9715 0 21
12.9013 3.1893 -0.2740 0.9720 0 21
12.8872 3.2166 -0.2738 0.9726 0 21
12.8731 3.2438 -0.2737 0.9731 0 21
12.8590 3.2709 -0.2736 0.9736 0 21
12.8450 3.2981 -0.2734 0.9741 0 21
12.8309 3.3252 -0.2733 0.9746 0 21
12.8169 3.3522 -0.2731 0.9751 0 21
12.8029 3.3793 -0.2730 0.9756 0 21
12.7889 3.4063 -0.2729 0.9761 0 21
12.7749 3.4333 -0.2727 0.9766 0 21
12.7609 3.4603 -0.2726 0.9770 0 21
12.7470 3.4872 -0.2725 0.9775 0 21
12.7330 3.5141 -0.2723 0.9780 0 21
12.7191 3.5410 -0.2722 0.9784 0 21
12.7052 3.5679 -0.2721 0.9789 0 21
12.6913 3.5947 -0.2719 0.9793 0 21
12.6774 3.6215 -0.2718 0.9798 0 21
12.6635 3.6483 -0.2717 0.9802 0 21
12.6496 3.6751 -0.2716 0.9807 0 21
12.6357 3.7018 -0.2715 0.9811 0 21
12.6219 3.7286 -0.2713 0.9815 0 21
12.6081 3.7552 -0.2712 0.9820 0 21
12.5943 3.7819 -0.2711 0.9824 0 21
12.5805 3.8086 -0.2710 0.9828 0 21
12.5666 3.8352 -0.2709 0.9832 0 21
12.5529 3.8618 -0.2708 0.9836 0 21
12.5391 3.8884 -0.2707 0.9840 0 21
12.5254 3.9149 -0.2706 0.9844 0 21
12.5116 3.9415 -0.2704 0.9848 0 21
12.4979 3.9680 -0.2703 0.9852 0 21
12.4841 3.9945 -0.2702 0.9855 0 21
12.4704 4.0210 -0.2701 0.9859 0 21
12.4567 4.0474 -0.2700 0.9863 0 21
12.4430 4.0739 -0.2699 0.9867 0 21
12.4293 4.1003 -0.2698 0.9870 0 21
12.4156 4.1267 -0.2697 0.9874 0 21
12.4020 4.1531 -0.2696 0.9877 0 21
12.3883 4.1795 -0.2696 0.9881 0 21
12.3746 4.2058 -0.2695 0.9884 0 21
12.3610 4.2321 -0.2694 0.9887 0 21
12.3473 4.2585 -0.2693 0.9891 0 21
12.3337 4.2847 -0.2692 0.9894 0 21
12.3201 4.3110 -0.2691 0.9897 0 21
12.3065 4.3373 -0.2690 0.9900 0 21
12.2929 4.3635 -0.2689 0.9903 0 21
12.2793 4.3898 -0.2689 0.9906 0 21
12.2657 4.4160 -0.2688 0.9909 0 21
12.2521 4.4422 -0.2687 0.9912 0 21
12.2386 4.4684 -0.2686 0.9915 0 21
12.2251 4.4945 -0.2685 0.9918 0 21
12.2115 4.5207 -0.2685 0.9921 0 21
12.1980 4.5468 -0.2684 0.9923 0 21
12.1844 4.5729 -0.2683 0.9926 0 21
12.1709 4.5990 -0.2682 0.9929 0 21
12.1574 4.6251 -0.2682 0.9931 0 21
12.1983 4.6720 -0.2693 0.1123 0 21
12.4346 4.7946 -0.2748 0.1101 0 21
12.6807 4.9222 -0.2804 0.1079 0 21
12.9371 5.0552 -0.2864 0.1056 0 21
22.9943 9.0445 -0.5094 0.2966 0 0
22.9746 9.0963 -0.5094 0.2966 0 0
22.9540 9.1478 -0.5094 0.2890 0 0
22.9331 9.1992 -0.5094 0.2890 0 0
22.9122 9.2505 -0.5094 0.2890 0 0
22.8913 9.3019 -0.5094 0.2890 0 0
22.8704 9.3533 -0.5094 0.2890 0 0
22.8495 9.4046 -0.5094 0.2890 0 0
22.8286 9.4560 -0.5094 0.2890 0 0
22.8077 9.5073 -0.5095 0.2890 0 0
22.7868 9.5587 -0.5095 0.2890 0 0
22.7658 9.6100 -0.5095 0.2890 0 0
12.4637 5.2942 -0.2792 0.9968 0 21
12.4496 5.3212 -0.2791 0.9969 0 21
12.4356 5.3483 -0.2791 0.9971 0 21
12.4216 5.3754 -0.2790 0.9973 0 21
12.4076 5.4024 -0.2790 0.9974 0 21
12.3936 5.4294 -0.2790 0.9976 0 21
12.3796 5.4564 -0.2789 0.9977 0 21
12.3656 5.4834 -0.2789 0.9978 0 21
12.3516 5.5104 -0.2788 0.9980 0 21
12.3377 5.5374 -0.2788 0.9981 0 21
12.3237 5.5644 -0.2788 0.9982 0 21
12.3097 5.5914 -0.2787 0.9983 0 21
12.2957 5.6183 -0.2787 0.9985 0 21
12.2818 5.6453 -0.2787 0.9986 0 21
12.2678 5.6723 -0.2787 0.9987 0 21
12.2538 5.6992 -0.2786 0.9988 0 21
12.2399 5.7262 -0.2786 0.9989 0 21
12.2259 5.7531 -0.2786 0.9990 0 21
12.2119 5.7800 -0.2786 0.9990 0 21
12.1980 5.8070 -0.2785 0.9991 0 21
12.1840 5.8339 -0.2785 0.9992 0 21
12.1701 5.8608 -0.2785 0.9993 0 21
18.8594 9.1344 -0.4320 0.9993 0 3
18.8377 9.1762 -0.4320 0.9994 0 3
18.8161 9.2179 -0.4320 0.9994 0 3
18.7945 9.2597 -0.4320 0.9995 0 3
18.7729 9.3015 -0.4319 0.9995 0 3
18.7512 9.3432 -0.4319 0.9996 0 3
18.7296 9.3850 -0.4319 0.9996 0 3
18.7080 9.4267 -0.4319 0.9996 0 3
18.6863 9.4685 -0.4319 0.9996 0 3
18.6647 9.5102 -0.4319 0.9997 0 3
18.6431 9.5519 -0.4319 0.9997 0 3
18.6215 9.5937 -0.4319 0.9997 0 3
18.5998 9.6354 -0.4319 0.9997 0 3
18.5782 9.6771 -0.4319 0.9997 0 3
18.3124 9.5910 -0.4262 0.9997 0 3
18.2911 9.6321 -0.4262 0.9997 0 3
18.2697 9.6734 -0.4262 0.9997 0 3
18.2484 9.7145 -0.4262 0.9997 0 3
18.4701 9.8859 -0.4319 0.9996 0 3
18.4485 9.9276 -0.4319 0.9996 0 3
18.4268 9.9693 -0.4319 0.9995 0 3
18.5206 10.0738 -0.4347 0.9995 0 3
18.4988 10.1158 -0.4347 0.9994 0 3
18.4770 10.1579 -0.4347 0.9994 0 3
18.4553 10.1999 -0.4347 0.9993 0 3
18.4335 10.2419 -0.4348 0.9993 0 3
18.4117 10.2840 -0.4348 0.9992 0 3
18.3899 10.3260 -0.4348 0.9991 0 3
18.3681 10.3681 -0.4349 0.9990 0 3
18.3463 10.4101 -0.4349 0.9990 0 3
18.3246 10.4521 -0.4349 0.9989 0 3
18.3028 10.4942 -0.4350 0.9988 0 3
18.2810 10.5363 -0.4350 0.9987 0 3
18.2591 10.5784 -0.4351 0.9986 0 3
18.2373 10.6205 -0.4351 0.9985 0 3
18.2155 10.6626 -0.4352 0.9984 0 3
18.1937 10.7047 -0.4352 0.9982 0 3
18.1719 10.7469 -0.4353 0.9981 0 3
18.1500 10.7890 -0.4353 0.9980 0 3
18.1282 10.8311 -0.4354 0.9978 0 3
18.1064 10.8733 -0.4354 0.9977 0 3
18.0845 10.9154 -0.4355 0.9976 0 3
18.0627 10.9577 -0.4356 0.9974 0 3
18.0408 10.9998 -0.4356 0.9973 0 3
18.0189 11.0421 -0.4357 0.9971 0 3
17.9971 11.0843 -0.4358 0.9969 0 3
17.9752 11.1265 -0.4358 0.9968 0 3
17.9533 11.1687 -0.4359 0.9966 0 3
17.9314 11.2110 -0.4360 0.9964 0 3
17.9095 11.2533 -0.4361 0.9962 0 3
17.8876 11.2956 -0.4362 0.9961 0 3
17.8657 11.3379 -0.4362 0.9959 0 3
17.8437 11.3803 -0.4363 0.9957 0 3
17.8218 11.4226 -0.4364 0.9955 0 3
17.7998 11.4650 -0.4365 0.9952 0 3
17.7779 11.5073 -0.4366 0.9950 0 3
17.7559 11.5497 -0.4367 0.9948 0 3
17.7339 11.5922 -0.4368 0.9946 0 3
17.7119 11.6346 -0.4369 0.9944 0 3
17.6900 11.6771 -0.4370 0.9941 0 3
17.6679 11.7196 -0.4371 0.9939 0 3
17.6459 11.7621 -0.4372 0.9936 0 3
17.6239 11.8046 -0.4373 0.9934 0 3
17.6018 11.8471 -0.4374 0.9931 0 3
17.5798 11.8896 -0.4376 0.9929 0 3
17.5577 11.9322 -0.4377 0.9926 0 3
17.5357 11.9749 -0.4378 0.9924 0 3
17.5136 12.0175 -0.4379 0.9921 0 3
17.4915 12.0601 -0.4380 0.9918 0 3
17.4693 12.1028 -0.4382 0.9915 0 3
17.4472 12.1455 -0.4383 0.9912 0 3
17.4251 12.1883 -0.4384 0.9909 0 3
17.4029 12.2310 -0.4385 0.9906 0 3
17.3808 12.2738 -0.4387 0.9903 0 3
17.3586 12.3166 -0.4388 0.9900 0 3
17.3364 12.3594 -0.4390 0.9897 0 3
17.3142 12.4023 -0.4391 0.9894 0 3
17.2919 12.4452 -0.4392 0.9891 0 3
17.2697 12.4881 -0.4394 0.9887 0 3
17.2475 12.5311 -0.4395 0.9884 0 3
17.2252 12.5740 -0.4397 0.9881 0 3
17.2029 12.6171 -0.4398 0.9877 0 3
17.1806 12.6601 -0.4400 0.9874 0 3
17.1583 12.7031 -0.4401 0.9870 0 3
17.1360 12.7463 -0.4403 0.9867 0 3
17.1136 12.7894 -0.4405 0.9863 0 3
17.0913 12.8325 -0.4406 0.9859 0 3
17.0689 12.8757 -0.4408 0.9856 0 3
17.0465 12.9189 -0.4410 0.9852 0 3
17.0241 12.9622 -0.4411 0.9848 0 3
17.0016 13.0055 -0.4413 0.9844 0 3
16.9792 13.0488 -0.4415 0.9840 0 3
16.9568 13.0922 -0.4417 0.9836 0 3
16.9343 13.1356 -0.4419 0.9832 0 3
16.9118 13.1790 -0.4420 0.9828 0 3
16.8892 13.2225 -0.4422 0.9824 0 3
16.8667 13.2660 -0.4424 0.9820 0 3
16.8441 13.3096 -0.4426 0.9816 0 3
16.8216 13.3532 -0.4428 0.9811 0 3
16.7990 13.3968 -0.4430 0.9807 0 3
16.7763 13.4404 -0.4432 0.9803 0 3
16.7537 13.4841 -0.4434 0.9798 0 3
16.7311 13.5279 -0.4436 0.9794 0 3
16.7084 13.5717 -0.4438 0.9789 0 3
16.6857 13.6154 -0.4440 0.9785 0 3
16.6629 13.6593 -0.4442 0.9780 0 3
16.6402 13.7032 -0.4444 0.9775 0 3
16.6175 13.7472 -0.4446 0.9771 0 3
16.5946 13.7912 -0.4449 0.9766 0 3
16.5718 13.8352 -0.4451 0.9761 0 3
16.5490 13.8793 -0.4453 0.9756 0 3
16.4941 13.8964 -0.4447 0.2199 0 3
16.4005 13.8806 -0.4430 0.9746 0 3
16.3777 13.9245 -0.4432 0.9741 0 3
16.3549 13.9685 -0.4434 0.9736 0 3
16.3321 14.0125 -0.4437 0.9731 0 3
16.3093 14.0566 -0.4439 0.9726 0 3
16.2864 14.1007 -0.4441 0.9721 0 3
16.2636 14.1448 -0.4444 0.9715 0 3
16.2407 14.1891 -0.4446 0.9710 0 3
16.1326 14.1587 -0.4425 0.2398 0 3
15.9814 14.0896 -0.4393 0.9700 0 3
15.9588 14.1333 -0.4395 0.9695 0 3
15.9361 14.1772 -0.4397 0.9689 0 3
15.9133 14.2210 -0.4400 0.9684 0 3
16.1027 14.4554 -0.4461 0.9677 0 3
16.0795 14.4999 -0.4464 0.9672 0 3
16.0565 14.5446 -0.4467 0.9666 0 3
16.0333 14.5892 -0.4469 0.9660 0 3
16.0102 14.6340 -0.4472 0.9654 0 3
15.9870 14.6787 -0.4475 0.9648 0 3
15.9637 14.7236 -0.4477 0.9643 0 3
15.9405 14.7685 -0.4480 0.9637 0 3
15.9172 14.8134 -0.4483 0.9631 0 3
15.8939 14.8584 -0.4486 0.9625 0 3
15.8705 14.9034 -0.4489 0.9619 0 3
15.8411 14.9428 -0.4490 0.2742 0 3
15.6841 14.8614 -0.4455 0.2764 0 3
15.5297 14.7814 -0.4420 0.2785 0 3
15.3775 14.7025 -0.4386 0.2807 0 3
15.2278 14.6248 -0.4353 0.2828 0 3
15.0802 14.5483 -0.4320 0.2850 0 3
14.9349 14.4729 -0.4288 0.2871 0 3
14.7917 14.3987 -0.4256 0.2893 0 3
14.7322 14.4053 -0.4248 0.9457 0 3
14.6886 14.4273 -0.4245 0.9464 0 3
14.6451 14.4493 -0.4242 0.9471 0 3
14.6016 14.4712 -0.4238 0.9478 0 3
14.1641 14.1007 -0.4121 0.3000 0 3
29.8658 -29.8657 -1.2193 0.9616 0 4
29.9519 -29.8178 -1.2200 0.9610 0 4
30.0382 -29.7697 -1.2208 0.9604 0 4
30.1246 -29.7217 -1.2216 0.9598 0 4
30.2111 -29.6735 -1.2224 0.9591 0 4
30.2977 -29.6253 -1.2233 0.9585 0 4
30.3844 -29.5770 -1.2241 0.9578 0 4
30.4713 -29.5287 -1.2249 0.9572 0 4
30.5582 -29.4803 -1.2257 0.9565 0 4
30.6454 -29.4318 -1.2266 0.9559 0 4
30.7325 -29.3833 -1.2274 0.9552 0 4
30.8198 -29.3346 -1.2283 0.9546 0 4
30.9073 -29.2860 -1.2291 0.9539 0 4
30.9949 -29.2372 -1.2300 0.9532 0 4
31.0826 -29.1884 -1.2309 0.9525 0 4
31.1704 -29.1395 -1.2318 0.9519 0 4
31.2584 -29.0906 -1.2327 0.9512 0 4
31.3464 -29.0415 -1.2336 0.9505 0 4
31.4346 -28.9925 -1.2345 0.9498 0 4
31.5229 -28.9433 -1.2354 0.9491 0 4
31.6114 -28.8940 -1.2363 0.9484 0 4
31.7000 -28.8447 -1.2372 0.9476 0 4
31.7887 -28.7954 -1.2382 0.9469 0 4
31.8776 -28.7459 -1.2391 0.9462 0 4
31.9666 -28.6963 -1.2401 0.9455 0 4
32.0557 -28.6468 -1.2411 0.9447 0 4
32.1450 -28.5970 -1.2420 0.9440 0 4
32.2345 -28.5472 -1.2430 0.9433 0 4
32.3240 -28.4974 -1.2440 0.9425 0 4
32.4137 -28.4474 -1.2450 0.9418 0 4
32.5036 -28.3975 -1.2460 0.9410 0 4
32.5935 -28.3473 -1.2470 0.9403 0 4
32.6837 -28.2972 -1.2480 0.9395 0 4
32.7739 -28.2469 -1.2490 0.9387 0 4
32.8644 -28.1966 -1.2500 0.9379 0 4
32.9550 -28.1462 -1.2511 0.9372 0 4
33.0457 -28.0956 -1.2521 0.9364 0 4
33.1366 -28.0450 -1.2532 0.9356 0 4
33.2277 -27.9944 -1.2543 0.9348 0 4
33.3189 -27.9436 -1.2553 0.9340 0 4
33.4102 -27.8928 -1.2564 0.9332 0 4
33.5017 -27.8418 -1.2575 0.9324 0 4
9.7171 -8.0386 -0.3641 0.0785 412 13
9.7018 -7.9894 -0.3628 0.4771 412 13
9.7128 -7.9620 -0.3626 0.5592 412 13
9.7347 -7.9434 -0.3627 0.5113 412 13
9.7726 -7.9379 -0.3635 0.2720 412 13
34.0541 -27.5343 -1.2642 0.9274 0 4
34.1468 -27.4827 -1.2653 0.9266 0 4
34.2396 -27.4310 -1.2665 0.9258 0 4
34.3326 -27.3793 -1.2677 0.9249 0 4
34.4258 -27.3274 -1.2688 0.9241 0 4
34.5191 -27.2755 -1.2700 0.9232 0 4
34.6126 -27.2234 -1.2712 0.9223 0 4
34.7063 -27.1713 -1.2724 0.9215 0 4
34.8002 -27.1190 -1.2736 0.9206 0 4
34.8942 -27.0667 -1.2748 0.9197 0 4
34.9884 -27.0142 -1.2761 0.9188 0 4
35.0828 -26.9617 -1.2773 0.9179 0 4
35.1774 -26.9090 -1.2785 0.9170 0 4
35.2722 -26.8562 -1.2798 0.9162 0 4
35.3671 -26.8034 -1.2810 0.9152 0 4
35.4622 -26.7504 -1.2823 0.9143 0 4
35.5576 -26.6974 -1.2836 0.9134 0 4
35.6531 -26.6442 -1.2849 0.9125 0 4
35.7488 -26.5909 -1.2862 0.9116 0 4
35.8448 -26.5375 -1.2875 0.9107 0 4
35.9408 -26.4840 -1.2888 0.9097 0 4
36.0371 -26.4304 -1.2901 0.9088 0 4
36.1336 -26.3767 -1.2914 0.9079 0 4
36.2303 -26.3229 -1.2928 0.9069 0 4
36.3272 -26.2689 -1.2941 0.9060 0 4
36.4243 -26.2148 -1.2955 0.9050 0 4
36.5216 -26.1606 -1.2969 0.9041 0 4
36.6192 -26.1064 -1.2983 0.9031 0 4
36.7169 -26.0520 -1.2996 0.9022 0 4
36.8148 -25.9974 -1.3010 0.9012 0 4
36.9130 -25.9428 -1.3024 0.9002 0 4
37.0113 -25.8881 -1.3039 0.8992 0 4
37.1099 -25.8332 -1.3053 0.8983 0 4
37.2087 -25.7782 -1.3067 0.8973 0 4
37.3077 -25.7231 -1.3082 0.8963 0 4
37.4069 -25.6679 -1.3096 0.8953 0 4
26.3095 -17.9663 -0.9197 0.2216 0 6
26.3312 -17.8946 -0.9190 0.9710 0 6
37.7059 -25.5014 -1.3141 0.8923 0 4
37.8061 -25.4456 -1.3156 0.8912 0 4
37.9064 -25.3898 -1.3171 0.8902 0 4
38.0070 -25.3337 -1.3186 0.8892 0 4
38.1078 -25.2776 -1.3201 0.8882 0 4
38.2089 -25.2214 -1.3216 0.8871 0 4
38.3101 -25.1650 -1.3232 0.8861 0 4
38.4116 -25.1085 -1.3247 0.8851 0 4
38.5134 -25.0518 -1.3263 0.8840 0 4
38.6154 -24.9950 -1.3279 0.8830 0 4
38.7177 -24.9381 -1.3295 0.8819 0 4
38.8202 -24.8811 -1.3311 0.8808 0 4
36.2421 -23.1142 -1.2409 0.2034 0 21
36.0106 -22.8530 -1.2312 0.2050 0 21
35.7827 -22.5959 -1.2217 0.2066 0 21
35.5850 -22.3595 -1.2132 0.5346 0 21
35.5575 -22.2311 -1.2106 0.5358 0 21
35.5302 -22.1032 -1.2079 0.5369 0 21
35.5029 -21.9759 -1.2053 0.5381 0 21
35.4758 -21.8492 -1.2028 0.5393 0 21
35.4488 -21.7229 -1.2002 0.5404 0 21
35.4218 -21.5973 -1.1976 0.5416 0 21
35.3950 -21.4721 -1.1951 0.5427 0 21
35.3684 -21.3475 -1.1926 0.7246 0 21
35.3967 -21.2564 -1.1919 0.7250 0 21
35.4250 -21.1654 -1.1913 0.7254 0 21
35.4533 -21.0745 -1.1906 0.7258 0 21
15.9004 -9.4034 -0.5333 0.1651 0 6
15.8755 -9.3407 -0.5317 0.8153 0 6
15.8795 -9.2951 -0.5312 0.9855 0 6
15.9065 -9.2631 -0.5314 0.9851 0 6
15.9471 -9.2388 -0.5320 0.5735 0 6
35.6223 -20.5310 -1.1869 0.7281 0 21
35.6504 -20.4407 -1.1863 0.7285 0 21
35.6784 -20.3505 -1.1857 0.7288 0 21
35.7445 -20.2821 -1.1864 0.7092 0 21
35.8149 -20.2159 -1.1872 0.7087 0 21
35.8852 -20.1495 -1.1881 0.7082 0 21
35.9557 -20.0831 -1.1889 0.7077 0 21
36.0262 -20.0166 -1.1897 0.7072 0 21
36.0970 -19.9500 -1.1906 0.7067 0 21
36.1677 -19.8833 -1.1915 0.7062 0 21
36.2386 -19.8165 -1.1923 0.7057 0 21
36.3095 -19.7496 -1.1932 0.7052 0 21
36.3806 -19.6826 -1.1941 0.7047 0 21
36.4518 -19.6155 -1.1950 0.7041 0 21
36.5870 -19.5825 -1.1980 0.4895 0 21
36.7231 -19.5494 -1.2010 0.4883 0 21
36.8599 -19.5163 -1.2040 0.4871 0 21
37.0022 -19.4854 -1.2072 0.4579 0 21
37.1491 -19.4564 -1.2106 0.4566 0 21
37.2968 -19.4273 -1.2140 0.4553 0 21
37.4454 -19.3979 -1.2174 0.4541 0 21
37.9129 -19.5324 -1.2312 0.1087 0 21
43.4890 -22.2817 -1.4106 0.8312 0 4
43.6044 -22.2175 -1.4127 0.8299 0 4
43.7202 -22.1530 -1.4149 0.8287 0 4
43.8363 -22.0884 -1.4170 0.8274 0 4
43.9527 -22.0235 -1.4192 0.8262 0 4
44.0696 -21.9585 -1.4214 0.8249 0 4
44.1867 -21.8933 -1.4236 0.8236 0 4
44.3043 -21.8278 -1.4258 0.8223 0 4
44.4222 -21.7622 -1.4280 0.8211 0 4
44.5404 -21.6963 -1.4302 0.8198 0 4
44.6591 -21.6302 -1.4325 0.8185 0 4
44.7781 -21.5640 -1.4347 0.8172 0 4
44.8975 -21.4975 -1.4370 0.8159 0 4
45.0173 -21.4308 -1.4393 0.8146 0 4
45.1375 -21.3639 -1.4416 0.8133 0 4
34.3231 -13.7679 -1.0676 0.9989 0 6
42.3009 -16.2014 -1.3076 0.6686 0 3
42.2319 -16.0664 -1.3044 0.6702 0 3
42.1633 -15.9321 -1.3012 0.6719 0 3
42.0950 -15.7985 -1.2979 0.6736 0 3
42.0271 -15.6654 -1.2948 0.6752 0 3
41.9739 -15.5385 -1.2921 0.7390 0 3
42.0949 -15.4759 -1.2947 0.7375 0 3
42.2163 -15.4131 -1.2974 0.7359 0 3
42.3383 -15.3501 -1.3001 0.7344 0 3
42.4607 -15.2867 -1.3028 0.7329 0 3
42.5837 -15.2231 -1.3055 0.7314 0 3
46.2667 -16.4228 -1.4173 0.7044 0 3
46.1992 -16.2822 -1.4141 0.7060 0 3
46.1320 -16.1422 -1.4109 0.7076 0 3
46.0651 -16.0029 -1.4078 0.7092 0 3
45.9985 -15.8642 -1.4046 0.7108 0 3
45.9322 -15.7261 -1.4015 0.7123 0 3
45.8662 -15.5886 -1.3984 0.7139 0 3
45.8005 -15.4517 -1.3954 0.7155 0 3
45.7350 -15.3154 -1.3923 0.7170 0 3
45.6699 -15.1797 -1.3893 0.7186 0 3
43.7805 -14.4427 -1.3308 0.6975 0 3
22.2817 -7.2951 -0.6768 0.7072 0 3
22.2482 -7.2288 -0.6753 0.7088 0 3
22.2148 -7.1629 -0.6738 0.7103 0 3
22.1816 -7.0973 -0.6723 0.7119 0 3
22.1486 -7.0320 -0.6708 0.7135 0 3
22.1157 -6.9669 -0.6694 0.7151 0 3
22.0829 -6.9022 -0.6679 0.7166 0 3
22.0503 -6.8377 -0.6664 0.7182 0 3
22.0178 -6.7735 -0.6650 0.7197 0 3
21.9855 -6.7096 -0.6636 0.7213 0 3
21.9533 -6.6459 -0.6621 0.7229 0 3
21.9212 -6.5826 -0.6607 0.7244 0 3
21.8893 -6.5195 -0.6593 0.7259 0 3
21.8575 -6.4567 -0.6579 0.7275 0 3
21.8259 -6.3941 -0.6565 0.7290 0 3
21.7943 -6.3318 -0.6552 0.7305 0 3
21.7629 -6.2698 -0.6538 0.7321 0 3
21.7317 -6.2080 -0.6524 0.7336 0 3
21.7006 -6.1465 -0.6511 0.7351 0 3
21.6696 -6.0852 -0.6498 0.7366 0 3
21.7237 -6.0478 -0.6510 0.6731 0 3
21.7910 -6.0139 -0.6526 0.6714 0 3
21.8586 -5.9798 -0.6542 0.6698 0 3
21.9266 -5.9455 -0.6558 0.6681 0 3
21.9949 -5.9111 -0.6575 0.6664 0 3
22.0635 -5.8765 -0.6591 0.6648 0 3
22.0780 -5.8273 -0.6592 0.7482 0 3
22.0473 -5.7663 -0.6579 0.7497 0 3
22.0166 -5.7055 -0.6566 0.7511 0 3
21.9861 -5.6450 -0.6553 0.7526 0 3
21.9557 -5.5847 -0.6540 0.7541 0 3
21.9254 -5.5247 -0.6527 0.7556 0 3
21.8953 -5.4649 -0.6515 0.7570 0 3
21.8653 -5.4053 -0.6502 0.7585 0 3
21.8354 -5.3459 -0.6490 0.7599 0 3
21.8055 -5.2868 -0.6477 0.7614 0 3
21.7759 -5.2279 -0.6465 0.7629 0 3
21.7463 -5.1692 -0.6453 0.7643 0 3
21.7168 -5.1107 -0.6440 0.7657 0 3
21.6875 -5.0525 -0.6428 0.7672 0 3
21.6582 -4.9945 -0.6416 0.7686 0 3
21.6291 -4.9367 -0.6404 0.7701 0 3
21.6001 -4.8791 -0.6393 0.7715 0 3
21.5711 -4.8217 -0.6381 0.7729 0 3
20.9364 -4.6305 -0.6190 0.7743 0 3
20.9085 -4.5751 -0.6179 0.7757 0 3
20.8807 -4.5200 -0.6167 0.7771 0 3
20.8530 -4.4650 -0.6156 0.7785 0 3
20.8254 -4.4103 -0.6145 0.7799 0 3
20.7979 -4.3557 -0.6134 0.7813 0 3
20.7705 -4.3013 -0.6123 0.7827 0 3
20.7431 -4.2471 -0.6112 0.7841 0 3
20.7159 -4.1931 -0.6102 0.7855 0 3
20.6888 -4.1394 -0.6091 0.7869 0 3
20.6618 -4.0857 -0.6080 0.7883 0 3
20.6349 -4.0323 -0.6070 0.7896 0 3
20.6080 -3.9791 -0.6059 0.7910 0 3
20.5813 -3.9260 -0.6048 0.7924 0 3
20.5547 -3.8732 -0.6038 0.7938 0 3
20.5281 -3.8205 -0.6028 0.7951 0 3
20.5016 -3.7680 -0.6017 0.7965 0 3
20.4753 -3.7156 -0.6007 0.7978 0 3
20.4490 -3.6635 -0.5997 0.7992 0 3
20.4228 -3.6115 -0.5987 0.8005 0 3
20.3967 -3.5597 -0.5977 0.8019 0 3
20.3707 -3.5081 -0.5967 0.8032 0 3
20.3447 -3.4567 -0.5957 0.8045 0 3
20.3188 -3.4054 -0.5947 0.8059 0 3
20.2931 -3.3543 -0.5938 0.8072 0 3
20.2674 -3.3033 -0.5928 0.8085 0 3
20.2418 -3.2525 -0.5918 0.8098 0 3
20.2163 -3.2019 -0.5909 0.8111 0 3
20.1909 -3.1514 -0.5899 0.8124 0 3
20.1655 -3.1012 -0.5890 0.8137 0 3
20.1402 -3.0510 -0.5880 0.8150 0 3
20.1151 -3.0011 -0.5871 0.8163 0 3
20.0899 -2.9512 -0.5862 0.8176 0 3
20.0649 -2.9016 -0.5853 0.8189 0 3
20.0400 -2.8521 -0.5843 0.8202 0 3
20.0151 -2.8027 -0.5834 0.8215 0 3
19.9903 -2.7535 -0.5825 0.8228 0 3
19.9656 -2.7045 -0.5816 0.8240 0 3
19.9409 -2.6556 -0.5807 0.8253 0 3
19.9164 -2.6069 -0.5798 0.8266 0 3
19.8919 -2.5582 -0.5790 0.8278 0 3
19.8674 -2.5098 -0.5781 0.8291 0 3
19.8431 -2.4615 -0.5772 0.8303 0 3
19.8188 -2.4133 -0.5764 0.8316 0 3
19.7946 -2.3653 -0.5755 0.8328 0 3
19.7705 -2.3174 -0.5746 0.8341 0 3
19.7464 -2.2698 -0.5738 0.8353 0 3
19.7224 -2.2222 -0.5729 0.8365 0 3
19.6986 -2.1747 -0.5721 0.8377 0 3
19.6747 -2.1274 -0.5713 0.8390 0 3
19.6509 -2.0802 -0.5704 0.8402 0 3
19.6272 -2.0332 -0.5696 0.8414 0 3
19.6036 -1.9863 -0.5688 0.8426 0 3
19.5800 -1.9395 -0.5680 0.8438 0 3
19.5565 -1.8929 -0.5672 0.8450 0 3
19.5330 -1.8464 -0.5664 0.8462 0 3
19.5097 -1.8000 -0.5656 0.8474 0 3
19.4864 -1.7538 -0.5648 0.8486 0 3
19.4631 -1.7076 -0.5640 0.8498 0 3
19.4399 -1.6617 -0.5632 0.8509 0 3
19.4168 -1.6158 -0.5625 0.8521 0 3
19.3938 -1.5701 -0.5617 0.8533 0 3
19.3708 -1.5245 -0.5609 0.8544 0 3
19.3479 -1.4790 -0.5602 0.8556 0 3
19.3250 -1.4336 -0.5594 0.8568 0 3
19.3022 -1.3884 -0.5586 0.8579 0 3
19.2794 -1.3433 -0.5579 0.8591 0 3
19.2568 -1.2983 -0.5572 0.8602 0 3
19.2341 -1.2534 -0.5564 0.8614 0 3
19.2116 -1.2087 -0.5557 0.8625 0 3
19.1891 -1.1640 -0.5550 0.8636 0 3
19.1667 -1.1195 -0.5542 0.8647 0 3
19.1443 -1.0751 -0.5535 0.8659 0 3
19.1220 -1.0308 -0.5528 0.8670 0 3
19.0997 -0.9866 -0.5521 0.8681 0 3
19.0775 -0.9425 -0.5514 0.8692 0 3
19.0553 -0.8986 -0.5507 0.8703 0 3
19.0332 -0.8547 -0.5500 0.8714 0 3
19.0112 -0.8110 -0.5493 0.8725 0 3
18.9892 -0.7674 -0.5486 0.8736 0 3
18.9672 -0.7239 -0.5479 0.8747 0 3
18.9454 -0.6805 -0.5473 0.8758 0 3
18.9236 -0.6371 -0.5466 0.8769 0 3
18.9018 -0.5940 -0.5459 0.8779 0 3
18.8800 -0.5509 -0.5453 0.8790 0 3
18.8584 -0.5079 -0.5446 0.8801 0 3
18.8368 -0.4650 -0.5439 0.8811 0 3
18.8152 -0.4223 -0.5433 0.8822 0 3
18.7937 -0.3796 -0.5426 0.8832 0 3
18.7723 -0.3370 -0.5420 0.8843 0 3
18.7508 -0.2945 -0.5414 0.8853 0 3
18.7295 -0.2521 -0.5407 0.8864 0 3
18.7082 -0.2099 -0.5401 0.8874 0 3
18.6869 -0.1677 -0.5395 0.8884 0 3
18.6657 -0.1256 -0.5389 0.8894 0 3
18.6446 -0.0837 -0.5382 0.8905 0 3
18.6234 -0.0418 -0.5376 0.8915 0 3
18.6024 0.0001 -0.5370 0.8925 0 3
18.5814 0.0417 -0.5364 0.8935 0 3
18.5604 0.0833 -0.5358 0.8945 0 3
18.5395 0.1249 -0.5352 0.8955 0 3
18.5186 0.1662 -0.5346 0.8965 0 3
18.5210 0.2079 -0.5347 0.4502 0 3
18.6033 0.2505 -0.5371 0.4482 0 3
18.6864 0.2936 -0.5395 0.4462 0 3
18.7701 0.3371 -0.5419 0.4442 0 3
18.8546 0.3809 -0.5444 0.4422 0 3
18.9400 0.4251 -0.5469 0.4402 0 3
19.0261 0.4698 -0.5494 0.4382 0 3
19.1129 0.5148 -0.5519 0.4362 0 3
19.2007 0.5603 -0.5545 0.4342 0 3
19.2892 0.6062 -0.5571 0.4321 0 3
19.3785 0.6526 -0.5597 0.4301 0 3
19.4688 0.6994 -0.5624 0.4281 0 3
19.5598 0.7466 -0.5651 0.4261 0 3
19.6517 0.7943 -0.5678 0.4240 0 3
19.7445 0.8424 -0.5705 0.4220 0 3
19.8382 0.8910 -0.5733 0.4200 0 3
19.9329 0.9401 -0.5761 0.4179 0 3
20.0284 0.9896 -0.5789 0.4159 0 3
20.1249 1.0396 -0.5817 0.4138 0 3
20.2223 1.0902 -0.5846 0.4118 0 3
20.3207 1.1412 -0.5875 0.4098 0 3
20.4202 1.1928 -0.5905 0.4077 0 3
20.5205 1.2448 -0.5935 0.4057 0 3
20.6220 1.2975 -0.5965 0.4036 0 3
20.7245 1.3506 -0.5995 0.4016 0 3
21.8896 1.4759 -0.6333 0.3995 0 3
21.9995 1.5329 -0.6366 0.3974 0 3
22.1106 1.5905 -0.6399 0.3954 0 3
22.2229 1.6487 -0.6433 0.3933 0 3
22.3362 1.7075 -0.6467 0.3913 0 3
22.4509 1.7670 -0.6501 0.3892 0 3
22.5667 1.8271 -0.6536 0.3871 0 3
22.6838 1.8878 -0.6571 0.3851 0 3
8.5480 0.7307 -0.2477 0.8558 0 6
8.5348 0.7489 -0.2473 0.8570 0 6
8.5290 0.7677 -0.2472 0.9795 0 6
8.5292 0.7870 -0.2473 0.9751 0 6
8.5361 0.8069 -0.2475 0.8340 0 6
8.5548 0.8281 -0.2481 0.5268 0 6
22.7212 2.2508 -0.6591 0.9284 0 3
22.6958 2.2997 -0.6585 0.9292 0 3
22.6749 2.3490 -0.6581 0.9167 0 3
22.7675 2.4102 -0.6609 0.3643 0 3
22.8934 2.4755 -0.6647 0.3622 0 3
23.0208 2.5416 -0.6686 0.3601 0 3
23.1496 2.6084 -0.6725 0.3580 0 3
23.2799 2.6760 -0.6765 0.3559 0 3
23.4118 2.7444 -0.6805 0.3538 0 3
23.5453 2.8136 -0.6845 0.3517 0 3
23.6803 2.8837 -0.6886 0.3496 0 3
23.8171 2.9546 -0.6928 0.3475 0 3
23.9554 3.0263 -0.6970 0.3454 0 3
24.0955 3.0990 -0.7013 0.3433 0 3
24.2373 3.1725 -0.7056 0.3412 0 3
24.3808 3.2470 -0.7100 0.3391 0 3
24.5262 3.3223 -0.7145 0.3370 0 3
24.6734 3.3987 -0.7190 0.3348 0 3
24.8224 3.4760 -0.7236 0.3327 0 3
24.9734 3.5543 -0.7282 0.3306 0 3
25.1263 3.6336 -0.7329 0.3285 0 3
25.2812 3.7139 -0.7376 0.3264 0 3
25.4381 3.7953 -0.7425 0.3243 0 3
25.5971 3.8778 -0.7474 0.3221 0 3
25.7582 3.9613 -0.7523 0.3200 0 3
25.9214 4.0460 -0.7574 0.3179 0 3
26.0869 4.1318 -0.7625 0.3158 0 3
26.2546 4.2188 -0.7676 0.3136 0 3
26.4246 4.3069 -0.7729 0.3115 0 3
26.5969 4.3963 -0.7782 0.3094 0 3
26.7716 4.4869 -0.7836 0.3072 0 3
26.9487 4.5788 -0.7891 0.3051 0 3
27.1285 4.6720 -0.7947 0.3030 0 3
27.3106 4.7665 -0.8003 0.3008 0 3
27.4955 4.8624 -0.8060 0.2987 0 3
27.6830 4.9596 -0.8119 0.2965 0 3
27.8732 5.0583 -0.8178 0.2944 0 3
28.0662 5.1584 -0.8238 0.2922 0 3
28.2621 5.2600 -0.8299 0.2901 0 3
28.4609 5.3631 -0.8361 0.2880 0 3
28.6627 5.4677 -0.8423 0.2858 0 3
28.8675 5.5740 -0.8487 0.2837 0 3
29.0755 5.6818 -0.8552 0.2815 0 3
29.2867 5.7914 -0.8618 0.2793 0 3
29.5011 5.9026 -0.8685 0.2772 0 3
29.7189 6.0155 -0.8753 0.2750 0 3
29.9402 6.1303 -0.8822 0.2729 0 3
30.1650 6.2469 -0.8893 0.2707 0 3
30.3934 6.3654 -0.8964 0.2686 0 3
30.6254 6.4857 -0.9037 0.2664 0 3
30.8613 6.6081 -0.9111 0.2642 0 3
31.1012 6.7324 -0.9186 0.2621 0 3
27.1317 5.9370 -0.8018 0.0199 0 0
26.5492 5.8720 -0.7849 0.0571 0 0
26.2731 5.8728 -0.7772 0.0483 0 0
25.9710 5.8665 -0.7686 0.0488 0 0
25.7105 5.8683 -0.7613 0.0533 0 0
25.5536 5.8929 -0.7570 0.1006 0 0
25.4330 5.9252 -0.7539 0.1229 0 0
25.3257 5.9601 -0.7511 0.1234 0 0
25.2193 5.9948 -0.7483 0.1239 0 0
25.1136 6.0293 -0.7456 0.1243 0 0
25.0087 6.0635 -0.7429 0.1248 0 0
12.9159 3.1622 -0.3839 0.9713 0 21
12.9018 3.1895 -0.3837 0.9718 0 21
12.8877 3.2167 -0.3835 0.9723 0 21
12.8736 3.2439 -0.3832 0.9728 0 21
12.8595 3.2711 -0.3830 0.9734 0 21
12.8455 3.2982 -0.3828 0.9739 0 21
12.8314 3.3253 -0.3827 0.9744 0 21
12.8174 3.3524 -0.3825 0.9749 0 21
12.8034 3.3794 -0.3823 0.9754 0 21
12.7894 3.4064 -0.3821 0.9758 0 21
12.7754 3.4334 -0.3819 0.9763 0 21
12.7614 3.4604 -0.3817 0.9768 0 21
12.7475 3.4873 -0.3815 0.9773 0 21
12.7335 3.5142 -0.3813 0.9777 0 21
12.7196 3.5411 -0.3811 0.9782 0 21
12.7056 3.5680 -0.3810 0.9787 0 21
12.6917 3.5948 -0.3808 0.9791 0 21
12.6779 3.6216 -0.3806 0.9796 0 21
12.6640 3.6484 -0.3805 0.9800 0 21
12.6501 3.6752 -0.3803 0.9804 0 21
12.6362 3.7020 -0.3801 0.9809 0 21
12.6224 3.7287 -0.3799 0.9813 0 21
12.6086 3.7554 -0.3798 0.9817 0 21
12.5947 3.7821 -0.3796 0.9821 0 21
12.5809 3.8087 -0.3795 0.9826 0 21
12.5671 3.8353 -0.3793 0.9830 0 21
12.5534 3.8619 -0.3791 0.9834 0 21
12.5396 3.8885 -0.3790 0.9838 0 21
12.5258 3.9151 -0.3788 0.9842 0 21
12.5121 3.9416 -0.3787 0.9845 0 21
12.4983 3.9682 -0.3785 0.9849 0 21
12.4846 3.9946 -0.3784 0.9853 0 21
12.4709 4.0211 -0.3783 0.9857 0 21
12.4572 4.0476 -0.3781 0.9860 0 21
12.4435 4.0740 -0.3780 0.9864 0 21
12.4298 4.1005 -0.3778 0.9868 0 21
12.4161 4.1269 -0.3777 0.9871 0 21
12.4024 4.1533 -0.3776 0.9875 0 21
12.3888 4.1796 -0.3774 0.9878 0 21
12.3751 4.2060 -0.3773 0.9882 0 21
12.3615 4.2323 -0.3772 0.9885 0 21
12.3478 4.2586 -0.3771 0.9888 0 21
12.3342 4.2849 -0.3769 0.9891 0 21
12.3206 4.3112 -0.3768 0.9895 0 21
12.3070 4.3374 -0.3767 0.9898 0 21
12.2934 4.3637 -0.3766 0.9901 0 21
12.2798 4.3899 -0.3765 0.9904 0 21
12.2662 4.4162 -0.3763 0.9907 0 21
12.2526 4.4423 -0.3762 0.9910 0 21
12.2391 4.4685 -0.3761 0.9913 0 21
12.2255 4.4947 -0.3760 0.9915 0 21
12.2120 4.5208 -0.3759 0.9918 0 21
12.1984 4.5470 -0.3758 0.9921 0 21
12.1849 4.5731 -0.3757 0.9924 0 21
12.1714 4.5992 -0.3756 0.9926 0 21
12.1579 4.6253 -0.3755 0.9929 0 21
12.1862 4.6674 -0.3767 0.1124 0 21
12.4220 4.7897 -0.3843 0.1102 0 21
12.6676 4.9171 -0.3923 0.1080 0 21
12.9235 5.0498 -0.4005 0.1057 0 21
12.9253 5.0840 -0.4010 0.0321 0 21
12.9013 5.1080 -0.4006 0.0322 0 21
12.8774 5.1321 -0.4002 0.0322 0 21
22.3372 8.9602 -0.6948 0.3106 0 0
22.3167 9.0101 -0.6948 0.3106 0 0
22.2961 9.0601 -0.6948 0.3106 0 0
22.2755 9.1100 -0.6947 0.3106 0 0
22.2550 9.1599 -0.6947 0.3106 0 0
22.2309 9.2084 -0.6946 0.2806 0 0
22.2054 9.2562 -0.6945 0.2807 0 0
22.1800 9.3041 -0.6943 0.2807 0 0
22.1545 9.3520 -0.6942 0.2808 0 0
12.4641 5.2944 -0.3909 0.9965 0 21
12.4501 5.3215 -0.3909 0.9967 0 21
12.4361 5.3485 -0.3908 0.9969 0 21
12.4221 5.3755 -0.3907 0.9970 0 21
12.4081 5.4026 -0.3907 0.9972 0 21
12.3941 5.4296 -0.3906 0.9973 0 21
12.3801 5.4566 -0.3906 0.9975 0 21
12.3661 5.4836 -0.3905 0.9976 0 21
12.3521 5.5106 -0.3905 0.9977 0 21
12.3381 5.5376 -0.3904 0.9979 0 21
12.3242 5.5646 -0.3904 0.9980 0 21
12.3102 5.5916 -0.3903 0.9981 0 21
12.2962 5.6186 -0.3903 0.9982 0 21
12.2822 5.6455 -0.3902 0.9983 0 21
12.2683 5.6725 -0.3902 0.9984 0 21
12.2543 5.6994 -0.3901 0.9985 0 21
12.2403 5.7264 -0.3901 0.9986 0 21
12.2264 5.7533 -0.3901 0.9987 0 21
12.2124 5.7803 -0.3900 0.9988 0 21
12.1985 5.8072 -0.3900 0.9989 0 21
12.1845 5.8341 -0.3900 0.9989 0 21
12.1705 5.8611 -0.3900 0.9990 0 21
18.8602 9.1348 -0.6049 0.9991 0 3
18.8385 9.1766 -0.6049 0.9991 0 3
18.8169 9.2183 -0.6049 0.9992 0 3
18.7952 9.2601 -0.6049 0.9992 0 3
18.7736 9.3018 -0.6048 0.9993 0 3
18.7520 9.3436 -0.6048 0.9993 0 3
18.7303 9.3853 -0.6048 0.9993 0 3
18.7087 9.4271 -0.6048 0.9994 0 3
18.6871 9.4688 -0.6048 0.9994 0 3
18.6655 9.5106 -0.6047 0.9994 0 3
18.6438 9.5523 -0.6047 0.9994 0 3
18.6222 9.5940 -0.6047 0.9994 0 3
18.6006 9.6358 -0.6047 0.9994 0 3
18.5789 9.6775 -0.6047 0.9994 0 3
18.3127 9.5911 -0.5968 0.9995 0 3
18.2913 9.6323 -0.5968 0.9995 0 3
18.2700 9.6735 -0.5968 0.9995 0 3
18.2487 9.7147 -0.5968 0.9995 0 3
18.4708 9.8862 -0.6048 0.9993 0 3
18.4492 9.9279 -0.6048 0.9993 0 3
18.4276 9.9697 -0.6048 0.9993 0 3
18.5213 10.0743 -0.6086 0.9992 0 3
18.4995 10.1162 -0.6087 0.9992 0 3
18.4777 10.1582 -0.6087 0.9991 0 3
18.4560 10.2003 -0.6087 0.9991 0 3
18.4342 10.2423 -0.6088 0.9990 0 3
18.4124 10.2844 -0.6088 0.9989 0 3
18.3906 10.3264 -0.6089 0.9989 0 3
18.3688 10.3684 -0.6089 0.9988 0 3
18.3471 10.4105 -0.6090 0.9987 0 3
18.3252 10.4526 -0.6090 0.9986 0 3
18.3035 10.4946 -0.6091 0.9985 0 3
18.2817 10.5367 -0.6091 0.9984 0 3
18.2598 10.5788 -0.6092 0.9983 0 3
18.2380 10.6209 -0.6093 0.9982 0 3
18.2162 10.6630 -0.6093 0.9981 0 3
18.1944 10.7052 -0.6094 0.9980 0 3
18.1726 10.7473 -0.6095 0.9979 0 3
18.1508 10.7894 -0.6096 0.9977 0 3
18.1289 10.8316 -0.6096 0.9976 0 3
18.1071 10.8737 -0.6097 0.9975 0 3
18.0852 10.9159 -0.6098 0.9973 0 3
18.0634 10.9581 -0.6099 0.9972 0 3
18.0415 11.0003 -0.6100 0.9970 0 3
18.0196 11.0425 -0.6101 0.9969 0 3
17.9977 11.0847 -0.6102 0.9967 0 3
17.9759 11.1270 -0.6103 0.9965 0 3
17.9540 11.1692 -0.6104 0.9964 0 3
17.9321 11.2114 -0.6105 0.9962 0 3
17.9102 11.2538 -0.6106 0.9960 0 3
17.8882 11.2960 -0.6107 0.9958 0 3
17.8663 11.3384 -0.6109 0.9956 0 3
17.8444 11.3807 -0.6110 0.9954 0 3
17.8225 11.4231 -0.6111 0.9952 0 3
17.8005 11.4654 -0.6112 0.9950 0 3
17.7786 11.5078 -0.6114 0.9948 0 3
17.7566 11.5502 -0.6115 0.9946 0 3
17.7346 11.5926 -0.6116 0.9944 0 3
17.7126 11.6351 -0.6118 0.9941 0 3
17.6906 11.6775 -0.6119 0.9939 0 3
17.6686 11.7200 -0.6121 0.9937 0 3
17.6466 11.7625 -0.6122 0.9934 0 3
17.6246 11.8050 -0.6124 0.9932 0 3
17.6025 11.8475 -0.6125 0.9929 0 3
17.5805 11.8901 -0.6127 0.9926 0 3
17.5584 11.9327 -0.6128 0.9924 0 3
17.5363 11.9753 -0.6130 0.9921 0 3
17.5143 12.0180 -0.6132 0.9918 0 3
17.4921 12.0606 -0.6134 0.9916 0 3
17.4700 12.1033 -0.6135 0.9913 0 3
17.4479 12.1460 -0.6137 0.9910 0 3
17.4258 12.1888 -0.6139 0.9907 0 3
17.4036 12.2315 -0.6141 0.9904 0 3
17.3815 12.2743 -0.6143 0.9901 0 3
17.3593 12.3171 -0.6144 0.9898 0 3
17.3370 12.3599 -0.6146 0.9895 0 3
17.3149 12.4028 -0.6148 0.9892 0 3
17.2927 12.4457 -0.6150 0.9888 0 3
17.2704 12.4886 -0.6152 0.9885 0 3
17.2482 12.5315 -0.6155 0.9882 0 3
17.2259 12.5745 -0.6157 0.9878 0 3
17.2036 12.6175 -0.6159 0.9875 0 3
17.1813 12.6606 -0.6161 0.9871 0 3
17.1590 12.7036 -0.6163 0.9868 0 3
17.1367 12.7467 -0.6165 0.9864 0 3
17.1143 12.7899 -0.6168 0.9861 0 3
17.0920 12.8330 -0.6170 0.9857 0 3
17.0696 12.8762 -0.6172 0.9853 0 3
17.0472 12.9195 -0.6175 0.9849 0 3
17.0248 12.9627 -0.6177 0.9846 0 3
17.0023 13.0060 -0.6180 0.9842 0 3
16.9799 13.0494 -0.6182 0.9838 0 3
16.9574 13.0927 -0.6185 0.9834 0 3
16.9349 13.1361 -0.6187 0.9830 0 3
16.9124 13.1796 -0.6190 0.9826 0 3
16.8899 13.2231 -0.6192 0.9822 0 3
16.8674 13.2665 -0.6195 0.9817 0 3
16.8448 13.3101 -0.6198 0.9813 0 3
16.8222 13.3537 -0.6200 0.9809 0 3
16.7996 13.3973 -0.6203 0.9805 0 3
16.7770 13.4410 -0.6206 0.9800 0 3
16.7544 13.4847 -0.6209 0.9796 0 3
16.7317 13.5284 -0.6211 0.9791 0 3
16.7090 13.5722 -0.6214 0.9787 0 3
16.6863 13.6160 -0.6217 0.9782 0 3
16.6636 13.6599 -0.6220 0.9778 0 3
16.6409 13.7038 -0.6223 0.9773 0 3
16.6181 13.7477 -0.6226 0.9768 0 3
16.5953 13.7917 -0.6229 0.9763 0 3
16.5725 13.8357 -0.6232 0.9759 0 3
16.5496 13.8798 -0.6235 0.9754 0 3
16.5025 13.9034 -0.6229 0.2197 0 3
16.4011 13.8811 -0.6203 0.9744 0 3
16.3784 13.9251 -0.6206 0.9739 0 3
16.3556 13.9690 -0.6209 0.9734 0 3
16.3328 14.0131 -0.6212 0.9729 0 3
16.3100 14.0571 -0.6216 0.9724 0 3
16.2871 14.1012 -0.6219 0.9718 0 3
16.2642 14.1454 -0.6222 0.9713 0 3
16.2413 14.1896 -0.6226 0.9708 0 3
16.1354 14.1611 -0.6197 0.2397 0 3
15.9817 14.0898 -0.6151 0.9698 0 3
15.9590 14.1336 -0.6154 0.9693 0 3
15.9363 14.1774 -0.6157 0.9687 0 3
15.9136 14.2213 -0.6161 0.9681 0 3
16.1033 14.4560 -0.6247 0.9675 0 3
16.0802 14.5005 -0.6251 0.9669 0 3
16.0571 14.5451 -0.6254 0.9664 0 3
16.0339 14.5898 -0.6258 0.9658 0 3
16.0108 14.6346 -0.6262 0.9652 0 3
15.9876 14.6793 -0.6266 0.9646 0 3
15.9644 14.7242 -0.6269 0.9640 0 3
15.9411 14.7691 -0.6273 0.9634 0 3
15.9178 14.8140 -0.6277 0.9628 0 3
15.8945 14.8590 -0.6281 0.9622 0 3
15.8712 14.9041 -0.6285 0.9616 0 3
15.8475 14.9488 -0.6289 0.2740 0 3
15.6904 14.8674 -0.6240 0.2762 0 3
15.5359 14.7872 -0.6192 0.2783 0 3
15.3836 14.7083 -0.6144 0.2805 0 3
15.2337 14.6305 -0.6097 0.2827 0 3
15.0861 14.5539 -0.6051 0.2848 0 3
14.9406 14.4785 -0.6006 0.2869 0 3
14.7974 14.4042 -0.5961 0.2891 0 3
14.7338 14.4068 -0.5949 0.9454 0 3
14.6901 14.4288 -0.5944 0.9461 0 3
14.6466 14.4507 -0.5940 0.9468 0 3
14.6031 14.4727 -0.5935 0.9476 0 3
14.5736 14.5084 -0.5936 0.9533 0 3
25.2385 -25.2384 -1.3250 0.9763 0 21
25.2974 -25.1840 -1.3251 0.6725 0 21
25.0849 -24.8607 -1.3111 0.9515 0 21
25.5364 -25.1948 -1.3317 0.6692 0 21
30.2076 -29.6701 -1.5718 0.9590 0 4
30.2943 -29.6219 -1.5729 0.9583 0 4
30.3810 -29.5736 -1.5739 0.9577 0 4
30.4678 -29.5253 -1.5750 0.9570 0 4
17.0880 -16.4852 -0.8814 0.9473 0 20
17.1380 -16.4593 -0.8821 0.9466 0 20
17.1539 -16.4008 -0.8810 0.3235 0 20
16.8701 -16.0571 -0.8646 0.9452 0 20
16.9305 -16.0424 -0.8658 0.9444 0 20
16.9798 -16.0169 -0.8665 0.9437 0 20
17.0291 -15.9913 -0.8672 0.9429 0 20
17.0785 -15.9657 -0.8679 0.9422 0 20
24.1920 -22.5143 -1.2268 0.8640 0 20
31.3428 -29.0382 -1.5861 0.9503 0 4
24.9010 -22.9664 -1.2575 0.3194 0 20
24.8562 -22.8221 -1.2527 0.8620 0 20
24.9272 -22.7845 -1.2537 0.8613 0 20
24.6120 -22.3952 -1.2353 0.3252 0 20
24.6105 -22.2930 -1.2327 0.8599 0 20
24.6807 -22.2560 -1.2337 0.8592 0 20
31.9629 -28.6930 -1.5945 0.9453 0 4
32.0520 -28.6434 -1.5957 0.9446 0 4
22.9398 -20.4078 -1.1398 0.2077 0 20
22.9682 -20.3410 -1.1389 0.5063 0 20
23.0321 -20.3055 -1.1398 0.5059 0 20
32.4099 -28.4442 -1.6008 0.9416 0 4
22.6785 -19.8136 -1.1179 0.5051 0 20
22.7413 -19.7786 -1.1188 0.5047 0 20
32.6798 -28.2938 -1.6047 0.9393 0 4
32.7701 -28.2436 -1.6060 0.9386 0 4
23.4462 -20.1161 -1.1468 0.3499 0 20
23.4895 -20.0619 -1.1467 0.8504 0 20
23.5555 -20.0270 -1.1478 0.8497 0 20
23.2121 -19.6455 -1.1289 0.2198 0 20
23.1837 -19.5324 -1.1254 0.5017 0 20
23.2473 -19.4969 -1.1263 0.5013 0 20
33.4062 -27.8895 -1.6155 0.9331 0 4
9.6530 -8.0221 -0.4659 0.5246 412 13
9.6464 -7.9802 -0.4648 0.7654 412 13
9.6514 -7.9479 -0.4641 0.8881 412 13
9.6636 -7.9216 -0.4639 0.9550 412 13
9.6820 -7.9004 -0.4639 0.9484 412 13
9.7065 -7.8842 -0.4642 0.8666 412 13
9.7395 -7.8748 -0.4650 0.6831 412 13
9.7965 -7.8846 -0.4668 0.2218 412 13
34.2355 -27.4278 -1.6285 0.9256 0 4
34.3285 -27.3760 -1.6300 0.9248 0 4
34.4217 -27.3242 -1.6315 0.9239 0 4
34.5150 -27.2722 -1.6330 0.9231 0 4
34.6085 -27.2202 -1.6345 0.9222 0 4
34.7021 -27.1680 -1.6361 0.9213 0 4
34.7960 -27.1158 -1.6376 0.9204 0 4
34.8900 -27.0634 -1.6392 0.9196 0 4
34.9842 -27.0110 -1.6407 0.9187 0 4
35.0786 -26.9584 -1.6423 0.9178 0 4
35.1732 -26.9058 -1.6439 0.9169 0 4
35.2679 -26.8530 -1.6455 0.9160 0 4
35.3629 -26.8002 -1.6472 0.9151 0 4
35.4580 -26.7472 -1.6488 0.9142 0 4
35.5533 -26.6942 -1.6504 0.9133 0 4
35.6488 -26.6410 -1.6521 0.9124 0 4
35.7445 -26.5877 -1.6538 0.9115 0 4
35.8404 -26.5343 -1.6554 0.9105 0 4
35.9365 -26.4808 -1.6571 0.9096 0 4
36.0328 -26.4272 -1.6588 0.9087 0 4
36.1293 -26.3735 -1.6605 0.9077 0 4
36.2259 -26.3196 -1.6623 0.9068 0 4
36.3228 -26.2657 -1.6640 0.9059 0 4
36.4199 -26.2117 -1.6657 0.9049 0 4
36.5172 -26.1575 -1.6675 0.9039 0 4
36.6147 -26.1032 -1.6693 0.9030 0 4
36.7124 -26.0488 -1.6711 0.9020 0 4
36.8104 -25.9943 -1.6729 0.9011 0 4
36.9084 -25.9396 -1.6747 0.9001 0 4
37.0068 -25.8849 -1.6765 0.8991 0 4
37.1054 -25.8300 -1.6783 0.8981 0 4
37.2041 -25.7750 -1.6802 0.8971 0 4
37.3031 -25.7199 -1.6820 0.8961 0 4
37.4023 -25.6647 -1.6839 0.8951 0 4
26.3175 -17.9718 -1.1830 0.2214 0 6
26.3286 -17.8928 -1.1817 0.9708 0 6
37.7013 -25.4982 -1.6896 0.8921 0 4
37.8014 -25.4425 -1.6915 0.8911 0 4
37.9017 -25.3866 -1.6934 0.8901 0 4
38.0023 -25.3306 -1.6954 0.8891 0 4
38.1031 -25.2745 -1.6974 0.8880 0 4
38.2041 -25.2183 -1.6993 0.8870 0 4
38.3054 -25.1619 -1.7013 0.8860 0 4
38.4069 -25.1054 -1.7033 0.8849 0 4
38.5087 -25.0487 -1.7054 0.8839 0 4
38.6106 -24.9919 -1.7074 0.8828 0 4
38.7129 -24.9350 -1.7094 0.8818 0 4
38.8153 -24.8780 -1.7115 0.8807 0 4
38.9180 -24.8208 -1.7136 0.8797 0 4
39.0211 -24.7634 -1.7156 0.8786 0 4
39.1242 -24.7060 -1.7177 0.8775 0 4
35.8788 -22.5441 -1.5730 0.9900 0 21
39.3314 -24.5906 -1.7220 0.8754 0 4
39.4354 -24.5327 -1.7241 0.8743 0 4
35.5724 -22.0190 -1.5530 0.8018 0 21
39.6442 -24.4165 -1.7284 0.8721 0 4
39.7490 -24.3581 -1.7306 0.8710 0 4
39.8540 -24.2996 -1.7328 0.8699 0 4
39.9593 -24.2410 -1.7350 0.8688 0 4
40.0649 -24.1822 -1.7372 0.8677 0 4
40.1707 -24.1233 -1.7395 0.8666 0 4
40.2768 -24.0642 -1.7417 0.8654 0 4
40.3832 -24.0050 -1.7440 0.8643 0 4
15.9018 -9.4043 -0.6858 0.1650 0 6
15.8741 -9.3399 -0.6837 0.8152 0 6
15.8771 -9.2937 -0.6829 0.9854 0 6
15.9041 -9.2617 -0.6832 0.9850 0 6
15.9421 -9.2359 -0.6840 0.5735 0 6
41.0275 -23.6462 -1.7579 0.8575 0 4
41.1358 -23.5859 -1.7603 0.8563 0 4
41.2445 -23.5254 -1.7627 0.8551 0 4
39.1108 -22.1922 -1.6693 0.4306 0 21
41.4627 -23.4038 -1.7675 0.8528 0 4
41.5723 -23.3429 -1.7699 0.8516 0 4
41.6822 -23.2817 -1.7724 0.8505 0 4
41.7924 -23.2203 -1.7748 0.8493 0 4
41.9028 -23.1588 -1.7773 0.8481 0 4
42.0136 -23.0971 -1.7798 0.8469 0 4
42.1247 -23.0352 -1.7823 0.8457 0 4
42.2362 -22.9732 -1.7848 0.8445 0 4
42.3479 -22.9110 -1.7874 0.8433 0 4
42.4599 -22.8486 -1.7899 0.8421 0 4
42.5723 -22.7860 -1.7925 0.8409 0 4
39.1614 -20.8475 -1.6469 0.9775 0 21
42.7980 -22.6604 -1.7977 0.8385 0 4
37.1322 -19.5539 -1.5579 0.9985 0 21
43.0251 -22.5339 -1.8030 0.8360 0 4
38.9024 -20.2635 -1.6283 0.5360 0 21
37.7788 -19.5707 -1.5794 0.7346 0 21
43.3682 -22.3429 -1.8110 0.8323 0 4
43.4832 -22.2788 -1.8137 0.8311 0 4
43.5986 -22.2146 -1.8165 0.8298 0 4
43.7143 -22.1501 -1.8192 0.8286 0 4
43.8304 -22.0854 -1.8220 0.8273 0 4
43.9469 -22.0206 -1.8247 0.8260 0 4
44.0637 -21.9556 -1.8276 0.8248 0 4
44.1809 -21.8903 -1.8304 0.8235 0 4
44.2984 -21.8249 -1.8332 0.8222 0 4
44.4162 -21.7592 -1.8361 0.8210 0 4
44.5345 -21.6934 -1.8389 0.8197 0 4
44.6531 -21.6273 -1.8418 0.8184 0 4
44.7721 -21.5611 -1.8447 0.8171 0 4
44.8915 -21.4946 -1.8476 0.8158 0 4
45.0112 -21.4279 -1.8506 0.8145 0 4
45.1314 -21.3610 -1.8536 0.8132 0 4
34.3213 -13.7672 -1.3728 0.9987 0 6
42.3024 -16.2021 -1.6816 0.6684 0 3
42.2335 -16.0671 -1.6774 0.6700 0 3
42.1649 -15.9327 -1.6733 0.6717 0 3
42.0966 -15.7991 -1.6692 0.6734 0 3
42.0286 -15.6661 -1.6651 0.6750 0 3
41.9672 -15.5360 -1.6612 0.7389 0 3
42.0882 -15.4734 -1.6647 0.7374 0 3
42.2095 -15.4106 -1.6681 0.7359 0 3
42.3314 -15.3476 -1.6715 0.7343 0 3
42.4539 -15.2843 -1.6750 0.7328 0 3
42.5768 -15.2207 -1.6785 0.7313 0 3
46.2690 -16.4236 -1.8226 0.7042 0 3
46.2015 -16.2830 -1.8185 0.7058 0 3
46.1343 -16.1430 -1.8144 0.7074 0 3
46.0674 -16.0037 -1.8104 0.7090 0 3
46.0008 -15.8650 -1.8064 0.7105 0 3
45.9345 -15.7268 -1.8024 0.7121 0 3
45.8685 -15.5894 -1.7984 0.7137 0 3
45.8028 -15.4524 -1.7945 0.7152 0 3
45.7373 -15.3161 -1.7906 0.7168 0 3
45.6721 -15.1804 -1.7867 0.7184 0 3
43.7830 -14.4435 -1.7115 0.6972 0 3
22.2829 -7.2954 -0.8704 0.7070 0 3
22.2494 -7.2292 -0.8685 0.7085 0 3
22.2160 -7.1633 -0.8665 0.7101 0 3
22.1828 -7.0977 -0.8646 0.7117 0 3
22.1497 -7.0324 -0.8627 0.7133 0 3
22.1168 -6.9673 -0.8608 0.7148 0 3
22.0841 -6.9025 -0.8589 0.7164 0 3
22.0514 -6.8381 -0.8571 0.7180 0 3
22.0190 -6.7739 -0.8552 0.7195 0 3
21.9866 -6.7099 -0.8534 0.7211 0 3
21.9544 -6.6463 -0.8515 0.7226 0 3
21.9224 -6.5829 -0.8497 0.7242 0 3
21.8904 -6.5198 -0.8479 0.7257 0 3
21.8587 -6.4570 -0.8461 0.7272 0 3
21.8270 -6.3944 -0.8443 0.7288 0 3
21.7955 -6.3321 -0.8426 0.7303 0 3
21.7641 -6.2701 -0.8408 0.7318 0 3
21.7328 -6.2083 -0.8390 0.7334 0 3
21.7017 -6.1468 -0.8373 0.7349 0 3
21.6707 -6.0855 -0.8356 0.7364 0 3
21.7202 -6.0469 -0.8370 0.6730 0 3
21.7874 -6.0129 -0.8390 0.6714 0 3
21.8550 -5.9788 -0.8411 0.6697 0 3
21.9229 -5.9446 -0.8432 0.6680 0 3
21.9912 -5.9101 -0.8453 0.6664 0 3
22.0598 -5.8755 -0.8475 0.6647 0 3
22.0791 -5.8276 -0.8477 0.7479 0 3
22.0483 -5.7666 -0.8460 0.7494 0 3
22.0177 -5.7059 -0.8443 0.7509 0 3
21.9872 -5.6453 -0.8427 0.7524 0 3
21.9568 -5.5850 -0.8410 0.7538 0 3
21.9265 -5.5250 -0.8394 0.7553 0 3
21.8964 -5.4651 -0.8378 0.7568 0 3
21.8663 -5.4055 -0.8362 0.7582 0 3
21.8364 -5.3462 -0.8346 0.7597 0 3
21.8066 -5.2871 -0.8330 0.7612 0 3
21.7769 -5.2281 -0.8314 0.7626 0 3
21.7474 -5.1695 -0.8298 0.7641 0 3
21.7179 -5.1110 -0.8282 0.7655 0 3
21.6885 -5.0528 -0.8267 0.7669 0 3
21.6593 -4.9947 -0.8251 0.7684 0 3
21.6302 -4.9369 -0.8236 0.7698 0 3
21.6011 -4.8793 -0.8221 0.7712 0 3
21.5722 -4.8219 -0.8206 0.7727 0 3
20.9374 -4.6307 -0.7960 0.7740 0 3
20.9095 -4.5754 -0.7946 0.7755 0 3
20.8817 -4.5202 -0.7931 0.7769 0 3
20.8540 -4.4652 -0.7917 0.7783 0 3
20.8264 -4.4105 -0.7903 0.7797 0 3
20.7989 -4.3559 -0.7889 0.7811 0 3
20.7715 -4.3015 -0.7874 0.7825 0 3
20.7441 -4.2473 -0.7860 0.7839 0 3
