ply
format ascii 1.0
element vertex 614
property float32 x
property float32 y
property float32 z
property float32 CosAngle
property uint32 ObjIdx
property uint32 ObjTag
end_header
30.07062339782715 23.325145721435547 8.780548095703125 0.7657540440559387 0 3
30.068281173706055 22.894033432006836 8.719512939453125 0.7711145281791687 0 3
30.066015243530273 22.4688663482666 8.660013198852539 0.7764127254486084 0 3
30.063711166381836 22.049394607543945 8.602007865905762 0.7816482186317444 0 3
29.98109245300293 21.577577590942383 8.52260684967041 0.7868207693099976 0 3
30.13035011291504 21.277128219604492 8.510395050048828 0.7919296026229858 0 3
30.128202438354492 20.872880935668945 8.456527709960938 0.7969745397567749 0 3
30.126054763793945 20.473651885986328 8.404004096984863 0.8019552230834961 0 3
30.052928924560547 20.031972885131836 8.333099365234375 0.8068714737892151 0 3
30.050859451293945 19.643348693847656 8.283309936523438 0.8117220997810364 0 3
30.04878807067871 19.259286880493164 8.23476505279541 0.8165075778961182 0 3
30.046796798706055 18.879648208618164 8.1874361038208 0.8212270140647888 0 3
30.044803619384766 18.50435447692871 8.141304969787598 0.8258801102638245 0 3
30.042850494384766 18.133251190185547 8.096341133117676 0.830466628074646 0 3
30.040897369384766 17.766141891479492 8.052519798278809 0.8349862098693848 0 3
30.038984298706055 17.40300750732422 8.009809494018555 0.839438259601593 0 3
30.037109375 17.043670654296875 7.968193054199219 0.8438225388526917 0 3
29.76984214782715 16.540496826171875 7.85755729675293 0.8481391668319702 0 3
30.28693199157715 16.47380828857422 7.95473575592041 0.05462568998336792 0 3
32.90984344482422 17.51953125 8.601977348327637 0.05051541328430176 0 3
36.00957107543945 18.756805419921875 9.367781639099121 0.046385735273361206 0 3
36.35261535644531 18.522645950317383 9.413458824157715 0.37477558851242065 0 9
37.21706771850586 18.54423713684082 9.593799591064453 0.9317659139633179 0 9
36.31665802001953 17.6904296875 9.320393562316895 0.3284006118774414 0 9
36.5690803527832 17.40907096862793 9.344679832458496 0.1765969693660736 0 9
37.30617141723633 17.350889205932617 9.492876052856445 0.01684539020061493 0 9
30.062850952148438 13.65518569946289 7.6182074546813965 0.4141170382499695 0 3
30.017812728881836 13.310996055603027 7.576207637786865 0.8874819874763489 0 3
30.016132354736328 12.989110946655273 7.546061992645264 0.8910273313522339 0 3
30.014530181884766 12.669795036315918 7.516759395599365 0.894500732421875 0 3
30.012929916381836 12.352919578552246 7.488286018371582 0.8979019522666931 0 3
30.011327743530273 12.03841781616211 7.460624694824219 0.9012308120727539 0 3
30.00972557067871 11.726152420043945 7.433765888214111 0.904486894607544 0 3
30.008163452148438 11.41616153717041 7.407700538635254 0.9076699018478394 0 3
30.006601333618164 11.108281135559082 7.382401943206787 0.9107798337936401 0 3
30.005136489868164 10.802529335021973 7.357877731323242 0.913815975189209 0 3
30.00359344482422 10.498701095581055 7.334104537963867 0.9167784452438354 0 3
30.0020694732666 10.1968355178833 7.311062335968018 0.9196673035621643 0 3
30.000566482543945 9.896845817565918 7.288759708404541 0.9224816560745239 0 3
29.9991397857666 9.598651885986328 7.267173767089844 0.925221860408783 0 3
29.997636795043945 9.302236557006836 7.24630069732666 0.9278870224952698 0 3
29.996171951293945 9.007460594177246 7.226120471954346 0.9304774403572083 0 3
29.994726181030273 8.71426773071289 7.206642150878906 0.932992696762085 0 3
29.99332046508789 8.422656059265137 7.187843322753906 0.9354329705238342 0 3
29.991893768310547 8.132577896118164 7.1697211265563965 0.937797486782074 0 3
29.990507125854492 7.843905925750732 7.15226411819458 0.9400864839553833 0 3
29.989120483398438 7.556611061096191 7.135463714599609 0.9422995448112488 0 3
29.987693786621094 7.27062463760376 7.119324207305908 0.9444364905357361 0 3
29.98630714416504 6.985908031463623 7.10382080078125 0.9464972615242004 0 3
29.984920501708984 6.702412128448486 7.088956832885742 0.9484817385673523 0 3
29.98355484008789 6.420087814331055 7.0747294425964355 0.9503896236419678 0 3
29.98226547241211 6.138886451721191 7.061120510101318 0.9522207975387573 0 3
29.980897903442383 5.858720779418945 7.048135280609131 0.9539751410484314 0 3
29.979570388793945 5.579579830169678 7.035763263702393 0.9556525945663452 0 3
29.978240966796875 5.301415920257568 7.024002552032471 0.9572528600692749 0 3
29.976913452148438 5.024091720581055 7.012844085693359 0.9587759375572205 0 3
29.9755859375 4.747646331787109 7.0022873878479 0.9602215886116028 0 3
31.51628875732422 4.702099323272705 7.352038860321045 0.14812663197517395 0 3
32.824920654296875 4.596562385559082 7.647373676300049 0.1192598044872284 0 3
32.810997009277344 4.294677734375 7.634847640991211 0.23486676812171936 0 3
37.13294982910156 -9.3567476272583 8.835282325744629 0.620903730392456 0 9
36.33726501464844 -9.503925323486328 8.665907859802246 0.5574650168418884 0 9
36.52400207519531 -9.903886795043945 8.73129653930664 0.5532901883125305 0 9
36.714256286621094 -10.310107231140137 8.798559188842773 0.5490610003471375 0 9
36.2287483215332 -10.525517463684082 8.704480171203613 0.29858800768852234 0 9
35.71757888793945 -10.725546836853027 8.604454040527344 0.14999070763587952 0 9
37.04929733276367 -11.488965034484863 8.949743270874023 0.5061314702033997 0 9
36.005271911621094 -11.520468711853027 8.722174644470215 0.20716719329357147 0 9
35.93210983276367 -11.853652000427246 8.729884147644043 0.08784045279026031 0 9
36.69871139526367 -12.472909927368164 8.942971229553223 0.7509360909461975 0 9
35.761600494384766 -12.513593673706055 8.741623878479004 0.6588233113288879 0 9
36.230857849121094 -13.043973922729492 8.884597778320312 0.7558697462081909 0 9
42.75792694091797 -19.886512756347656 10.880086898803711 0.7431588768959045 0 9
42.75708770751953 -20.35489273071289 10.925931930541992 0.7400406002998352 0 9
41.92198944091797 -20.42094612121582 10.758943557739258 0.5544637441635132 0 9
42.09816360473633 -20.976299285888672 10.852028846740723 0.5497075319290161 0 9
42.08245849609375 -21.442167282104492 10.897171020507812 0.3965948820114136 0 9
41.961639404296875 -21.857168197631836 10.916226387023926 0.6190729141235352 0 9
41.79255676269531 -22.24833869934082 10.923775672912598 0.6186450123786926 0 9
41.62226486206055 -22.639442443847656 10.931929588317871 0.6181835532188416 0 9
33.23609161376953 30.93128776550293 10.081853866577148 0.9458437561988831 0 9
33.55435562133789 30.67009735107422 10.094464302062988 0.9446612000465393 0 9
33.188594818115234 29.79343605041504 9.90358829498291 0.7294914126396179 0 9
33.816524505615234 29.813289642333984 10.010699272155762 0.6620544791221619 0 9
33.52427673339844 29.0250186920166 9.846663475036621 0.3627064526081085 0 9
34.66300582885742 29.470800399780273 10.103032112121582 0.4258304238319397 0 9
34.79630661010742 29.050048828125 10.06546688079834 0.5140239000320435 0 9
34.872928619384766 28.586708068847656 10.012993812561035 0.4815753102302551 0 9
29.886913299560547 24.054227828979492 8.519028663635254 0.5188429951667786 0 3
30.07080078125 23.76067352294922 8.5103120803833 0.7618077397346497 0 3
30.0684757232666 23.323455810546875 8.450056076049805 0.7672401666641235 0 3
30.066171646118164 22.892391204833984 8.391316413879395 0.772610604763031 0 3
30.063865661621094 22.467235565185547 8.334059715270996 0.777918815612793 0 3
30.0616397857666 22.047832489013672 8.278242111206055 0.7831640839576721 0 3
29.97898292541504 21.576093673706055 8.201831817626953 0.7883461713790894 0 3
30.12824058532715 21.275663375854492 8.190093040466309 0.7934643626213074 0 3
30.1260929107666 20.871416091918945 8.138250350952148 0.7985190153121948 0 3
30.12398338317871 20.47225570678711 8.087709426879883 0.8035088181495667 0 3
30.050878524780273 20.0306339263916 8.019484519958496 0.8084341883659363 0 3
30.048828125 19.641992568969727 7.971560955047607 0.8132942318916321 0 3
30.046796798706055 19.25798797607422 7.924842834472656 0.8180884122848511 0 3
30.04476547241211 18.878368377685547 7.879302024841309 0.8228167295455933 0 3
30.04281234741211 18.503114700317383 7.83491849899292 0.8274783492088318 0 3
30.04083824157715 18.132049560546875 7.791646480560303 0.832073450088501 0 3
30.03890609741211 17.764970779418945 7.749475955963135 0.8366014957427979 0 3
30.036991119384766 17.401836395263672 7.708378791809082 0.8410619497299194 0 3
30.03515625 17.04252815246582 7.668323993682861 0.8454545736312866 0 3
30.0333194732666 16.686893463134766 7.629303455352783 0.8497788906097412 0 3
30.224822998046875 16.440048217773438 7.640163421630859 0.47031456232070923 0 3
30.293319702148438 16.126571655273438 7.620561122894287 0.5093541145324707 0 3
31.199159622192383 16.25111198425293 7.8114519119262695 0.053637728095054626 0 3
33.9765625 17.311914443969727 8.467583656311035 0.049481481313705444 0 3
36.08277130126953 17.979032516479492 8.95195484161377 0.3296855092048645 0 9
36.86890411376953 17.95943260192871 9.106621742248535 0.337926983833313 0 9
37.70568084716797 17.950164794921875 9.273149490356445 0.9269351363182068 0 9
36.741249084472656 17.08818244934082 8.997857093811035 0.3261653184890747 0 9
37.65789031982422 17.105077743530273 9.184382438659668 0.5482662916183472 0 9
30.01595687866211 13.310175895690918 7.291117191314697 0.8891953229904175 0 3
30.01431655883789 12.988329887390137 7.262107849121094 0.8927473425865173 0 3
30.0126953125 12.669013023376465 7.2339043617248535 0.8962273597717285 0 3
30.011093139648438 12.352148056030273 7.206503868103027 0.8996348977088928 0 3
30.009531021118164 12.037665367126465 7.179890155792236 0.9029698967933655 0 3
30.0079288482666 11.725468635559082 7.15404748916626 0.9062319993972778 0 3
30.006385803222656 11.415478706359863 7.128956317901611 0.9094210863113403 0 3
30.004823684692383 11.107626914978027 7.104617595672607 0.9125367999076843 0 3
30.003299713134766 10.80184555053711 7.08101224899292 0.9155789017677307 0 3
30.00179672241211 10.498085975646973 7.058132648468018 0.9185466766357422 0 3
30.00029182434082 10.196220397949219 7.03596305847168 0.9214408993721008 0 3
29.998788833618164 9.896259307861328 7.014499187469482 0.9242604374885559 0 3
29.997323989868164 9.598095893859863 6.99372673034668 0.9270058870315552 0 3
29.995878219604492 9.301679611206055 6.973635196685791 0.9296760559082031 0 3
29.994394302368164 9.006914138793945 6.954224586486816 0.9322712421417236 0 3
29.99296760559082 8.713749885559082 6.93548059463501 0.9347912073135376 0 3
29.991561889648438 8.422158241271973 6.917392253875732 0.9372360110282898 0 3
29.990116119384766 8.132080078125 6.899946212768555 0.9396050572395325 0 3
29.988710403442383 7.843427658081055 6.883148670196533 0.9418981075286865 0 3
29.98728370666504 7.556161880493164 6.866983890533447 0.9441153407096863 0 3
29.985937118530273 7.270205020904541 6.851445198059082 0.9462564587593079 0 3
29.984569549560547 6.985527038574219 6.83653450012207 0.9483208656311035 0 3
29.98320198059082 6.702040672302246 6.822225093841553 0.9503092169761658 0 3
29.981815338134766 6.419726371765137 6.808530330657959 0.952220618724823 0 3
29.980506896972656 6.138525485992432 6.795438766479492 0.9540551900863647 0 3
29.97913932800293 5.858388423919678 6.782946586608887 0.955812931060791 0 3
29.977811813354492 5.579257488250732 6.771039962768555 0.9574934244155884 0 3
29.97652244567871 5.301093578338623 6.7597222328186035 0.9590966701507568 0 3
29.975175857543945 5.023788928985596 6.7489824295043945 0.9606226086616516 0 3
29.973867416381836 4.747392654418945 6.7388200759887695 0.962070882320404 0 3
31.516483306884766 4.702128887176514 7.0758562088012695 0.14840278029441833 0 3
33.514530181884766 4.693115234375 7.514689922332764 0.13973644375801086 0 3
33.54765701293945 4.391083717346191 7.5129828453063965 0.11705055832862854 0 3
37.30746078491211 -9.045390129089355 8.524374008178711 0.6205292344093323 0 9
37.49720764160156 -9.448534965515137 8.586752891540527 0.6160211563110352 0 9
37.3976936340332 -9.781240463256836 8.583724021911621 0.7273219227790833 0 9
36.22609329223633 -9.823065757751465 8.33472728729248 0.5588821768760681 0 9
36.29761505126953 -10.193085670471191 8.371888160705566 0.27958542108535767 0 9
37.02980422973633 -10.758183479309082 8.562682151794434 0.6209458112716675 0 9
36.01673889160156 -10.815420150756836 8.350550651550293 0.30010950565338135 0 9
36.51576232910156 -11.323534965515137 8.489461898803711 0.2951987385749817 0 9
36.63554763793945 -11.722177505493164 8.541426658630371 0.40699294209480286 0 9
35.98046875 -11.86961841583252 8.413207054138184 0.4131951332092285 0 9
35.87660217285156 -12.19350528717041 8.414168357849121 0.4648510813713074 0 9
36.29730224609375 -12.701034545898438 8.539220809936523 0.7583089470863342 0 9
36.06585693359375 -12.984599113464355 8.511866569519043 0.7607461810112 0 9
42.71331787109375 -20.334062576293945 10.504671096801758 0.5974525213241577 0 9
42.39992141723633 -20.653711318969727 10.472771644592285 0.5492382049560547 0 9
41.927772521972656 -20.891454696655273 10.402064323425293 0.6065582633018494 0 9
42.01007843017578 -21.405292510986328 10.46971321105957 0.5014970898628235 0 9
41.91968536376953 -21.83536148071289 10.495610237121582 0.7804150581359863 0 9
41.932498931884766 -22.32280158996582 10.548567771911621 0.49541735649108887 0 9
41.30747985839844 -22.468252182006836 10.441655158996582 0.4366491436958313 0 9
41.54894256591797 -23.085205078125 10.554635047912598 0.9304675459861755 0 9
32.367149353027344 30.122596740722656 9.436393737792969 0.7371533513069153 0 9
32.8671875 30.0419921875 9.503173828125 0.7319730520248413 0 9
33.374061584472656 29.95989227294922 9.571587562561035 0.7267423868179321 0 9
33.08613204956055 29.169384002685547 9.413540840148926 0.36529383063316345 0 9
33.93825912475586 29.383485794067383 9.580546379089355 0.7435536980628967 0 9
34.082637786865234 28.977333068847656 9.547499656677246 0.3780454397201538 0 9
34.8291015625 29.077430725097656 9.683093070983887 0.5144632458686829 0 9
29.86960792541504 24.485321044921875 8.242828369140625 0.5162983536720276 0 3
30.071014404296875 24.202411651611328 8.238128662109375 0.7577280402183533 0 3
30.068632125854492 23.75894546508789 8.178727149963379 0.7632317543029785 0 3
30.066328048706055 23.321805953979492 8.120820045471191 0.7686737179756165 0 3
30.064022064208984 22.890771865844727 8.064374923706055 0.7740538716316223 0 3
30.061758041381836 22.465682983398438 8.009346961975098 0.7793717980384827 0 3
30.059452056884766 22.04629898071289 7.955705165863037 0.7846263647079468 0 3
29.976913452148438 21.574588775634766 7.882270812988281 0.7898178696632385 0 3
30.12615203857422 21.274150848388672 7.870998859405518 0.7949454188346863 0 3
30.124061584472656 20.869979858398438 7.8211846351623535 0.8000090718269348 0 3
30.12191390991211 20.47083854675293 7.772613525390625 0.805008053779602 0 3
30.04880714416504 20.029266357421875 7.70704984664917 0.8099420070648193 0 3
30.046796798706055 19.64067268371582 7.660999774932861 0.8148106336593628 0 3
30.04476547241211 19.256698608398438 7.616100311279297 0.8196136951446533 0 3
30.04277229309082 18.877138137817383 7.57234001159668 0.8243504166603088 0 3
30.04081916809082 18.501893997192383 7.529681205749512 0.8290207386016846 0 3
30.03886604309082 18.130828857421875 7.488102912902832 0.833624005317688 0 3
30.03695297241211 17.763797760009766 7.447576522827148 0.8381600379943848 0 3
30.035037994384766 17.400712966918945 7.408079624176025 0.8426284790039062 0 3
30.033203125 17.041444778442383 7.369595050811768 0.8470287322998047 0 3
30.031328201293945 16.685819625854492 7.332095146179199 0.8513609766960144 0 3
30.224863052368164 16.4400577545166 7.343020915985107 0.4711589515209198 0 3
30.876522064208984 16.437118530273438 7.465201377868652 0.4634479880332947 0 3
31.550390243530273 16.434062957763672 7.592139720916748 0.45569908618927 0 3
31.670429229736328 16.136913299560547 7.585885524749756 0.4926661252975464 0 3
32.243690490722656 16.06605339050293 7.688313007354736 0.4861023426055908 0 3
35.15558624267578 17.124794006347656 8.34565544128418 0.04833845794200897 0 3
36.99921798706055 17.613807678222656 8.745482444763184 0.3231053650379181 0 9
36.356563568115234 16.909238815307617 8.557344436645508 0.3302093744277954 0 9
37.40730285644531 16.99125862121582 8.768421173095703 0.5529311895370483 0 9
30.014081954956055 13.309354782104492 7.007099628448486 0.8908484578132629 0 3
30.012420654296875 12.987528800964355 6.979222774505615 0.8944066762924194 0 3
30.010820388793945 12.668251991271973 6.952125072479248 0.8978928923606873 0 3
30.00925636291504 12.35140609741211 6.9257941246032715 0.9013066291809082 0 3
30.007675170898438 12.036913871765137 6.900216102600098 0.9046476483345032 0 3
30.006093978881836 11.724736213684082 6.875377178192139 0.9079157114028931 0 3
30.00452995300293 11.414765357971191 6.851268291473389 0.911110520362854 0 3
30.0030460357666 11.106972694396973 6.827879905700684 0.9142316579818726 0 3
30.001483917236328 10.801210403442383 6.805192947387695 0.9172793030738831 0 3
29.99995994567871 10.497431755065918 6.783205986022949 0.9202525615692139 0 3
29.998476028442383 10.195624351501465 6.761903762817383 0.9231518507003784 0 3
29.997011184692383 9.895692825317383 6.741276264190674 0.9259765148162842 0 3
29.995527267456055 9.597538948059082 6.721312522888184 0.9287265539169312 0 3
29.994062423706055 9.30111312866211 6.70200777053833 0.931401789188385 0 3
29.99265480041504 9.006386756896973 6.683352470397949 0.934001624584198 0 3
29.9912109375 8.713252067565918 6.665338516235352 0.9365262389183044 0 3
29.989784240722656 8.421669960021973 6.647952079772949 0.9389752745628357 0 3
29.9883975982666 8.131610870361328 6.631192684173584 0.9413485527038574 0 3
29.98695182800293 7.842988014221191 6.615048885345459 0.9436458349227905 0 3
29.985546112060547 7.555712699890137 6.599515914916992 0.9458670616149902 0 3
29.98421859741211 7.269755840301514 6.584585189819336 0.9480119347572327 0 3
29.982810974121094 6.985116958618164 6.57024621963501 0.9500802755355835 0 3
29.981464385986328 6.701640605926514 6.556499004364014 0.9520719647407532 0 3
29.9800968170166 6.419335842132568 6.543342113494873 0.9539869427680969 0 3
29.978750228881836 6.13818359375 6.530760765075684 0.9558248519897461 0 3
29.977460861206055 5.858056545257568 6.518751621246338 0.9575856924057007 0 3
29.976093292236328 5.578945159912109 6.50731086730957 0.9592691659927368 0 3
29.97476577758789 5.30078125 6.496434211730957 0.960875391960144 0 3
29.97347640991211 5.023535251617432 6.486111164093018 0.9624039530754089 0 3
29.97216796875 4.747118949890137 6.476351737976074 0.963854968547821 0 3
31.516523361206055 4.7021484375 6.800662040710449 0.1486690193414688 0 3
33.514705657958984 4.693134784698486 7.222451686859131 0.1399865299463272 0 3
35.71308517456055 4.674540996551514 7.686854839324951 0.11015100032091141 0 3
35.31377029418945 4.300234317779541 7.592292308807373 0.21927015483379364 0 3
37.67300796508789 -9.134013175964355 8.273092269897461 0.6156129837036133 0 9
37.22648239135742 -9.38028335571289 8.193196296691895 0.7336690425872803 0 9
37.17937469482422 -9.724169731140137 8.201714515686035 0.7329066395759583 0 9
36.20378875732422 -9.817030906677246 8.005614280700684 0.2815096378326416 0 9
36.84480285644531 -10.3467378616333 8.167571067810059 0.7635983228683472 0 9
35.90886688232422 -10.432558059692383 7.980538845062256 0.1501365453004837 0 9
36.37314224243164 -10.922430992126465 8.105178833007812 0.36724838614463806 0 9
35.81005859375 -11.104716300964355 8.001599311828613 0.301556795835495 0 9
36.28034973144531 -11.608515739440918 8.129634857177734 0.411715567111969 0 9
35.636837005615234 -11.756269454956055 8.008760452270508 0.4179288446903229 0 9
36.04523468017578 -12.25082015991211 8.124919891357422 0.4635075628757477 0 9
35.35214614868164 -12.370322227478027 7.993402481079102 0.47113388776779175 0 9
36.970821380615234 -13.310409545898438 8.386082649230957 0.9695237278938293 0 9
36.77279281616211 -13.613173484802246 8.368535041809082 0.9715566635131836 0 9
43.755897521972656 -20.350664138793945 10.298946380615234 0.652957558631897 0 9
42.46704864501953 -20.216815948486328 10.037893295288086 0.7615163922309875 0 9
42.002655029296875 -20.46025276184082 9.971151351928711 0.6092532873153687 0 9
41.98027420043945 -20.917577743530273 10.009992599487305 0.5900487899780273 0 9
42.25406265258789 -21.52960968017578 10.120955467224121 0.224065363407135 0 9
41.79550552368164 -21.770692825317383 10.057516098022461 0.21168504655361176 0 9
41.66146469116211 -22.17853546142578 10.072762489318848 0.4358178377151489 0 9
40.91284942626953 -22.253543853759766 9.93964958190918 0.4416537284851074 0 9
41.508750915527344 -23.06291961669922 10.13431453704834 0.9330410957336426 0 9
41.22984313964844 -23.39468765258789 10.117087364196777 0.9346309304237366 0 9
32.545799255371094 30.288837432861328 9.105850219726562 0.734372079372406 0 9
33.04988098144531 30.208974838256836 9.17065143585205 0.7291837334632874 0 9
33.076698303222656 29.692968368530273 9.103754997253418 0.6482824683189392 0 9
33.533321380615234 29.563642501831055 9.156027793884277 0.36104536056518555 0 9
33.48173904418945 28.988203048706055 9.070537567138672 0.3825368285179138 0 9
34.413787841796875 29.258886337280273 9.251514434814453 0.375053733587265 0 9
29.84974479675293 24.920360565185547 7.964098930358887 0.5137038230895996 0 3
30.071229934692383 24.650585174560547 7.963828086853027 0.7535161972045898 0 3
30.06882667541504 24.200653076171875 7.905340194702148 0.7590906023979187 0 3
30.066484451293945 23.757226943969727 7.8483452796936035 0.7646040320396423 0 3
30.06414031982422 23.320106506347656 7.7927775382995605 0.7700556516647339 0 3
30.06185531616211 22.889169692993164 7.73862361907959 0.7754448056221008 0 3
30.059627532958984 22.46409034729004 7.685818195343018 0.780771791934967 0 3
30.057401657104492 22.044755935668945 7.634355068206787 0.7860355973243713 0 3
29.974803924560547 21.573055267333984 7.5639214515686035 0.7912359237670898 0 3
29.972675323486328 21.165771484375 7.5151047706604 0.7963724732398987 0 3
30.05093765258789 20.819355010986328 7.48756742477417 0.8014447093009949 0 3
30.048828125 20.421180725097656 7.44107723236084 0.806452214717865 0 3
30.046775817871094 20.027910232543945 7.395750045776367 0.8113948702812195 0 3
30.04476547241211 19.63933563232422 7.351565361022949 0.8162720203399658 0 3
30.042734146118164 19.255380630493164 7.308491230010986 0.821083128452301 0 3
30.040781021118164 18.875858306884766 7.266491413116455 0.8258281350135803 0 3
30.038827896118164 18.50064468383789 7.225560665130615 0.8305063843727112 0 3
30.036893844604492 18.129629135131836 7.185665130615234 0.8351176381111145 0 3
30.03499984741211 17.762645721435547 7.146777629852295 0.8396614789962769 0 3
30.033084869384766 17.39957046508789 7.108882427215576 0.8441375494003296 0 3
30.03125 17.040311813354492 7.0719523429870605 0.8485459089279175 0 3
30.02945327758789 16.68474578857422 7.035965919494629 0.8528854846954346 0 3
30.224822998046875 16.440038681030273 7.046910285949707 0.47197192907333374 0 3
30.87662124633789 16.437158584594727 7.1641669273376465 0.46424710750579834 0 3
31.5504093170166 16.434072494506836 7.285989761352539 0.45648476481437683 0 3
32.24757766723633 16.430967330932617 7.4126296043396 0.4486860930919647 0 3
32.9694709777832 16.427703857421875 7.544369220733643 0.4408510625362396 0 3
33.14675521850586 16.146240234375 7.551456928253174 0.4757733941078186 0 3
33.76101303100586 16.07215690612793 7.658239364624023 0.46914055943489075 0 3
36.46025466918945 16.957422256469727 8.235662460327148 0.047089844942092896 0 3
36.91355514526367 16.76698112487793 8.303751945495605 0.47444087266921997 0 9
30.01218605041504 13.308515548706055 6.724117279052734 0.8924407958984375 0 3
30.01058578491211 12.98672866821289 6.697368621826172 0.8960054516792297 0 3
30.008983612060547 12.667460441589355 6.671367168426514 0.8994976282119751 0 3
30.007381439208984 12.350625038146973 6.6461005210876465 0.9029172658920288 0 3
30.005859375 12.036211013793945 6.621554374694824 0.9062638878822327 0 3
30.004295349121094 11.72403335571289 6.597721576690674 0.9095376133918762 0 3
30.00273323059082 11.414101600646973 6.574590682983398 0.9127379655838013 0 3
30.001211166381836 11.106279373168945 6.552144527435303 0.9158644080162048 0 3
29.999706268310547 10.800556182861328 6.530375003814697 0.9189173579216003 0 3
29.99820327758789 10.496806144714355 6.509279727935791 0.9218959212303162 0 3
29.9966983795166 10.195009231567383 6.488838195800781 0.924799919128418 0 3
29.995214462280273 9.895087242126465 6.46904182434082 0.9276295900344849 0 3
29.993749618530273 9.596962928771973 6.449892044067383 0.9303843975067139 0 3
29.9923038482666 9.300556182861328 6.431366920471191 0.9330644011497498 0 3
29.99085807800293 9.005839347839355 6.413462162017822 0.9356685876846313 0 3
29.989452362060547 8.71273422241211 6.396179676055908 0.9381975531578064 0 3
29.988006591796875 8.421172142028809 6.379497051239014 0.9406508207321167 0 3
29.98663902282715 8.131122589111328 6.363410949707031 0.9430282115936279 0 3
29.985233306884766 7.842509746551514 6.347914218902588 0.945329487323761 0 3
29.983827590942383 7.555283069610596 6.333014011383057 0.947554349899292 0 3
29.982440948486328 7.269355297088623 6.318688869476318 0.9497030377388 0 3
29.98109245300293 6.984706878662109 6.304930686950684 0.9517750144004822 0 3
29.979705810546875 6.701250076293945 6.291744232177734 0.953770101070404 0 3
29.978397369384766 6.419023513793945 6.279111385345459 0.9556883573532104 0 3
29.97702980041504 6.137822151184082 6.267042636871338 0.9575294852256775 0 3
29.97572135925293 5.857734203338623 6.255517482757568 0.9592933058738708 0 3
29.974393844604492 5.578632831573486 6.244542598724365 0.9609797596931458 0 3
29.973066329956055 5.300458908081055 6.234104633331299 0.9625886678695679 0 3
29.971717834472656 5.023212909698486 6.224203586578369 0.9641198515892029 0 3
29.970428466796875 4.746845722198486 6.214831352233887 0.9655734300613403 0 3
31.51656150817871 4.702167987823486 6.526434898376465 0.14892536401748657 0 3
33.514766693115234 4.69314432144165 6.93121862411499 0.14022807776927948 0 3
35.777462005615234 4.682988166809082 7.390170097351074 0.1315191686153412 0 3
36.54312515258789 4.449951171875 7.539778232574463 0.10795718431472778 0 3
38.36468505859375 -9.301698684692383 8.085245132446289 0.6935449838638306 0 9
37.011444091796875 -9.326112747192383 7.817379474639893 0.739205002784729 0 9
36.10724639892578 -9.44374942779541 7.643989562988281 0.2834264039993286 0 9
36.64222717285156 -9.935917854309082 7.775822162628174 0.7710531949996948 0 9
36.69207000732422 -10.303876876831055 7.805722713470459 0.7681000232696533 0 9
37.27859115600586 -10.830488204956055 7.950847148895264 0.8973219990730286 0 9
36.07472610473633 -10.832812309265137 7.714519023895264 0.3709252178668976 0 9
36.68699264526367 -11.376649856567383 7.866964340209961 0.3637371063232422 0 9
35.93324279785156 -11.49747085571289 7.727159023284912 0.41640931367874146 0 9
36.6013069152832 -12.074433326721191 7.893801212310791 0.6675906777381897 0 9
36.21484375 -12.308466911315918 7.833970546722412 0.4621329605579376 0 9
35.51578140258789 -12.427568435668945 7.706572532653809 0.4697725176811218 0 9
36.50734329223633 -13.143534660339355 7.94700288772583 0.8109109401702881 0 9
36.85816192626953 -13.644745826721191 8.049715042114258 0.970978856086731 0 9
36.660118103027344 -13.946855545043945 8.033479690551758 0.9729415774345398 0 9
24.915390014648438 -10.254873275756836 5.518317699432373 0.37008023262023926 0 3
24.32728385925293 -10.269121170043945 5.4082560539245605 0.9029194712638855 0 3
24.326269149780273 -10.52694320678711 5.42881965637207 0.8994998931884766 0 3
24.325273513793945 -10.786727905273438 5.4499735832214355 0.8960075974464417 0 3
24.32421875 -11.048632621765137 5.471743106842041 0.8924431204795837 0 3
24.323163986206055 -11.312578201293945 5.494133949279785 0.8888065814971924 0 3
24.32210922241211 -11.578788757324219 5.517149448394775 0.8850982785224915 0 3
24.32109260559082 -11.847196578979492 5.5408124923706055 0.8813187479972839 0 3
24.320018768310547 -12.117968559265137 5.565125465393066 0.8774681091308594 0 3
41.71207046508789 -21.253408432006836 9.588224411010742 0.21345947682857513 0 9
41.74183654785156 -21.74274444580078 9.639548301696777 0.511924684047699 0 9
41.908241271972656 -22.309921264648438 9.723838806152344 0.4129014015197754 0 9
41.29345703125 -22.4605655670166 9.627564430236816 0.41702985763549805 0 9
40.68925857543945 -22.60759735107422 9.533636093139648 0.4211388826370239 0 9
41.12167739868164 -23.3333683013916 9.683636665344238 0.7285328507423401 0 9
26.03644561767578 -22.95423698425293 7.1090617179870605 0.1688137650489807 0 3
25.574901580810547 -22.958642959594727 7.039039134979248 0.7607110738754272 0 3
32.72589874267578 30.456424713134766 8.772764205932617 0.7315418720245361 0 9
32.66779327392578 29.85970687866211 8.685009956359863 0.652158260345459 0 9
33.2512092590332 29.849628448486328 8.768529891967773 0.6459471583366394 0 9
32.99179458618164 29.086210250854492 8.630926132202148 0.4935424327850342 0 9
33.802696228027344 29.266103744506836 8.77397346496582 0.3795319199562073 0 9
29.82748031616211 25.359521865844727 7.682761192321777 0.5110588073730469 0 3
30.07146453857422 25.105438232421875 7.687247276306152 0.7491734027862549 0 3
30.069061279296875 24.648788452148438 7.629757404327393 0.7548180222511292 0 3
30.066679000854492 24.19890594482422 7.573730945587158 0.7604019045829773 0 3
30.06429672241211 23.755517959594727 7.519124507904053 0.7659242153167725 0 3
30.062030792236328 23.3184757232666 7.465899467468262 0.7713847756385803 0 3
30.059764862060547 22.88751983642578 7.414015293121338 0.7767829298973083 0 3
30.057498931884766 22.462509155273438 7.363442420959473 0.7821186184883118 0 3
30.055273056030273 22.043203353881836 7.314126491546631 0.787391185760498 0 3
30.053123474121094 21.629451751708984 7.266055583953857 0.792600154876709 0 3
30.050975799560547 21.22108268737793 7.219198226928711 0.797745406627655 0 3
30.048885345458984 20.81793975830078 7.173518657684326 0.8028257489204407 0 3
30.046815872192383 20.419803619384766 7.12897253036499 0.8078417778015137 0 3
30.04476547241211 20.026552200317383 7.085546493530273 0.8127924203872681 0 3
30.042734146118164 19.638017654418945 7.043215274810791 0.8176776170730591 0 3
30.040740966796875 19.254100799560547 7.001954078674316 0.8224965929985046 0 3
30.03874969482422 18.874608993530273 6.961723327636719 0.8272495865821838 0 3
30.036834716796875 18.49947166442871 6.922510623931885 0.831935465335846 0 3
30.034921646118164 18.128456115722656 6.884285926818848 0.8365544676780701 0 3
30.03304672241211 17.761484146118164 6.847033977508545 0.8411059379577637 0 3
30.031171798706055 17.398456573486328 6.810729026794434 0.8455893993377686 0 3
30.029315948486328 17.03919792175293 6.775349140167236 0.8500049114227295 0 3
30.02747917175293 16.683671951293945 6.740879535675049 0.8543516397476196 0 3
30.22492027282715 16.44009780883789 6.751803874969482 0.47275251150131226 0 3
30.87662124633789 16.4371280670166 6.864151954650879 0.46501481533050537 0 3
31.55046844482422 16.434091567993164 6.980870246887207 0.45723962783813477 0 3
32.247615814208984 16.43095588684082 7.102208137512207 0.4494282007217407 0 3
32.96953201293945 16.427734375 7.228429794311523 0.441580206155777 0 3
33.71761703491211 16.424394607543945 7.35982608795166 0.43369659781455994 0 3
34.49343490600586 16.420848846435547 7.4967041015625 0.42577818036079407 0 3
34.73398208618164 16.154541015625 7.51715087890625 0.4586869180202484 0 3
35.39480209350586 16.077030181884766 7.628619194030762 0.4519844651222229 0 3
30.0103702545166 13.307734489440918 6.442126750946045 0.8939724564552307 0 3
30.0087890625 12.985946655273438 6.416497230529785 0.8975430130958557 0 3
30.007186889648438 12.666708946228027 6.3915886878967285 0.9010410308837891 0 3
30.005624771118164 12.349882125854492 6.367384433746338 0.9044663906097412 0 3
30.0040225982666 12.035468101501465 6.3438720703125 0.9078185558319092 0 3
30.002460479736328 11.723310470581055 6.321038722991943 0.9110976457595825 0 3
30.00093650817871 11.413408279418945 6.298876762390137 0.9143032431602478 0 3
29.999412536621094 11.105605125427246 6.277377605438232 0.9174350500106812 0 3
29.99789047241211 10.799931526184082 6.256523132324219 0.9204930067062378 0 3
29.996444702148438 10.496211051940918 6.236306667327881 0.9234764575958252 0 3
29.99492073059082 10.194414138793945 6.216723442077637 0.9263854026794434 0 3
29.993436813354492 9.894501686096191 6.197764873504639 0.9292196035385132 0 3
29.99199104309082 9.596396446228027 6.179415702819824 0.9319790005683899 0 3
29.99054527282715 9.300028800964355 6.161664962768555 0.9346631765365601 0 3
29.98908042907715 9.005331993103027 6.1445183753967285 0.9372718334197998 0 3
29.987693786621094 8.7122163772583 6.127954959869385 0.9398051500320435 0 3
29.98628807067871 8.420702934265137 6.111973762512207 0.9422623515129089 0 3
29.984882354736328 8.130654335021973 6.096562385559082 0.9446436166763306 0 3
29.983476638793945 7.842050552368164 6.081724643707275 0.946948766708374 0 3
29.982147216796875 7.554843425750732 6.067447185516357 0.9491772651672363 0 3
29.980741500854492 7.268925666809082 6.053721904754639 0.9513295292854309 0 3
29.979354858398438 6.984286785125732 6.04054069519043 0.95340496301651 0 3
29.97800636291504 6.700849533081055 6.027903079986572 0.9554034471511841 0 3
29.976659774780273 6.418642520904541 6.015811443328857 0.957324743270874 0 3
29.97527313232422 6.137451171875 6.004243850708008 0.9591689109802246 0 3
29.974002838134766 5.857382774353027 5.993201732635498 0.9609357118606567 0 3
29.972675323486328 5.578290939331055 5.982688903808594 0.9626249670982361 0 3
29.97132682800293 5.300195217132568 5.972689151763916 0.9642363786697388 0 3
29.970077514648438 5.022958755493164 5.963198661804199 0.9657702445983887 0 3
29.96875 4.746591567993164 5.954226970672607 0.9672261476516724 0 3
31.516796112060547 4.702167987823486 6.2531585693359375 0.14917080104351044 0 3
33.51498031616211 4.693183422088623 6.640978813171387 0.14045947790145874 0 3
35.77765655517578 4.683017253875732 7.080717086791992 0.13173618912696838 0 3
38.20933532714844 4.305195331573486 7.545456409454346 0.20355302095413208 0 3
26.11554718017578 1.055419921875 5.128976821899414 0.9790181517601013 0 3
26.114492416381836 0.8206640481948853 5.127114772796631 0.9793738722801208 0 3
26.11341667175293 0.5860742330551147 5.125666618347168 0.9796504974365234 0 3
26.112361907958984 0.3516015410423279 5.124632835388184 0.9798481464385986 0 3
26.11130714416504 0.11719726026058197 5.1240105628967285 0.9799667596817017 0 3
26.110273361206055 -0.11720702797174454 5.123803615570068 0.9800062775611877 0 3
26.10917854309082 -0.35155272483825684 5.1240129470825195 0.9799667596817017 0 3
26.108182907104492 -0.5859667658805847 5.124632358551025 0.9798482060432434 0 3
26.10710906982422 -0.8204687237739563 5.125661373138428 0.9796504974365234 0 3
26.106054306030273 -1.0550683736801147 5.127116680145264 0.9793738722801208 0 3
26.104999542236328 -1.2898046970367432 5.128978252410889 0.9790182113647461 0 3
26.104022979736328 -1.5247362852096558 5.131255149841309 0.9785836338996887 0 3
26.102968215942383 -1.7599217891693115 5.133948802947998 0.978070080280304 0 3
26.101913452148438 -1.9953711032867432 5.13706111907959 0.977477490901947 0 3
26.10089874267578 -2.231093645095825 5.140592575073242 0.9768061637878418 0 3
26.099843978881836 -2.467177629470825 5.144542217254639 0.9760560989379883 0 3
26.098827362060547 -2.7036426067352295 5.148916721343994 0.9752271175384521 0 3
26.0977725982666 -2.9405272006988525 5.153706073760986 0.9743196964263916 0 3
26.096757888793945 -3.1779003143310547 5.158928871154785 0.973333477973938 0 3
26.095741271972656 -3.415703058242798 5.16457986831665 0.9722688794136047 0 3
26.09468650817871 -3.65411114692688 5.170660972595215 0.9711256623268127 0 3
26.093671798706055 -3.8931150436401367 5.1771745681762695 0.9699041843414307 0 3
26.092655181884766 -4.132695198059082 5.184119701385498 0.9686045050621033 0 3
26.09160041809082 -4.372939586639404 5.191505432128906 0.9672267436981201 0 3
26.090585708618164 -4.613886833190918 5.1993303298950195 0.9657708406448364 0 3
26.089550018310547 -4.855605125427246 5.207602500915527 0.9642369747161865 0 3
26.08853530883789 -5.098105430603027 5.216317176818848 0.9626255035400391 0 3
26.087459564208984 -5.341444969177246 5.225490570068359 0.9609362483024597 0 3
26.086444854736328 -5.585654258728027 5.235115051269531 0.9591696858406067 0 3
26.08544921875 -5.830800533294678 5.245196342468262 0.9573255181312561 0 3
36.79961013793945 -9.272753715515137 7.4471282958984375 0.7446908950805664 0 9
36.75261688232422 -9.612587928771973 7.454789638519287 0.7439257502555847 0 9
37.10041046142578 -10.060155868530273 7.543346405029297 0.8220843076705933 0 9
37.16539001464844 -10.436777114868164 7.575292110443115 0.8186168670654297 0 9
37.23109436035156 -10.816699028015137 7.6081695556640625 0.8150792717933655 0 9
36.350135803222656 -10.91552734375 7.447875022888184 0.31993240118026733 0 9
36.38361358642578 -11.282588005065918 7.475181579589844 0.36737698316574097 0 9
36.36179733276367 -11.634589195251465 7.491860389709473 0.4671363830566406 0 9
35.81494140625 -11.815009117126465 7.400731086730957 0.20804455876350403 0 9
36.572303771972656 -12.42992115020752 7.579975605010986 0.6981686353683472 0 9
35.680389404296875 -12.485204696655273 7.418054103851318 0.46837905049324036 0 9
35.935428619384766 -12.937626838684082 7.494915008544922 0.3193359375 0 9
36.17523193359375 -13.391952514648438 7.569698810577393 0.3161810040473938 0 9
26.259374618530273 -10.260751724243164 5.532429218292236 0.35426193475723267 0 3
25.57402229309082 -10.258496284484863 5.4072184562683105 0.362465500831604 0 3
25.271503448486328 -10.401415824890137 5.3627753257751465 0.19547750055789948 0 3
24.734277725219727 -10.440908432006836 5.268449783325195 0.37753984332084656 0 3
24.499725341796875 -10.602002143859863 5.238554954528809 0.9010430574417114 0 3
24.49867057800293 -10.863642692565918 5.25897216796875 0.8975452780723572 0 3
24.497636795043945 -11.127363204956055 5.279973030090332 0.8939748406410217 0 3
24.49658203125 -11.393241882324219 5.301577091217041 0.8903322219848633 0 3
24.495527267456055 -11.661317825317383 5.323789119720459 0.8866178393363953 0 3
24.49445343017578 -11.93163013458252 5.346614360809326 0.8828319907188416 0 3
24.482812881469727 -12.199091911315918 5.367761135101318 0.19834713637828827 0 3
24.371992111206055 -12.418183326721191 5.3676934242248535 0.19165804982185364 0 3
24.316347122192383 -12.666025161743164 5.380252361297607 0.8710483908653259 0 3
24.31527328491211 -12.94424819946289 5.4054999351501465 0.8669798374176025 0 3
24.31414031982422 -13.22509765625 5.431433200836182 0.8628410696983337 0 3
24.313085556030273 -13.50869083404541 5.458051681518555 0.8586322665214539 0 3
24.311952590942383 -13.795097351074219 5.485382556915283 0.8543546795845032 0 3
24.310819625854492 -14.084452629089355 5.513437271118164 0.8500074744224548 0 3
24.30970573425293 -14.376757621765137 5.542220115661621 0.8455924391746521 0 3
24.30859375 -14.6721773147583 5.571761131286621 0.8411087989807129 0 3
28.0595703125 -23.001590728759766 7.119874000549316 0.1617656648159027 0 3
27.236835479736328 -22.73894500732422 6.962624549865723 0.16541923582553864 0 3
26.451522827148438 -22.48934555053711 6.81321907043457 0.16904667019844055 0 3
25.701229095458984 -22.25193214416504 6.671136379241943 0.17264698445796967 0 3
25.91195297241211 -22.844472885131836 6.778768539428711 0.737705409526825 0 3
25.910429000854492 -23.259794235229492 6.832723617553711 0.7318804264068604 0 3
25.735624313354492 -23.523456573486328 6.842036724090576 0.5217157006263733 0 3
33.19988250732422 31.45840835571289 8.584145545959473 0.8500756621360779 0 9
33.03599548339844 30.74504852294922 8.470072746276855 0.42246681451797485 0 9
32.8388671875 30.01609230041504 8.350117683410645 0.649789035320282 0 9
32.132049560546875 28.84494972229004 8.104232788085938 0.5035141706466675 0 9
32.84003829956055 28.95244026184082 8.21691608428955 0.49660900235176086 0 9
33.56827926635742 29.063154220581055 8.333524703979492 0.4896599352359772 0 9
33.39564514160156 28.393251419067383 8.227067947387695 0.4155086874961853 0 9
30.06929588317871 25.103622436523438 7.351794242858887 0.7504147887229919 0 3
30.06689453125 24.646982192993164 7.296817302703857 0.7560686469078064 0 3
30.064510345458984 24.19715690612793 7.243237018585205 0.7616612315177917 0 3
30.06216812133789 23.753828048706055 7.19102144241333 0.7671923637390137 0 3
30.05986213684082 23.316816329956055 7.140116214752197 0.7726616859436035 0 3
30.0576171875 22.88589859008789 7.090500354766846 0.7780684232711792 0 3
30.055389404296875 22.4609375 7.042138576507568 0.783412516117096 0 3
30.05320167541504 22.041669845581055 6.994985103607178 0.788693368434906 0 3
30.051054000854492 21.627967834472656 6.949010848999023 0.7939104437828064 0 3
30.048906326293945 21.219589233398438 6.904196739196777 0.799064040184021 0 3
30.046796798706055 20.816484451293945 6.860508918762207 0.8041524291038513 0 3
30.04476547241211 20.41838836669922 6.81791353225708 0.8091763257980347 0 3
30.042734146118164 20.025224685668945 6.776393413543701 0.8141348958015442 0 3
30.04070281982422 19.636709213256836 6.735909938812256 0.8190277218818665 0 3
30.03870964050293 19.252832412719727 6.696451187133789 0.8238543272018433 0 3
30.03679656982422 18.873369216918945 6.6579742431640625 0.8286147713661194 0 3
30.03484344482422 18.49822235107422 6.6204752922058105 0.833308219909668 0 3
30.032968521118164 18.12724494934082 6.583920001983643 0.8379346132278442 0 3
30.03105354309082 17.760313034057617 6.548295021057129 0.8424932360649109 0 3
30.029178619384766 17.397323608398438 6.51357889175415 0.8469838500022888 0 3
30.027362823486328 17.03813362121582 6.479745864868164 0.8514061570167542 0 3
30.02554702758789 16.682626724243164 6.446779727935791 0.8557597994804382 0 3
30.224960327148438 16.440135955810547 6.457648754119873 0.47350090742111206 0 3
30.876678466796875 16.43718719482422 6.565103530883789 0.46575090289115906 0 3
31.55042839050293 16.434101104736328 6.676738739013672 0.4579637348651886 0 3
32.24765396118164 16.430986404418945 6.792784690856934 0.45013943314552307 0 3
32.96953201293945 16.427743911743164 6.91350793838501 0.4422794282436371 0 3
33.717655181884766 16.42438507080078 7.039186477661133 0.43438291549682617 0 3
34.49347686767578 16.420888900756836 7.170092582702637 0.4264519512653351 0 3
35.298866271972656 16.417295455932617 7.306575298309326 0.4184863567352295 0 3
36.1081428527832 16.401132583618164 7.443356037139893 0.43625736236572266 0 9
30.008554458618164 13.306884765625 6.161077976226807 0.8954437375068665 0 3
30.006914138793945 12.985156059265137 6.136570453643799 0.899019718170166 0 3
30.005311965942383 12.665946960449219 6.112749099731445 0.9025231003761292 0 3
30.00374984741211 12.34912109375 6.089600563049316 0.9059540033340454 0 3
30.002225875854492 12.03475570678711 6.067116737365723 0.9093114137649536 0 3
30.00066375732422 11.722626686096191 6.0452799797058105 0.9125956892967224 0 3
29.99915885925293 11.412724494934082 6.024085521697998 0.9158064723014832 0 3
29.997596740722656 11.104941368103027 6.003520965576172 0.9189432263374329 0 3
29.99609375 10.799267768859863 5.983580112457275 0.9220058917999268 0 3
29.99462890625 10.495575904846191 5.964252948760986 0.9249942302703857 0 3
29.993202209472656 10.193818092346191 5.9455246925354 0.9279077053070068 0 3
29.99167823791504 9.893896102905273 5.92739200592041 0.9307464957237244 0 3
29.990253448486328 9.595820426940918 5.909844398498535 0.9335101842880249 0 3
29.98876953125 9.29946231842041 5.892872333526611 0.9361985921859741 0 3
29.987342834472656 9.004804611206055 5.876471042633057 0.9388115406036377 0 3
29.985937118530273 8.7117280960083 5.860631465911865 0.941348671913147 0 3
29.98453140258789 8.420205116271973 5.845355033874512 0.9438098073005676 0 3
29.983123779296875 8.130175590515137 5.830612659454346 0.9461949467658997 0 3
29.98177719116211 7.841630458831787 5.816426753997803 0.9485034942626953 0 3
29.980390548706055 7.554413795471191 5.80276346206665 0.950735867023468 0 3
29.898788452148438 7.249082088470459 5.774147033691406 0.9528915286064148 0 3
29.89743995666504 6.965195178985596 5.7615861892700195 0.9549700021743774 0 3
29.89613151550293 6.682548522949219 5.749532222747803 0.9569717645645142 0 3
29.894725799560547 6.401073932647705 5.737997531890869 0.9588960409164429 0 3
29.893436431884766 6.120703220367432 5.726962089538574 0.9607431888580322 0 3
29.97230339050293 5.85705041885376 5.731766700744629 0.9625128507614136 0 3
29.970975875854492 5.577988147735596 5.72170877456665 0.9642046093940735 0 3
29.969648361206055 5.299853324890137 5.712152004241943 0.9658188223838806 0 3
29.968358993530273 5.022636413574219 5.703073978424072 0.9673551321029663 0 3
29.967031478881836 4.746279239654541 5.694493770599365 0.9688132405281067 0 3
31.516836166381836 4.702167987823486 5.980737686157227 0.14940674602985382 0 3
33.515037536621094 4.693193435668945 6.351662635803223 0.14068154990673065 0 3
35.77777099609375 4.683007717132568 6.772249698638916 0.13194437325000763 0 3
26.92804718017578 1.0882714986801147 5.058130264282227 0.1908697783946991 0 3
26.936307907104492 0.8464745879173279 5.058053970336914 0.19087257981300354 0 3
26.9424991607666 0.604687511920929 5.057991027832031 0.1908750832080841 0 3
26.946561813354492 0.36279296875 5.0579423904418945 0.1908770054578781 0 3
26.948593139648438 0.12093749642372131 5.057906150817871 0.190878227353096 0 3
26.948455810546875 -0.12095703184604645 5.057884216308594 0.1908790022134781 0 3
26.946210861206055 -0.3628222644329071 5.057877063751221 0.1908794641494751 0 3
26.941913604736328 -0.604687511920929 5.057881832122803 0.190879225730896 0 3
26.935487747192383 -0.8464648127555847 5.057901382446289 0.19087842106819153 0 3
26.927011489868164 -1.088232398033142 5.057934284210205 0.19087718427181244 0 3
26.91634750366211 -1.3298925161361694 5.057981491088867 0.19087563455104828 0 3
26.903709411621094 -1.5714550018310547 5.058042049407959 0.1908731311559677 0 3
26.888866424560547 -1.8129003047943115 5.0581159591674805 0.190870463848114 0 3
26.87203025817871 -2.054208993911743 5.05820369720459 0.19086697697639465 0 3
26.853046417236328 -2.295361280441284 5.058304786682129 0.190863236784935 0 3
26.83199119567871 -2.5363574028015137 5.058420181274414 0.19085881114006042 0 3
26.808788299560547 -2.7771971225738525 5.058548927307129 0.1908539980649948 0 3
26.78351593017578 -3.017812490463257 5.058691501617432 0.19084864854812622 0 3
26.75619125366211 -3.2581639289855957 5.0588483810424805 0.19084283709526062 0 3
26.726776123046875 -3.4983203411102295 5.059017181396484 0.19083638489246368 0 3
26.69527244567871 -3.7381932735443115 5.059200763702393 0.19082944095134735 0 3
26.661678314208984 -3.9778220653533936 5.0593976974487305 0.19082188606262207 0 3
26.626014709472656 -4.217187404632568 5.059607982635498 0.19081392884254456 0 3
26.588279724121094 -4.456201076507568 5.059832572937012 0.19080550968647003 0 3
26.54847526550293 -4.694863319396973 5.060070514678955 0.19079652428627014 0 3
26.506542205810547 -4.933222770690918 5.060322284698486 0.1907871812582016 0 3
26.46257781982422 -5.171230316162109 5.060586929321289 0.19077715277671814 0 3
26.416561126708984 -5.408827781677246 5.0608649253845215 0.19076664745807648 0 3
26.36849594116211 -5.64602518081665 5.0611572265625 0.19075554609298706 0 3
26.318300247192383 -5.882871150970459 5.06146240234375 0.19074411690235138 0 3
26.26611328125 -6.11925745010376 5.061781406402588 0.19073212146759033 0 3
26.211854934692383 -6.355146408081055 5.062114238739014 0.1907195895910263 0 3
26.155527114868164 -6.590624809265137 5.062459468841553 0.1907065510749817 0 3
