ply
format ascii 1.0
element vertex 595
property float32 x
property float32 y
property float32 z
property float32 CosAngle
property uint32 ObjIdx
property uint32 ObjTag
end_header
25.21263313293457 -2.38330078125 -1.7778921127319336 0.12222395092248917 0 2
25.071369171142578 -2.5971875190734863 -1.7695019245147705 0.06732303649187088 0 2
25.046037673950195 -2.822011709213257 -1.7694320678710938 0.06732574850320816 0 2
25.018634796142578 -3.046581983566284 -1.7693564891815186 0.06732860952615738 0 2
24.989131927490234 -3.270878791809082 -1.769275188446045 0.0673316940665245 0 2
24.95752716064453 -3.494882822036743 -1.7691881656646729 0.06733503937721252 0 2
24.923845291137695 -3.7185544967651367 -1.7690954208374023 0.06733858585357666 0 2
24.888092041015625 -3.9418749809265137 -1.7689969539642334 0.06734229624271393 0 2
24.850215911865234 -4.164882659912109 -1.768892765045166 0.06734633445739746 0 2
24.81034278869629 -4.387499809265137 -1.7687832117080688 0.06735038012266159 0 2
24.768341064453125 -4.609706878662109 -1.7686678171157837 0.06735479086637497 0 2
24.72426414489746 -4.831503868103027 -1.7685467004776 0.06735941022634506 0 2
24.678117752075195 -5.052870750427246 -1.7684201002120972 0.06736429035663605 0 2
24.62994384765625 -5.273788928985596 -1.7682877779006958 0.06736928969621658 0 2
24.57969856262207 -5.494218826293945 -1.768149971961975 0.06737452000379562 0 2
24.52740478515625 -5.714159965515137 -1.768006443977356 0.06737999618053436 0 2
24.473052978515625 -5.933613300323486 -1.767857313156128 0.06738569587469101 0 2
24.416656494140625 -6.15246057510376 -1.767702579498291 0.06739165633916855 0 2
24.458913803100586 -6.397128582000732 -1.7748442888259888 0.06739761680364609 0 2
23.37139320373535 -6.337363243103027 -1.6999894380569458 0.26895615458488464 0 20
23.21874237060547 -6.520253658294678 -1.6930757761001587 0.9583381414413452 0 20
23.220582962036133 -6.74621057510376 -1.6975584030151367 0.955808162689209 0 20
23.22243309020996 -6.973398208618164 -1.7021998167037964 0.953201174736023 0 20
23.224294662475586 -7.201816082000732 -1.7070053815841675 0.9505174160003662 0 20
8.789491653442383 -2.8123435974121094 -0.647865891456604 0.4906981289386749 1050 6
8.753935813903809 -2.887812376022339 -0.6471285820007324 0.7504228353500366 1050 6
18.215490341186523 -6.19091796875 -1.3506220579147339 0.9416335821151733 0 3
18.217458724975586 -6.374570369720459 -1.3549559116363525 0.9373599290847778 0 3
16.851818084716797 -6.067030906677246 -1.257381796836853 0.3375711441040039 0 3
16.489635467529297 -6.104374885559082 -1.234399437904358 0.9324053525924683 0 3
16.491247177124023 -6.273847579956055 -1.2386847734451294 0.9291788935661316 0 3
16.49310302734375 -6.444589614868164 -1.2431191205978394 0.9244898557662964 0 3
15.147894859313965 -6.076250076293945 -1.1457905769348145 0.37107187509536743 0 3
14.976611137390137 -6.16417932510376 -1.1369762420654297 0.9201038479804993 0 3
14.977670669555664 -6.322421550750732 -1.1413191556930542 0.9166027903556824 0 3
14.978739738464355 -6.481855392456055 -1.1457865238189697 0.9130282402038574 0 3
14.979860305786133 -6.642617225646973 -1.1503888368606567 0.9092633724212646 0 3
14.980971336364746 -6.804667949676514 -1.1551179885864258 0.905605673789978 0 3
14.982062339782715 -6.968066215515137 -1.1599763631820679 0.901810884475708 0 3
14.983168601989746 -7.132851600646973 -1.1649742126464844 0.8979437947273254 0 3
14.98427963256836 -7.299081802368164 -1.170107364654541 0.894004225730896 0 3
14.985404968261719 -7.466796875 -1.175380825996399 0.8899924755096436 0 3
14.98653793334961 -7.63601541519165 -1.180799961090088 0.8859094977378845 0 3
14.987680435180664 -7.806835651397705 -1.1863619089126587 0.881754994392395 0 3
14.988835334777832 -7.979296684265137 -1.1920753717422485 0.8775292634963989 0 3
13.2096529006958 -7.18505859375 -1.0556604862213135 0.3413413166999817 0 3
13.139653205871582 -7.300585746765137 -1.055267572402954 0.9344019293785095 0 3
12.873400688171387 -7.304609298706055 -1.0391042232513428 0.4993971884250641 0 3
12.408658981323242 -7.188906192779541 -1.0067592859268188 0.6353126168251038 0 3
12.299386978149414 -7.273867130279541 -1.0031486749649048 0.846684455871582 0 3
12.166047096252441 -7.343183517456055 -0.9976113438606262 0.8513856530189514 0 3
12.034162521362305 -7.41173791885376 -0.9922102093696594 0.8560184240341187 0 3
11.86519718170166 -7.455429553985596 -0.9837599992752075 0.9744700789451599 0 3
11.854472160339355 -7.59792947769165 -0.9884845018386841 0.9959189295768738 0 3
11.779951095581055 -7.7001953125 -0.9879941344261169 0.9964131712913513 0 3
11.70549488067627 -7.802382469177246 -0.987583339214325 0.9968270063400269 0 3
11.63110065460205 -7.904491901397705 -0.9872530102729797 0.9971606731414795 0 3
11.556750297546387 -8.006543159484863 -0.9870017766952515 0.9974140524864197 0 3
11.482423782348633 -8.10855484008789 -0.986830472946167 0.9975869655609131 0 3
11.354476928710938 -8.171914100646973 -0.9821021556854248 0.9848452806472778 0 3
11.3704833984375 -8.33935546875 -0.9899187088012695 0.8831448554992676 0 3
9.656821250915527 -7.216699123382568 -0.8463315963745117 0.4719758629798889 0 3
9.576801300048828 -7.29177713394165 -0.8450208306312561 0.8747291564941406 0 3
9.453269004821777 -7.332695007324219 -0.839895486831665 0.6178474426269531 0 3
9.248825073242188 -7.308027267456055 -0.8275250196456909 0.62485271692276 0 3
9.114192008972168 -7.335488319396973 -0.8213367462158203 0.6318069100379944 0 3
8.811335563659668 -7.223007678985596 -0.7998598217964172 0.7507591247558594 0 3
8.74124526977539 -7.297714710235596 -0.7994083166122437 0.9205324649810791 0 3
8.643329620361328 -7.3486328125 -0.7964533567428589 0.9239468574523926 0 3
8.546125411987305 -7.399179458618164 -0.793584406375885 0.927287220954895 0 3
8.44960880279541 -7.44933557510376 -0.7908004522323608 0.93055260181427 0 3
8.315847396850586 -7.465156078338623 -0.784522294998169 0.9966421127319336 0 3
8.245461463928223 -7.536679744720459 -0.7842293977737427 0.9970101118087769 0 3
8.278007507324219 -7.703925609588623 -0.793873131275177 0.9893594980239868 0 3
8.218451499938965 -7.787343502044678 -0.7948321104049683 0.9881643652915955 0 3
6.913127422332764 -6.669277191162109 -0.6743521094322205 0.7124024033546448 0 3
6.930681228637695 -6.807363033294678 -0.6819971203804016 0.5299156904220581 0 3
9.513662338256836 9.513710975646973 -1.0560885667800903 0.9968907833099365 0 4
9.684077262878418 9.511757850646973 -1.0654853582382202 0.6927249431610107 0 4
9.861062049865723 9.513202667236328 -1.0755195617675781 0.6862620711326599 0 4
10.058451652526855 9.5308198928833 -1.0876755714416504 0.534589946269989 0 4
10.232789993286133 9.523163795471191 -1.097238540649414 0.5299234390258789 0 4
10.412829399108887 9.51773452758789 -1.1073399782180786 0.6665431261062622 0 4
10.6041259765625 9.519296646118164 -1.1185492277145386 0.659862220287323 0 4
10.799357414245605 9.520917892456055 -1.1300814151763916 0.6531279683113098 0 4
10.998676300048828 9.522539138793945 -1.1419475078582764 0.6463410258293152 0 4
11.202240943908691 9.524218559265137 -1.1541608572006226 0.6395019888877869 0 4
11.41021728515625 9.525918006896973 -1.1667343378067017 0.6326117515563965 0 4
11.62279987335205 9.527655601501465 -1.1796774864196777 0.6256700158119202 0 4
11.840163230895996 9.52945327758789 -1.1930043697357178 0.6186783313751221 0 4
12.063608169555664 9.532148361206055 -1.2068583965301514 0.5947862267494202 0 4
18.675207138061523 14.485976219177246 -1.8551990985870361 0.07610141485929489 0 1
18.808141708374023 14.32054615020752 -1.8555611371994019 0.07608659565448761 0 1
18.93956756591797 14.153886795043945 -1.8559192419052124 0.07607197016477585 0 1
19.069454193115234 13.985976219177246 -1.8562731742858887 0.0760575532913208 0 1
19.197839736938477 13.816835403442383 -1.8566229343414307 0.07604321837425232 0 1
19.32471466064453 13.6465425491333 -1.8569685220718384 0.07602894306182861 0 1
19.449981689453125 13.47499942779541 -1.8573096990585327 0.07601502537727356 0 1
19.573707580566406 13.302265167236328 -1.8576467037200928 0.07600124925374985 0 1
19.69585609436035 13.12841796875 -1.857979416847229 0.0759875550866127 0 1
19.81637954711914 12.953378677368164 -1.8583076000213623 0.0759742334485054 0 1
19.935333251953125 12.777226448059082 -1.8586314916610718 0.0759609118103981 0 1
20.05266761779785 12.599921226501465 -1.858951210975647 0.07594788819551468 0 1
20.168365478515625 12.42154312133789 -1.8592662811279297 0.07593502849340439 0 1
20.282447814941406 12.242050170898438 -1.859576940536499 0.07592230290174484 0 1
20.39483070373535 12.061464309692383 -1.8598829507827759 0.07590995728969574 0 1
20.50560760498047 11.8798828125 -1.8601845502853394 0.07589758187532425 0 1
11.043078422546387 6.266054630279541 -0.9966382384300232 0.8712366819381714 1065 6
20.72215461730957 11.513495445251465 -1.8607741594314575 0.07587345689535141 0 1
20.827863693237305 11.328788757324219 -1.861061930656433 0.07586180418729782 0 1
20.931886672973633 11.14306640625 -1.8613451719284058 0.07585029304027557 0 1
21.034231185913086 10.956366539001465 -1.861623764038086 0.07583887875080109 0 1
21.134807586669922 10.76871109008789 -1.861897587776184 0.07582783699035645 0 1
21.233707427978516 10.580117225646973 -1.8621668815612793 0.07581676542758942 0 1
21.330827713012695 10.390565872192383 -1.8624311685562134 0.07580605894327164 0 1
21.426233291625977 10.20009708404541 -1.862690806388855 0.0757954940199852 0 1
21.51988983154297 10.008749961853027 -1.8629456758499146 0.07578503340482712 0 1
21.611740112304688 9.816503524780273 -1.8631956577301025 0.0757749080657959 0 1
21.70183753967285 9.623397827148438 -1.8634408712387085 0.07576492428779602 0 1
21.79014778137207 9.429433822631836 -1.8636811971664429 0.07575517892837524 0 1
21.876686096191406 9.234628677368164 -1.8639166355133057 0.07574555277824402 0 1
21.961389541625977 9.039023399353027 -1.8641469478607178 0.07573626935482025 0 1
22.04433250427246 8.842597007751465 -1.8643726110458374 0.07572700828313828 0 1
22.125408172607422 8.64540958404541 -1.8645931482315063 0.07571811228990555 0 1
22.204669952392578 8.44742202758789 -1.8648087978363037 0.07570943236351013 0 1
22.28211212158203 8.248710632324219 -1.86501944065094 0.07570087909698486 0 1
22.357746124267578 8.049277305603027 -1.8652251958847046 0.07569242268800735 0 1
22.43145179748535 7.84912109375 -1.86542546749115 0.07568446546792984 0 1
22.50340461730957 7.648261547088623 -1.8656210899353027 0.07567638158798218 0 1
22.573453903198242 7.446738243103027 -1.8658115863800049 0.07566864788532257 0 1
22.64166259765625 7.244570255279541 -1.8659969568252563 0.07566103339195251 0 1
22.707950592041016 7.041698932647705 -1.8661772012710571 0.0756538137793541 0 1
22.772390365600586 6.838222503662109 -1.8663523197174072 0.07564665377140045 0 1
22.83489418029785 6.634160041809082 -1.866522192955017 0.07563990354537964 0 1
22.895578384399414 6.429511547088623 -1.8666869401931763 0.07563311606645584 0 1
22.954309463500977 6.224257469177246 -1.8668465614318848 0.07562670111656189 0 1
23.011173248291016 6.018496036529541 -1.867000937461853 0.0756203904747963 0 1
23.066076278686523 5.812148094177246 -1.867150068283081 0.07561444491147995 0 1
23.119098663330078 5.605331897735596 -1.8672939538955688 0.07560861855745316 0 1
23.17019271850586 5.397968769073486 -1.867432713508606 0.07560302317142487 0 1
23.21938705444336 5.190136432647705 -1.8675662279129028 0.07559757679700851 0 1
23.266653060913086 4.981874942779541 -1.86769437789917 0.07559233903884888 0 1
23.311969757080078 4.773163795471191 -1.8678172826766968 0.07558733969926834 0 1
23.355342864990234 4.563984394073486 -1.8679349422454834 0.0755825936794281 0 1
23.396730422973633 4.354453086853027 -1.8680471181869507 0.07557819038629532 0 1
23.436243057250977 4.144492149353027 -1.8681542873382568 0.07557378709316254 0 1
23.473785400390625 3.9341795444488525 -1.868255853652954 0.07556962966918945 0 1
23.509328842163086 3.723515510559082 -1.8683521747589111 0.07556584477424622 0 1
23.54295539855957 3.5124998092651367 -1.8684431314468384 0.07556215673685074 0 1
23.574621200561523 3.3011913299560547 -1.8685288429260254 0.07555869221687317 0 1
23.604333877563477 3.089609384536743 -1.868609070777893 0.07555538415908813 0 1
23.632043838500977 2.877734422683716 -1.8686840534210205 0.07555240392684937 0 1
23.657854080200195 2.665605306625366 -1.8687536716461182 0.07554943859577179 0 1
23.681608200073242 2.4532225131988525 -1.868817687034607 0.07554693520069122 0 1
23.703420639038086 2.240605354309082 -1.8688764572143555 0.0755445584654808 0 1
23.72323989868164 2.0278515815734863 -1.8689298629760742 0.07554243505001068 0 1
23.74112892150879 1.814882755279541 -1.8689779043197632 0.07554038614034653 0 1
23.756988525390625 1.6017382144927979 -1.8690203428268433 0.07553872466087341 0 1
23.770856857299805 1.38845694065094 -1.869057536125183 0.0755373015999794 0 1
23.782814025878906 1.1750586032867432 -1.8690893650054932 0.07553587108850479 0 1
23.792667388916016 0.9615820050239563 -1.8691155910491943 0.07553502917289734 0 1
23.800636291503906 0.7479687333106995 -1.8691364526748657 0.07553407549858093 0 1
23.80657958984375 0.5342968702316284 -1.8691518306732178 0.07553349435329437 0 1
23.81060791015625 0.32060545682907104 -1.8691620826721191 0.07553288340568542 0 1
23.81252098083496 0.1068749949336052 -1.8691667318344116 0.07553290575742722 0 1
23.81252670288086 -0.1068749949336052 -1.8691658973693848 0.07553288340568542 0 1
23.81056785583496 -0.3205859363079071 -1.8691598176956177 0.07553301006555557 0 1
23.80657958984375 -0.5343164205551147 -1.8691480159759521 0.07553348690271378 0 1
23.80055809020996 -0.7479687333106995 -1.8691309690475464 0.07553433626890182 0 1
23.79262924194336 -0.96156245470047 -1.8691085577011108 0.07553514838218689 0 1
23.782663345336914 -1.1750586032867432 -1.869080662727356 0.0755363404750824 0 1
23.77073860168457 -1.38845694065094 -1.8690474033355713 0.07553765922784805 0 1
23.756837844848633 -1.6017186641693115 -1.8690085411071777 0.07553920149803162 0 1
23.74094009399414 -1.8148632049560547 -1.8689645528793335 0.07554100453853607 0 1
23.72306251525879 -2.0278124809265137 -1.8689149618148804 0.07554301619529724 0 1
23.15836524963379 -2.1891210079193115 -1.8259037733078003 0.10014020651578903 0 2
22.328243255615234 -2.3130273818969727 -1.7620174884796143 0.07554764300584793 0 2
22.30577850341797 -2.513242244720459 -1.7619553804397583 0.075550377368927 0 2
22.281476974487305 -2.7132811546325684 -1.7618883848190308 0.07555322349071503 0 2
22.255313873291016 -2.9130468368530273 -1.761816382408142 0.07555633038282394 0 2
22.22732162475586 -3.112539052963257 -1.7617391347885132 0.07555954158306122 0 2
22.19744300842285 -3.311777353286743 -1.7616568803787231 0.07556309551000595 0 2
22.16571044921875 -3.5107226371765137 -1.761569619178772 0.07556688785552979 0 2
22.132160186767578 -3.7093162536621094 -1.7614773511886597 0.07557081431150436 0 2
22.096750259399414 -3.9076366424560547 -1.7613800764083862 0.07557497918605804 0 2
22.05950927734375 -4.105566501617432 -1.761277675628662 0.07557937502861023 0 2
22.020416259765625 -4.303124904632568 -1.7611702680587769 0.07558402419090271 0 2
21.979522705078125 -4.500331878662109 -1.76105797290802 0.07558877021074295 0 2
21.936798095703125 -4.697148323059082 -1.7609407901763916 0.07559375464916229 0 2
21.89220428466797 -4.893476486206055 -1.7608184814453125 0.07559910416603088 0 2
21.84577751159668 -5.089414119720459 -1.7606910467147827 0.07560469210147858 0 2
21.797643661499023 -5.284921646118164 -1.760558843612671 0.07561016082763672 0 2
21.74761390686035 -5.479941368103027 -1.7604217529296875 0.07561610639095306 0 2
21.695812225341797 -5.674452781677246 -1.760279655456543 0.07562216371297836 0 2
21.64216423034668 -5.868456840515137 -1.7601325511932373 0.0756286159157753 0 2
21.586759567260742 -6.061953067779541 -1.7599806785583496 0.07563512027263641 0 2
21.618526458740234 -6.28076171875 -1.7670937776565552 0.07564178109169006 0 2
21.55934715270996 -6.473984241485596 -1.7669315338134766 0.07564856112003326 0 2
21.49827766418457 -6.666582107543945 -1.7667641639709473 0.07565590739250183 0 2
8.789403915405273 -2.812324047088623 -0.7243736982345581 0.49040281772613525 1050 6
8.753691673278809 -2.8877344131469727 -0.7235377430915833 0.749983549118042 1050 6
18.21483612060547 -6.190683364868164 -1.5100823640823364 0.9410903453826904 0 3
18.21706771850586 -6.374433517456055 -1.5149509906768799 0.9368054270744324 0 3
16.870588302612305 -6.073789119720459 -1.4074532985687256 0.33698877692222595 0 3
16.48903465270996 -6.104140281677246 -1.3801369667053223 0.9318678975105286 0 3
16.490646362304688 -6.273632526397705 -1.3849252462387085 0.9286428689956665 0 3
16.492746353149414 -6.444472312927246 -1.3899083137512207 0.923943281173706 0 3
15.163253784179688 -6.082402229309082 -1.2824153900146484 0.3704690933227539 0 3
14.976298332214355 -6.164042949676514 -1.271229863166809 0.9207098484039307 0 3
14.97719955444336 -6.322206974029541 -1.2760741710662842 0.9160699844360352 0 3
14.978266716003418 -6.481659889221191 -1.281068205833435 0.9124971032142639 0 3
14.979379653930664 -6.642402172088623 -1.286212682723999 0.9087351560592651 0 3
14.980509757995605 -6.804452896118164 -1.2915033102035522 0.9050136208534241 0 3
14.981647491455078 -6.967870712280273 -1.2969411611557007 0.9012187123298645 0 3
14.982792854309082 -7.132675647735596 -1.302531361579895 0.8973513245582581 0 3
14.983918190002441 -7.298905849456787 -1.308269739151001 0.8934777975082397 0 3
14.985038757324219 -7.466601371765137 -1.3141686916351318 0.8894690275192261 0 3
14.98617172241211 -7.635839462280273 -1.3202260732650757 0.8853877782821655 0 3
14.987311363220215 -7.806660175323486 -1.3264460563659668 0.8812357783317566 0 3
14.988466262817383 -7.979101181030273 -1.3328309059143066 0.8770129084587097 0 3
13.209773063659668 -7.185136795043945 -1.180351972579956 0.34112775325775146 0 3
13.1393404006958 -7.30040979385376 -1.1798596382141113 0.9338516592979431 0 3
12.873405456542969 -7.304609298706055 -1.1618263721466064 0.4990909695625305 0 3
12.408576011657715 -7.188867092132568 -1.125655174255371 0.6349263787269592 0 3
12.299240112304688 -7.273749828338623 -1.1216143369674683 0.8461756110191345 0 3
12.165903091430664 -7.343085765838623 -1.1154212951660156 0.8508739471435547 0 3
12.034008979797363 -7.411660194396973 -1.1093817949295044 0.8555046319961548 0 3
11.865004539489746 -7.455273151397705 -1.0999269485473633 0.9738886952400208 0 3
11.88644027709961 -7.618417739868164 -1.1082110404968262 0.9958522915840149 0 3
11.81274127960205 -7.721621036529541 -1.1077555418014526 0.9962605237960815 0 3
11.739089012145996 -7.824784755706787 -1.1073909997940063 0.9965885877609253 0 3
11.665483474731445 -7.927870750427246 -1.1071149110794067 0.9968363046646118 0 3
11.591903686523438 -8.030898094177246 -1.106930136680603 0.9970037937164307 0 3
11.518349647521973 -8.133906364440918 -1.1068322658538818 0.9970909357070923 0 3
11.354243278503418 -8.171737670898438 -1.0980592966079712 0.9842621088027954 0 3
11.370195388793945 -8.339140892028809 -1.1068036556243896 0.8826261162757874 0 3
9.65688419342041 -7.216757774353027 -0.9462943077087402 0.4716837406158447 0 3
9.576557159423828 -7.291601181030273 -0.9447982311248779 0.8742151260375977 0 3
9.45327091217041 -7.332695007324219 -0.9390913248062134 0.6174688339233398 0 3
9.248823165893555 -7.308027267456055 -0.9252598285675049 0.6244699954986572 0 3
9.11419677734375 -7.335488319396973 -0.9183428883552551 0.6314196586608887 0 3
8.811293601989746 -7.222968578338623 -0.894315242767334 0.7503024339675903 0 3
8.741142272949219 -7.29763650894165 -0.8938109874725342 0.9199788570404053 0 3
8.643229484558105 -7.348554611206055 -0.8905084133148193 0.9233912229537964 0 3
8.546027183532715 -7.399081707000732 -0.8873010277748108 0.9267289638519287 0 3
8.449516296386719 -7.449257850646973 -0.8841867446899414 0.9299927353858948 0 3
8.315712928771973 -7.465038776397705 -0.8771628141403198 0.9960473775863647 0 3
8.245331764221191 -7.536562442779541 -0.8768393397331238 0.9964150190353394 0 3
8.277853965759277 -7.703788757324219 -0.8876157402992249 0.9887714385986328 0 3
6.923852443695068 -6.560644149780273 -0.748712420463562 0.5250661969184875 0 3
6.968175888061523 -6.722382545471191 -0.7600010633468628 0.5313053131103516 0 3
6.852028846740723 -6.730116844177246 -0.753890872001648 0.5356701612472534 0 3
9.51308822631836 9.513124465942383 -1.1677231788635254 0.6962951421737671 0 4
9.684083938598633 9.511757850646973 -1.1781790256500244 0.6922527551651001 0 4
9.861062049865723 9.513202667236328 -1.189272403717041 0.6857945322990417 0 4
10.041430473327637 9.514687538146973 -1.2006782293319702 0.6792805790901184 0 4
10.22530460357666 9.516210556030273 -1.2124007940292358 0.6727120876312256 0 4
10.412824630737305 9.51773452758789 -1.2244559526443481 0.6660891771316528 0 4
10.604127883911133 9.519315719604492 -1.2368546724319458 0.6594125628471375 0 4
10.799357414245605 9.520917892456055 -1.2496082782745361 0.6526829600334167 0 4
10.998674392700195 9.522539138793945 -1.2627290487289429 0.6459007263183594 0 4
11.202238082885742 9.524218559265137 -1.2762328386306763 0.6390663981437683 0 4
11.41021728515625 9.525918006896973 -1.2901314496994019 0.6321806311607361 0 4
11.622797966003418 9.52767562866211 -1.3044476509094238 0.6252437829971313 0 4
11.840163230895996 9.52945327758789 -1.3191871643066406 0.6182568073272705 0 4
12.063617706298828 9.532148361206055 -1.3344988822937012 0.5943801999092102 0 4
15.879416465759277 12.317323684692383 -1.7443108558654785 0.08432071655988693 0 2
15.99215030670166 12.176445007324219 -1.7446179389953613 0.08430584520101547 0 2
16.103614807128906 12.03451156616211 -1.7449215650558472 0.08429108560085297 0 2
16.22760009765625 11.90169906616211 -1.7467103004455566 0.7696474194526672 0 2
16.32263946533203 11.747519493103027 -1.7455183267593384 0.08426227420568466 0 2
17.42751121520996 12.306777000427246 -1.8517866134643555 0.08424822241067886 0 1
17.540191650390625 12.151874542236328 -1.8520934581756592 0.08423419296741486 0 1
17.65144157409668 11.995898246765137 -1.8523964881896973 0.08422043174505234 0 1
17.761260986328125 11.838906288146973 -1.8526955842971802 0.08420688658952713 0 1
17.869665145874023 11.680878639221191 -1.8529908657073975 0.08419342339038849 0 1
17.976627349853516 11.52181625366211 -1.85328209400177 0.08418012410402298 0 1
18.082130432128906 11.361777305603027 -1.8535693883895874 0.08416706323623657 0 1
18.18614959716797 11.200722694396973 -1.8538527488708496 0.08415424823760986 0 1
18.28871726989746 11.038671493530273 -1.854132056236267 0.08414154499769211 0 1
18.389822006225586 10.875702857971191 -1.8544074296951294 0.08412893861532211 0 1
18.489356994628906 10.71175765991211 -1.8546785116195679 0.0841168463230133 0 1
11.042865753173828 6.265956878662109 -1.1020281314849854 0.8706597089767456 1065 6
18.684030532836914 10.381073951721191 -1.855208396911621 0.08409273624420166 0 1
18.779083251953125 10.2144136428833 -1.8554673194885254 0.08408094942569733 0 1
18.872594833374023 10.046796798706055 -1.8557218313217163 0.08406943082809448 0 1
18.964557647705078 9.87831974029541 -1.8559722900390625 0.08405812829732895 0 1
19.05499267578125 9.708984375 -1.8562183380126953 0.08404699712991714 0 1
19.14385986328125 9.538808822631836 -1.8564602136611938 0.08403608202934265 0 1
19.23115348815918 9.367793083190918 -1.856697916984558 0.08402535319328308 0 1
19.316925048828125 9.195937156677246 -1.856931209564209 0.08401469886302948 0 1
19.401071548461914 9.023320198059082 -1.8571603298187256 0.08400435745716095 0 1
19.48365020751953 8.849883079528809 -1.8573850393295288 0.08399413526058197 0 1
19.56459617614746 8.675643920898438 -1.857605218887329 0.08398428559303284 0 1
19.643985748291016 8.500683784484863 -1.8578213453292847 0.08397442102432251 0 1
19.721725463867188 8.324980735778809 -1.8580328226089478 0.08396492153406143 0 1
19.79787254333496 8.148515701293945 -1.858240008354187 0.08395553380250931 0 1
19.872379302978516 7.971366882324219 -1.8584426641464233 0.08394637703895569 0 1
19.945241928100586 7.793515682220459 -1.8586409091949463 0.08393746614456177 0 1
20.016481399536133 7.614960670471191 -1.8588346242904663 0.08392868936061859 0 1
20.08608055114746 7.435741901397705 -1.8590240478515625 0.08392012864351273 0 1
20.15400505065918 7.255898475646973 -1.859208583831787 0.08391180634498596 0 1
20.22027587890625 7.075370788574219 -1.859388828277588 0.0839037299156189 0 1
20.284860610961914 6.894237995147705 -1.8595644235610962 0.08389589190483093 0 1
20.347824096679688 6.71251916885376 -1.8597357273101807 0.08388806134462357 0 1
20.409074783325195 6.530214786529541 -1.8599021434783936 0.08388056606054306 0 1
20.46863555908203 6.34728479385376 -1.8600640296936035 0.08387331664562225 0 1
20.526531219482422 6.16384744644165 -1.8602213859558105 0.0838661938905716 0 1
20.582740783691406 5.979843616485596 -1.860374093055725 0.08385921269655228 0 1
20.63719940185547 5.795312404632568 -1.860521912574768 0.08385265618562698 0 1
20.68999671936035 5.610253810882568 -1.8606654405593872 0.08384612947702408 0 1
20.741052627563477 5.424746036529541 -1.8608040809631348 0.08383993059396744 0 1
20.790407180786133 5.238710880279541 -1.8609380722045898 0.08383389562368393 0 1
20.83803939819336 5.052265644073486 -1.8610674142837524 0.08382805436849594 0 1
20.88397216796875 4.865332126617432 -1.8611921072006226 0.08382236957550049 0 1
20.928136825561523 4.677988052368164 -1.861311912536621 0.0838170126080513 0 1
20.970611572265625 4.490234375 -1.8614270687103271 0.0838116779923439 0 1
21.011301040649414 4.302089691162109 -1.8615375757217407 0.08380679041147232 0 1
21.050260543823242 4.11355447769165 -1.8616431951522827 0.08380204439163208 0 1
21.087472915649414 3.9246482849121094 -1.8617440462112427 0.08379753679037094 0 1
21.12295150756836 3.735429525375366 -1.8618401288986206 0.08379313349723816 0 1
21.15667724609375 3.5458202362060547 -1.861931562423706 0.08378900587558746 0 1
21.18861961364746 3.3559374809265137 -1.86201810836792 0.08378518372774124 0 1
21.21882438659668 3.165781259536743 -1.8620997667312622 0.08378148078918457 0 1
21.247222900390625 2.975292921066284 -1.8621766567230225 0.08377816528081894 0 1
21.27391815185547 2.7845702171325684 -1.8622487783432007 0.08377484977245331 0 1
21.298845291137695 2.5936131477355957 -1.8623161315917969 0.08377174288034439 0 1
21.32199478149414 2.402402400970459 -1.8623785972595215 0.08376890420913696 0 1
21.34333610534668 2.210996150970459 -1.8624361753463745 0.0837663933634758 0 1
21.36292266845703 2.019413948059082 -1.8624889850616455 0.08376403898000717 0 1
21.38072967529297 1.8275976181030273 -1.862536907196045 0.08376190066337585 0 1
21.39675521850586 1.6356639862060547 -1.8625799417495728 0.08376001566648483 0 1
21.41103744506836 1.4435741901397705 -1.8626182079315186 0.08375821262598038 0 1
21.423498153686523 1.2513476610183716 -1.8626514673233032 0.08375677466392517 0 1
21.43422508239746 1.0590038299560547 -1.8626799583435059 0.08375537395477295 0 1
21.443111419677734 0.8666015267372131 -1.8627036809921265 0.08375442773103714 0 1
21.45026969909668 0.6741015315055847 -1.862722396850586 0.08375347405672073 0 1
21.455612182617188 0.4815429449081421 -1.8627363443374634 0.08375287055969238 0 1
21.45916175842285 0.2889453172683716 -1.8627452850341797 0.08375249803066254 0 1
21.460948944091797 0.09630858898162842 -1.8627495765686035 0.08375227451324463 0 1
21.460920333862305 -0.09630858898162842 -1.8627488613128662 0.08375240117311478 0 1
21.45912742614746 -0.2889453172683716 -1.8627431392669678 0.08375263214111328 0 1
21.455577850341797 -0.4815429449081421 -1.8627327680587769 0.08375300467014313 0 1
21.450178146362305 -0.674121081829071 -1.8627173900604248 0.08375382423400879 0 1
21.44305419921875 -0.8666015267372131 -1.8626972436904907 0.08375465869903564 0 1
21.43413734436035 -1.059023380279541 -1.862672209739685 0.08375571668148041 0 1
21.423429489135742 -1.2513476610183716 -1.8626422882080078 0.08375704288482666 0 1
21.41090965270996 -1.4435546398162842 -1.862607479095459 0.08375868946313858 0 1
21.396636962890625 -1.6356639862060547 -1.8625679016113281 0.08376047015190125 0 1
21.380611419677734 -1.8275976181030273 -1.8625234365463257 0.08376237004995346 0 1
21.362735748291016 -2.019355535507202 -1.862473964691162 0.08376476168632507 0 1
21.249431610107422 -2.201288938522339 -1.8542420864105225 0.10896532982587814 0 2
20.103429794311523 -2.2651171684265137 -1.7559465169906616 0.08376985043287277 0 2
20.081642150878906 -2.445390462875366 -1.7558863162994385 0.08377258479595184 0 2
20.05811309814453 -2.6254491806030273 -1.7558214664459229 0.08377578854560852 0 2
20.03294563293457 -2.8052732944488525 -1.7557522058486938 0.08377910405397415 0 2
20.00613021850586 -2.98486328125 -1.755678415298462 0.08378256112337112 0 2
19.977657318115234 -3.164140462875366 -1.755600094795227 0.08378622680902481 0 2
19.947486877441406 -3.3431835174560547 -1.7555171251296997 0.08379029482603073 0 2
19.915685653686523 -3.521914005279541 -1.7554296255111694 0.08379446715116501 0 2
19.882232666015625 -3.700331926345825 -1.7553378343582153 0.0837988406419754 0 2
19.847145080566406 -3.8784375190734863 -1.7552413940429688 0.08380334824323654 0 2
19.810382843017578 -4.056210994720459 -1.7551405429840088 0.08380822837352753 0 2
19.771974563598633 -4.233593463897705 -1.7550350427627563 0.08381333947181702 0 2
19.731950759887695 -4.410624980926514 -1.75492525100708 0.08381853252649307 0 2
19.69028091430664 -4.587265491485596 -1.7548108100891113 0.083824023604393 0 2
19.647003173828125 -4.763515472412109 -1.7546920776367188 0.0838295966386795 0 2
19.602067947387695 -4.939296722412109 -1.7545686960220337 0.08383552730083466 0 2
19.555505752563477 -5.114667892456055 -1.7544411420822144 0.0838417038321495 0 2
19.507335662841797 -5.289589881896973 -1.754309058189392 0.0838480219244957 0 2
19.457565307617188 -5.464042663574219 -1.754172682762146 0.08385453373193741 0 2
19.40618896484375 -5.638027191162109 -1.754031777381897 0.08386120945215225 0 2
19.353185653686523 -5.8115234375 -1.7538865804672241 0.08386819064617157 0 2
19.298635482788086 -5.98449182510376 -1.7537370920181274 0.08387520164251328 0 2
8.78933048248291 -2.8122851848602295 -0.8009812831878662 0.49007168412208557 1050 6
8.753447532653809 -2.8876562118530273 -0.8000406622886658 0.7494931817054749 1050 6
18.214298248291016 -6.190507888793945 -1.6697460412979126 0.9392128586769104 0 3
18.216676712036133 -6.37429666519165 -1.6751443147659302 0.9361871480941772 0 3
16.889421463012695 -6.08056640625 -1.5580497980117798 0.33641791343688965 0 3
16.488439559936523 -6.103925704956055 -1.5260518789291382 0.9312667846679688 0 3
16.49017333984375 -6.2734375 -1.531362533569336 0.926659345626831 0 3
16.492389678955078 -6.4443359375 -1.536879539489746 0.9233337640762329 0 3
15.17864990234375 -6.088573932647705 -1.4194918870925903 0.3698546886444092 0 3
14.97613525390625 -6.163984298706055 -1.4056681394577026 0.9200926423072815 0 3
14.976730346679688 -6.322011470794678 -1.4109978675842285 0.9154745936393738 0 3
14.977794647216797 -6.481464862823486 -1.4165189266204834 0.9119043946266174 0 3
14.978900909423828 -6.642187118530273 -1.4222058057785034 0.9081450700759888 0 3
14.980029106140137 -6.804238319396973 -1.428053379058838 0.9044259786605835 0 3
14.98116397857666 -6.967636585235596 -1.4340664148330688 0.9006339907646179 0 3
14.982309341430664 -7.132421493530273 -1.4402467012405396 0.8967691659927368 0 3
14.983464241027832 -7.298691272735596 -1.4465991258621216 0.8928320407867432 0 3
14.984630584716797 -7.466405868530273 -1.453121304512024 0.8888235092163086 0 3
14.98580265045166 -7.635663986206055 -1.4598233699798584 0.8847430944442749 0 3
14.986945152282715 -7.806464672088623 -1.466701626777649 0.8806570768356323 0 3
14.98809814453125 -7.978906154632568 -1.47376549243927 0.8764370083808899 0 3
13.20992374420166 -7.185194969177246 -1.3052089214324951 0.3408915400505066 0 3
13.139025688171387 -7.300214767456055 -1.3046324253082275 0.9332377910614014 0 3
12.87340259552002 -7.304609298706055 -1.2847106456756592 0.49875107407569885 0 3
12.408510208129883 -7.188827991485596 -1.244706153869629 0.6344972848892212 0 3
12.299086570739746 -7.273652076721191 -1.2402263879776 0.8456092476844788 0 3
12.165751457214355 -7.343007564544678 -1.233380675315857 0.8503050804138184 0 3
12.03386402130127 -7.411562442779541 -1.2267038822174072 0.8549319505691528 0 3
11.86480712890625 -7.455155849456787 -1.2162426710128784 0.9732414484024048 0 3
11.88621997833252 -7.618300437927246 -1.2253971099853516 0.995192289352417 0 3
11.81252384185791 -7.721484184265137 -1.2248952388763428 0.9956002235412598 0 3
11.738871574401855 -7.824648380279541 -1.2244943380355835 0.9959279894828796 0 3
11.66527271270752 -7.927714824676514 -1.2241894006729126 0.9961755275726318 0 3
11.591693878173828 -8.03076171875 -1.223982810974121 0.9963429570198059 0 3
11.518139839172363 -8.133769035339355 -1.223875880241394 0.9964300394058228 0 3
11.354013442993164 -8.171562194824219 -1.214181661605835 0.9836118221282959 0 3
11.36990737915039 -8.3389253616333 -1.2238374948501587 0.882047176361084 0 3
9.65695571899414 -7.216816425323486 -1.0463889837265015 0.47135910391807556 0 3
9.576311111450195 -7.291406154632568 -1.0446995496749878 0.873642086982727 0 3
9.453266143798828 -7.332695007324219 -1.038415551185608 0.617048442363739 0 3
9.248818397521973 -7.308027267456055 -1.0231196880340576 0.6240447759628296 0 3
9.114189147949219 -7.335488319396973 -1.0154708623886108 0.6309897899627686 0 3
8.811247825622559 -7.22292947769165 -0.988905131816864 0.74979567527771 0 3
8.741049766540527 -7.297538757324219 -0.9883361458778381 0.9193620085716248 0 3
8.643136978149414 -7.348456859588623 -0.9846842885017395 0.9227725267410278 0 3
8.54593276977539 -7.398984432220459 -0.9811356067657471 0.9261081218719482 0 3
8.449420928955078 -7.449179649353027 -0.9776920676231384 0.9293696880340576 0 3
8.31557846069336 -7.464882850646973 -0.9699251055717468 0.9953848719596863 0 3
8.245197296142578 -7.536445140838623 -0.969561755657196 0.9957523941993713 0 3
6.910780906677246 -6.431523323059082 -0.8194025754928589 0.7239333987236023 0 3
7.005195140838623 -6.637734413146973 -0.8376266360282898 0.53268963098526 0 3
6.889211177825928 -6.646191120147705 -0.8308601379394531 0.5370883941650391 0 3
6.782756328582764 -6.662070274353027 -0.8252025246620178 0.7042526602745056 0 3
9.51308822631836 9.513124465942383 -1.2795681953430176 0.6957730650901794 0 4
9.68408203125 9.511757850646973 -1.291032075881958 0.691733717918396 0 4
9.861066818237305 9.513222694396973 -1.3031902313232422 0.6852801442146301 0 4
10.041433334350586 9.514687538146973 -1.315686583518982 0.6787711381912231 0 4
10.225309371948242 9.516210556030273 -1.3285338878631592 0.6722075343132019 0 4
10.412821769714355 9.51773452758789 -1.3417414426803589 0.6655898690223694 0 4
10.604127883911133 9.519315719604492 -1.3553283214569092 0.6589181423187256 0 4
10.799360275268555 9.520917892456055 -1.369301676750183 0.652193546295166 0 4
10.998676300048828 9.522558212280273 -1.3836791515350342 0.6454164385795593 0 4
11.20224380493164 9.524218559265137 -1.398480772972107 0.6385869979858398 0 4
11.410226821899414 9.5259370803833 -1.413709282875061 0.6317063570022583 0 4
11.622807502746582 9.52767562866211 -1.4293978214263916 0.6247747540473938 0 4
11.840166091918945 9.52945327758789 -1.4455498456954956 0.6177931427955627 0 4
12.063637733459473 9.532167434692383 -1.4623222351074219 0.5939342975616455 0 4
14.459142684936523 11.215643882751465 -1.7404311895370483 0.09253382682800293 0 2
14.561545372009277 11.087186813354492 -1.7407101392745972 0.09251906722784042 0 2
14.66280746459961 10.957773208618164 -1.7409859895706177 0.09250437468290329 0 2
14.762861251831055 10.827402114868164 -1.7412586212158203 0.09249003976583481 0 2
14.861757278442383 10.69613265991211 -1.741528034210205 0.09247567504644394 0 2
14.95946979522705 10.563925743103027 -1.741794228553772 0.09246140718460083 0 2
15.055953979492188 10.430781364440918 -1.742056965827942 0.09244750440120697 0 2
15.151223182678223 10.296757698059082 -1.7423163652420044 0.09243377298116684 0 2
15.24528980255127 10.161855697631836 -1.7425727844238281 0.09242013096809387 0 2
15.338112831115723 10.026074409484863 -1.7428256273269653 0.09240668267011642 0 2
15.42968463897705 9.889413833618164 -1.743074893951416 0.09239347279071808 0 2
15.520026206970215 9.751874923706055 -1.7433209419250488 0.09238045662641525 0 2
15.609098434448242 9.613534927368164 -1.7435635328292847 0.09236760437488556 0 2
15.69963550567627 9.47597599029541 -1.7441068887710571 0.6490092277526855 0 2
15.783483505249023 9.33431625366211 -1.7440383434295654 0.0923423320055008 0 2
16.831974029541016 9.751543045043945 -1.8501522541046143 0.09233023971319199 0 1
11.042651176452637 6.265839576721191 -1.207565188407898 0.8700237274169922 1065 6
17.008731842041016 9.450273513793945 -1.8506335020065308 0.09230624884366989 0 1
17.095050811767578 9.298418045043945 -1.850868582725525 0.09229449182748795 0 1
17.179967880249023 9.145722389221191 -1.8510998487472534 0.09228299558162689 0 1
17.263492584228516 8.992284774780273 -1.8513271808624268 0.09227161109447479 0 1
17.345617294311523 8.838027000427246 -1.8515506982803345 0.09226044267416 0 1
17.426300048828125 8.682988166809082 -1.851770281791687 0.0922495499253273 0 1
17.505592346191406 8.527226448059082 -1.851986050605774 0.09223873168230057 0 1
17.583438873291016 8.370722770690918 -1.8521980047225952 0.09222818166017532 0 1
17.659841537475586 8.213476181030273 -1.8524059057235718 0.0922178328037262 0 1
17.73479652404785 8.055526733398438 -1.8526098728179932 0.09220772236585617 0 1
17.808326721191406 7.896855354309082 -1.852810025215149 0.09219767898321152 0 1
17.880382537841797 7.737538814544678 -1.85300612449646 0.09218793362379074 0 1
17.950963973999023 7.577499866485596 -1.8531980514526367 0.09217844158411026 0 1
18.020090103149414 7.416816234588623 -1.8533861637115479 0.09216905385255814 0 1
18.087726593017578 7.255507469177246 -1.8535702228546143 0.09215991944074631 0 1
18.153879165649414 7.09353494644165 -1.8537501096725464 0.09215102344751358 0 1
18.21852684020996 6.930976390838623 -1.8539259433746338 0.09214232861995697 0 1
18.281702041625977 6.767773151397705 -1.8540977239608765 0.09213381260633469 0 1
18.343385696411133 6.604023456573486 -1.8542654514312744 0.09212538599967957 0 1
18.403541564941406 6.439687252044678 -1.854429006576538 0.09211727976799011 0 1
18.462194442749023 6.274765491485596 -1.8545883893966675 0.09210933744907379 0 1
18.519298553466797 6.109316349029541 -1.8547437191009521 0.09210173040628433 0 1
18.574928283691406 5.943320274353027 -1.854894995689392 0.09209413826465607 0 1
18.628976821899414 5.776816368103027 -1.8550418615341187 0.09208691120147705 0 1
18.681529998779297 5.609804630279541 -1.855184555053711 0.09207978844642639 0 1
18.73253059387207 5.442324161529541 -1.855323314666748 0.09207288175821304 0 1
18.78200912475586 5.274335861206055 -1.8554576635360718 0.09206612408161163 0 1
18.829879760742188 5.105878829956055 -1.8555877208709717 0.09205982834100723 0 1
18.876266479492188 4.93701171875 -1.8557136058807373 0.09205340594053268 0 1
18.921037673950195 4.767675876617432 -1.855835199356079 0.09204749763011932 0 1
18.964269638061523 4.597949028015137 -1.8559526205062866 0.09204168617725372 0 1
19.005949020385742 4.427812576293945 -1.8560657501220703 0.09203597903251648 0 1
19.04602813720703 4.257304668426514 -1.8561744689941406 0.09203065186738968 0 1
19.084537506103516 4.086406230926514 -1.856278896331787 0.092025525867939 0 1
19.12148666381836 3.9151365756988525 -1.8563791513442993 0.09202055633068085 0 1
19.156843185424805 3.7435545921325684 -1.8564749956130981 0.09201580286026001 0 1
19.190637588500977 3.5716404914855957 -1.8565665483474731 0.09201116859912872 0 1
19.222820281982422 3.3993945121765137 -1.8566538095474243 0.09200688451528549 0 1
19.25342559814453 3.226874828338623 -1.856736660003662 0.0920027419924736 0 1
19.282434463500977 3.0540428161621094 -1.8568153381347656 0.09199882298707962 0 1
19.309816360473633 2.880937337875366 -1.8568894863128662 0.09199526160955429 0 1
19.335622787475586 2.7076170444488525 -1.8569592237472534 0.0919918343424797 0 1
19.35984992980957 2.5340428352355957 -1.8570246696472168 0.09198848903179169 0 1
19.38243865966797 2.360234260559082 -1.8570857048034668 0.0919855386018753 0 1
19.403444290161133 2.186230421066284 -1.857142448425293 0.09198267757892609 0 1
19.422834396362305 2.0120506286621094 -1.8571947813034058 0.09198005497455597 0 1
19.440616607666016 1.8376952409744263 -1.8572427034378052 0.09197767823934555 0 1
19.45677947998047 1.6631444692611694 -1.857285976409912 0.09197554737329483 0 1
19.471349716186523 1.4884765148162842 -1.8573251962661743 0.09197354316711426 0 1
19.484254837036133 1.3136718273162842 -1.8573598861694336 0.0919720008969307 0 1
19.495588302612305 1.1387304067611694 -1.85739004611969 0.09197045862674713 0 1
19.505300521850586 0.9637109041213989 -1.857416033744812 0.09196915477514267 0 1
19.513391494750977 0.7886132597923279 -1.8574373722076416 0.09196808189153671 0 1
19.519861221313477 0.6134374737739563 -1.857454538345337 0.09196726232767105 0 1
19.524703979492188 0.4382031261920929 -1.8574671745300293 0.0919666662812233 0 1
19.527956008911133 0.2629491984844208 -1.8574753999710083 0.0919661819934845 0 1
19.529552459716797 0.08765624463558197 -1.8574790954589844 0.09196606278419495 0 1
19.529558181762695 -0.08765624463558197 -1.8574784994125366 0.09196604788303375 0 1
19.52792739868164 -0.26292967796325684 -1.857473373413086 0.09196630865335464 0 1
19.524700164794922 -0.4382031261920929 -1.8574639558792114 0.0919666737318039 0 1
19.519805908203125 -0.6134570240974426 -1.8574498891830444 0.09196750819683075 0 1
19.513341903686523 -0.7886132597923279 -1.8574317693710327 0.09196831285953522 0 1
19.505250930786133 -0.9637109041213989 -1.8574090003967285 0.09196937084197998 0 1
19.49551010131836 -1.1387499570846558 -1.857381820678711 0.09197081625461578 0 1
19.484176635742188 -1.3136718273162842 -1.85735023021698 0.09197235852479935 0 1
19.47121810913086 -1.4884569644927979 -1.8573142290115356 0.0919741541147232 0 1
19.456647872924805 -1.6631444692611694 -1.857273817062378 0.09197615832090378 0 1
19.44048500061035 -1.83767569065094 -1.8572291135787964 0.0919782817363739 0 1
19.42268180847168 -2.012031316757202 -1.8571799993515015 0.09198079258203506 0 1
19.403268814086914 -2.186230421066284 -1.8571264743804932 0.09198351204395294 0 1
18.358606338500977 -2.2355663776397705 -1.7589892148971558 0.1593496948480606 0 2
18.25344467163086 -2.389238119125366 -1.750897765159607 0.09198945015668869 0 2
18.230632781982422 -2.552870988845825 -1.7508349418640137 0.09199266135692596 0 2
18.206275939941406 -2.71630859375 -1.7507679462432861 0.0919962152838707 0 2
18.18040657043457 -2.879511594772339 -1.7506966590881348 0.09200001507997513 0 2
18.153059005737305 -3.0424413681030273 -1.7506214380264282 0.09200391918420792 0 2
18.12420082092285 -3.2051172256469727 -1.7505422830581665 0.0920080840587616 0 2
18.093839645385742 -3.367499828338623 -1.750458836555481 0.09201247990131378 0 2
18.061975479125977 -3.5295896530151367 -1.7503712177276611 0.09201712906360626 0 2
18.028635025024414 -3.6913866996765137 -1.7502796649932861 0.09202184528112411 0 2
17.993776321411133 -3.852851390838623 -1.7501839399337769 0.0920269712805748 0 2
17.957477569580078 -4.013984203338623 -1.750084400177002 0.0920320451259613 0 2
17.91961097717285 -4.174746036529541 -1.7499804496765137 0.09203776717185974 0 2
17.88035774230957 -4.335155963897705 -1.7498726844787598 0.09204323589801788 0 2
17.839576721191406 -4.495195388793945 -1.7497608661651611 0.09204914420843124 0 2
17.797311782836914 -4.654824256896973 -1.7496449947357178 0.09205533564090729 0 2
17.753582000732422 -4.814043045043945 -1.7495250701904297 0.09206175059080124 0 2
17.708425521850586 -4.972851276397705 -1.7494012117385864 0.09206816554069519 0 2
17.661773681640625 -5.131230354309082 -1.7492735385894775 0.0920749083161354 0 2
17.613712310791016 -5.289160251617432 -1.7491416931152344 0.09208168089389801 0 2
17.564151763916016 -5.446601390838623 -1.7490057945251465 0.09208893030881882 0 2
8.78924560546875 -2.812265634536743 -0.8776969909667969 0.4897094964981079 1050 6
8.75320816040039 -2.8875975608825684 -0.8766487836837769 0.7489519119262695 1050 6
17.40684700012207 -5.916093826293945 -1.74857497215271 0.09211158007383347 0 2
17.351526260375977 -6.071542739868164 -1.748423457145691 0.09211968630552292 0 2
16.908323287963867 -6.087382793426514 -1.70919930934906 0.3357904851436615 0 3
16.487838745117188 -6.103710651397705 -1.6721656322479248 0.9306021332740784 0 3
16.489816665649414 -6.273300647735596 -1.6780120134353638 0.9259846806526184 0 3
16.492029190063477 -6.444199085235596 -1.6840531826019287 0.9226616024971008 0 3
15.194098472595215 -6.094785213470459 -1.5570416450500488 0.36920174956321716 0 3
14.975971221923828 -6.163906097412109 -1.540297031402588 0.919413149356842 0 3
14.9764986038208 -6.321913719177246 -1.5461236238479614 0.9159472584724426 0 3
14.97732162475586 -6.481269359588623 -1.5521560907363892 0.9112492799758911 0 3
14.978422164916992 -6.641972541809082 -1.558382511138916 0.9074933528900146 0 3
14.979548454284668 -6.804023265838623 -1.5647923946380615 0.9037768840789795 0 3
14.980680465698242 -6.967421531677246 -1.571380615234375 0.8999874591827393 0 3
14.981825828552246 -7.132206916809082 -1.5781508684158325 0.8961259722709656 0 3
14.982975959777832 -7.298437118530273 -1.5851086378097534 0.8921920657157898 0 3
14.984137535095215 -7.466152191162109 -1.592259168624878 0.8881863355636597 0 3
14.985312461853027 -7.635409832000732 -1.5996034145355225 0.88410884141922 0 3
12.31480884552002 -6.414589881896973 -1.3206324577331543 0.3955526351928711 0 20
12.28316593170166 -6.538906097412109 -1.3234795331954956 0.8751360774040222 0 20
12.284320831298828 -6.681737899780273 -1.3300155401229858 0.8708368539810181 0 20
12.28548526763916 -6.825976371765137 -1.336719274520874 0.8664681315422058 0 20
12.286662101745605 -6.971699237823486 -1.3436022996902466 0.8620292544364929 0 20
11.922697067260742 -6.907402038574219 -1.3105300664901733 0.2026890218257904 0 20
11.905060768127441 -7.04064416885376 -1.315483570098877 0.6684208512306213 0 20
11.899711608886719 -7.182421684265137 -1.3219636678695679 0.665147066116333 0 20
11.89902114868164 -7.328515529632568 -1.329142689704895 0.8435838222503662 0 20
11.864608764648438 -7.455039024353027 -1.332719087600708 0.9725278615951538 0 3
11.853822708129883 -7.597499847412109 -1.339114785194397 0.9939393997192383 0 3
11.779303550720215 -7.699784755706787 -1.3384487628936768 0.994432806968689 0 3
11.704853057861328 -7.801952838897705 -1.3378942012786865 0.9948458075523376 0 3
11.630460739135742 -7.904062271118164 -1.337446689605713 0.9951788187026978 0 3
11.55611515045166 -8.006113052368164 -1.3371065855026245 0.9954316020011902 0 3
11.481796264648438 -8.108085632324219 -1.336875319480896 0.9956040978431702 0 3
11.353776931762695 -8.171405792236328 -1.3304541110992432 0.9828945398330688 0 3
11.36961841583252 -8.33871078491211 -1.3410297632217407 0.8814082741737366 0 3
9.65701675415039 -7.216855525970459 -1.146638035774231 0.47100183367729187 0 3
9.576066970825195 -7.291230201721191 -1.144737958908081 0.8730091452598572 0 3
9.453264236450195 -7.332695007324219 -1.1378799676895142 0.6165860295295715 0 3
9.248818397521973 -7.308027267456055 -1.1211216449737549 0.6235770583152771 0 3
9.1141939163208 -7.335468769073486 -1.1127394437789917 0.6305166482925415 0 3
8.811203002929688 -7.222890377044678 -1.0836148262023926 0.7492382526397705 0 3
8.740946769714355 -7.297460556030273 -1.082993507385254 0.9186833500862122 0 3
8.64303970336914 -7.348359107971191 -1.0789892673492432 0.9220907688140869 0 3
8.545832633972168 -7.398906230926514 -1.075103521347046 0.925424337387085 0 3
