ply
format ascii 1.0
element vertex 1394
property float32 x
property float32 y
property float32 z
property float32 CosAngle
property uint32 ObjIdx
property uint32 ObjTag
end_header
1.2945 1.1309 -0.9365 0.3402 458 14
1.2909 1.1330 -0.9358 0.3405 458 14
1.2874 1.1350 -0.9351 0.3407 458 14
1.2839 1.1371 -0.9344 0.3410 458 14
1.2804 1.1391 -0.9337 0.3412 458 14
1.2769 1.1411 -0.9330 0.3415 458 14
1.2734 1.1431 -0.9323 0.3418 458 14
1.2699 1.1451 -0.9316 0.3420 458 14
1.2663 1.1471 -0.9309 0.3423 458 14
1.2628 1.1491 -0.9302 0.3425 458 14
1.2593 1.1510 -0.9295 0.3428 458 14
1.2557 1.1530 -0.9288 0.3430 458 14
1.2522 1.1549 -0.9281 0.3433 458 14
1.2486 1.1568 -0.9274 0.3436 458 14
1.2451 1.1587 -0.9267 0.3438 458 14
1.2415 1.1607 -0.9260 0.3441 458 14
1.2380 1.1626 -0.9253 0.3444 458 14
1.2344 1.1645 -0.9246 0.3446 458 14
1.2309 1.1663 -0.9239 0.3449 458 14
1.2273 1.1682 -0.9231 0.3451 458 14
1.2237 1.1700 -0.9224 0.3454 458 14
1.2202 1.1719 -0.9217 0.3457 458 14
1.2166 1.1737 -0.9210 0.3459 458 14
1.2130 1.1755 -0.9203 0.3462 458 14
1.2094 1.1773 -0.9196 0.3465 458 14
1.2059 1.1791 -0.9189 0.3467 458 14
1.2023 1.1809 -0.9182 0.3470 458 14
1.1987 1.1827 -0.9175 0.3473 458 14
1.1951 1.1845 -0.9167 0.3476 458 14
1.1915 1.1862 -0.9160 0.3478 458 14
2.2952 -2.2952 -1.8034 0.4858 0 1
2.3004 -2.2901 -1.8034 0.4858 0 1
2.3055 -2.2849 -1.8034 0.4858 0 1
2.3106 -2.2797 -1.8033 0.4858 0 1
2.3157 -2.2745 -1.8033 0.4858 0 1
2.3208 -2.2693 -1.8033 0.4858 0 1
2.3259 -2.2641 -1.8033 0.4858 0 1
2.3310 -2.2589 -1.8033 0.4858 0 1
2.3361 -2.2537 -1.8033 0.4858 0 1
2.3411 -2.2484 -1.8033 0.4858 0 1
2.3462 -2.2431 -1.8033 0.4858 0 1
2.3512 -2.2379 -1.8033 0.4858 0 1
2.3562 -2.2326 -1.8033 0.4858 0 1
2.3612 -2.2273 -1.8033 0.4858 0 1
2.3662 -2.2220 -1.8033 0.4858 0 1
2.3712 -2.2167 -1.8033 0.4858 0 1
2.3761 -2.2113 -1.8033 0.4858 0 1
2.3811 -2.2060 -1.8033 0.4858 0 1
2.3860 -2.2006 -1.8033 0.4858 0 1
2.3909 -2.1953 -1.8033 0.4858 0 1
2.3959 -2.1899 -1.8033 0.4858 0 1
2.4008 -2.1846 -1.8033 0.4858 0 1
2.4057 -2.1792 -1.8033 0.4858 0 1
2.4106 -2.1737 -1.8033 0.4858 0 1
2.4154 -2.1683 -1.8033 0.4858 0 1
2.4203 -2.1629 -1.8033 0.4858 0 1
2.4251 -2.1575 -1.8033 0.4858 0 1
2.4300 -2.1520 -1.8033 0.4858 0 1
2.4348 -2.1466 -1.8033 0.4858 0 1
2.4396 -2.1411 -1.8033 0.4858 0 1
2.4444 -2.1356 -1.8033 0.4858 0 1
2.4492 -2.1301 -1.8033 0.4858 0 1
2.4540 -2.1246 -1.8033 0.4858 0 1
2.4587 -2.1191 -1.8033 0.4858 0 1
2.4635 -2.1136 -1.8033 0.4858 0 1
2.4682 -2.1080 -1.8033 0.4858 0 1
2.4729 -2.1025 -1.8033 0.4858 0 1
2.4776 -2.0969 -1.8033 0.4858 0 1
2.4823 -2.0914 -1.8033 0.4858 0 1
2.4870 -2.0858 -1.8033 0.4858 0 1
2.4917 -2.0802 -1.8033 0.4858 0 1
2.4963 -2.0746 -1.8033 0.4858 0 1
2.5010 -2.0690 -1.8033 0.4858 0 1
2.5056 -2.0634 -1.8033 0.4858 0 1
2.5103 -2.0578 -1.8033 0.4858 0 1
2.5149 -2.0521 -1.8033 0.4858 0 1
2.5195 -2.0465 -1.8033 0.4858 0 1
2.5241 -2.0408 -1.8033 0.4858 0 1
2.5286 -2.0351 -1.8033 0.4858 0 1
2.5332 -2.0295 -1.8033 0.4858 0 1
2.5377 -2.0238 -1.8033 0.4858 0 1
2.5423 -2.0181 -1.8033 0.4858 0 1
2.5468 -2.0124 -1.8033 0.4858 0 1
2.5513 -2.0066 -1.8033 0.4858 0 1
2.5558 -2.0009 -1.8033 0.4858 0 1
2.5603 -1.9952 -1.8033 0.4858 0 1
2.5647 -1.9894 -1.8033 0.4858 0 1
2.5692 -1.9837 -1.8033 0.4858 0 1
2.5736 -1.9779 -1.8033 0.4858 0 1
2.5781 -1.9721 -1.8033 0.4858 0 1
2.5825 -1.9663 -1.8033 0.4858 0 1
2.5869 -1.9605 -1.8033 0.4858 0 1
2.5913 -1.9547 -1.8033 0.4858 0 1
2.5957 -1.9489 -1.8033 0.4858 0 1
2.6000 -1.9430 -1.8033 0.4858 0 1
2.6044 -1.9372 -1.8033 0.4858 0 1
2.6087 -1.9313 -1.8033 0.4858 0 1
2.6130 -1.9255 -1.8033 0.4858 0 1
2.6174 -1.9196 -1.8033 0.4858 0 1
2.6217 -1.9137 -1.8033 0.4858 0 1
2.6259 -1.9079 -1.8033 0.4858 0 1
2.6302 -1.9020 -1.8033 0.4858 0 1
2.6345 -1.8961 -1.8033 0.4858 0 1
2.6387 -1.8901 -1.8033 0.4858 0 1
2.6430 -1.8842 -1.8033 0.4858 0 1
2.6472 -1.8783 -1.8033 0.4858 0 1
2.6514 -1.8723 -1.8033 0.4858 0 1
2.6556 -1.8664 -1.8033 0.4858 0 1
2.6598 -1.8604 -1.8033 0.4858 0 1
2.6639 -1.8544 -1.8033 0.4858 0 1
2.6681 -1.8485 -1.8033 0.4858 0 1
2.6722 -1.8425 -1.8033 0.4858 0 1
2.6763 -1.8365 -1.8033 0.4858 0 1
2.6805 -1.8304 -1.8033 0.4858 0 1
2.6846 -1.8244 -1.8033 0.4858 0 1
2.6886 -1.8184 -1.8033 0.4858 0 1
2.6927 -1.8123 -1.8033 0.4858 0 1
2.6968 -1.8063 -1.8033 0.4858 0 1
2.7008 -1.8003 -1.8033 0.4858 0 1
2.7048 -1.7942 -1.8033 0.4858 0 1
2.7089 -1.7881 -1.8033 0.4858 0 1
2.7129 -1.7820 -1.8033 0.4858 0 1
2.7169 -1.7759 -1.8033 0.4858 0 1
2.7208 -1.7698 -1.8033 0.4858 0 1
2.7248 -1.7637 -1.8033 0.4858 0 1
2.7288 -1.7576 -1.8033 0.4858 0 1
2.7327 -1.7515 -1.8033 0.4858 0 1
2.7366 -1.7453 -1.8033 0.4858 0 1
2.7405 -1.7392 -1.8033 0.4858 0 1
2.7444 -1.7330 -1.8033 0.4858 0 1
2.7483 -1.7269 -1.8033 0.4858 0 1
2.7522 -1.7207 -1.8033 0.4858 0 1
2.7560 -1.7145 -1.8033 0.4858 0 1
2.7599 -1.7083 -1.8033 0.4858 0 1
2.7637 -1.7021 -1.8033 0.4858 0 1
2.7675 -1.6959 -1.8033 0.4858 0 1
2.7713 -1.6897 -1.8033 0.4858 0 1
2.7751 -1.6835 -1.8033 0.4858 0 1
2.7788 -1.6772 -1.8033 0.4858 0 1
2.7826 -1.6710 -1.8033 0.4858 0 1
2.7863 -1.6648 -1.8033 0.4858 0 1
2.7901 -1.6585 -1.8033 0.4858 0 1
2.7938 -1.6522 -1.8033 0.4858 0 1
2.7975 -1.6460 -1.8033 0.4858 0 1
2.8012 -1.6397 -1.8033 0.4858 0 1
2.8048 -1.6334 -1.8033 0.4858 0 1
2.8085 -1.6271 -1.8033 0.4858 0 1
2.8121 -1.6208 -1.8033 0.4858 0 1
2.8158 -1.6145 -1.8033 0.4858 0 1
2.8194 -1.6081 -1.8033 0.4858 0 1
2.8230 -1.6018 -1.8033 0.4858 0 1
2.8266 -1.5955 -1.8033 0.4858 0 1
2.8301 -1.5891 -1.8033 0.4858 0 1
2.8337 -1.5828 -1.8033 0.4858 0 1
2.8372 -1.5764 -1.8033 0.4858 0 1
2.8408 -1.5700 -1.8033 0.4858 0 1
2.8443 -1.5637 -1.8032 0.4858 0 1
2.8478 -1.5573 -1.8032 0.4858 0 1
2.8513 -1.5509 -1.8032 0.4858 0 1
2.8548 -1.5445 -1.8032 0.4858 0 1
2.8582 -1.5381 -1.8032 0.4858 0 1
2.8617 -1.5316 -1.8032 0.4858 0 1
2.8651 -1.5252 -1.8032 0.4858 0 1
2.8685 -1.5188 -1.8032 0.4858 0 1
2.8719 -1.5123 -1.8032 0.4858 0 1
2.8753 -1.5059 -1.8032 0.4858 0 1
2.8787 -1.4994 -1.8032 0.4858 0 1
2.8820 -1.4930 -1.8032 0.4858 0 1
2.8854 -1.4865 -1.8032 0.4858 0 1
2.8887 -1.4800 -1.8032 0.4858 0 1
2.8920 -1.4735 -1.8032 0.4858 0 1
2.8953 -1.4670 -1.8032 0.4858 0 1
1.6125 -0.8125 -1.0031 0.4358 458 14
1.6115 -0.8075 -1.0014 0.4365 458 14
1.6105 -0.8024 -0.9996 0.4373 458 14
1.6095 -0.7975 -0.9979 0.4380 458 14
1.6085 -0.7925 -0.9962 0.4388 458 14
1.6075 -0.7875 -0.9945 0.4395 458 14
1.6065 -0.7826 -0.9928 0.4403 458 14
1.6056 -0.7777 -0.9911 0.4410 458 14
1.6046 -0.7728 -0.9895 0.4418 458 14
1.6037 -0.7679 -0.9878 0.4425 458 14
1.6028 -0.7630 -0.9862 0.4432 458 14
1.6018 -0.7582 -0.9846 0.4440 458 14
1.6009 -0.7533 -0.9830 0.4447 458 14
1.6000 -0.7485 -0.9814 0.4454 458 14
1.5991 -0.7437 -0.9798 0.4461 458 14
1.5982 -0.7389 -0.9782 0.4469 458 14
1.5973 -0.7342 -0.9767 0.4476 458 14
1.5964 -0.7295 -0.9751 0.4483 458 14
1.5955 -0.7247 -0.9736 0.4490 458 14
1.5947 -0.7200 -0.9721 0.4497 458 14
1.5938 -0.7153 -0.9706 0.4504 458 14
1.5929 -0.7106 -0.9691 0.4511 458 14
1.5921 -0.7060 -0.9676 0.4518 458 14
1.5912 -0.7013 -0.9661 0.4525 458 14
1.5904 -0.6967 -0.9646 0.4531 458 14
1.5896 -0.6921 -0.9632 0.4538 458 14
1.5888 -0.6875 -0.9618 0.4545 458 14
1.5879 -0.6829 -0.9603 0.4552 458 14
1.5871 -0.6784 -0.9589 0.4558 458 14
1.5863 -0.6738 -0.9575 0.4565 458 14
1.5855 -0.6693 -0.9561 0.4572 458 14
1.5847 -0.6648 -0.9548 0.4578 458 14
1.5840 -0.6603 -0.9534 0.4585 458 14
1.5832 -0.6558 -0.9520 0.4591 458 14
1.5824 -0.6513 -0.9507 0.4598 458 14
1.5816 -0.6468 -0.9494 0.4604 458 14
1.5809 -0.6424 -0.9480 0.4611 458 14
1.5801 -0.6379 -0.9467 0.4617 458 14
3.0124 -1.2083 -1.8032 0.4858 0 1
3.0151 -1.2016 -1.8032 0.4858 0 1
3.0178 -1.1948 -1.8032 0.4858 0 1
3.0205 -1.1880 -1.8032 0.4858 0 1
3.0231 -1.1813 -1.8032 0.4858 0 1
3.0258 -1.1745 -1.8032 0.4858 0 1
3.0284 -1.1677 -1.8032 0.4858 0 1
3.0310 -1.1609 -1.8032 0.4858 0 1
3.0336 -1.1541 -1.8032 0.4858 0 1
3.0362 -1.1473 -1.8032 0.4858 0 1
3.0387 -1.1404 -1.8032 0.4858 0 1
3.0413 -1.1336 -1.8032 0.4858 0 1
3.0438 -1.1268 -1.8032 0.4858 0 1
3.0463 -1.1200 -1.8032 0.4858 0 1
3.0489 -1.1131 -1.8032 0.4858 0 1
3.0513 -1.1063 -1.8032 0.4858 0 1
3.0538 -1.0994 -1.8032 0.4858 0 1
3.0563 -1.0926 -1.8032 0.4858 0 1
3.0587 -1.0857 -1.8032 0.4858 0 1
3.0611 -1.0789 -1.8032 0.4858 0 1
3.0636 -1.0720 -1.8032 0.4858 0 1
3.0659 -1.0651 -1.8032 0.4858 0 1
3.0683 -1.0582 -1.8032 0.4858 0 1
3.0707 -1.0513 -1.8032 0.4858 0 1
3.0731 -1.0444 -1.8032 0.4858 0 1
3.0754 -1.0375 -1.8032 0.4858 0 1
3.0777 -1.0306 -1.8032 0.4858 0 1
3.0800 -1.0237 -1.8032 0.4858 0 1
3.0823 -1.0168 -1.8032 0.4858 0 1
3.0846 -1.0099 -1.8032 0.4858 0 1
3.0868 -1.0030 -1.8032 0.4858 0 1
3.0891 -0.9960 -1.8032 0.4858 0 1
3.0913 -0.9891 -1.8032 0.4858 0 1
3.0935 -0.9822 -1.8032 0.4858 0 1
3.0957 -0.9752 -1.8032 0.4858 0 1
3.0979 -0.9683 -1.8032 0.4858 0 1
3.1001 -0.9613 -1.8032 0.4858 0 1
3.1022 -0.9544 -1.8032 0.4858 0 1
3.1043 -0.9474 -1.8032 0.4858 0 1
3.1065 -0.9404 -1.8032 0.4858 0 1
3.1086 -0.9335 -1.8032 0.4858 0 1
3.1106 -0.9265 -1.8032 0.4858 0 1
3.1127 -0.9195 -1.8032 0.4858 0 1
3.1148 -0.9125 -1.8032 0.4858 0 1
3.1168 -0.9055 -1.8032 0.4858 0 1
3.1188 -0.8985 -1.8032 0.4858 0 1
3.1208 -0.8915 -1.8032 0.4858 0 1
3.1228 -0.8845 -1.8032 0.4858 0 1
3.1248 -0.8775 -1.8032 0.4858 0 1
3.1268 -0.8705 -1.8032 0.4858 0 1
3.1287 -0.8635 -1.8032 0.4858 0 1
3.1306 -0.8564 -1.8032 0.4858 0 1
3.1325 -0.8494 -1.8032 0.4858 0 1
3.1345 -0.8424 -1.8032 0.4858 0 1
3.1363 -0.8354 -1.8032 0.4858 0 1
3.1382 -0.8283 -1.8032 0.4858 0 1
3.1400 -0.8213 -1.8032 0.4858 0 1
3.1419 -0.8142 -1.8032 0.4858 0 1
3.1437 -0.8072 -1.8032 0.4858 0 1
3.1455 -0.8001 -1.8032 0.4858 0 1
3.1473 -0.7930 -1.8032 0.4858 0 1
3.1491 -0.7860 -1.8032 0.4858 0 1
3.1508 -0.7789 -1.8032 0.4858 0 1
3.1526 -0.7719 -1.8032 0.4858 0 1
3.1543 -0.7648 -1.8032 0.4858 0 1
3.1560 -0.7577 -1.8032 0.4858 0 1
3.1577 -0.7506 -1.8032 0.4858 0 1
3.1594 -0.7435 -1.8032 0.4858 0 1
3.1610 -0.7364 -1.8032 0.4858 0 1
3.1627 -0.7293 -1.8032 0.4858 0 1
3.1643 -0.7222 -1.8032 0.4858 0 1
3.1659 -0.7151 -1.8032 0.4858 0 1
3.1675 -0.7080 -1.8032 0.4858 0 1
3.1691 -0.7009 -1.8032 0.4858 0 1
3.1706 -0.6938 -1.8032 0.4858 0 1
3.1722 -0.6867 -1.8032 0.4858 0 1
3.1737 -0.6796 -1.8032 0.4858 0 1
3.1752 -0.6724 -1.8032 0.4858 0 1
3.1767 -0.6653 -1.8032 0.4858 0 1
3.1782 -0.6582 -1.8032 0.4858 0 1
3.1797 -0.6511 -1.8032 0.4858 0 1
3.1811 -0.6439 -1.8032 0.4858 0 1
3.1826 -0.6368 -1.8032 0.4858 0 1
3.1840 -0.6296 -1.8032 0.4858 0 1
3.1854 -0.6225 -1.8032 0.4858 0 1
3.1868 -0.6153 -1.8032 0.4858 0 1
3.1882 -0.6082 -1.8032 0.4858 0 1
3.1895 -0.6010 -1.8032 0.4858 0 1
3.1909 -0.5938 -1.8032 0.4858 0 1
3.1922 -0.5867 -1.8032 0.4858 0 1
3.1935 -0.5795 -1.8032 0.4858 0 1
3.1948 -0.5724 -1.8032 0.4858 0 1
3.1961 -0.5652 -1.8032 0.4858 0 1
3.1973 -0.5580 -1.8032 0.4858 0 1
3.1986 -0.5508 -1.8032 0.4858 0 1
3.1998 -0.5437 -1.8032 0.4858 0 1
3.2010 -0.5365 -1.8032 0.4858 0 1
3.2022 -0.5293 -1.8032 0.4858 0 1
3.2034 -0.5221 -1.8032 0.4858 0 1
3.2045 -0.5149 -1.8032 0.4858 0 1
3.2057 -0.5077 -1.8032 0.4858 0 1
3.2068 -0.5005 -1.8032 0.4858 0 1
3.2079 -0.4933 -1.8032 0.4858 0 1
3.2090 -0.4861 -1.8032 0.4858 0 1
3.2101 -0.4789 -1.8032 0.4858 0 1
3.2112 -0.4717 -1.8032 0.4858 0 1
3.2122 -0.4645 -1.8032 0.4858 0 1
3.2133 -0.4573 -1.8032 0.4858 0 1
3.2143 -0.4501 -1.8032 0.4858 0 1
3.2153 -0.4429 -1.8032 0.4858 0 1
3.2163 -0.4357 -1.8032 0.4858 0 1
3.2172 -0.4284 -1.8032 0.4858 0 1
3.2182 -0.4212 -1.8032 0.4858 0 1
3.2191 -0.4140 -1.8032 0.4858 0 1
3.2201 -0.4068 -1.8032 0.4858 0 1
3.2210 -0.3996 -1.8032 0.4858 0 1
3.2218 -0.3923 -1.8032 0.4858 0 1
3.2227 -0.3851 -1.8032 0.4858 0 1
3.2236 -0.3779 -1.8032 0.4858 0 1
3.2244 -0.3706 -1.8032 0.4858 0 1
3.2252 -0.3634 -1.8032 0.4858 0 1
3.2260 -0.3562 -1.8032 0.4858 0 1
3.2268 -0.3489 -1.8032 0.4858 0 1
3.2276 -0.3417 -1.8032 0.4858 0 1
3.2284 -0.3344 -1.8032 0.4858 0 1
3.2291 -0.3272 -1.8032 0.4858 0 1
3.2298 -0.3199 -1.8032 0.4858 0 1
3.2305 -0.3127 -1.8032 0.4858 0 1
3.2312 -0.3054 -1.8032 0.4858 0 1
3.2319 -0.2982 -1.8032 0.4858 0 1
3.2326 -0.2909 -1.8032 0.4858 0 1
3.2332 -0.2837 -1.8032 0.4858 0 1
3.2338 -0.2764 -1.8032 0.4858 0 1
3.2345 -0.2692 -1.8032 0.4858 0 1
3.2351 -0.2619 -1.8032 0.4858 0 1
3.2356 -0.2546 -1.8032 0.4858 0 1
3.2362 -0.2474 -1.8032 0.4858 0 1
3.2367 -0.2401 -1.8032 0.4858 0 1
3.2373 -0.2329 -1.8032 0.4858 0 1
3.2378 -0.2256 -1.8032 0.4858 0 1
3.2383 -0.2183 -1.8032 0.4858 0 1
3.2388 -0.2111 -1.8032 0.4858 0 1
3.2392 -0.2038 -1.8032 0.4858 0 1
3.2397 -0.1965 -1.8032 0.4858 0 1
3.2401 -0.1893 -1.8032 0.4858 0 1
3.2405 -0.1820 -1.8032 0.4858 0 1
3.2409 -0.1747 -1.8032 0.4858 0 1
3.2413 -0.1674 -1.8032 0.4858 0 1
3.2417 -0.1602 -1.8032 0.4858 0 1
3.2420 -0.1529 -1.8032 0.4858 0 1
3.2424 -0.1456 -1.8032 0.4858 0 1
3.2427 -0.1383 -1.8032 0.4858 0 1
3.2430 -0.1311 -1.8032 0.4858 0 1
3.2433 -0.1238 -1.8032 0.4858 0 1
3.2435 -0.1165 -1.8032 0.4858 0 1
3.2438 -0.1092 -1.8032 0.4858 0 1
3.2440 -0.1020 -1.8032 0.4858 0 1
3.2443 -0.0947 -1.8032 0.4858 0 1
3.2445 -0.0874 -1.8032 0.4858 0 1
3.2446 -0.0801 -1.8032 0.4858 0 1
3.2448 -0.0728 -1.8032 0.4858 0 1
3.2450 -0.0655 -1.8032 0.4858 0 1
3.2451 -0.0583 -1.8032 0.4858 0 1
3.2452 -0.0510 -1.8032 0.4858 0 1
3.2453 -0.0437 -1.8032 0.4858 0 1
3.2454 -0.0364 -1.8032 0.4858 0 1
3.2455 -0.0291 -1.8032 0.4858 0 1
3.2456 -0.0218 -1.8032 0.4858 0 1
3.2456 -0.0146 -1.8032 0.4858 0 1
3.2456 -0.0073 -1.8032 0.4858 0 1
3.2456 0.0000 -1.8032 0.4858 0 1
3.2456 0.0073 -1.8032 0.4858 0 1
3.2456 0.0146 -1.8032 0.4858 0 1
3.2456 0.0219 -1.8032 0.4858 0 1
3.2455 0.0292 -1.8032 0.4858 0 1
3.2454 0.0364 -1.8032 0.4858 0 1
3.2453 0.0437 -1.8032 0.4858 0 1
3.2452 0.0510 -1.8032 0.4858 0 1
3.2451 0.0583 -1.8032 0.4858 0 1
3.2450 0.0655 -1.8032 0.4858 0 1
3.2448 0.0728 -1.8032 0.4858 0 1
3.2446 0.0801 -1.8032 0.4858 0 1
3.2445 0.0874 -1.8032 0.4858 0 1
3.2443 0.0947 -1.8032 0.4858 0 1
3.2440 0.1020 -1.8032 0.4858 0 1
3.2438 0.1092 -1.8032 0.4858 0 1
3.2435 0.1165 -1.8032 0.4858 0 1
3.2433 0.1238 -1.8032 0.4858 0 1
3.2430 0.1311 -1.8032 0.4858 0 1
3.2427 0.1383 -1.8032 0.4858 0 1
3.2424 0.1456 -1.8032 0.4858 0 1
3.2420 0.1529 -1.8032 0.4858 0 1
3.2417 0.1602 -1.8032 0.4858 0 1
3.2413 0.1674 -1.8032 0.4858 0 1
3.2409 0.1747 -1.8032 0.4858 0 1
3.2405 0.1820 -1.8032 0.4858 0 1
3.2401 0.1893 -1.8032 0.4858 0 1
3.2397 0.1965 -1.8032 0.4858 0 1
3.2392 0.2038 -1.8032 0.4858 0 1
3.2388 0.2111 -1.8032 0.4858 0 1
3.2383 0.2183 -1.8032 0.4858 0 1
3.2378 0.2256 -1.8032 0.4858 0 1
3.2373 0.2329 -1.8032 0.4858 0 1
3.2367 0.2401 -1.8032 0.4858 0 1
3.2362 0.2474 -1.8032 0.4858 0 1
3.2356 0.2546 -1.8032 0.4858 0 1
3.2351 0.2619 -1.8032 0.4858 0 1
3.2345 0.2692 -1.8032 0.4858 0 1
3.2338 0.2764 -1.8032 0.4858 0 1
3.2332 0.2837 -1.8032 0.4858 0 1
3.2326 0.2909 -1.8032 0.4858 0 1
3.2319 0.2982 -1.8032 0.4858 0 1
3.2312 0.3054 -1.8032 0.4858 0 1
3.2305 0.3127 -1.8032 0.4858 0 1
3.2298 0.3199 -1.8032 0.4858 0 1
3.2291 0.3272 -1.8032 0.4858 0 1
3.2284 0.3345 -1.8032 0.4858 0 1
3.2276 0.3417 -1.8032 0.4858 0 1
3.2268 0.3489 -1.8032 0.4858 0 1
3.2260 0.3562 -1.8032 0.4858 0 1
3.2252 0.3634 -1.8032 0.4858 0 1
3.2244 0.3706 -1.8032 0.4858 0 1
3.2236 0.3779 -1.8032 0.4858 0 1
3.2227 0.3851 -1.8032 0.4858 0 1
3.2218 0.3923 -1.8032 0.4858 0 1
3.2210 0.3996 -1.8032 0.4858 0 1
3.2201 0.4068 -1.8032 0.4858 0 1
3.2191 0.4140 -1.8032 0.4858 0 1
3.2182 0.4212 -1.8032 0.4858 0 1
3.2172 0.4285 -1.8032 0.4858 0 1
3.2163 0.4357 -1.8032 0.4858 0 1
3.2153 0.4429 -1.8032 0.4858 0 1
3.2143 0.4501 -1.8032 0.4858 0 1
3.2133 0.4573 -1.8032 0.4858 0 1
3.2122 0.4645 -1.8032 0.4858 0 1
3.2112 0.4717 -1.8032 0.4858 0 1
3.2101 0.4789 -1.8032 0.4858 0 1
3.2090 0.4862 -1.8032 0.4858 0 1
3.2079 0.4933 -1.8032 0.4858 0 1
3.2068 0.5005 -1.8032 0.4858 0 1
3.2057 0.5077 -1.8032 0.4858 0 1
3.2045 0.5149 -1.8032 0.4858 0 1
3.2034 0.5221 -1.8032 0.4858 0 1
3.2022 0.5293 -1.8032 0.4858 0 1
3.2010 0.5365 -1.8032 0.4858 0 1
3.1998 0.5437 -1.8032 0.4858 0 1
3.1986 0.5509 -1.8032 0.4858 0 1
3.1973 0.5580 -1.8032 0.4858 0 1
3.1961 0.5652 -1.8032 0.4858 0 1
3.1948 0.5724 -1.8032 0.4858 0 1
3.1935 0.5796 -1.8032 0.4858 0 1
3.1922 0.5867 -1.8032 0.4858 0 1
3.1909 0.5939 -1.8032 0.4858 0 1
3.1895 0.6010 -1.8032 0.4858 0 1
3.1882 0.6082 -1.8032 0.4858 0 1
3.1868 0.6154 -1.8032 0.4858 0 1
3.1854 0.6225 -1.8032 0.4858 0 1
3.1840 0.6296 -1.8032 0.4858 0 1
3.1826 0.6368 -1.8032 0.4858 0 1
3.1812 0.6439 -1.8032 0.4858 0 1
3.1797 0.6511 -1.8032 0.4858 0 1
3.1782 0.6582 -1.8032 0.4858 0 1
3.1767 0.6653 -1.8032 0.4858 0 1
3.1752 0.6724 -1.8032 0.4858 0 1
3.1737 0.6796 -1.8032 0.4858 0 1
3.1722 0.6867 -1.8032 0.4858 0 1
3.1706 0.6938 -1.8032 0.4858 0 1
3.1691 0.7009 -1.8032 0.4858 0 1
3.1675 0.7080 -1.8032 0.4858 0 1
3.1659 0.7151 -1.8032 0.4858 0 1
3.1643 0.7222 -1.8032 0.4858 0 1
3.1627 0.7293 -1.8032 0.4858 0 1
3.1610 0.7364 -1.8032 0.4858 0 1
3.1594 0.7435 -1.8032 0.4858 0 1
3.1577 0.7506 -1.8032 0.4858 0 1
3.1560 0.7577 -1.8032 0.4858 0 1
3.1543 0.7648 -1.8032 0.4858 0 1
3.1526 0.7718 -1.8032 0.4858 0 1
3.1508 0.7789 -1.8032 0.4858 0 1
3.1491 0.7860 -1.8032 0.4858 0 1
3.1473 0.7930 -1.8032 0.4858 0 1
3.1455 0.8001 -1.8032 0.4858 0 1
3.1437 0.8072 -1.8032 0.4858 0 1
3.1419 0.8142 -1.8032 0.4858 0 1
3.1400 0.8213 -1.8032 0.4858 0 1
3.1382 0.8283 -1.8032 0.4858 0 1
3.1363 0.8354 -1.8032 0.4858 0 1
3.1345 0.8424 -1.8032 0.4858 0 1
3.1326 0.8494 -1.8032 0.4858 0 1
3.1306 0.8565 -1.8032 0.4858 0 1
3.1287 0.8635 -1.8032 0.4858 0 1
3.1268 0.8705 -1.8032 0.4858 0 1
3.1248 0.8775 -1.8032 0.4858 0 1
3.1228 0.8845 -1.8032 0.4858 0 1
3.1208 0.8915 -1.8032 0.4858 0 1
3.1188 0.8985 -1.8032 0.4858 0 1
3.1168 0.9055 -1.8032 0.4858 0 1
3.1148 0.9125 -1.8032 0.4858 0 1
3.1127 0.9195 -1.8032 0.4858 0 1
3.1106 0.9265 -1.8032 0.4858 0 1
3.1086 0.9335 -1.8032 0.4858 0 1
3.1065 0.9404 -1.8032 0.4858 0 1
3.1043 0.9474 -1.8032 0.4858 0 1
3.1022 0.9544 -1.8032 0.4858 0 1
3.1000 0.9613 -1.8032 0.4858 0 1
3.0979 0.9683 -1.8032 0.4858 0 1
3.0957 0.9752 -1.8032 0.4858 0 1
3.0935 0.9822 -1.8032 0.4858 0 1
3.0913 0.9891 -1.8032 0.4858 0 1
3.0891 0.9961 -1.8032 0.4858 0 1
3.0868 1.0030 -1.8032 0.4858 0 1
3.0846 1.0099 -1.8032 0.4858 0 1
3.0823 1.0168 -1.8032 0.4858 0 1
3.0800 1.0237 -1.8032 0.4858 0 1
3.0777 1.0307 -1.8032 0.4858 0 1
3.0754 1.0376 -1.8032 0.4858 0 1
3.0731 1.0445 -1.8032 0.4858 0 1
3.0707 1.0513 -1.8032 0.4858 0 1
3.0683 1.0582 -1.8032 0.4858 0 1
3.0660 1.0651 -1.8032 0.4858 0 1
3.0636 1.0720 -1.8032 0.4858 0 1
3.0611 1.0789 -1.8032 0.4858 0 1
3.0587 1.0857 -1.8032 0.4858 0 1
3.0563 1.0926 -1.8032 0.4858 0 1
3.0538 1.0995 -1.8032 0.4858 0 1
3.0513 1.1063 -1.8032 0.4858 0 1
3.0489 1.1131 -1.8032 0.4858 0 1
3.0464 1.1200 -1.8032 0.4858 0 1
3.0438 1.1268 -1.8032 0.4858 0 1
3.0413 1.1337 -1.8032 0.4858 0 1
3.0387 1.1405 -1.8032 0.4858 0 1
3.0362 1.1473 -1.8032 0.4858 0 1
3.0336 1.1541 -1.8032 0.4858 0 1
3.0310 1.1609 -1.8032 0.4858 0 1
3.0284 1.1677 -1.8032 0.4858 0 1
3.0258 1.1745 -1.8032 0.4858 0 1
3.0231 1.1813 -1.8032 0.4858 0 1
3.0205 1.1881 -1.8032 0.4858 0 1
3.0178 1.1948 -1.8032 0.4858 0 1
3.0151 1.2016 -1.8032 0.4858 0 1
3.0124 1.2084 -1.8032 0.4858 0 1
3.0097 1.2151 -1.8032 0.4858 0 1
3.0070 1.2219 -1.8032 0.4858 0 1
3.0042 1.2286 -1.8032 0.4858 0 1
3.0014 1.2354 -1.8032 0.4858 0 1
2.9987 1.2421 -1.8032 0.4858 0 1
2.9959 1.2488 -1.8032 0.4858 0 1
2.9930 1.2555 -1.8032 0.4858 0 1
2.9902 1.2622 -1.8032 0.4858 0 1
2.9874 1.2690 -1.8032 0.4858 0 1
2.9845 1.2757 -1.8032 0.4858 0 1
2.9817 1.2824 -1.8032 0.4858 0 1
2.9788 1.2891 -1.8032 0.4858 0 1
2.9759 1.2957 -1.8032 0.4858 0 1
2.9730 1.3024 -1.8032 0.4858 0 1
2.9700 1.3091 -1.8032 0.4858 0 1
2.9671 1.3157 -1.8032 0.4858 0 1
2.9641 1.3224 -1.8032 0.4858 0 1
2.9612 1.3290 -1.8032 0.4858 0 1
2.9582 1.3357 -1.8032 0.4858 0 1
2.9552 1.3423 -1.8032 0.4858 0 1
2.9521 1.3489 -1.8032 0.4858 0 1
2.9491 1.3556 -1.8032 0.4858 0 1
2.9461 1.3622 -1.8032 0.4858 0 1
2.9430 1.3688 -1.8032 0.4858 0 1
2.9399 1.3754 -1.8032 0.4858 0 1
2.9368 1.3820 -1.8032 0.4858 0 1
2.9337 1.3886 -1.8032 0.4858 0 1
2.9306 1.3952 -1.8032 0.4858 0 1
2.9275 1.4017 -1.8032 0.4858 0 1
2.9243 1.4083 -1.8032 0.4858 0 1
2.9212 1.4148 -1.8032 0.4858 0 1
2.9180 1.4214 -1.8032 0.4858 0 1
2.9148 1.4279 -1.8032 0.4858 0 1
2.9116 1.4345 -1.8032 0.4858 0 1
2.9083 1.4410 -1.8032 0.4858 0 1
2.9051 1.4475 -1.8032 0.4858 0 1
2.9018 1.4540 -1.8032 0.4858 0 1
2.8986 1.4606 -1.8032 0.4858 0 1
2.8953 1.4671 -1.8032 0.4858 0 1
2.8920 1.4736 -1.8032 0.4858 0 1
2.8887 1.4801 -1.8032 0.4858 0 1
2.8854 1.4865 -1.8032 0.4858 0 1
1.6176 0.8380 -1.0121 0.4319 458 14
1.6187 0.8432 -1.0140 0.4311 458 14
1.6197 0.8483 -1.0158 0.4303 458 14
1.6208 0.8535 -1.0177 0.4295 458 14
1.6219 0.8588 -1.0196 0.4287 458 14
1.6230 0.8640 -1.0215 0.4279 458 14
1.6241 0.8693 -1.0234 0.4271 458 14
1.6252 0.8746 -1.0253 0.4263 458 14
1.6263 0.8799 -1.0273 0.4255 458 14
1.6274 0.8852 -1.0292 0.4247 458 14
1.6286 0.8906 -1.0312 0.4239 458 14
1.6297 0.8960 -1.0332 0.4231 458 14
1.6309 0.9013 -1.0352 0.4222 458 14
1.6320 0.9068 -1.0373 0.4214 458 14
1.6332 0.9122 -1.0393 0.4206 458 14
1.6344 0.9177 -1.0414 0.4198 458 14
1.6356 0.9232 -1.0434 0.4189 458 14
1.6368 0.9287 -1.0455 0.4181 458 14
1.6380 0.9343 -1.0476 0.4172 458 14
1.6392 0.9399 -1.0498 0.4164 458 14
1.6404 0.9455 -1.0519 0.4156 458 14
1.6417 0.9511 -1.0541 0.4147 458 14
1.6429 0.9568 -1.0562 0.4138 458 14
1.6442 0.9624 -1.0584 0.4130 458 14
1.6454 0.9681 -1.0606 0.4121 458 14
1.6467 0.9739 -1.0629 0.4113 458 14
1.6480 0.9796 -1.0651 0.4104 458 14
1.6493 0.9854 -1.0674 0.4095 458 14
1.6506 0.9912 -1.0697 0.4086 458 14
1.6519 0.9971 -1.0720 0.4078 458 14
1.6533 1.0029 -1.0743 0.4069 458 14
1.6546 1.0088 -1.0766 0.4060 458 14
1.6560 1.0148 -1.0790 0.4051 458 14
1.6573 1.0207 -1.0814 0.4042 458 14
1.6587 1.0267 -1.0838 0.4033 458 14
1.6601 1.0327 -1.0862 0.4024 458 14
1.6615 1.0388 -1.0886 0.4015 458 14
1.6629 1.0449 -1.0911 0.4006 458 14
1.6643 1.0510 -1.0936 0.3997 458 14
1.6657 1.0571 -1.0961 0.3988 458 14
1.6672 1.0633 -1.0986 0.3979 458 14
1.6686 1.0695 -1.1011 0.3970 458 14
1.6701 1.0757 -1.1037 0.3961 458 14
1.6716 1.0820 -1.1062 0.3951 458 14
1.6731 1.0883 -1.1088 0.3942 458 14
1.6746 1.0946 -1.1115 0.3933 458 14
1.6761 1.1010 -1.1141 0.3924 458 14
1.6776 1.1074 -1.1168 0.3914 458 14
1.6791 1.1138 -1.1195 0.3905 458 14
1.6807 1.1203 -1.1222 0.3895 458 14
1.6823 1.1268 -1.1249 0.3886 458 14
1.6838 1.1333 -1.1276 0.3876 458 14
1.6854 1.1399 -1.1304 0.3867 458 14
1.6867 1.1463 -1.1330 0.6690 458 14
1.6868 1.1520 -1.1348 0.6679 458 14
1.6871 1.1576 -1.1367 0.6668 458 14
1.6873 1.1634 -1.1386 0.6657 458 14
1.6875 1.1691 -1.1405 0.6646 458 14
1.6877 1.1748 -1.1424 0.6634 458 14
1.6879 1.1806 -1.1443 0.6623 458 14
1.6881 1.1864 -1.1463 0.6612 458 14
1.6883 1.1922 -1.1482 0.6601 458 14
1.6885 1.1980 -1.1502 0.6590 458 14
1.6887 1.2039 -1.1522 0.6578 458 14
1.6889 1.2098 -1.1542 0.6567 458 14
1.6891 1.2156 -1.1562 0.6555 458 14
1.6893 1.2216 -1.1582 0.6544 458 14
1.6895 1.2275 -1.1602 0.6533 458 14
1.6897 1.2335 -1.1623 0.6521 458 14
1.6899 1.2394 -1.1643 0.6510 458 14
1.6901 1.2454 -1.1664 0.6498 458 14
1.6904 1.2515 -1.1685 0.6486 458 14
1.6906 1.2575 -1.1706 0.6475 458 14
1.6908 1.2636 -1.1727 0.6463 458 14
1.6910 1.2697 -1.1748 0.6451 458 14
1.6912 1.2758 -1.1769 0.6440 458 14
1.6915 1.2819 -1.1791 0.6428 458 14
1.6917 1.2881 -1.1813 0.6416 458 14
1.6919 1.2942 -1.1835 0.6404 458 14
1.4380 1.1052 -1.0076 0.0187 458 14
1.3863 1.0704 -0.9731 0.0194 458 14
1.3467 1.0446 -0.9469 0.3416 458 14
1.3434 1.0469 -0.9462 0.3418 458 14
1.3402 1.0492 -0.9456 0.3420 458 14
1.3369 1.0515 -0.9449 0.3423 458 14
1.3336 1.0538 -0.9443 0.3425 458 14
1.3303 1.0560 -0.9436 0.3427 458 14
1.3270 1.0583 -0.9430 0.3430 458 14
1.3237 1.0605 -0.9423 0.3432 458 14
1.3204 1.0627 -0.9417 0.3435 458 14
1.3171 1.0650 -0.9410 0.3437 458 14
1.3138 1.0672 -0.9403 0.3439 458 14
1.3105 1.0693 -0.9397 0.3442 458 14
1.3071 1.0715 -0.9390 0.3444 458 14
1.3038 1.0737 -0.9384 0.3447 458 14
1.3005 1.0759 -0.9377 0.3449 458 14
1.2971 1.0780 -0.9370 0.3452 458 14
1.2938 1.0802 -0.9364 0.3454 458 14
1.2905 1.0823 -0.9357 0.3456 458 14
1.2871 1.0844 -0.9350 0.3459 458 14
1.2838 1.0865 -0.9344 0.3461 458 14
1.2804 1.0886 -0.9337 0.3464 458 14
1.2770 1.0907 -0.9330 0.3466 458 14
1.2737 1.0928 -0.9324 0.3469 458 14
1.2703 1.0949 -0.9317 0.3471 458 14
1.2669 1.0969 -0.9310 0.3474 458 14
1.2636 1.0990 -0.9304 0.3476 458 14
1.2602 1.1010 -0.9297 0.3479 458 14
1.2568 1.1030 -0.9290 0.3481 458 14
1.2534 1.1050 -0.9283 0.3484 458 14
1.2500 1.1070 -0.9277 0.3487 458 14
1.2466 1.1090 -0.9270 0.3489 458 14
1.2432 1.1110 -0.9263 0.3492 458 14
1.2398 1.1130 -0.9256 0.3494 458 14
1.2364 1.1150 -0.9250 0.3497 458 14
1.2330 1.1169 -0.9243 0.3499 458 14
1.2296 1.1188 -0.9236 0.3502 458 14
1.2262 1.1208 -0.9229 0.3504 458 14
1.2227 1.1227 -0.9222 0.3507 458 14
1.2193 1.1246 -0.9216 0.3510 458 14
1.2159 1.1265 -0.9209 0.3512 458 14
1.2125 1.1284 -0.9202 0.3515 458 14
1.2090 1.1303 -0.9195 0.3517 458 14
1.2056 1.1321 -0.9188 0.3520 458 14
1.2021 1.1340 -0.9181 0.3523 458 14
1.1987 1.1359 -0.9175 0.3525 458 14
1.1953 1.1377 -0.9168 0.3528 458 14
1.1918 1.1395 -0.9161 0.3531 458 14
1.1884 1.1413 -0.9154 0.3533 458 14
1.1849 1.1431 -0.9147 0.3536 458 14
1.1815 1.1449 -0.9140 0.3539 458 14
1.1783 1.1470 -0.9136 0.5985 458 14
1.1763 1.1502 -0.9140 0.5983 458 14
1.1742 1.1533 -0.9144 0.5980 458 14
1.1721 1.1565 -0.9148 0.5977 458 14
1.1701 1.1596 -0.9152 0.5974 458 14
1.1680 1.1628 -0.9156 0.5972 458 14
2.2513 -2.2513 -1.8034 0.4930 0 1
2.2564 -2.2463 -1.8034 0.4930 0 1
2.2614 -2.2412 -1.8034 0.4930 0 1
2.2664 -2.2361 -1.8034 0.4930 0 1
2.2714 -2.2310 -1.8034 0.4930 0 1
2.2764 -2.2259 -1.8034 0.4930 0 1
2.2814 -2.2208 -1.8034 0.4930 0 1
2.2864 -2.2157 -1.8034 0.4930 0 1
2.2914 -2.2105 -1.8034 0.4930 0 1
2.2963 -2.2054 -1.8034 0.4930 0 1
2.3013 -2.2002 -1.8034 0.4930 0 1
2.3062 -2.1951 -1.8033 0.4930 0 1
2.3111 -2.1899 -1.8033 0.4930 0 1
2.3160 -2.1847 -1.8033 0.4930 0 1
2.3209 -2.1795 -1.8033 0.4930 0 1
2.3258 -2.1743 -1.8033 0.4930 0 1
2.3307 -2.1690 -1.8033 0.4930 0 1
2.3355 -2.1638 -1.8033 0.4930 0 1
2.3404 -2.1586 -1.8033 0.4930 0 1
2.3452 -2.1533 -1.8033 0.4930 0 1
2.3500 -2.1480 -1.8033 0.4930 0 1
2.3548 -2.1427 -1.8033 0.4930 0 1
2.3596 -2.1374 -1.8033 0.4930 0 1
2.3644 -2.1321 -1.8033 0.4930 0 1
2.3692 -2.1268 -1.8033 0.4930 0 1
2.3740 -2.1215 -1.8033 0.4930 0 1
2.3787 -2.1162 -1.8033 0.4930 0 1
2.3835 -2.1108 -1.8033 0.4930 0 1
2.3882 -2.1055 -1.8033 0.4930 0 1
2.3929 -2.1001 -1.8033 0.4930 0 1
2.3976 -2.0947 -1.8033 0.4930 0 1
2.4023 -2.0894 -1.8033 0.4930 0 1
2.4070 -2.0840 -1.8033 0.4930 0 1
2.4117 -2.0786 -1.8033 0.4930 0 1
2.4163 -2.0731 -1.8033 0.4930 0 1
2.4210 -2.0677 -1.8033 0.4930 0 1
2.4256 -2.0623 -1.8033 0.4930 0 1
2.4302 -2.0568 -1.8033 0.4930 0 1
2.4348 -2.0514 -1.8033 0.4930 0 1
2.4394 -2.0459 -1.8033 0.4930 0 1
2.4440 -2.0404 -1.8033 0.4930 0 1
2.4486 -2.0349 -1.8033 0.4930 0 1
2.4531 -2.0294 -1.8033 0.4930 0 1
2.4577 -2.0239 -1.8033 0.4930 0 1
2.4622 -2.0184 -1.8033 0.4930 0 1
2.4667 -2.0129 -1.8033 0.4930 0 1
2.4713 -2.0073 -1.8033 0.4930 0 1
2.4758 -2.0018 -1.8033 0.4930 0 1
2.4802 -1.9962 -1.8033 0.4930 0 1
2.4847 -1.9906 -1.8033 0.4930 0 1
2.4892 -1.9850 -1.8033 0.4930 0 1
2.4936 -1.9795 -1.8033 0.4930 0 1
2.4981 -1.9739 -1.8033 0.4930 0 1
2.5025 -1.9682 -1.8033 0.4930 0 1
2.5069 -1.9626 -1.8033 0.4930 0 1
2.5113 -1.9570 -1.8033 0.4930 0 1
2.5157 -1.9513 -1.8033 0.4930 0 1
2.5200 -1.9457 -1.8033 0.4930 0 1
2.5244 -1.9400 -1.8033 0.4930 0 1
2.5287 -1.9344 -1.8033 0.4930 0 1
2.5331 -1.9287 -1.8033 0.4930 0 1
2.5374 -1.9230 -1.8033 0.4930 0 1
2.5417 -1.9173 -1.8033 0.4930 0 1
2.5460 -1.9116 -1.8033 0.4930 0 1
2.5503 -1.9059 -1.8033 0.4930 0 1
2.5546 -1.9001 -1.8033 0.4930 0 1
2.5588 -1.8944 -1.8033 0.4930 0 1
2.5630 -1.8886 -1.8033 0.4930 0 1
2.5673 -1.8829 -1.8033 0.4930 0 1
2.5715 -1.8771 -1.8033 0.4930 0 1
2.5757 -1.8713 -1.8033 0.4930 0 1
2.5799 -1.8656 -1.8033 0.4930 0 1
2.5841 -1.8598 -1.8033 0.4930 0 1
2.5882 -1.8540 -1.8033 0.4930 0 1
2.5924 -1.8481 -1.8033 0.4930 0 1
2.5965 -1.8423 -1.8033 0.4930 0 1
2.6006 -1.8365 -1.8033 0.4930 0 1
2.6048 -1.8307 -1.8033 0.4930 0 1
2.6089 -1.8248 -1.8033 0.4930 0 1
2.6129 -1.8189 -1.8033 0.4930 0 1
2.6170 -1.8131 -1.8033 0.4930 0 1
2.6211 -1.8072 -1.8033 0.4930 0 1
2.6251 -1.8013 -1.8033 0.4930 0 1
2.6292 -1.7954 -1.8033 0.4930 0 1
2.6332 -1.7895 -1.8033 0.4930 0 1
2.6372 -1.7836 -1.8033 0.4930 0 1
2.6412 -1.7777 -1.8033 0.4930 0 1
2.6452 -1.7718 -1.8033 0.4930 0 1
2.6492 -1.7658 -1.8033 0.4930 0 1
2.6531 -1.7598 -1.8033 0.4930 0 1
2.6570 -1.7539 -1.8033 0.4930 0 1
2.6610 -1.7479 -1.8033 0.4930 0 1
2.6649 -1.7420 -1.8033 0.4930 0 1
2.6688 -1.7360 -1.8033 0.4930 0 1
2.6727 -1.7300 -1.8033 0.4930 0 1
2.6766 -1.7240 -1.8033 0.4930 0 1
2.6804 -1.7180 -1.8033 0.4930 0 1
2.6843 -1.7119 -1.8033 0.4930 0 1
2.6881 -1.7059 -1.8033 0.4930 0 1
2.6919 -1.6999 -1.8033 0.4930 0 1
2.6957 -1.6938 -1.8033 0.4930 0 1
2.6995 -1.6878 -1.8033 0.4930 0 1
2.7033 -1.6817 -1.8033 0.4930 0 1
2.7071 -1.6756 -1.8033 0.4930 0 1
2.7108 -1.6696 -1.8033 0.4930 0 1
2.7146 -1.6635 -1.8033 0.4930 0 1
2.7183 -1.6574 -1.8033 0.4930 0 1
2.7220 -1.6513 -1.8033 0.4930 0 1
2.7257 -1.6452 -1.8033 0.4930 0 1
2.7294 -1.6390 -1.8033 0.4930 0 1
2.7330 -1.6329 -1.8033 0.4930 0 1
2.7367 -1.6268 -1.8033 0.4930 0 1
2.7403 -1.6206 -1.8033 0.4930 0 1
2.7440 -1.6145 -1.8033 0.4930 0 1
2.7476 -1.6083 -1.8033 0.4930 0 1
2.7512 -1.6021 -1.8033 0.4930 0 1
2.7548 -1.5960 -1.8033 0.4930 0 1
2.7583 -1.5898 -1.8033 0.4930 0 1
2.7619 -1.5836 -1.8033 0.4930 0 1
2.7654 -1.5774 -1.8033 0.4930 0 1
2.7690 -1.5712 -1.8033 0.4930 0 1
2.7725 -1.5649 -1.8033 0.4930 0 1
2.7760 -1.5587 -1.8033 0.4930 0 1
2.7795 -1.5525 -1.8033 0.4930 0 1
2.7830 -1.5462 -1.8033 0.4930 0 1
2.7864 -1.5400 -1.8033 0.4930 0 1
2.7899 -1.5337 -1.8033 0.4930 0 1
2.7933 -1.5275 -1.8033 0.4930 0 1
2.7967 -1.5212 -1.8033 0.4930 0 1
2.8001 -1.5149 -1.8033 0.4930 0 1
2.8035 -1.5086 -1.8033 0.4930 0 1
2.8069 -1.5023 -1.8033 0.4930 0 1
2.8103 -1.4960 -1.8033 0.4930 0 1
2.8136 -1.4897 -1.8033 0.4930 0 1
2.8170 -1.4834 -1.8033 0.4930 0 1
2.8203 -1.4771 -1.8033 0.4930 0 1
2.8236 -1.4708 -1.8033 0.4930 0 1
2.8269 -1.4644 -1.8033 0.4930 0 1
2.8301 -1.4580 -1.8033 0.4930 0 1
2.8334 -1.4517 -1.8033 0.4930 0 1
2.8367 -1.4453 -1.8033 0.4930 0 1
2.8399 -1.4390 -1.8033 0.4930 0 1
2.8431 -1.4326 -1.8032 0.4930 0 1
2.8463 -1.4262 -1.8032 0.4930 0 1
1.6280 -0.8112 -1.0303 0.4306 458 14
1.6270 -0.8061 -1.0285 0.4313 458 14
1.6259 -0.8011 -1.0267 0.4321 458 14
1.6249 -0.7961 -1.0249 0.4328 458 14
1.6239 -0.7910 -1.0231 0.4336 458 14
1.6229 -0.7861 -1.0214 0.4343 458 14
1.6219 -0.7811 -1.0197 0.4350 458 14
1.6209 -0.7761 -1.0179 0.4358 458 14
1.6200 -0.7712 -1.0162 0.4365 458 14
1.6190 -0.7663 -1.0146 0.4372 458 14
1.6180 -0.7614 -1.0129 0.4380 458 14
1.6171 -0.7565 -1.0112 0.4387 458 14
1.6161 -0.7517 -1.0096 0.4394 458 14
1.6152 -0.7468 -1.0079 0.4401 458 14
1.6143 -0.7420 -1.0063 0.4408 458 14
1.6134 -0.7372 -1.0047 0.4415 458 14
1.6125 -0.7324 -1.0031 0.4422 458 14
1.6115 -0.7276 -1.0015 0.4429 458 14
1.6106 -0.7229 -1.0000 0.4436 458 14
1.6097 -0.7181 -0.9984 0.4443 458 14
1.6089 -0.7134 -0.9969 0.4450 458 14
1.6080 -0.7087 -0.9953 0.4457 458 14
1.6071 -0.7040 -0.9938 0.4464 458 14
1.6062 -0.6994 -0.9923 0.4470 458 14
1.6054 -0.6947 -0.9908 0.4477 458 14
1.6045 -0.6901 -0.9893 0.4484 458 14
1.6037 -0.6854 -0.9879 0.4491 458 14
1.6029 -0.6809 -0.9864 0.4497 458 14
1.6020 -0.6762 -0.9849 0.4504 458 14
1.6012 -0.6717 -0.9835 0.4510 458 14
1.6004 -0.6671 -0.9821 0.4517 458 14
1.5996 -0.6626 -0.9807 0.4523 458 14
1.5988 -0.6580 -0.9793 0.4530 458 14
1.5980 -0.6535 -0.9779 0.4536 458 14
1.5972 -0.6490 -0.9765 0.4543 458 14
1.5964 -0.6445 -0.9751 0.4549 458 14
1.5956 -0.6401 -0.9738 0.4555 458 14
1.5949 -0.6356 -0.9725 0.4562 458 14
1.5941 -0.6312 -0.9711 0.4568 458 14
1.5934 -0.6267 -0.9698 0.4574 458 14
1.5926 -0.6223 -0.9685 0.4580 458 14
1.5919 -0.6179 -0.9672 0.4586 458 14
1.5911 -0.6135 -0.9659 0.4593 458 14
1.5904 -0.6091 -0.9646 0.4599 458 14
1.5897 -0.6048 -0.9634 0.4605 458 14
1.5889 -0.6004 -0.9621 0.4611 458 14
1.5882 -0.5961 -0.9609 0.4617 458 14
1.5875 -0.5917 -0.9596 0.4623 458 14
1.5868 -0.5874 -0.9584 0.4628 458 14
1.5861 -0.5831 -0.9572 0.4634 458 14
1.5854 -0.5788 -0.9560 0.4640 458 14
1.5848 -0.5746 -0.9548 0.4646 458 14
1.5841 -0.5703 -0.9536 0.4652 458 14
1.5834 -0.5660 -0.9524 0.4657 458 14
1.5828 -0.5618 -0.9513 0.4663 458 14
1.5821 -0.5576 -0.9501 0.4669 458 14
1.5814 -0.5534 -0.9490 0.4674 458 14
1.5808 -0.5491 -0.9479 0.4680 458 14
1.5801 -0.5450 -0.9467 0.4686 458 14
3.0120 -1.0312 -1.8032 0.4930 0 1
3.0143 -1.0245 -1.8032 0.4930 0 1
3.0165 -1.0177 -1.8032 0.4930 0 1
3.0188 -1.0109 -1.8032 0.4930 0 1
3.0211 -1.0041 -1.8032 0.4930 0 1
3.0233 -0.9974 -1.8032 0.4930 0 1
3.0256 -0.9906 -1.8032 0.4930 0 1
3.0278 -0.9838 -1.8032 0.4930 0 1
3.0300 -0.9770 -1.8032 0.4930 0 1
3.0322 -0.9702 -1.8032 0.4930 0 1
3.0343 -0.9634 -1.8032 0.4930 0 1
3.0365 -0.9566 -1.8032 0.4930 0 1
3.0386 -0.9497 -1.8032 0.4930 0 1
3.0407 -0.9429 -1.8032 0.4930 0 1
3.0429 -0.9361 -1.8032 0.4930 0 1
3.0449 -0.9293 -1.8032 0.4930 0 1
3.0470 -0.9224 -1.8032 0.4930 0 1
3.0491 -0.9156 -1.8032 0.4930 0 1
3.0511 -0.9087 -1.8032 0.4930 0 1
3.0532 -0.9019 -1.8032 0.4930 0 1
3.0552 -0.8950 -1.8032 0.4930 0 1
3.0572 -0.8882 -1.8032 0.4930 0 1
3.0592 -0.8813 -1.8032 0.4930 0 1
3.0611 -0.8745 -1.8032 0.4930 0 1
3.0631 -0.8676 -1.8032 0.4930 0 1
3.0650 -0.8607 -1.8032 0.4930 0 1
3.0669 -0.8538 -1.8032 0.4930 0 1
3.0688 -0.8469 -1.8032 0.4930 0 1
3.0707 -0.8401 -1.8032 0.4930 0 1
3.0726 -0.8332 -1.8032 0.4930 0 1
3.0745 -0.8263 -1.8032 0.4930 0 1
3.0763 -0.8194 -1.8032 0.4930 0 1
3.0782 -0.8125 -1.8032 0.4930 0 1
3.0800 -0.8055 -1.8032 0.4930 0 1
3.0818 -0.7986 -1.8032 0.4930 0 1
3.0836 -0.7917 -1.8032 0.4930 0 1
3.0853 -0.7848 -1.8032 0.4930 0 1
3.0871 -0.7779 -1.8032 0.4930 0 1
3.0888 -0.7709 -1.8032 0.4930 0 1
3.0905 -0.7640 -1.8032 0.4930 0 1
3.0922 -0.7571 -1.8032 0.4930 0 1
3.0939 -0.7501 -1.8032 0.4930 0 1
3.0956 -0.7432 -1.8032 0.4930 0 1
3.0973 -0.7362 -1.8032 0.4930 0 1
3.0989 -0.7293 -1.8032 0.4930 0 1
3.1005 -0.7223 -1.8032 0.4930 0 1
3.1021 -0.7154 -1.8032 0.4930 0 1
3.1037 -0.7084 -1.8032 0.4930 0 1
3.1053 -0.7014 -1.8032 0.4930 0 1
3.1069 -0.6945 -1.8032 0.4930 0 1
3.1084 -0.6875 -1.8032 0.4930 0 1
3.1100 -0.6805 -1.8032 0.4930 0 1
3.1115 -0.6735 -1.8032 0.4930 0 1
3.1130 -0.6665 -1.8032 0.4930 0 1
3.1145 -0.6596 -1.8032 0.4930 0 1
3.1160 -0.6526 -1.8032 0.4930 0 1
3.1174 -0.6456 -1.8032 0.4930 0 1
3.1189 -0.6386 -1.8032 0.4930 0 1
3.1203 -0.6316 -1.8032 0.4930 0 1
3.1217 -0.6246 -1.8032 0.4930 0 1
3.1231 -0.6176 -1.8032 0.4930 0 1
3.1245 -0.6106 -1.8032 0.4930 0 1
3.1258 -0.6036 -1.8032 0.4930 0 1
3.1272 -0.5965 -1.8032 0.4930 0 1
3.1285 -0.5895 -1.8032 0.4930 0 1
3.1298 -0.5825 -1.8032 0.4930 0 1
3.1311 -0.5755 -1.8032 0.4930 0 1
3.1324 -0.5684 -1.8032 0.4930 0 1
3.1337 -0.5614 -1.8032 0.4930 0 1
3.1349 -0.5544 -1.8032 0.4930 0 1
3.1362 -0.5473 -1.8032 0.4930 0 1
3.1374 -0.5403 -1.8032 0.4930 0 1
3.1386 -0.5333 -1.8032 0.4930 0 1
3.1398 -0.5262 -1.8032 0.4930 0 1
3.1409 -0.5192 -1.8032 0.4930 0 1
3.1421 -0.5121 -1.8032 0.4930 0 1
3.1432 -0.5051 -1.8032 0.4930 0 1
3.1444 -0.4980 -1.8032 0.4930 0 1
3.1455 -0.4910 -1.8032 0.4930 0 1
3.1466 -0.4839 -1.8032 0.4930 0 1
3.1476 -0.4768 -1.8032 0.4930 0 1
3.1487 -0.4698 -1.8032 0.4930 0 1
3.1497 -0.4627 -1.8032 0.4930 0 1
3.1508 -0.4556 -1.8032 0.4930 0 1
3.1518 -0.4486 -1.8032 0.4930 0 1
3.1528 -0.4415 -1.8032 0.4930 0 1
3.1538 -0.4344 -1.8032 0.4930 0 1
3.1547 -0.4273 -1.8032 0.4930 0 1
3.1557 -0.4203 -1.8032 0.4930 0 1
3.1566 -0.4132 -1.8032 0.4930 0 1
3.1575 -0.4061 -1.8032 0.4930 0 1
3.1584 -0.3990 -1.8032 0.4930 0 1
3.1593 -0.3919 -1.8032 0.4930 0 1
3.1602 -0.3848 -1.8032 0.4930 0 1
3.1611 -0.3777 -1.8032 0.4930 0 1
3.1619 -0.3706 -1.8032 0.4930 0 1
3.1627 -0.3635 -1.8032 0.4930 0 1
3.1635 -0.3564 -1.8032 0.4930 0 1
3.1643 -0.3493 -1.8032 0.4930 0 1
3.1651 -0.3422 -1.8032 0.4930 0 1
3.1658 -0.3351 -1.8032 0.4930 0 1
3.1666 -0.3280 -1.8032 0.4930 0 1
3.1673 -0.3209 -1.8032 0.4930 0 1
3.1680 -0.3138 -1.8032 0.4930 0 1
3.1687 -0.3067 -1.8032 0.4930 0 1
3.1694 -0.2996 -1.8032 0.4930 0 1
3.1701 -0.2925 -1.8032 0.4930 0 1
3.1707 -0.2854 -1.8032 0.4930 0 1
3.1714 -0.2782 -1.8032 0.4930 0 1
3.1720 -0.2711 -1.8032 0.4930 0 1
3.1726 -0.2640 -1.8032 0.4930 0 1
3.1732 -0.2569 -1.8032 0.4930 0 1
3.1737 -0.2498 -1.8032 0.4930 0 1
3.1743 -0.2427 -1.8032 0.4930 0 1
3.1748 -0.2355 -1.8032 0.4930 0 1
3.1753 -0.2284 -1.8032 0.4930 0 1
3.1758 -0.2213 -1.8032 0.4930 0 1
3.1763 -0.2141 -1.8032 0.4930 0 1
3.1768 -0.2070 -1.8032 0.4930 0 1
3.1773 -0.1999 -1.8032 0.4930 0 1
3.1777 -0.1928 -1.8032 0.4930 0 1
3.1781 -0.1856 -1.8032 0.4930 0 1
3.1785 -0.1785 -1.8032 0.4930 0 1
3.1789 -0.1714 -1.8032 0.4930 0 1
3.1793 -0.1642 -1.8032 0.4930 0 1
3.1797 -0.1571 -1.8032 0.4930 0 1
3.1800 -0.1500 -1.8032 0.4930 0 1
3.1803 -0.1428 -1.8032 0.4930 0 1
3.1806 -0.1357 -1.8032 0.4930 0 1
3.1809 -0.1286 -1.8032 0.4930 0 1
3.1812 -0.1214 -1.8032 0.4930 0 1
3.1815 -0.1143 -1.8032 0.4930 0 1
3.1817 -0.1071 -1.8032 0.4930 0 1
3.1820 -0.1000 -1.8032 0.4930 0 1
3.1822 -0.0929 -1.8032 0.4930 0 1
3.1824 -0.0857 -1.8032 0.4930 0 1
3.1826 -0.0786 -1.8032 0.4930 0 1
3.1827 -0.0714 -1.8032 0.4930 0 1
3.1829 -0.0643 -1.8032 0.4930 0 1
3.1830 -0.0571 -1.8032 0.4930 0 1
3.1831 -0.0500 -1.8032 0.4930 0 1
3.1833 -0.0429 -1.8032 0.4930 0 1
3.1833 -0.0357 -1.8032 0.4930 0 1
3.1834 -0.0286 -1.8032 0.4930 0 1
3.1835 -0.0214 -1.8032 0.4930 0 1
3.1835 -0.0143 -1.8032 0.4930 0 1
3.1835 -0.0071 -1.8032 0.4930 0 1
3.1835 0.0000 -1.8032 0.4930 0 1
3.1835 0.0071 -1.8032 0.4930 0 1
3.1835 0.0143 -1.8032 0.4930 0 1
3.1835 0.0214 -1.8032 0.4930 0 1
3.1834 0.0286 -1.8032 0.4930 0 1
3.1833 0.0357 -1.8032 0.4930 0 1
3.1833 0.0429 -1.8032 0.4930 0 1
3.1832 0.0500 -1.8032 0.4930 0 1
3.1830 0.0571 -1.8032 0.4930 0 1
3.1829 0.0643 -1.8032 0.4930 0 1
3.1827 0.0714 -1.8032 0.4930 0 1
3.1826 0.0786 -1.8032 0.4930 0 1
3.1824 0.0857 -1.8032 0.4930 0 1
3.1822 0.0929 -1.8032 0.4930 0 1
3.1820 0.1000 -1.8032 0.4930 0 1
3.1817 0.1071 -1.8032 0.4930 0 1
3.1815 0.1143 -1.8032 0.4930 0 1
3.1812 0.1214 -1.8032 0.4930 0 1
3.1809 0.1286 -1.8032 0.4930 0 1
3.1806 0.1357 -1.8032 0.4930 0 1
3.1803 0.1428 -1.8032 0.4930 0 1
3.1800 0.1500 -1.8032 0.4930 0 1
3.1797 0.1571 -1.8032 0.4930 0 1
3.1793 0.1642 -1.8032 0.4930 0 1
3.1789 0.1714 -1.8032 0.4930 0 1
3.1785 0.1785 -1.8032 0.4930 0 1
3.1781 0.1856 -1.8032 0.4930 0 1
3.1777 0.1928 -1.8032 0.4930 0 1
3.1773 0.1999 -1.8032 0.4930 0 1
3.1768 0.2070 -1.8032 0.4930 0 1
3.1763 0.2142 -1.8032 0.4930 0 1
3.1758 0.2213 -1.8032 0.4930 0 1
3.1753 0.2284 -1.8032 0.4930 0 1
3.1748 0.2355 -1.8032 0.4930 0 1
3.1743 0.2427 -1.8032 0.4930 0 1
3.1737 0.2498 -1.8032 0.4930 0 1
3.1732 0.2569 -1.8032 0.4930 0 1
3.1726 0.2640 -1.8032 0.4930 0 1
3.1720 0.2712 -1.8032 0.4930 0 1
3.1714 0.2783 -1.8032 0.4930 0 1
3.1707 0.2854 -1.8032 0.4930 0 1
3.1701 0.2925 -1.8032 0.4930 0 1
3.1694 0.2996 -1.8032 0.4930 0 1
3.1687 0.3067 -1.8032 0.4930 0 1
3.1680 0.3138 -1.8032 0.4930 0 1
3.1673 0.3209 -1.8032 0.4930 0 1
3.1666 0.3280 -1.8032 0.4930 0 1
3.1658 0.3352 -1.8032 0.4930 0 1
3.1651 0.3422 -1.8032 0.4930 0 1
3.1643 0.3494 -1.8032 0.4930 0 1
3.1635 0.3565 -1.8032 0.4930 0 1
3.1627 0.3636 -1.8032 0.4930 0 1
3.1619 0.3706 -1.8032 0.4930 0 1
3.1611 0.3778 -1.8032 0.4930 0 1
3.1602 0.3848 -1.8032 0.4930 0 1
3.1593 0.3919 -1.8032 0.4930 0 1
3.1584 0.3990 -1.8032 0.4930 0 1
3.1575 0.4061 -1.8032 0.4930 0 1
3.1566 0.4132 -1.8032 0.4930 0 1
3.1557 0.4203 -1.8032 0.4930 0 1
3.1547 0.4273 -1.8032 0.4930 0 1
3.1538 0.4344 -1.8032 0.4930 0 1
3.1528 0.4415 -1.8032 0.4930 0 1
3.1518 0.4486 -1.8032 0.4930 0 1
3.1508 0.4556 -1.8032 0.4930 0 1
3.1497 0.4627 -1.8032 0.4930 0 1
3.1487 0.4698 -1.8032 0.4930 0 1
3.1476 0.4768 -1.8032 0.4930 0 1
3.1466 0.4839 -1.8032 0.4930 0 1
3.1455 0.4910 -1.8032 0.4930 0 1
3.1444 0.4980 -1.8032 0.4930 0 1
3.1432 0.5051 -1.8032 0.4930 0 1
3.1421 0.5121 -1.8032 0.4930 0 1
3.1409 0.5192 -1.8032 0.4930 0 1
3.1398 0.5262 -1.8032 0.4930 0 1
3.1386 0.5333 -1.8032 0.4930 0 1
3.1374 0.5403 -1.8032 0.4930 0 1
3.1362 0.5474 -1.8032 0.4930 0 1
3.1349 0.5544 -1.8032 0.4930 0 1
3.1337 0.5614 -1.8032 0.4930 0 1
3.1324 0.5685 -1.8032 0.4930 0 1
3.1311 0.5755 -1.8032 0.4930 0 1
3.1298 0.5825 -1.8032 0.4930 0 1
3.1285 0.5895 -1.8032 0.4930 0 1
3.1272 0.5966 -1.8032 0.4930 0 1
3.1258 0.6036 -1.8032 0.4930 0 1
3.1245 0.6106 -1.8032 0.4930 0 1
3.1231 0.6176 -1.8032 0.4930 0 1
3.1217 0.6246 -1.8032 0.4930 0 1
3.1203 0.6316 -1.8032 0.4930 0 1
3.1189 0.6386 -1.8032 0.4930 0 1
3.1174 0.6456 -1.8032 0.4930 0 1
3.1160 0.6526 -1.8032 0.4930 0 1
3.1145 0.6596 -1.8032 0.4930 0 1
3.1130 0.6666 -1.8032 0.4930 0 1
3.1115 0.6736 -1.8032 0.4930 0 1
3.1100 0.6805 -1.8032 0.4930 0 1
3.1084 0.6875 -1.8032 0.4930 0 1
3.1069 0.6945 -1.8032 0.4930 0 1
3.1053 0.7015 -1.8032 0.4930 0 1
3.1037 0.7084 -1.8032 0.4930 0 1
3.1021 0.7154 -1.8032 0.4930 0 1
3.1005 0.7223 -1.8032 0.4930 0 1
3.0989 0.7293 -1.8032 0.4930 0 1
3.0973 0.7363 -1.8032 0.4930 0 1
3.0956 0.7432 -1.8032 0.4930 0 1
3.0939 0.7501 -1.8032 0.4930 0 1
3.0922 0.7571 -1.8032 0.4930 0 1
3.0905 0.7640 -1.8032 0.4930 0 1
3.0888 0.7710 -1.8032 0.4930 0 1
3.0871 0.7779 -1.8032 0.4930 0 1
3.0853 0.7848 -1.8032 0.4930 0 1
3.0836 0.7917 -1.8032 0.4930 0 1
3.0818 0.7987 -1.8032 0.4930 0 1
3.0800 0.8056 -1.8032 0.4930 0 1
3.0782 0.8125 -1.8032 0.4930 0 1
3.0763 0.8194 -1.8032 0.4930 0 1
3.0745 0.8263 -1.8032 0.4930 0 1
3.0726 0.8332 -1.8032 0.4930 0 1
3.0707 0.8401 -1.8032 0.4930 0 1
3.0688 0.8470 -1.8032 0.4930 0 1
3.0669 0.8538 -1.8032 0.4930 0 1
3.0650 0.8607 -1.8032 0.4930 0 1
3.0631 0.8676 -1.8032 0.4930 0 1
3.0611 0.8745 -1.8032 0.4930 0 1
3.0592 0.8813 -1.8032 0.4930 0 1
3.0572 0.8882 -1.8032 0.4930 0 1
3.0552 0.8951 -1.8032 0.4930 0 1
3.0532 0.9019 -1.8032 0.4930 0 1
3.0511 0.9088 -1.8032 0.4930 0 1
3.0491 0.9156 -1.8032 0.4930 0 1
3.0470 0.9224 -1.8032 0.4930 0 1
3.0449 0.9293 -1.8032 0.4930 0 1
3.0429 0.9361 -1.8032 0.4930 0 1
3.0407 0.9429 -1.8032 0.4930 0 1
3.0386 0.9498 -1.8032 0.4930 0 1
3.0365 0.9566 -1.8032 0.4930 0 1
3.0343 0.9634 -1.8032 0.4930 0 1
3.0322 0.9702 -1.8032 0.4930 0 1
3.0300 0.9770 -1.8032 0.4930 0 1
3.0278 0.9838 -1.8032 0.4930 0 1
3.0256 0.9906 -1.8032 0.4930 0 1
3.0233 0.9974 -1.8032 0.4930 0 1
3.0211 1.0042 -1.8032 0.4930 0 1
3.0188 1.0109 -1.8032 0.4930 0 1
3.0165 1.0177 -1.8032 0.4930 0 1
3.0143 1.0245 -1.8032 0.4930 0 1
3.0120 1.0312 -1.8032 0.4930 0 1
3.0096 1.0380 -1.8032 0.4930 0 1
3.0073 1.0447 -1.8032 0.4930 0 1
3.0049 1.0515 -1.8032 0.4930 0 1
3.0026 1.0582 -1.8032 0.4930 0 1
3.0002 1.0650 -1.8032 0.4930 0 1
2.9978 1.0717 -1.8032 0.4930 0 1
2.9954 1.0784 -1.8032 0.4930 0 1
2.9930 1.0851 -1.8032 0.4930 0 1
2.9905 1.0919 -1.8032 0.4930 0 1
2.9881 1.0986 -1.8032 0.4930 0 1
2.9856 1.1053 -1.8032 0.4930 0 1
2.9831 1.1120 -1.8032 0.4930 0 1
2.9806 1.1187 -1.8032 0.4930 0 1
2.9781 1.1254 -1.8032 0.4930 0 1
2.9756 1.1320 -1.8032 0.4930 0 1
2.9730 1.1387 -1.8032 0.4930 0 1
2.9704 1.1454 -1.8032 0.4930 0 1
2.9679 1.1520 -1.8032 0.4930 0 1
2.9653 1.1587 -1.8032 0.4930 0 1
2.9627 1.1653 -1.8032 0.4930 0 1
2.9600 1.1720 -1.8032 0.4930 0 1
2.9574 1.1786 -1.8032 0.4930 0 1
2.9548 1.1853 -1.8032 0.4930 0 1
2.9521 1.1919 -1.8032 0.4930 0 1
2.9494 1.1985 -1.8032 0.4930 0 1
2.9467 1.2051 -1.8032 0.4930 0 1
2.9440 1.2117 -1.8032 0.4930 0 1
2.9413 1.2183 -1.8032 0.4930 0 1
2.9385 1.2249 -1.8032 0.4930 0 1
2.9358 1.2315 -1.8032 0.4930 0 1
2.9330 1.2381 -1.8032 0.4930 0 1
2.9302 1.2447 -1.8032 0.4930 0 1
2.9274 1.2513 -1.8032 0.4930 0 1
2.9246 1.2578 -1.8032 0.4930 0 1
2.9218 1.2644 -1.8032 0.4930 0 1
2.9189 1.2709 -1.8032 0.4930 0 1
2.9161 1.2775 -1.8032 0.4930 0 1
2.9132 1.2840 -1.8032 0.4930 0 1
2.9103 1.2905 -1.8032 0.4930 0 1
2.9074 1.2971 -1.8032 0.4930 0 1
2.9045 1.3036 -1.8032 0.4930 0 1
2.9016 1.3101 -1.8032 0.4930 0 1
2.8986 1.3166 -1.8032 0.4930 0 1
2.8957 1.3231 -1.8032 0.4930 0 1
2.8927 1.3296 -1.8032 0.4930 0 1
2.8897 1.3361 -1.8032 0.4930 0 1
2.8867 1.3426 -1.8032 0.4930 0 1
2.8837 1.3491 -1.8032 0.4930 0 1
2.8806 1.3555 -1.8032 0.4930 0 1
2.8776 1.3620 -1.8032 0.4930 0 1
2.8745 1.3685 -1.8032 0.4930 0 1
2.8715 1.3749 -1.8032 0.4930 0 1
2.8684 1.3813 -1.8032 0.4930 0 1
2.8653 1.3878 -1.8032 0.4930 0 1
2.8621 1.3942 -1.8032 0.4930 0 1
2.8590 1.4006 -1.8032 0.4930 0 1
2.8558 1.4070 -1.8032 0.4930 0 1
2.8527 1.4134 -1.8032 0.4930 0 1
2.8495 1.4198 -1.8032 0.4930 0 1
2.8463 1.4262 -1.8032 0.4930 0 1
2.8431 1.4326 -1.8032 0.4930 0 1
2.8399 1.4390 -1.8033 0.4930 0 1
2.8367 1.4454 -1.8033 0.4930 0 1
1.6333 0.8368 -1.0395 0.4268 458 14
1.6344 0.8420 -1.0414 0.4260 458 14
1.6355 0.8472 -1.0433 0.4252 458 14
1.6366 0.8525 -1.0452 0.4244 458 14
1.6377 0.8577 -1.0471 0.4236 458 14
1.6388 0.8630 -1.0491 0.4228 458 14
1.6399 0.8683 -1.0510 0.4221 458 14
1.6411 0.8736 -1.0530 0.4213 458 14
1.6422 0.8790 -1.0550 0.4205 458 14
1.6434 0.8844 -1.0570 0.4197 458 14
1.6445 0.8897 -1.0591 0.4189 458 14
1.6457 0.8952 -1.0611 0.4181 458 14
1.6469 0.9006 -1.0632 0.4172 458 14
1.6481 0.9061 -1.0653 0.4164 458 14
1.6493 0.9115 -1.0673 0.4156 458 14
1.6505 0.9171 -1.0695 0.4148 458 14
1.6517 0.9226 -1.0716 0.4140 458 14
1.6529 0.9281 -1.0737 0.4131 458 14
1.6542 0.9337 -1.0759 0.4123 458 14
1.6554 0.9393 -1.0781 0.4115 458 14
1.6567 0.9450 -1.0803 0.4106 458 14
1.6580 0.9506 -1.0825 0.4098 458 14
1.6592 0.9563 -1.0847 0.4089 458 14
1.6605 0.9620 -1.0870 0.4081 458 14
1.6618 0.9678 -1.0893 0.4072 458 14
1.6631 0.9735 -1.0915 0.4064 458 14
1.6645 0.9793 -1.0939 0.4055 458 14
1.6658 0.9852 -1.0962 0.4047 458 14
1.6671 0.9910 -1.0985 0.4038 458 14
1.6685 0.9969 -1.1009 0.4029 458 14
1.6699 1.0028 -1.1033 0.4021 458 14
1.6712 1.0087 -1.1057 0.4012 458 14
1.6726 1.0147 -1.1081 0.4003 458 14
1.6740 1.0207 -1.1105 0.3994 458 14
1.6754 1.0267 -1.1130 0.3986 458 14
1.6769 1.0328 -1.1155 0.3977 458 14
1.6783 1.0389 -1.1180 0.3968 458 14
1.6797 1.0450 -1.1205 0.3959 458 14
1.6812 1.0511 -1.1230 0.3950 458 14
1.6827 1.0573 -1.1256 0.3941 458 14
1.6841 1.0635 -1.1282 0.3932 458 14
1.6856 1.0698 -1.1308 0.3923 458 14
1.6867 1.0757 -1.1331 0.6788 458 14
1.6869 1.0812 -1.1349 0.6777 458 14
1.6871 1.0866 -1.1366 0.6767 458 14
1.6872 1.0921 -1.1384 0.6756 458 14
1.6874 1.0976 -1.1402 0.6746 458 14
1.6876 1.1031 -1.1420 0.6735 458 14
1.6878 1.1087 -1.1438 0.6725 458 14
1.6880 1.1142 -1.1456 0.6714 458 14
1.6882 1.1198 -1.1474 0.6703 458 14
1.6884 1.1254 -1.1493 0.6692 458 14
1.6886 1.1310 -1.1511 0.6682 458 14
1.6887 1.1366 -1.1530 0.6671 458 14
1.6889 1.1423 -1.1549 0.6660 458 14
1.6892 1.1479 -1.1568 0.6649 458 14
1.6893 1.1536 -1.1587 0.6638 458 14
1.6895 1.1593 -1.1606 0.6627 458 14
1.6897 1.1651 -1.1625 0.6616 458 14
1.6899 1.1708 -1.1645 0.6605 458 14
1.6901 1.1766 -1.1664 0.6594 458 14
1.6904 1.1823 -1.1684 0.6583 458 14
1.6906 1.1881 -1.1704 0.6572 458 14
1.6908 1.1940 -1.1724 0.6561 458 14
1.6910 1.1998 -1.1744 0.6549 458 14
1.6912 1.2057 -1.1764 0.6538 458 14
1.6914 1.2116 -1.1784 0.6527 458 14
1.6916 1.2175 -1.1805 0.6515 458 14
1.6918 1.2234 -1.1826 0.6504 458 14
1.4633 1.0632 -1.0245 0.0187 458 14
1.4126 1.0312 -0.9906 0.0193 458 14
1.3785 1.0111 -0.9683 0.5146 458 14
1.3721 1.0111 -0.9653 0.5162 458 14
1.3656 1.0110 -0.9624 0.5177 458 14
1.3592 1.0111 -0.9595 0.5193 458 14
1.3529 1.0111 -0.9566 0.5209 458 14
1.3466 1.0111 -0.9538 0.5224 458 14
1.3403 1.0110 -0.9509 0.5240 458 14
1.3341 1.0110 -0.9481 0.5256 458 14
1.3279 1.0111 -0.9453 0.5271 458 14
1.3217 1.0111 -0.9425 0.5287 458 14
1.3174 1.0124 -0.9411 0.3488 458 14
1.3142 1.0147 -0.9404 0.3490 458 14
1.3110 1.0170 -0.9398 0.3492 458 14
1.3079 1.0192 -0.9392 0.3495 458 14
1.3047 1.0215 -0.9385 0.3497 458 14
1.3016 1.0237 -0.9379 0.3499 458 14
1.2984 1.0259 -0.9373 0.3502 458 14
1.2952 1.0281 -0.9366 0.3504 458 14
1.2920 1.0304 -0.9360 0.3507 458 14
1.2888 1.0326 -0.9354 0.3509 458 14
1.2856 1.0347 -0.9347 0.3511 458 14
1.2824 1.0369 -0.9341 0.3514 458 14
1.2792 1.0391 -0.9335 0.3516 458 14
1.2760 1.0412 -0.9328 0.3519 458 14
1.2728 1.0434 -0.9322 0.3521 458 14
1.2696 1.0455 -0.9316 0.3523 458 14
1.2664 1.0476 -0.9309 0.3526 458 14
1.2631 1.0497 -0.9303 0.3528 458 14
1.2599 1.0519 -0.9296 0.3531 458 14
1.2567 1.0540 -0.9290 0.3533 458 14
1.2534 1.0561 -0.9283 0.3536 458 14
1.2502 1.0581 -0.9277 0.3538 458 14
