ply
format ascii 1.0
element vertex 1384
property float32 x
property float32 y
property float32 z
property float32 CosAngle
property uint32 ObjIdx
property uint32 ObjTag
end_header
13.5801 -13.5802 3.1149 0.9846 0 9
5.6556 2.5828 1.0084 0.3108 143 7
7.4208 5.5552 1.5035 0.5864 0 3
6.4034 5.5486 1.3742 0.6416 0 3
37.8857 14.1307 6.2165 0.4034 0 3
5.6555 2.5828 0.9559 0.3113 143 7
7.4208 5.5552 1.4251 0.5872 0 3
6.4034 5.5486 1.3026 0.6424 0 3
37.2531 13.8947 5.7775 0.4108 0 3
5.6555 2.5828 0.9034 0.3116 143 7
37.9360 20.7146 6.2807 0.3772 0 3
38.4271 24.6957 6.6375 0.3569 0 3
7.4208 5.5552 1.3470 0.5879 0 3
6.4034 5.5486 1.2312 0.6432 0 3
36.6427 13.6671 5.3539 0.4181 0 3
5.6555 2.5828 0.8511 0.3120 143 7
37.2596 20.3453 5.8117 0.3845 0 3
37.7038 24.2308 6.1356 0.3642 0 3
7.4208 5.5552 1.2690 0.5886 0 3
6.4034 5.5486 1.1599 0.6439 0 3
36.0533 13.4472 4.9449 0.4254 0 3
5.6555 2.5828 0.7990 0.3123 143 7
36.6088 19.9899 5.3602 0.3925 0 3
37.0088 23.7842 5.6534 0.3714 0 3
7.4208 5.5552 1.1912 0.5892 0 3
6.4034 5.5486 1.0888 0.6447 0 3
35.4838 13.2348 4.5497 0.4327 0 3
5.6554 2.5828 0.7469 0.3127 143 7
35.9827 19.6481 4.9252 0.3997 0 3
30.7875 19.7860 4.3966 0.3227 0 3
7.4208 5.5552 1.1136 0.5898 0 3
6.4034 5.5486 1.0179 0.6453 0 3
39.2739 11.5319 4.5753 0.9554 0 3
34.9330 13.0294 4.1675 0.4399 0 3
5.6554 2.5827 0.6950 0.3130 143 7
35.3789 19.3183 4.5057 0.4069 0 3
30.2762 19.4573 4.0228 0.3285 0 3
7.4208 5.5552 1.0362 0.5904 0 3
6.4034 5.5486 0.9471 0.6459 0 3
37.9387 11.1399 4.0900 0.9563 0 3
34.4001 12.8306 3.7977 0.4472 0 3
5.6554 2.5828 0.6431 0.3132 143 7
34.7961 19.0001 4.1008 0.4141 0 3
29.7824 19.1401 3.6619 0.3342 0 3
7.4208 5.5551 0.9588 0.5909 0 3
6.4034 5.5486 0.8764 0.6465 0 3
35.0543 -10.2929 3.4748 0.5792 0 3
38.0092 11.1606 3.7677 0.2663 0 3
33.8840 12.6381 3.4396 0.4543 0 3
5.6554 2.5827 0.5913 0.3135 143 7
34.2330 18.6927 3.7097 0.4213 0 3
29.2855 18.8207 3.3110 0.3235 0 3
7.4208 5.5551 0.8816 0.5914 0 3
6.4034 5.5486 0.8059 0.6470 0 3
26.7750 -23.2006 3.0751 0.6573 0 6
34.8599 -10.2358 3.1535 0.5857 0 3
43.4974 -9.4623 3.8637 0.0493 0 3
36.7068 10.7781 3.3205 0.1294 0 3
33.3840 12.4516 3.0926 0.4615 0 3
5.6554 2.5827 0.5396 0.3137 143 7
33.6888 18.3955 3.3316 0.4284 0 3
29.0563 18.6734 2.9979 0.8416 0 3
7.4208 5.5551 0.8046 0.5919 0 3
6.4033 5.5485 0.7354 0.6475 0 3
34.5028 -10.1309 2.8226 0.5922 0 3
37.0605 -8.0620 2.9771 0.9728 0 3
35.1003 10.3064 2.8715 0.1354 0 3
32.8992 12.2708 2.7562 0.4686 0 3
5.6553 2.5827 0.4880 0.3140 143 7
33.1624 18.1081 2.9658 0.4355 0 3
29.0565 18.6736 2.7112 0.8422 0 3
7.4207 5.5551 0.7276 0.5923 0 3
6.4034 5.5485 0.6651 0.6480 0 3
33.9879 -9.9797 2.4868 0.5986 0 3
34.2382 -7.4481 2.4598 0.3821 0 3
33.6303 9.8748 2.4606 0.1414 0 3
32.4289 12.0954 2.4298 0.4757 0 3
5.6553 2.5827 0.4365 0.3141 143 7
32.6528 17.8298 2.6118 0.4426 0 3
29.3452 18.8591 2.4489 0.8427 0 3
7.4207 5.5551 0.6508 0.5926 0 3
6.4033 5.5485 0.5948 0.6484 0 3
33.9395 -9.9655 2.1903 0.6213 0 3
33.8987 -7.3742 2.1481 0.6324 0 3
32.2800 9.4783 2.0832 0.1474 0 3
31.9723 11.9251 2.1130 0.4828 0 3
5.6553 2.5827 0.3850 0.3143 143 7
32.1592 17.5602 2.2689 0.4496 0 3
12.9291 8.3090 0.9517 0.4210 0 20
7.4207 5.5551 0.5740 0.5930 0 3
6.4033 5.5485 0.5246 0.6487 0 3
33.6496 -12.5506 1.9267 0.6122 0 3
33.6178 -9.8711 1.8797 0.6275 0 3
33.5830 -7.3055 1.8438 0.6386 0 3
31.4808 9.2437 1.7602 0.5023 0 3
31.5289 11.7597 1.8053 0.4898 0 3
5.6553 2.5827 0.3335 0.3145 143 7
31.6807 17.2990 1.9365 0.4566 0 3
13.4180 8.6233 0.8557 0.8436 0 20
7.4207 5.5551 0.4973 0.5932 0 3
6.4033 5.5485 0.4545 0.6490 0 3
26.6315 -23.0763 1.5993 0.3212 0 6
33.3260 -12.4299 1.6142 0.6184 0 3
33.3020 -9.7783 1.5751 0.6326 0 3
33.2733 -7.2382 1.5453 0.6448 0 3
47.8661 -6.8821 2.1946 0.9879 0 3
43.5949 9.4835 2.0247 0.1127 0 3
31.0612 9.1204 1.4691 0.5093 0 3
31.0979 11.5990 1.5063 0.4968 0 3
5.6552 2.5827 0.2821 0.3146 143 7
31.2167 17.0456 1.6141 0.4636 0 3
13.2786 8.5337 0.7163 0.5346 0 20
7.4207 5.5551 0.4207 0.5935 0 3
6.4033 5.5485 0.3845 0.6493 0 3
26.6261 -23.0716 1.3080 0.3214 0 6
39.9716 -25.6881 1.7638 0.7024 0 6
33.0089 -12.3116 1.3078 0.6245 0 3
32.9921 -9.6873 1.2764 0.6388 0 3
32.9777 -7.1738 1.2528 0.8648 0 3
41.8926 -6.0232 1.5711 0.0520 0 3
41.4233 9.0111 1.5737 0.1187 0 3
30.7183 9.0197 1.1885 0.9601 0 3
30.7028 11.4516 1.2165 0.9380 0 3
5.8973 2.6932 0.2407 0.9854 143 6
30.7665 16.7998 1.3013 0.4705 0 3
29.3461 18.8596 1.2950 0.8442 0 3
7.4207 5.5551 0.3441 0.5937 0 3
6.4033 5.5485 0.3145 0.6495 0 3
11.4181 -9.8939 0.4361 0.7429 0 4
32.9802 -12.3010 1.0161 0.9379 0 3
32.9901 -9.6868 0.9926 0.9590 0 3
32.9864 -7.1758 0.9745 0.9752 0 3
38.9942 -5.6065 1.1372 0.1479 0 3
39.6804 8.6320 1.1723 0.1835 0 3
30.7348 9.0246 0.9247 0.9613 0 3
30.7184 11.4574 0.9464 0.9392 0 3
5.8974 2.6932 0.1872 0.9857 143 6
30.6821 16.7537 1.0092 0.8809 0 3
29.3464 18.8598 1.0070 0.8444 0 3
7.4207 5.5551 0.2676 0.5938 0 3
6.4033 5.5485 0.2446 0.6497 0 3
11.4749 -9.9431 0.3130 0.7407 0 4
33.0296 -12.3194 0.7268 0.9384 0 3
33.0421 -9.7020 0.7100 0.9606 0 3
33.0540 -7.1905 0.6974 0.9780 0 3
39.2216 -5.6392 0.8169 0.1487 0 3
40.1373 8.7314 0.8469 0.2070 0 3
30.7816 9.0383 0.6614 0.9617 0 3
30.7609 11.4732 0.6769 0.9397 0 3
5.8974 2.6933 0.1337 0.9859 143 6
30.7157 16.7721 0.7215 0.8816 0 3
29.5903 19.0166 0.7252 0.8446 0 3
7.4207 5.5551 0.1911 0.5940 0 3
6.4033 5.5485 0.1747 0.6498 0 3
11.4755 -9.9436 0.1878 0.7408 0 4
33.0298 -12.3194 0.4360 0.9386 0 3
33.0423 -9.7021 0.4260 0.9608 0 3
33.0543 -7.1905 0.4184 0.9781 0 3
39.2218 -5.6392 0.4901 0.1487 0 3
40.8132 8.8784 0.5166 0.2062 0 3
30.7818 9.0384 0.3968 0.9618 0 3
31.1500 11.6184 0.4112 0.9367 0 3
5.8974 2.6933 0.0802 0.9860 143 6
30.7159 16.7722 0.4329 0.8817 0 3
29.5906 19.0168 0.4351 0.8447 0 3
7.4207 5.5551 0.1147 0.5941 0 3
6.4033 5.5485 0.1048 0.6499 0 3
11.2476 -9.7461 0.0614 0.6656 0 4
33.5120 -12.4993 0.1475 0.9386 0 3
33.0426 -9.7022 0.1420 0.9608 0 3
33.0545 -7.1905 0.1395 0.9781 0 3
39.2221 -5.6393 0.1634 0.1487 0 3
41.2602 0.0001 0.1701 0.1201 0 21
38.4761 2.7519 0.1590 0.2973 0 21
43.4830 9.4592 0.1835 0.2063 0 3
30.7821 9.0385 0.1323 0.9619 0 3
31.1503 11.6185 0.1371 0.9367 0 3
5.8975 2.6933 0.0267 0.9861 143 6
30.7162 16.7723 0.1443 0.8817 0 3
29.5908 19.0169 0.1450 0.8447 0 3
7.4207 5.5551 0.0382 0.5941 0 3
6.4033 5.5485 0.0349 0.6500 0 3
11.2758 -9.7705 -0.0615 0.3143 0 4
33.5123 -12.4994 -0.1475 0.9386 0 3
33.0428 -9.7022 -0.1420 0.9608 0 3
33.0547 -7.1906 -0.1395 0.9781 0 3
39.2222 -5.6393 -0.1634 0.1487 0 3
40.2595 0.0000 -0.1660 0.9263 0 21
37.7922 2.7030 -0.1562 0.9468 0 21
43.4828 9.4591 -0.1835 0.2063 0 3
30.7822 9.0385 -0.1323 0.9618 0 3
31.1505 11.6186 -0.1371 0.9367 0 3
5.8975 2.6933 -0.0267 0.9861 143 6
30.7164 16.7725 -0.1443 0.8817 0 3
29.5910 19.0170 -0.1450 0.8447 0 3
7.4207 5.5550 -0.0382 0.5941 0 3
6.4033 5.5485 -0.0349 0.6500 0 3
11.2880 -9.7811 -0.1847 0.6597 0 4
33.5125 -12.4995 -0.4424 0.9385 0 3
33.0430 -9.7023 -0.4260 0.9607 0 3
33.0550 -7.1906 -0.4184 0.9781 0 3
39.2224 -5.6393 -0.4901 0.1487 0 3
43.4827 9.4591 -0.5504 0.2062 0 3
30.7825 9.0386 -0.3968 0.9618 0 3
31.1507 11.6187 -0.4112 0.9366 0 3
5.8975 2.6933 -0.0802 0.9860 143 6
30.7166 16.7726 -0.4329 0.8817 0 3
29.5912 19.0172 -0.4351 0.8446 0 3
7.4206 5.5550 -0.1147 0.5941 0 3
6.4033 5.5485 -0.1048 0.6499 0 3
11.2880 -9.7811 -0.3079 0.6596 0 4
33.0307 -12.3198 -0.7268 0.9384 0 3
33.0433 -9.7023 -0.7100 0.9606 0 3
33.0552 -7.1907 -0.6974 0.9779 0 3
39.2227 -5.6393 -0.8170 0.1487 0 3
43.4825 9.4591 -0.9174 0.2062 0 3
30.7827 9.0386 -0.6614 0.9616 0 3
30.7620 11.4736 -0.6769 0.9397 0 3
5.8975 2.6933 -0.1337 0.9858 143 6
30.7168 16.7727 -0.7216 0.8815 0 3
29.5915 19.0174 -0.7252 0.8445 0 3
7.4207 5.5550 -0.1911 0.5940 0 3
6.4032 5.5485 -0.1747 0.6498 0 3
11.2880 -9.7811 -0.4312 0.6594 0 4
33.0310 -12.3199 -1.0177 0.9382 0 3
33.0435 -9.7024 -0.9942 0.9604 0 3
33.0554 -7.1907 -0.9766 0.9777 0 3
33.1177 -4.7616 -0.9659 0.9541 0 5
32.3249 2.3120 -0.9355 0.9960 0 5
32.3375 7.0346 -0.9553 0.0296 0 5
30.7829 9.0387 -0.9262 0.9614 0 3
30.7622 11.4737 -0.9478 0.9395 0 3
5.8976 2.6933 -0.1872 0.9856 143 6
30.7171 16.7728 -1.0103 0.8813 0 3
29.5917 19.0175 -1.0154 0.8443 0 3
7.4206 5.5550 -0.2676 0.5939 0 3
6.4033 5.5484 -0.2446 0.6497 0 3
32.2813 -32.2812 -1.6947 0.0377 0 0
11.2880 -9.7811 -0.5545 0.6593 0 4
34.9729 -26.1803 -1.6218 0.6002 0 2
38.3103 -24.6205 -1.6905 0.0378 0 0
39.9437 -21.8109 -1.6895 0.0379 0 0
40.5070 -18.4989 -1.6531 0.0379 0 2
33.0312 -12.3200 -1.3087 0.9379 0 3
33.0437 -9.7025 -1.2784 0.9601 0 3
33.0556 -7.1908 -1.2558 0.9774 0 3
39.2231 -5.6394 -1.4710 0.1486 0 3
45.3225 -3.2415 -1.6868 0.0379 0 0
45.4437 0.0000 -1.6870 0.0379 0 0
32.3251 2.3119 -1.2030 0.9958 0 5
45.0058 6.4709 -1.6879 0.0379 0 0
40.8243 8.8808 -1.5509 0.0391 0 3
30.7831 9.0388 -1.1910 0.9612 0 3
30.7624 11.4738 -1.2188 0.9392 0 3
5.8976 2.6934 -0.2407 0.9854 143 6
30.7173 16.7729 -1.2992 0.8811 0 3
29.5920 19.0177 -1.3058 0.8441 0 3
7.4206 5.5550 -0.3441 0.5937 0 3
6.4032 5.5484 -0.3145 0.6495 0 3
26.1301 -26.1300 -1.6770 0.0460 0 2
11.2880 -9.7811 -0.6778 0.6590 0 4
28.5280 -21.3558 -1.6172 0.4915 0 20
31.4481 -20.2105 -1.6965 0.0461 0 0
32.1043 -17.5302 -1.6600 0.0461 0 2
33.2586 -15.1886 -1.6593 0.0461 0 2
33.0315 -12.3201 -1.5999 0.9376 0 3
33.0439 -9.7026 -1.5629 0.9598 0 3
33.0559 -7.1909 -1.5352 0.9771 0 3
36.9344 -5.3103 -1.6934 0.0462 0 0
37.2192 -2.6619 -1.6934 0.0462 0 0
37.3181 0.0000 -1.6936 0.0461 0 0
32.3254 2.3120 -1.4707 0.9954 0 5
36.9551 5.3134 -1.6943 0.0461 0 0
36.4948 7.9390 -1.6950 0.0461 0 0
30.7833 9.0388 -1.4560 0.9608 0 3
30.7626 11.4739 -1.4900 0.9389 0 3
5.8976 2.6934 -0.2942 0.9850 143 6
30.7175 16.7730 -1.5883 0.8808 0 3
29.3638 18.8710 -1.5841 0.6192 0 3
7.4206 5.5550 -0.4207 0.5935 0 3
6.4032 5.5484 -0.3845 0.6493 0 3
23.4962 -23.4962 -1.7827 0.0542 0 1
11.2880 -9.7811 -0.8013 0.6588 0 4
25.0502 -18.7523 -1.6787 0.0543 0 2
26.3107 -16.9089 -1.6779 0.0543 0 2
27.4379 -14.9822 -1.6771 0.0543 0 2
28.8121 -13.1580 -1.6993 0.0543 0 0
29.6686 -11.0658 -1.6988 0.0544 0 0
30.3757 -8.9191 -1.6984 0.0544 0 0
30.9301 -6.7285 -1.6981 0.0544 0 0
31.3290 -4.5044 -1.6980 0.0544 0 0
31.5707 -2.2580 -1.6980 0.0544 0 0
31.6538 0.0000 -1.6982 0.0544 0 0
31.5781 2.2585 -1.6984 0.0544 0 0
31.3437 4.5066 -1.6988 0.0544 0 0
30.9519 6.7332 -1.6993 0.0543 0 0
30.4042 8.9275 -1.7000 0.0543 0 0
28.6158 10.6732 -1.6385 0.9378 0 20
5.8977 2.6934 -0.3478 0.9846 143 6
27.4817 15.0062 -1.6798 0.0542 0 2
26.3582 16.9394 -1.6809 0.0542 0 2
7.4206 5.5550 -0.4973 0.5932 0 3
6.4032 5.5484 -0.4545 0.6490 0 3
20.3889 -20.3889 -1.7855 0.0624 0 1
11.2880 -9.7811 -0.9249 0.6585 0 4
23.0587 -17.2615 -1.7836 0.0625 0 1
23.7182 -15.2428 -1.7458 0.8367 0 2
23.8161 -13.0046 -1.6803 0.0626 0 2
24.6752 -11.2688 -1.6797 0.0626 0 2
25.4097 -9.4773 -1.6793 0.0626 0 2
26.0160 -7.6390 -1.6790 0.0626 0 2
26.4912 -5.7628 -1.6787 0.0626 0 2
26.8332 -3.8580 -1.6786 0.0626 0 2
27.0402 -1.9339 -1.6786 0.0626 0 2
27.1112 0.0000 -1.6788 0.0626 0 2
27.0457 1.9344 -1.6790 0.0626 0 2
26.8442 3.8596 -1.6793 0.0626 0 2
26.5075 5.7664 -1.6798 0.0626 0 2
26.0372 7.6453 -1.6803 0.0626 0 2
25.4354 9.4870 -1.6810 0.0625 0 2
5.8977 2.6934 -0.4015 0.9841 143 6
23.8491 13.0226 -1.6826 0.0625 0 2
23.5189 15.1147 -1.7311 0.8431 0 2
7.4206 5.5550 -0.5740 0.5930 0 3
6.4032 5.5484 -0.5246 0.6487 0 3
11.5321 -11.5321 -1.1449 0.7007 0 4
11.2881 -9.7812 -1.0486 0.6581 0 4
20.3655 -15.2454 -1.7859 0.0707 0 1
21.3929 -13.7483 -1.7852 0.0708 0 1
22.3116 -12.1830 -1.7846 0.0708 0 1
23.1173 -10.5573 -1.7841 0.0708 0 1
23.6796 -8.8320 -1.7742 0.9323 0 2
23.6674 -6.9494 -1.7317 0.9552 0 2
23.6556 -5.1460 -1.6995 0.8535 0 2
23.7042 -3.4081 -1.6812 0.0708 0 2
23.8870 -1.7084 -1.6812 0.0708 0 2
23.9495 0.0000 -1.6813 0.0708 0 2
23.8913 1.7088 -1.6815 0.0708 0 2
23.7127 3.4094 -1.6818 0.0708 0 2
23.5938 5.1325 -1.6951 0.8562 0 2
23.5788 6.9234 -1.7252 0.9587 0 2
23.5667 8.7900 -1.7658 0.9372 0 2
5.8977 2.6934 -0.4552 0.9836 143 6
22.3389 12.1980 -1.7868 0.0707 0 1
21.4224 13.7674 -1.7877 0.0707 0 1
7.4206 5.5550 -0.6507 0.5926 0 3
6.4032 5.5484 -0.5948 0.6484 0 3
9.7999 -9.7999 -1.0879 0.5574 0 4
11.2881 -9.7812 -1.1724 0.6577 0 4
18.2334 -13.6494 -1.7878 0.0790 0 1
19.1540 -12.3095 -1.7872 0.0790 0 1
19.9773 -10.9084 -1.7866 0.0790 0 1
20.6993 -9.4530 -1.7862 0.0790 0 1
21.3166 -7.9507 -1.7858 0.0790 0 1
21.8261 -6.4087 -1.7856 0.0791 0 1
22.2254 -4.8348 -1.7854 0.0791 0 1
22.5126 -3.2368 -1.7853 0.0791 0 1
22.6863 -1.6225 -1.7853 0.0791 0 1
22.7455 0.0000 -1.7854 0.0791 0 1
22.6900 1.6228 -1.7856 0.0791 0 1
22.5200 3.2379 -1.7859 0.0790 0 1
22.2362 4.8372 -1.7862 0.0790 0 1
21.8402 6.4129 -1.7867 0.0790 0 1
21.3337 7.9571 -1.7873 0.0790 0 1
5.8978 2.6934 -0.5089 0.9830 143 6
19.9992 10.9204 -1.7886 0.0789 0 1
19.1777 12.3248 -1.7894 0.0789 0 1
7.4206 5.5550 -0.7276 0.5923 0 3
6.4032 5.5484 -0.6651 0.6480 0 3
9.7909 -9.7908 -1.2018 0.7090 0 4
11.2881 -9.7812 -1.2964 0.6572 0 4
15.5603 -11.6482 -1.6871 0.0872 0 2
17.3372 -11.1420 -1.7888 0.0872 0 1
18.0830 -9.8740 -1.7883 0.0872 0 1
18.7370 -8.5569 -1.7879 0.0872 0 1
19.2961 -7.1971 -1.7875 0.0873 0 1
19.7577 -5.8013 -1.7873 0.0873 0 1
20.1193 -4.3767 -1.7871 0.0873 0 1
20.3794 -2.9301 -1.7870 0.0873 0 1
20.5365 -1.4688 -1.7870 0.0873 0 1
20.5900 0.0000 -1.7871 0.0873 0 1
20.5396 1.4690 -1.7873 0.0873 0 1
20.3854 2.9310 -1.7876 0.0873 0 1
20.1281 4.3786 -1.7879 0.0872 0 1
19.7692 5.8048 -1.7883 0.0872 0 1
19.3101 7.2023 -1.7888 0.0872 0 1
5.8978 2.6934 -0.5628 0.9823 143 6
18.1009 9.8839 -1.7901 0.0871 0 1
17.3566 11.1545 -1.7908 0.0871 0 1
7.4205 5.5550 -0.8046 0.5919 0 3
6.4032 5.5484 -0.7354 0.6475 0 3
9.7909 -9.7909 -1.3169 0.7084 0 4
11.2881 -9.7812 -1.4206 0.6568 0 4
14.2097 -10.6372 -1.6882 0.0954 0 2
14.9519 -9.6090 -1.6904 0.4628 0 2
16.5147 -9.0177 -1.7896 0.0954 0 1
17.1124 -7.8150 -1.7893 0.0955 0 1
17.6233 -6.5731 -1.7890 0.0955 0 1
18.0450 -5.2985 -1.7887 0.0955 0 1
18.3755 -3.9973 -1.7886 0.0955 0 1
18.6131 -2.6762 -1.7885 0.0955 0 1
18.7566 -1.3415 -1.7885 0.0955 0 1
18.8054 0.0000 -1.7886 0.0955 0 1
18.7592 1.3417 -1.7887 0.0955 0 1
18.6181 2.6769 -1.7890 0.0955 0 1
18.3829 3.9990 -1.7893 0.0955 0 1
18.0546 5.3013 -1.7897 0.0954 0 1
17.6349 6.5775 -1.7901 0.0954 0 1
5.8978 2.6935 -0.6167 0.9816 143 6
16.5297 9.0259 -1.7912 0.0953 0 1
14.9423 9.6028 -1.6893 0.0953 0 2
7.4205 5.5550 -0.8816 0.5914 0 3
6.4032 5.5484 -0.8058 0.6471 0 3
9.7909 -9.7909 -1.4322 0.7079 0 4
11.2881 -9.7812 -1.5450 0.6562 0 4
13.0732 -9.7865 -1.6892 0.1035 0 2
13.7342 -8.8264 -1.6887 0.1035 0 2
15.1949 -8.2970 -1.7908 0.1036 0 1
15.7450 -7.1905 -1.7904 0.1037 0 1
16.2154 -6.0480 -1.7901 0.1037 0 1
16.6036 -4.8752 -1.7899 0.1037 0 1
16.9077 -3.6780 -1.7898 0.1037 0 1
17.1264 -2.4624 -1.7897 0.1037 0 1
17.2585 -1.2343 -1.7897 0.1037 0 1
17.3033 0.0000 -1.7898 0.1037 0 1
17.2606 1.2345 -1.7900 0.1037 0 1
17.1306 2.4630 -1.7902 0.1037 0 1
16.9140 3.6794 -1.7905 0.1037 0 1
16.6117 4.8776 -1.7908 0.1036 0 1
16.2252 6.0517 -1.7912 0.1036 0 1
5.8979 2.6935 -0.6707 0.9808 143 6
14.3371 7.8286 -1.6897 0.1036 0 2
13.7467 8.8345 -1.6902 0.1035 0 2
7.4205 5.5549 -0.9588 0.5910 0 3
6.4032 5.5484 -0.8764 0.6465 0 3
9.7909 -9.7909 -1.5477 0.7072 0 4
11.2881 -9.7812 -1.6696 0.6556 0 4
12.1032 -9.0603 -1.6900 0.1118 0 2
12.7159 -8.1720 -1.6896 0.1119 0 2
13.2639 -7.2426 -1.6892 0.1119 0 2
14.5782 -6.6576 -1.7914 0.1119 0 1
15.0138 -5.5999 -1.7912 0.1119 0 1
15.3734 -4.5140 -1.7910 0.1119 0 1
15.6552 -3.4055 -1.7908 0.1119 0 1
15.8576 -2.2800 -1.7908 0.1119 0 1
15.9799 -1.1429 -1.7908 0.1119 0 1
16.0214 0.0000 -1.7908 0.1119 0 1
15.9818 1.1430 -1.7910 0.1119 0 1
15.8613 2.2805 -1.7912 0.1119 0 1
15.6605 3.4068 -1.7914 0.1119 0 1
15.3804 4.5161 -1.7918 0.1118 0 1
14.1624 5.2823 -1.6896 0.1118 0 2
5.8979 2.6935 -0.7247 0.9799 143 6
13.2736 7.2479 -1.6905 0.1118 0 2
12.7267 8.1789 -1.6910 0.1117 0 2
7.4205 5.5549 -1.0361 0.5904 0 3
6.4032 5.5484 -0.9471 0.6460 0 3
9.7909 -9.7909 -1.6634 0.7066 0 4
10.6388 -9.2186 -1.6912 0.1200 0 2
11.2667 -8.4341 -1.6908 0.1200 0 2
11.8372 -7.6073 -1.6904 0.1200 0 2
12.3477 -6.7423 -1.6901 0.1200 0 2
13.5706 -6.1975 -1.7923 0.1200 0 1
13.9763 -5.2129 -1.7920 0.1201 0 1
14.3112 -4.2021 -1.7919 0.1201 0 1
14.5735 -3.1703 -1.7917 0.1201 0 1
14.7620 -2.1225 -1.7917 0.1201 0 1
14.8759 -1.0639 -1.7917 0.1201 0 1
14.9144 0.0000 -1.7917 0.1201 0 1
14.8775 1.0641 -1.7919 0.1201 0 1
14.7652 2.1229 -1.7921 0.1201 0 1
14.5781 3.1713 -1.7923 0.1200 0 1
13.4977 3.9633 -1.6900 0.1200 0 2
13.1832 4.9171 -1.6903 0.1200 0 2
5.8979 2.6935 -0.7789 0.9790 143 6
12.3554 6.7466 -1.6912 0.1199 0 2
11.8460 7.6130 -1.6917 0.1199 0 2
7.4205 5.5549 -1.1136 0.5899 0 3
6.4032 5.5484 -1.0179 0.6453 0 3
9.3113 -9.3113 -1.6922 0.1281 0 2
9.9493 -8.6211 -1.6918 0.1282 0 2
10.5367 -7.8876 -1.6914 0.1282 0 2
11.0704 -7.1145 -1.6911 0.1282 0 2
11.5479 -6.3056 -1.6908 0.1282 0 2
12.6917 -5.7961 -1.7930 0.1282 0 1
13.0712 -4.8753 -1.7928 0.1282 0 1
13.3845 -3.9300 -1.7926 0.1283 0 1
13.6299 -2.9650 -1.7925 0.1283 0 1
13.8063 -1.9850 -1.7925 0.1283 0 1
13.9127 -0.9951 -1.7925 0.1283 0 1
13.9487 0.0000 -1.7925 0.1283 0 1
13.9141 0.9952 -1.7926 0.1283 0 1
13.8090 1.9854 -1.7928 0.1282 0 1
13.6339 2.9659 -1.7931 0.1282 0 1
12.6234 3.7066 -1.6907 0.1282 0 2
12.3291 4.5985 -1.6910 0.1282 0 2
5.8980 2.6935 -0.8332 0.9779 143 6
11.5545 6.3092 -1.6918 0.1281 0 2
11.0780 7.1194 -1.6922 0.1281 0 2
7.4205 5.5549 -1.1912 0.5893 0 3
6.4031 5.5484 -1.0888 0.6447 0 3
8.7433 -8.7433 -1.6927 0.1363 0 2
9.3426 -8.0954 -1.6923 0.1363 0 2
9.8943 -7.4067 -1.6920 0.1364 0 2
10.3955 -6.6808 -1.6917 0.1364 0 2
10.8673 -5.9340 -1.6951 0.3723 0 2
11.9182 -5.4429 -1.7937 0.1364 0 1
12.2746 -4.5782 -1.7935 0.1364 0 1
12.5689 -3.6905 -1.7933 0.1364 0 1
12.7994 -2.7844 -1.7932 0.1364 0 1
12.9651 -1.8641 -1.7932 0.1364 0 1
13.0650 -0.9344 -1.7932 0.1364 0 1
13.0988 0.0000 -1.7932 0.1364 0 1
13.0662 0.9345 -1.7933 0.1364 0 1
12.9675 1.8645 -1.7935 0.1364 0 1
12.8030 2.7851 -1.7937 0.1364 0 1
11.8538 3.4806 -1.6913 0.1364 0 2
11.5774 4.3182 -1.6916 0.1364 0 2
5.8980 2.6935 -0.8876 0.9769 143 6
10.8498 5.9244 -1.6923 0.1363 0 2
10.4832 6.7371 -1.7059 0.1363 0 0
7.4205 5.5549 -1.2690 0.5886 0 3
6.4032 5.5484 -1.1599 0.6440 0 3
8.2396 -8.2396 -1.6932 0.1445 0 2
8.8045 -7.6291 -1.6928 0.1445 0 2
9.3245 -6.9802 -1.6925 0.1445 0 2
9.7970 -6.2961 -1.6922 0.1445 0 2
10.7940 -5.8939 -1.7871 0.3563 0 2
11.2321 -5.1295 -1.7943 0.1446 0 1
11.5681 -4.3147 -1.7941 0.1446 0 1
11.8455 -3.4781 -1.7939 0.1446 0 1
12.0628 -2.6241 -1.7938 0.1446 0 1
12.2189 -1.7568 -1.7938 0.1446 0 1
12.3131 -0.8806 -1.7938 0.1446 0 1
12.3449 0.0000 -1.7938 0.1446 0 1
12.3142 0.8807 -1.7939 0.1446 0 1
12.2211 1.7571 -1.7941 0.1446 0 1
12.0659 2.6248 -1.7943 0.1446 0 1
11.1713 3.2802 -1.6918 0.1445 0 2
10.9107 4.0695 -1.6921 0.1445 0 2
5.8980 2.6935 -0.9422 0.9757 143 6
10.2247 5.5831 -1.6928 0.1445 0 2
9.8027 6.2998 -1.6932 0.1444 0 2
7.4205 5.5549 -1.3469 0.5879 0 3
6.4031 5.5484 -1.2311 0.6432 0 3
7.7898 -7.7898 -1.6936 0.1526 0 2
8.3239 -7.2127 -1.6933 0.1526 0 2
8.8156 -6.5992 -1.6930 0.1527 0 2
9.2820 -5.9652 -1.6963 0.5429 0 2
10.2476 -5.5956 -1.7950 0.1527 0 1
10.6193 -4.8496 -1.7948 0.1527 0 1
10.9371 -4.0793 -1.7946 0.1527 0 1
11.1993 -3.2884 -1.7945 0.1527 0 1
11.4048 -2.4810 -1.7944 0.1528 0 1
11.5524 -1.6610 -1.7943 0.1528 0 1
11.6415 -0.8326 -1.7943 0.1528 0 1
11.6716 0.0000 -1.7944 0.1528 0 1
11.6425 0.8327 -1.7945 0.1527 0 1
11.5543 1.6613 -1.7946 0.1527 0 1
11.4076 2.4816 -1.7948 0.1527 0 1
10.5618 3.1012 -1.6923 0.1527 0 2
10.3153 3.8474 -1.6926 0.1527 0 2
5.8980 2.6936 -0.9968 0.9745 143 6
9.6665 5.2783 -1.6932 0.1526 0 2
9.2674 5.9558 -1.6936 0.1526 0 2
7.4205 5.5549 -1.4251 0.5872 0 3
6.4031 5.5483 -1.3026 0.6424 0 3
7.3855 -7.3855 -1.6940 0.1608 0 2
7.8920 -6.8385 -1.6937 0.1608 0 2
8.3583 -6.2569 -1.6934 0.1608 0 2
8.9771 -5.7692 -1.7308 0.5451 0 2
9.7161 -5.3054 -1.7955 0.1608 0 1
10.0686 -4.5981 -1.7953 0.1609 0 1
10.3699 -3.8678 -1.7951 0.1609 0 1
10.6186 -3.1179 -1.7949 0.1609 0 1
10.8135 -2.3523 -1.7949 0.1609 0 1
10.9535 -1.5749 -1.7948 0.1609 0 1
11.0379 -0.7894 -1.7948 0.1609 0 1
11.0664 0.0000 -1.7949 0.1609 0 1
11.0388 0.7895 -1.7950 0.1609 0 1
10.9552 1.5751 -1.7951 0.1609 0 1
10.8160 2.3529 -1.7953 0.1609 0 1
10.0139 2.9404 -1.6927 0.1608 0 2
9.7801 3.6478 -1.6930 0.1608 0 2
5.8981 2.6936 -1.0516 0.9733 143 6
9.1648 5.0044 -1.6936 0.1608 0 2
8.7864 5.6467 -1.6940 0.1607 0 2
7.4204 5.5549 -1.5034 0.5865 0 3
6.4031 5.5483 -1.3742 0.6416 0 3
7.0202 -7.0202 -1.6944 0.1689 0 2
7.5018 -6.5003 -1.6941 0.1689 0 2
7.9450 -5.9476 -1.6938 0.1690 0 2
8.8537 -5.6899 -1.7961 0.1690 0 1
9.2358 -5.0431 -1.7959 0.1690 0 1
9.5709 -4.3709 -1.7957 0.1690 0 1
9.8574 -3.6766 -1.7955 0.1690 0 1
10.0938 -2.9638 -1.7954 0.1690 0 1
10.2791 -2.2361 -1.7953 0.1690 0 1
10.4122 -1.4970 -1.7953 0.1690 0 1
10.4924 -0.7504 -1.7953 0.1690 0 1
10.5195 0.0000 -1.7953 0.1690 0 1
10.4932 0.7505 -1.7954 0.1690 0 1
10.4137 1.4973 -1.7955 0.1690 0 1
10.2814 2.2366 -1.7957 0.1690 0 1
9.5189 2.7950 -1.6931 0.1690 0 2
9.2966 3.4675 -1.6934 0.1689 0 2
5.8981 2.6936 -1.1066 0.9719 143 6
8.7115 4.7569 -1.6940 0.1689 0 2
8.3517 5.3673 -1.6943 0.1689 0 2
7.4205 5.5549 -1.5819 0.5856 0 3
6.4031 5.5483 -1.4460 0.6407 0 3
6.6885 -6.6885 -1.6947 0.1770 0 2
7.1473 -6.1932 -1.6944 0.1770 0 2
7.6928 -5.7587 -1.7217 0.6187 0 2
8.4355 -5.4211 -1.7965 0.1771 0 1
8.7996 -4.8049 -1.7963 0.1771 0 1
9.1189 -4.1645 -1.7961 0.1771 0 1
9.3919 -3.5030 -1.7959 0.1771 0 1
9.6172 -2.8239 -1.7958 0.1771 0 1
9.7937 -2.1305 -1.7957 0.1772 0 1
9.9205 -1.4264 -1.7957 0.1772 0 1
9.9970 -0.7150 -1.7957 0.1772 0 1
10.0228 0.0000 -1.7957 0.1772 0 1
9.9978 0.7151 -1.7958 0.1771 0 1
9.9220 1.4266 -1.7959 0.1771 0 1
9.7958 2.1310 -1.7961 0.1771 0 1
9.0693 2.6630 -1.6935 0.1771 0 2
8.8574 3.3037 -1.6937 0.1771 0 2
5.8981 2.6936 -1.1617 0.9705 143 6
8.2999 4.5321 -1.6943 0.1770 0 2
7.9570 5.1136 -1.6946 0.1770 0 2
7.4204 5.5549 -1.6607 0.5848 0 3
6.4031 5.5483 -1.5180 0.6398 0 3
6.3858 -6.3858 -1.6950 0.1851 0 2
6.8239 -5.9129 -1.6947 0.1851 0 2
7.6653 -5.7381 -1.7971 0.1852 0 1
8.0539 -5.1759 -1.7968 0.1852 0 1
8.4015 -4.5876 -1.7966 0.1852 0 1
8.7065 -3.9761 -1.7964 0.1852 0 1
8.9672 -3.3446 -1.7963 0.1852 0 1
9.1823 -2.6962 -1.7961 0.1853 0 1
9.3509 -2.0342 -1.7961 0.1853 0 1
9.4720 -1.3619 -1.7960 0.1853 0 1
9.5450 -0.6827 -1.7960 0.1853 0 1
9.5696 0.0000 -1.7961 0.1853 0 1
9.5457 0.6827 -1.7962 0.1853 0 1
9.4733 1.3621 -1.7963 0.1852 0 1
9.3528 2.0346 -1.7964 0.1852 0 1
8.6591 2.5426 -1.6938 0.1852 0 2
8.4568 3.1542 -1.6940 0.1852 0 2
5.8982 2.6936 -1.2170 0.9690 143 6
7.9243 4.3270 -1.6946 0.1851 0 2
7.5968 4.8822 -1.6949 0.1851 0 2
7.2307 5.4128 -1.6952 0.1850 0 2
6.4031 5.5483 -1.5902 0.6388 0 3
6.1086 -6.1086 -1.6952 0.1932 0 2
6.6511 -5.7633 -1.7270 0.6734 0 2
7.3325 -5.4890 -1.7974 0.1933 0 1
7.7043 -4.9513 -1.7971 0.1933 0 1
8.0369 -4.3885 -1.7969 0.1933 0 1
8.3287 -3.8035 -1.7967 0.1933 0 1
8.5781 -3.1995 -1.7966 0.1933 0 1
8.7839 -2.5792 -1.7965 0.1934 0 1
8.9452 -1.9459 -1.7964 0.1934 0 1
9.0610 -1.3028 -1.7964 0.1934 0 1
9.1309 -0.6530 -1.7964 0.1934 0 1
9.1544 0.0000 -1.7964 0.1934 0 1
9.1315 0.6531 -1.7965 0.1934 0 1
9.0622 1.3030 -1.7966 0.1933 0 1
8.9469 1.9463 -1.7968 0.1933 0 1
8.2833 2.4322 -1.6941 0.1933 0 2
8.0897 3.0173 -1.6943 0.1933 0 2
5.8982 2.6936 -1.2724 0.9675 143 6
7.5802 4.1391 -1.6948 0.1932 0 2
7.2670 4.6702 -1.6951 0.1932 0 2
6.9166 5.1777 -1.6954 0.1931 0 2
6.4031 5.5483 -1.6626 0.6378 0 3
5.8536 -5.8535 -1.6955 0.2013 0 2
6.6343 -5.7487 -1.7979 0.2013 0 1
7.0265 -5.2599 -1.7977 0.2013 0 1
7.3828 -4.7446 -1.7974 0.2014 0 1
7.7016 -4.2054 -1.7972 0.2014 0 1
7.9812 -3.6449 -1.7970 0.2014 0 1
8.2202 -3.0660 -1.7969 0.2014 0 1
8.4175 -2.4716 -1.7968 0.2014 0 1
8.5720 -1.8647 -1.7967 0.2014 0 1
8.6830 -1.2484 -1.7967 0.2014 0 1
8.7500 -0.6258 -1.7967 0.2014 0 1
8.7725 0.0000 -1.7967 0.2014 0 1
8.7505 0.6259 -1.7968 0.2014 0 1
8.6841 1.2486 -1.7969 0.2014 0 1
8.5737 1.8651 -1.7971 0.2014 0 1
7.9377 2.3307 -1.6944 0.2014 0 2
7.7521 2.8914 -1.6946 0.2014 0 2
5.8982 2.6936 -1.3280 0.9659 143 6
7.2638 3.9663 -1.6951 0.2013 0 2
6.9635 4.4752 -1.6953 0.2013 0 2
6.6278 4.9615 -1.6957 0.2012 0 2
6.2582 5.4228 -1.6960 0.2012 0 2
5.7651 -5.7651 -1.7400 0.7245 0 2
6.3676 -5.5176 -1.7982 0.2094 0 1
6.7440 -5.0485 -1.7979 0.2094 0 1
7.0861 -4.5540 -1.7977 0.2094 0 1
7.3921 -4.0364 -1.7975 0.2095 0 1
7.6605 -3.4984 -1.7973 0.2095 0 1
7.8900 -2.9428 -1.7972 0.2095 0 1
8.0793 -2.3723 -1.7971 0.2095 0 1
8.2277 -1.7898 -1.7970 0.2095 0 1
8.3343 -1.1983 -1.7970 0.2095 0 1
8.3985 -0.6007 -1.7970 0.2095 0 1
8.4201 0.0000 -1.7970 0.2095 0 1
8.3990 0.6007 -1.7971 0.2095 0 1
8.3352 1.1984 -1.7972 0.2095 0 1
8.2291 1.7901 -1.7973 0.2095 0 1
7.8361 2.3009 -1.7430 0.3366 0 2
7.4405 2.7752 -1.6948 0.2094 0 2
5.8983 2.6937 -1.3839 0.9642 143 6
6.9718 3.8069 -1.6953 0.2094 0 2
6.6836 4.2953 -1.6956 0.2093 0 2
6.3612 4.7620 -1.6959 0.2093 0 2
6.0065 5.2047 -1.6962 0.2093 0 2
5.7277 -5.7277 -1.7987 0.2174 0 1
6.1207 -5.3036 -1.7984 0.2174 0 1
6.4826 -4.8528 -1.7981 0.2175 0 1
6.8114 -4.3774 -1.7979 0.2175 0 1
7.1056 -3.8799 -1.7977 0.2175 0 1
7.3636 -3.3628 -1.7976 0.2175 0 1
7.5842 -2.8287 -1.7974 0.2175 0 1
7.7662 -2.2804 -1.7973 0.2176 0 1
7.9088 -1.7204 -1.7973 0.2176 0 1
8.0113 -1.1519 -1.7972 0.2176 0 1
8.0730 -0.5774 -1.7972 0.2176 0 1
8.0938 0.0000 -1.7973 0.2176 0 1
8.0735 0.5774 -1.7973 0.2176 0 1
8.0122 1.1520 -1.7974 0.2175 0 1
7.9102 1.7208 -1.7976 0.2175 0 1
7.7680 2.2809 -1.7977 0.2175 0 1
7.1521 2.6676 -1.6950 0.2175 0 2
5.8983 2.6937 -1.4399 0.9625 143 6
6.7015 3.6593 -1.6955 0.2174 0 2
6.4243 4.1287 -1.6958 0.2174 0 2
6.1145 4.5773 -1.6960 0.2174 0 2
5.7734 5.0027 -1.6964 0.2173 0 2
5.5130 -5.5131 -1.7989 0.2254 0 1
5.8914 -5.1050 -1.7986 0.2255 0 1
6.2398 -4.6710 -1.7984 0.2255 0 1
6.5563 -4.2135 -1.7981 0.2255 0 1
6.8395 -3.7346 -1.7980 0.2256 0 1
7.0879 -3.2369 -1.7978 0.2256 0 1
7.3002 -2.7228 -1.7977 0.2256 0 1
7.4754 -2.1950 -1.7976 0.2256 0 1
7.6127 -1.6561 -1.7975 0.2256 0 1
7.7113 -1.1087 -1.7975 0.2256 0 1
7.7708 -0.5558 -1.7975 0.2256 0 1
7.7908 0.0000 -1.7975 0.2256 0 1
7.7712 0.5558 -1.7976 0.2256 0 1
7.7122 1.1088 -1.7977 0.2256 0 1
7.6140 1.6563 -1.7978 0.2256 0 1
7.4771 2.1955 -1.7980 0.2256 0 1
6.8842 2.5677 -1.6952 0.2255 0 2
5.8983 2.6937 -1.4961 0.9607 143 6
6.4504 3.5222 -1.6957 0.2255 0 2
6.1836 3.9740 -1.6959 0.2254 0 2
5.8854 4.4057 -1.6962 0.2254 0 2
5.5571 4.8152 -1.6965 0.2254 0 2
5.3132 -5.3132 -1.7991 0.2335 0 1
5.6779 -4.9199 -1.7988 0.2335 0 1
6.0137 -4.5018 -1.7986 0.2335 0 1
6.3187 -4.0608 -1.7983 0.2336 0 1
6.5917 -3.5993 -1.7982 0.2336 0 1
6.8311 -3.1196 -1.7980 0.2336 0 1
7.0358 -2.6242 -1.7979 0.2336 0 1
7.2047 -2.1155 -1.7978 0.2336 0 1
7.3370 -1.5961 -1.7977 0.2336 0 1
7.4321 -1.0686 -1.7977 0.2336 0 1
7.4894 -0.5356 -1.7977 0.2336 0 1
7.5086 0.0000 -1.7978 0.2336 0 1
7.4898 0.5357 -1.7978 0.2336 0 1
7.4328 1.0687 -1.7979 0.2336 0 1
7.3382 1.5963 -1.7980 0.2336 0 1
7.2062 2.1159 -1.7982 0.2336 0 1
6.6348 2.4747 -1.6954 0.2336 0 2
5.8984 2.6937 -1.5525 0.9588 143 6
6.2166 3.3945 -1.6959 0.2335 0 2
5.9595 3.8300 -1.6961 0.2335 0 2
5.6720 4.2460 -1.6964 0.2334 0 2
5.3556 4.6406 -1.6967 0.2334 0 2
5.1267 -5.1267 -1.7992 0.2415 0 1
5.4786 -4.7472 -1.7990 0.2415 0 1
5.8026 -4.3437 -1.7987 0.2415 0 1
6.0970 -3.9183 -1.7985 0.2416 0 1
6.3604 -3.4730 -1.7984 0.2416 0 1
6.5914 -3.0102 -1.7982 0.2416 0 1
6.7889 -2.5321 -1.7981 0.2416 0 1
6.9519 -2.0412 -1.7980 0.2416 0 1
7.0796 -1.5401 -1.7980 0.2416 0 1
7.1713 -1.0311 -1.7979 0.2416 0 1
7.2266 -0.5169 -1.7979 0.2416 0 1
7.2452 0.0000 -1.7980 0.2416 0 1
7.2270 0.5169 -1.7980 0.2416 0 1
7.1720 1.0312 -1.7981 0.2416 0 1
7.0806 1.5403 -1.7982 0.2416 0 1
6.9533 2.0417 -1.7984 0.2416 0 1
6.4019 2.3878 -1.6956 0.2416 0 2
5.8984 2.6937 -1.6092 0.9569 143 6
5.9984 3.2754 -1.6960 0.2415 0 2
5.7503 3.6955 -1.6963 0.2415 0 2
5.4728 4.0969 -1.6965 0.2414 0 2
5.1674 4.4776 -1.6968 0.2414 0 2
4.9521 -4.9521 -1.7994 0.2495 0 1
5.2920 -4.5856 -1.7991 0.2495 0 1
5.6050 -4.1958 -1.7989 0.2495 0 1
5.8894 -3.7849 -1.7987 0.2496 0 1
6.1439 -3.3548 -1.7986 0.2496 0 1
6.3670 -2.9077 -1.7984 0.2496 0 1
6.5578 -2.4459 -1.7983 0.2496 0 1
6.7153 -1.9718 -1.7982 0.2496 0 1
6.8386 -1.4876 -1.7982 0.2496 0 1
6.9272 -0.9960 -1.7981 0.2496 0 1
6.9806 -0.4993 -1.7981 0.2496 0 1
6.9986 0.0000 -1.7982 0.2496 0 1
6.9810 0.4993 -1.7982 0.2496 0 1
6.9279 0.9961 -1.7983 0.2496 0 1
6.8396 1.4879 -1.7984 0.2496 0 1
6.7166 1.9722 -1.7986 0.2496 0 1
6.1840 2.3065 -1.6958 0.2496 0 2
5.8984 2.6937 -1.6661 0.9549 143 6
5.7941 3.1639 -1.6962 0.2495 0 2
5.5544 3.5696 -1.6964 0.2495 0 2
5.2864 3.9574 -1.6967 0.2494 0 2
4.9914 4.3251 -1.6969 0.2494 0 2
4.7883 -4.7883 -1.7995 0.2574 0 1
5.1171 -4.4339 -1.7993 0.2575 0 1
5.4197 -4.0571 -1.7991 0.2575 0 1
5.6947 -3.6598 -1.7989 0.2575 0 1
5.9408 -3.2439 -1.7987 0.2576 0 1
6.1566 -2.8116 -1.7986 0.2576 0 1
6.3411 -2.3651 -1.7985 0.2576 0 1
6.4934 -1.9066 -1.7984 0.2576 0 1
6.6126 -1.4385 -1.7983 0.2576 0 1
6.6983 -0.9631 -1.7983 0.2576 0 1
6.7499 -0.4828 -1.7983 0.2576 0 1
6.7673 0.0000 -1.7984 0.2576 0 1
6.7503 0.4828 -1.7984 0.2576 0 1
6.6990 0.9632 -1.7985 0.2576 0 1
6.6136 1.4387 -1.7986 0.2576 0 1
6.4946 1.9070 -1.7987 0.2576 0 1
6.1371 2.2890 -1.7406 0.3854 0 2
5.8058 2.6514 -1.6961 0.2575 0 2
5.6026 3.0592 -1.6963 0.2575 0 2
5.3707 3.4516 -1.6965 0.2574 0 2
5.1116 3.8265 -1.6968 0.2574 0 2
4.8263 4.1820 -1.6971 0.2574 0 2
4.6344 -4.6344 -1.7997 0.2654 0 1
4.9526 -4.2914 -1.7994 0.2654 0 1
5.2455 -3.9267 -1.7992 0.2655 0 1
5.5117 -3.5422 -1.7990 0.2655 0 1
5.7499 -3.1396 -1.7989 0.2655 0 1
5.9588 -2.7213 -1.7988 0.2655 0 1
6.1374 -2.2891 -1.7987 0.2656 0 1
6.2847 -1.8454 -1.7986 0.2656 0 1
6.4002 -1.3923 -1.7985 0.2656 0 1
6.4831 -0.9321 -1.7985 0.2656 0 1
6.5331 -0.4672 -1.7985 0.2656 0 1
6.5499 0.0000 -1.7985 0.2656 0 1
6.5334 0.4673 -1.7986 0.2656 0 1
6.4837 0.9322 -1.7987 0.2655 0 1
6.4011 1.3925 -1.7988 0.2655 0 1
6.2859 1.8457 -1.7989 0.2655 0 1
6.1284 2.2858 -1.7960 0.3407 0 2
5.6192 2.5662 -1.6963 0.2655 0 2
5.4225 2.9609 -1.6965 0.2654 0 2
5.1981 3.3406 -1.6967 0.2654 0 2
4.9472 3.7035 -1.6969 0.2654 0 2
4.6711 4.0475 -1.6972 0.2653 0 2
4.4894 -4.4894 -1.7998 0.2733 0 1
4.7977 -4.1572 -1.7996 0.2734 0 1
5.0815 -3.8039 -1.7994 0.2734 0 1
5.3394 -3.4314 -1.7992 0.2734 0 1
5.5701 -3.0415 -1.7990 0.2735 0 1
5.7724 -2.6362 -1.7989 0.2735 0 1
5.9455 -2.2175 -1.7988 0.2735 0 1
6.0883 -1.7877 -1.7987 0.2735 0 1
6.2001 -1.3487 -1.7987 0.2735 0 1
6.2804 -0.9030 -1.7987 0.2735 0 1
6.3289 -0.4526 -1.7987 0.2735 0 1
6.3451 0.0000 -1.7987 0.2735 0 1
6.3292 0.4527 -1.7987 0.2735 0 1
6.2810 0.9031 -1.7988 0.2735 0 1
6.2010 1.3489 -1.7989 0.2735 0 1
6.0894 1.7880 -1.7991 0.2735 0 1
1.7089 0.6374 -0.5170 0.0144 294 14
1.4411 0.6581 -0.4491 0.1670 294 14
1.4194 0.7751 -0.4585 0.1105 294 14
1.4304 0.9193 -0.4820 0.1051 294 14
1.4230 1.0652 -0.5039 0.1006 294 14
4.5250 3.9209 -1.6973 0.2733 0 2
4.3526 -4.3526 -1.7999 0.2813 0 1
4.6515 -4.0305 -1.7997 0.2813 0 1
4.9267 -3.6881 -1.7995 0.2813 0 1
5.1767 -3.3269 -1.7993 0.2814 0 1
5.4004 -2.9488 -1.7992 0.2814 0 1
5.5966 -2.5559 -1.7991 0.2814 0 1
5.7644 -2.1500 -1.7990 0.2814 0 1
5.9029 -1.7332 -1.7989 0.2814 0 1
6.0113 -1.3077 -1.7988 0.2814 0 1
6.0892 -0.8755 -1.7988 0.2814 0 1
6.1361 -0.4389 -1.7988 0.2814 0 1
6.1519 0.0000 -1.7989 0.2814 0 1
6.1364 0.4389 -1.7989 0.2814 0 1
6.0897 0.8756 -1.7990 0.2814 0 1
1.4798 0.3219 -0.4428 0.1743 294 14
1.4552 0.4273 -0.4435 0.1741 294 14
1.4188 0.5292 -0.4428 0.1743 294 14
1.3711 0.6262 -0.4407 0.1755 294 14
1.3187 0.7201 -0.4393 0.1187 294 14
1.3240 0.8509 -0.4602 0.1133 294 14
1.3127 0.9827 -0.4795 0.1088 294 14
1.2880 1.1161 -0.4983 0.1074 294 14
4.2233 -4.2233 -1.8000 0.2892 0 1
4.5133 -3.9108 -1.7998 0.2892 0 1
4.7803 -3.5785 -1.7996 0.2892 0 1
5.0230 -3.2280 -1.7995 0.2893 0 1
5.2401 -2.8613 -1.7993 0.2893 0 1
5.4305 -2.4800 -1.7992 0.2893 0 1
5.5933 -2.0862 -1.7991 0.2893 0 1
5.7276 -1.6818 -1.7990 0.2893 0 1
5.8328 -1.2688 -1.7990 0.2893 0 1
5.9084 -0.8495 -1.7990 0.2893 0 1
1.7097 -0.1223 -0.5166 0.0271 294 14
1.5819 0.0000 -0.4767 0.0293 294 14
1.4694 0.1051 -0.4440 0.1887 294 14
1.4364 0.2066 -0.4374 0.1916 294 14
1.4105 0.3069 -0.4350 0.1824 294 14
1.3870 0.4073 -0.4357 0.1822 294 14
1.3524 0.5044 -0.4350 0.1824 294 14
1.3073 0.5971 -0.4331 0.1836 294 14
1.2526 0.6840 -0.4301 0.1849 294 14
1.2320 0.7918 -0.4414 0.1215 294 14
1.2181 0.9119 -0.4586 0.1200 294 14
1.1939 1.0346 -0.4761 0.1156 294 14
4.1009 -4.1009 -1.8001 0.2971 0 1
4.3825 -3.7974 -1.7999 0.2971 0 1
4.6418 -3.4748 -1.7998 0.2971 0 1
4.8774 -3.1345 -1.7996 0.2971 0 1
5.0882 -2.7783 -1.7995 0.2972 0 1
5.2731 -2.4081 -1.7993 0.2972 0 1
5.4312 -2.0257 -1.7993 0.2972 0 1
5.5616 -1.6330 -1.7992 0.2972 0 1
5.6638 -1.2321 -1.7991 0.2972 0 1
1.4348 -0.2063 -0.4499 0.1918 294 14
1.4360 -0.1027 -0.4469 0.1926 294 14
1.4261 0.0000 -0.4426 0.1945 294 14
1.4055 0.1005 -0.4374 0.1968 294 14
1.3749 0.1977 -0.4311 0.1996 294 14
1.3472 0.2931 -0.4279 0.1905 294 14
1.3246 0.3890 -0.4285 0.1903 294 14
1.2916 0.4818 -0.4279 0.1905 294 14
1.2489 0.5704 -0.4262 0.1917 294 14
1.1970 0.6536 -0.4233 0.1930 294 14
1.1516 0.7401 -0.4249 0.1296 294 14
1.1377 0.8517 -0.4411 0.1282 294 14
1.1123 0.9638 -0.4568 0.1237 294 14
3.9847 -3.9848 -1.8002 0.3049 0 1
4.2584 -3.6899 -1.8001 0.3049 0 1
4.5104 -3.3764 -1.7999 0.3050 0 1
4.7394 -3.0458 -1.7997 0.3050 0 1
4.9442 -2.6997 -1.7996 0.3050 0 1
5.1239 -2.3400 -1.7995 0.3050 0 1
5.2775 -1.9684 -1.7994 0.3051 0 1
5.4042 -1.5868 -1.7993 0.3051 0 1
1.4175 -0.3084 -0.4634 0.1721 294 14
1.3732 -0.1974 -0.4432 0.1999 294 14
1.3746 -0.0983 -0.4402 0.2007 294 14
1.3656 0.0000 -0.4363 0.2025 294 14
1.3466 0.0963 -0.4313 0.2049 294 14
1.3181 0.1895 -0.4254 0.2077 294 14
1.2889 0.2804 -0.4214 0.1986 294 14
1.2673 0.3721 -0.4219 0.1984 294 14
1.2359 0.4610 -0.4214 0.1990 294 14
1.1953 0.5459 -0.4198 0.1998 294 14
1.1459 0.6257 -0.4171 0.2011 294 14
1.0885 0.6996 -0.4134 0.2029 294 14
1.0669 0.7987 -0.4257 0.1363 294 14
1.0463 0.9067 -0.4423 0.2235 294 14
3.8745 -3.8745 -1.8003 0.3128 0 1
4.1406 -3.5878 -1.8002 0.3128 0 1
4.3856 -3.2830 -1.8000 0.3128 0 1
4.6082 -2.9615 -1.7998 0.3128 0 1
4.8074 -2.6250 -1.7997 0.3129 0 1
4.9821 -2.2752 -1.7996 0.3129 0 1
1.4204 -0.5297 -0.4981 0.1643 294 14
1.3902 -0.4082 -0.4761 0.1719 294 14
1.3506 -0.2938 -0.4541 0.1802 294 14
1.3164 -0.1892 -0.4370 0.2079 294 14
1.3180 -0.0943 -0.4342 0.2093 294 14
1.3098 0.0000 -0.4304 0.2106 294 14
1.2922 0.0924 -0.4257 0.2129 294 14
1.2655 0.1820 -0.4201 0.2158 294 14
1.2353 0.2687 -0.4154 0.2067 294 14
1.2145 0.3566 -0.4159 0.2064 294 14
1.1845 0.4418 -0.4154 0.2071 294 14
1.1458 0.5233 -0.4139 0.2078 294 14
1.0987 0.6000 -0.4113 0.2091 294 14
1.0497 0.6746 -0.4100 0.2875 294 14
1.0286 0.7700 -0.4222 0.2402 294 14
1.0077 0.8731 -0.4381 0.2315 294 14
3.7696 -3.7696 -1.8004 0.3206 0 1
4.0285 -3.4907 -1.8003 0.3206 0 1
4.2669 -3.1941 -1.8001 0.3206 0 1
4.4835 -2.8813 -1.7999 0.3207 0 1
4.6773 -2.5540 -1.7998 0.3207 0 1
1.3656 -0.6236 -0.5070 0.1705 294 14
1.3501 -0.5036 -0.4866 0.1723 294 14
1.3243 -0.3888 -0.4661 0.1799 294 14
1.2893 -0.2805 -0.4456 0.1882 294 14
1.2638 -0.1817 -0.4312 0.2160 294 14
1.2657 -0.0905 -0.4286 0.2173 294 14
1.2582 0.0000 -0.4250 0.2192 294 14
1.2417 0.0888 -0.4204 0.2210 294 14
1.2167 0.1749 -0.4151 0.2238 294 14
1.1857 0.2579 -0.4098 0.2147 294 14
1.1656 0.3423 -0.4103 0.2149 294 14
1.1370 0.4241 -0.4098 0.2151 294 14
1.1000 0.5023 -0.4084 0.2159 294 14
1.0563 0.5768 -0.4065 0.2267 294 14
1.0189 0.6548 -0.4091 0.2953 294 14
0.9930 0.7434 -0.4189 0.2481 294 14
0.9716 0.8419 -0.4342 0.2394 294 14
3.6697 -3.6697 -1.8005 0.3284 0 1
3.9217 -3.3982 -1.8004 0.3284 0 1
4.1538 -3.1095 -1.8002 0.3284 0 1
4.3647 -2.8050 -1.8000 0.3285 0 1
4.5534 -2.4863 -1.7999 0.3285 0 1
1.3002 -0.5938 -0.4959 0.1786 294 14
1.2861 -0.4797 -0.4762 0.1804 294 14
1.2640 -0.3712 -0.4570 0.1880 294 14
1.2331 -0.2682 -0.4378 0.1962 294 14
1.2150 -0.1747 -0.4259 0.2240 294 14
1.2171 -0.0871 -0.4234 0.2254 294 14
1.2104 0.0000 -0.4199 0.2272 294 14
1.1949 0.0855 -0.4156 0.2296 294 14
1.1713 0.1684 -0.4106 0.2324 294 14
1.1401 0.2480 -0.4048 0.2351 294 14
1.1204 0.3290 -0.4051 0.2229 294 14
1.0933 0.4078 -0.4048 0.2331 294 14
1.0589 0.4836 -0.4039 0.2337 294 14
1.0173 0.5555 -0.4021 0.2347 294 14
0.9898 0.6361 -0.4082 0.3032 294 14
0.9596 0.7184 -0.4159 0.2561 294 14
0.9378 0.8126 -0.4305 0.2474 294 14
3.5744 -3.5744 -1.8006 0.3362 0 1
3.8199 -3.3100 -1.8004 0.3362 0 1
4.0459 -3.0287 -1.8003 0.3362 0 1
4.2514 -2.7322 -1.8001 0.3362 0 1
4.4352 -2.4218 -1.8000 0.3363 0 1
1.2404 -0.5665 -0.4858 0.1867 294 14
1.2287 -0.4582 -0.4671 0.1941 294 14
1.2087 -0.3549 -0.4487 0.1960 294 14
1.1813 -0.2570 -0.4306 0.2042 294 14
1.1696 -0.1681 -0.4209 0.2321 294 14
1.1719 -0.0838 -0.4185 0.2334 294 14
1.1657 0.0000 -0.4152 0.2352 294 14
1.1513 0.0823 -0.4111 0.2376 294 14
1.1291 0.1623 -0.4063 0.2404 294 14
1.1001 0.2393 -0.4010 0.2536 294 14
1.0796 0.3170 -0.4008 0.2411 294 14
1.0539 0.3931 -0.4007 0.2412 294 14
1.0209 0.4663 -0.3998 0.2417 294 14
0.9870 0.5390 -0.4006 0.3163 294 14
0.9621 0.6183 -0.4074 0.3110 294 14
0.9309 0.6969 -0.4142 0.3058 294 14
0.9061 0.7851 -0.4270 0.2553 294 14
3.4834 -3.4834 -1.8007 0.3439 0 1
3.7227 -3.2257 -1.8005 0.3439 0 1
3.9430 -2.9517 -1.8004 0.3440 0 1
4.1432 -2.6627 -1.8002 0.3440 0 1
1.1848 -0.6469 -0.4934 0.1880 294 14
1.1856 -0.5414 -0.4764 0.1947 294 14
1.1763 -0.4387 -0.4589 0.2021 294 14
1.1582 -0.3401 -0.4412 0.2102 294 14
1.1334 -0.2466 -0.4240 0.2122 294 14
1.1272 -0.1621 -0.4163 0.2401 294 14
1.1296 -0.0808 -0.4140 0.2414 294 14
1.1240 0.0000 -0.4109 0.2432 294 14
1.1105 0.0794 -0.4070 0.2456 294 14
1.0902 0.1568 -0.4026 0.2584 294 14
1.0634 0.2313 -0.3978 0.2615 294 14
1.0418 0.3059 -0.3969 0.2491 294 14
1.0171 0.3794 -0.3968 0.2492 294 14
0.9853 0.4500 -0.3959 0.2497 294 14
0.9604 0.5245 -0.4000 0.3240 294 14
0.9358 0.6014 -0.4066 0.3188 294 14
0.9050 0.6775 -0.4132 0.3137 294 14
0.8762 0.7593 -0.4238 0.2632 294 14
3.3964 -3.3964 -1.8008 0.3516 0 1
3.6298 -3.1452 -1.8006 0.3517 0 1
3.8446 -2.8780 -1.8005 0.3517 0 1
4.0398 -2.5962 -1.8003 0.3517 0 1
1.1327 -0.6185 -0.4838 0.1961 294 14
1.1352 -0.5184 -0.4679 0.2027 294 14
1.1281 -0.4207 -0.4514 0.2101 294 14
1.1124 -0.3266 -0.4346 0.2182 294 14
1.0892 -0.2370 -0.4179 0.2270 294 14
1.0875 -0.1563 -0.4119 0.2481 294 14
1.0901 -0.0779 -0.4097 0.2494 294 14
1.0853 0.0000 -0.4069 0.2615 294 14
1.0733 0.0768 -0.4034 0.2637 294 14
1.0544 0.1516 -0.3994 0.2664 294 14
1.0289 0.2239 -0.3948 0.2695 294 14
1.0064 0.2955 -0.3932 0.2571 294 14
0.9825 0.3665 -0.3931 0.2571 294 14
0.9539 0.4356 -0.3931 0.3371 294 14
0.9351 0.5106 -0.3994 0.3318 294 14
0.9107 0.5853 -0.4058 0.3266 294 14
0.8804 0.6591 -0.4123 0.3214 294 14
0.8482 0.7350 -0.4208 0.2711 294 14
3.3132 -3.3132 -1.8009 0.3593 0 1
3.5408 -3.0681 -1.8007 0.3594 0 1
3.7504 -2.8075 -1.8005 0.3594 0 1
3.9408 -2.5326 -1.8004 0.3594 0 1
1.0846 -0.5922 -0.4750 0.2041 294 14
1.0886 -0.4971 -0.4599 0.2108 294 14
1.0833 -0.4040 -0.4444 0.2181 294 14
1.0698 -0.3141 -0.4285 0.2262 294 14
1.0565 -0.2298 -0.4156 0.3445 294 14
1.0514 -0.1512 -0.4083 0.2663 294 14
1.0543 -0.0754 -0.4062 0.2676 294 14
1.0500 0.0000 -0.4035 0.2694 294 14
1.0387 0.0743 -0.4002 0.2716 294 14
1.0207 0.1468 -0.3963 0.2743 294 14
0.9964 0.2168 -0.3919 0.2774 294 14
0.9731 0.2858 -0.3898 0.2650 294 14
0.9500 0.3544 -0.3897 0.2651 294 14
0.9296 0.4245 -0.3928 0.3449 294 14
0.9110 0.4974 -0.3989 0.3395 294 14
0.8868 0.5699 -0.4051 0.3343 294 14
0.8570 0.6415 -0.4114 0.3292 294 14
0.8217 0.7120 -0.4179 0.2789 294 14
3.2335 -3.2335 -1.8009 0.3670 0 1
3.4556 -2.9943 -1.8008 0.3671 0 1
3.6601 -2.7399 -1.8006 0.3671 0 1
1.0268 -0.6598 -0.4807 0.3042 294 14
1.0402 -0.5680 -0.4668 0.2121 294 14
1.0462 -0.4778 -0.4530 0.3228 294 14
1.0464 -0.3903 -0.4398 0.3324 294 14
1.0409 -0.3056 -0.4273 0.3422 294 14
1.0303 -0.2241 -0.4153 0.3521 294 14
1.0263 -0.1475 -0.4083 0.3741 294 14
1.0207 -0.0730 -0.4030 0.2756 294 14
1.0167 0.0000 -0.4004 0.2773 294 14
1.0060 0.0720 -0.3972 0.2796 294 14
0.9889 0.1422 -0.3935 0.2822 294 14
0.9657 0.2101 -0.3892 0.2853 294 14
0.9418 0.2765 -0.3866 0.2730 294 14
0.9196 0.3430 -0.3865 0.3579 294 14
0.9064 0.4139 -0.3924 0.3526 294 14
0.8879 0.4848 -0.3984 0.3473 294 14
0.8639 0.5553 -0.4045 0.3421 294 14
0.8346 0.6247 -0.4106 0.3370 294 14
0.7996 0.6929 -0.4167 0.3320 294 14
3.1570 -3.1570 -1.8010 0.3747 0 1
3.3739 -2.9235 -1.8008 0.3747 0 1
3.5736 -2.6751 -1.8007 0.3747 0 1
0.9945 -0.6391 -0.4769 0.2614 294 14
1.0115 -0.5523 -0.4649 0.3211 294 14
1.0185 -0.4651 -0.4516 0.3305 294 14
1.0194 -0.3802 -0.4389 0.3401 294 14
1.0149 -0.2980 -0.4267 0.3499 294 14
1.0052 -0.2187 -0.4150 0.3597 294 14
1.0025 -0.1441 -0.4086 0.3817 294 14
0.9964 -0.0712 -0.4029 0.3870 294 14
0.9855 0.0000 -0.3975 0.3923 294 14
0.9752 0.0698 -0.3944 0.2875 294 14
0.9589 0.1379 -0.3908 0.2901 294 14
0.9367 0.2038 -0.3867 0.2932 294 14
0.9122 0.2679 -0.3835 0.2809 294 14
0.8974 0.3347 -0.3864 0.3656 294 14
0.8841 0.4038 -0.3921 0.3602 294 14
0.8658 0.4727 -0.3979 0.3550 294 14
0.8421 0.5412 -0.4038 0.3498 294 14
0.8132 0.6087 -0.4098 0.3447 294 14
0.7788 0.6748 -0.4157 0.3398 294 14
3.0836 -3.0836 -1.8011 0.3823 0 1
3.2954 -2.8555 -1.8009 0.3824 0 1
3.4905 -2.6129 -1.8008 0.3824 0 1
0.9619 -0.6181 -0.4722 0.2693 294 14
0.9844 -0.5375 -0.4632 0.3288 294 14
0.9920 -0.4530 -0.4504 0.3382 294 14
0.9937 -0.3706 -0.4380 0.3478 294 14
0.9899 -0.2906 -0.4261 0.3575 294 14
0.9812 -0.2134 -0.4147 0.3673 294 14
0.9797 -0.1409 -0.4088 0.3893 294 14
0.9740 -0.0696 -0.4033 0.3946 294 14
0.9637 0.0000 -0.3980 0.3998 294 14
0.9490 0.0679 -0.3930 0.4050 294 14
0.9304 0.1338 -0.3882 0.2980 294 14
0.9092 0.1978 -0.3843 0.3010 294 14
0.8844 0.2597 -0.3807 0.3786 294 14
0.8761 0.3268 -0.3862 0.3732 294 14
0.8628 0.3941 -0.3918 0.3679 294 14
0.8446 0.4612 -0.3974 0.3626 294 14
0.8213 0.5278 -0.4032 0.3575 294 14
3.3130 2.4801 -1.7092 0.6287 0 2
3.1077 2.6929 -1.6983 0.3822 0 2
3.0130 -3.0130 -1.8011 0.3899 0 1
3.2200 -2.7902 -1.8010 0.3900 0 1
0.8922 -0.6679 -0.4711 0.2754 294 14
0.9312 -0.5984 -0.4679 0.2773 294 14
0.9586 -0.5234 -0.4617 0.3365 294 14
0.9667 -0.4415 -0.4492 0.3459 294 14
0.9690 -0.3614 -0.4372 0.3554 294 14
0.9660 -0.2836 -0.4256 0.3651 294 14
0.9584 -0.2085 -0.4146 0.3915 294 14
0.9578 -0.1377 -0.4090 0.3968 294 14
0.9524 -0.0681 -0.4036 0.4021 294 14
0.9426 0.0000 -0.3984 0.4074 294 14
0.9286 0.0664 -0.3935 0.4125 294 14
0.9104 0.1309 -0.3888 0.4175 294 14
0.8885 0.1933 -0.3843 0.4223 294 14
4.0873 1.2002 -1.8006 0.3900 0 1
3.9916 1.4888 -1.8007 0.3900 0 1
3.8755 1.7699 -1.8009 0.3900 0 1
3.7396 2.0420 -1.8010 0.3900 0 1
3.5320 2.2699 -1.7747 0.5070 0 2
3.2162 2.4077 -1.6982 0.3899 0 2
3.0366 2.6312 -1.6984 0.3898 0 2
2.9452 -2.9452 -1.8012 0.3975 0 1
3.1475 -2.7273 -1.8010 0.3975 0 1
0.8642 -0.6469 -0.4668 0.2833 294 14
0.9022 -0.5798 -0.4638 0.2852 294 14
0.9333 -0.5096 -0.4599 0.2876 294 14
0.9425 -0.4304 -0.4481 0.3535 294 14
0.9454 -0.3526 -0.4363 0.3630 294 14
0.9430 -0.2769 -0.4250 0.3726 294 14
0.9370 -0.2038 -0.4147 0.3991 294 14
0.9366 -0.1347 -0.4092 0.4044 294 14
0.9317 -0.0666 -0.4039 0.4096 294 14
0.9224 0.0000 -0.3989 0.4148 294 14
0.9088 0.0650 -0.3940 0.4199 294 14
0.8913 0.1282 -0.3894 0.4249 294 14
0.8700 0.1893 -0.3850 0.4298 294 14
3.9954 1.1732 -1.8007 0.3976 0 1
3.9017 1.4553 -1.8008 0.3976 0 1
3.7882 1.7300 -1.8009 0.3976 0 1
3.6554 1.9960 -1.8011 0.3975 0 1
3.5039 2.2519 -1.8012 0.3975 0 1
3.1438 2.3534 -1.6983 0.3975 0 2
2.9682 2.5720 -1.6984 0.3974 0 2
2.8799 -2.8799 -1.8012 0.4051 0 1
3.0777 -2.6669 -1.8011 0.4051 0 1
0.8377 -0.6271 -0.4628 0.2912 294 14
0.8747 -0.5621 -0.4599 0.2931 294 14
0.9052 -0.4943 -0.4561 0.2955 294 14
0.9193 -0.4198 -0.4470 0.3611 294 14
0.9227 -0.3441 -0.4355 0.3706 294 14
0.9210 -0.2704 -0.4245 0.3802 294 14
0.9163 -0.1993 -0.4147 0.4066 294 14
0.9162 -0.1317 -0.4094 0.4119 294 14
0.9117 -0.0652 -0.4042 0.4171 294 14
0.9028 0.0000 -0.3993 0.4223 294 14
0.8898 0.0637 -0.3945 0.4274 294 14
0.8729 0.1255 -0.3900 0.4323 294 14
3.9785 0.8655 -1.8007 0.4052 0 1
3.9068 1.1471 -1.8008 0.4052 0 1
3.8152 1.4230 -1.8009 0.4051 0 1
3.7042 1.6916 -1.8010 0.4051 0 1
3.5743 1.9517 -1.8011 0.4051 0 1
3.4262 2.2019 -1.8013 0.4051 0 1
3.0741 2.3012 -1.6983 0.4050 0 2
2.9023 2.5149 -1.6985 0.4050 0 2
2.8169 -2.8169 -1.8013 0.4126 0 1
0.7705 -0.6677 -0.4610 0.2978 294 14
0.8127 -0.6083 -0.4590 0.2991 294 14
0.8487 -0.5454 -0.4562 0.3009 294 14
0.8785 -0.4797 -0.4526 0.3033 294 14
0.8971 -0.4097 -0.4459 0.3687 294 14
0.9010 -0.3360 -0.4348 0.3781 294 14
0.8998 -0.2642 -0.4240 0.3877 294 14
0.8964 -0.1950 -0.4148 0.4141 294 14
0.8966 -0.1289 -0.4096 0.4193 294 14
0.8924 -0.0638 -0.4045 0.4246 294 14
0.8839 0.0000 -0.3997 0.4297 294 14
0.8714 0.0623 -0.3950 0.4348 294 14
0.8550 0.1230 -0.3906 0.4397 294 14
3.8915 0.8466 -1.8008 0.4127 0 1
3.8214 1.1221 -1.8008 0.4127 0 1
3.7318 1.3919 -1.8009 0.4127 0 1
3.6232 1.6547 -1.8011 0.4126 0 1
3.4962 1.9091 -1.8012 0.4126 0 1
3.3514 2.1538 -1.8013 0.4126 0 1
3.0400 2.2757 -1.7170 0.6268 0 2
2.8586 2.4770 -1.7103 0.6781 0 2
2.7562 -2.7563 -1.8014 0.4201 0 1
0.7479 -0.6480 -0.4573 0.3057 294 14
0.7889 -0.5905 -0.4554 0.3069 294 14
0.8240 -0.5296 -0.4527 0.3088 294 14
0.8531 -0.4658 -0.4492 0.3112 294 14
0.8757 -0.3999 -0.4449 0.3762 294 14
0.8801 -0.3282 -0.4341 0.3856 294 14
0.8795 -0.2582 -0.4236 0.3952 294 14
0.8773 -0.1908 -0.4149 0.4215 294 14
0.8777 -0.1262 -0.4098 0.4268 294 14
0.8737 -0.0625 -0.4048 0.4320 294 14
0.8657 0.0000 -0.4001 0.4371 294 14
0.8536 0.0611 -0.3955 0.4422 294 14
3.8570 0.5546 -1.8008 0.4202 0 1
3.8078 0.8283 -1.8008 0.4202 0 1
3.7391 1.0979 -1.8009 0.4202 0 1
3.6514 1.3619 -1.8010 0.4202 0 1
3.5452 1.6190 -1.8011 0.4201 0 1
3.4209 1.8680 -1.8012 0.4201 0 1
3.2792 2.1074 -1.8014 0.4201 0 1
3.0292 2.2676 -1.7487 0.5544 0 2
2.7777 2.4069 -1.6986 0.4200 0 2
0.6812 -0.6812 -0.4549 0.3128 294 14
0.7264 -0.6294 -0.4538 0.3135 294 14
0.7663 -0.5736 -0.4520 0.3148 294 14
0.8006 -0.5145 -0.4493 0.3166 294 14
0.8290 -0.4527 -0.4460 0.3190 294 14
0.8514 -0.3888 -0.4419 0.3219 294 14
0.8600 -0.3207 -0.4334 0.3931 294 14
0.8598 -0.2525 -0.4231 0.4026 294 14
0.8587 -0.1868 -0.4150 0.4290 294 14
0.8594 -0.1235 -0.4099 0.4342 294 14
0.8558 -0.0612 -0.4051 0.4394 294 14
0.8480 0.0000 -0.4004 0.4445 294 14
0.8365 0.0599 -0.3960 0.4495 294 14
3.7751 0.5428 -1.8008 0.4277 0 1
3.7269 0.8107 -1.8009 0.4277 0 1
3.6597 1.0746 -1.8010 0.4277 0 1
3.5739 1.3330 -1.8011 0.4276 0 1
3.4699 1.5846 -1.8012 0.4276 0 1
3.3482 1.8283 -1.8013 0.4276 0 1
3.2095 2.0626 -1.8014 0.4275 0 1
3.0273 2.2662 -1.7856 0.5526 0 2
2.7188 2.3558 -1.6986 0.4275 0 2
0.6620 -0.6620 -0.4515 0.3206 294 14
0.7059 -0.6117 -0.4505 0.3213 294 14
0.7448 -0.5575 -0.4487 0.3226 294 14
0.7783 -0.5001 -0.4462 0.3244 294 14
0.8061 -0.4401 -0.4429 0.3268 294 14
0.8280 -0.3781 -0.4390 0.3297 294 14
0.8406 -0.3135 -0.4327 0.4006 294 14
0.8409 -0.2469 -0.4227 0.4101 294 14
0.8409 -0.1829 -0.4150 0.4364 294 14
0.8417 -0.1210 -0.4101 0.4416 294 14
0.8384 -0.0599 -0.4054 0.4468 294 14
0.8310 0.0000 -0.4008 0.4519 294 14
3.7244 0.2664 -1.8008 0.4351 0 1
3.6960 0.5314 -1.8009 0.4351 0 1
3.6487 0.7937 -1.8010 0.4351 0 1
3.5830 1.0521 -1.8010 0.4351 0 1
3.4990 1.3051 -1.8011 0.4351 0 1
3.3972 1.5514 -1.8012 0.4350 0 1
3.2780 1.7900 -1.8013 0.4350 0 1
3.1422 2.0194 -1.8015 0.4350 0 1
1.5848 1.1863 -0.9548 0.4095 294 14
2.6617 2.3064 -1.6986 0.4349 0 2
2.5865 -2.5865 -1.8015 0.4424 0 1
0.6864 -0.5948 -0.4473 0.3291 294 14
0.7243 -0.5422 -0.4456 0.3304 294 14
0.7570 -0.4865 -0.4432 0.3322 294 14
0.7842 -0.4282 -0.4400 0.3346 294 14
0.8057 -0.3679 -0.4363 0.3375 294 14
0.8217 -0.3064 -0.4319 0.3409 294 14
0.8227 -0.2416 -0.4223 0.4175 294 14
0.8236 -0.1791 -0.4151 0.4437 294 14
0.8246 -0.1186 -0.4103 0.4489 294 14
0.8215 -0.0587 -0.4056 0.4541 294 14
3.6566 0.0000 -1.8009 0.4426 0 1
3.6473 0.2609 -1.8009 0.4425 0 1
3.6195 0.5204 -1.8010 0.4425 0 1
3.5733 0.7773 -1.8010 0.4425 0 1
3.5089 1.0303 -1.8011 0.4425 0 1
3.4266 1.2781 -1.8012 0.4425 0 1
3.3269 1.5193 -1.8013 0.4425 0 1
3.2102 1.7529 -1.8014 0.4424 0 1
3.0772 1.9776 -1.8015 0.4424 0 1
1.6027 1.1997 -0.9860 0.4033 294 14
2.6252 2.2747 -1.7108 0.6746 0 2
2.5337 -2.5336 -1.8016 0.4498 0 1
2.7077 -2.3463 -1.8014 0.4498 0 1
0.7048 -0.5276 -0.4426 0.3382 294 14
