ply
format ascii 1.0
element vertex 1399
property float32 x
property float32 y
property float32 z
property float32 CosAngle
property uint32 ObjIdx
property uint32 ObjTag
end_header
14.7511 -2.1210 4.2246 0.7372 0 9
14.0240 -1.0031 3.9856 0.6115 0 9
16.2399 -0.0000 4.6036 0.8842 0 9
16.5809 1.1859 4.7123 0.9530 0 9
27.4093 3.9408 7.8498 0.8297 0 9
25.4579 5.5379 7.3855 0.9020 0 9
21.3671 6.2739 6.3128 0.8900 0 9
20.8112 7.7621 6.2965 0.7549 0 9
20.6548 9.4327 6.4368 0.9426 0 9
20.5768 11.2357 6.6460 0.7276 0 9
22.2956 14.3284 7.5129 0.9228 0 9
32.6729 24.4585 11.5696 0.8891 0 9
12.1299 -12.1300 4.7104 0.9170 0 9
13.1996 -11.4375 4.7958 0.4638 0 9
15.0984 -11.3026 5.1788 0.9271 0 9
16.9877 -10.9174 5.5449 0.7296 0 9
23.8763 -13.0375 7.4699 0.7027 0 9
28.3766 -12.9593 8.5660 0.9881 0 9
18.9354 -7.0626 5.5493 0.6039 0 9
14.9628 -4.3936 4.2821 0.7516 0 9
15.9799 -3.4762 4.4905 0.9038 0 9
14.8758 -2.1388 4.1267 0.7327 0 9
13.9789 -0.9999 3.8483 0.6149 0 9
16.2401 -0.0001 4.4593 0.7805 0 9
16.6429 1.1903 4.5816 0.9516 0 9
27.7831 3.9946 7.7074 0.8218 0 9
25.4472 5.5356 7.1509 0.9044 0 9
21.5077 6.3152 6.1551 0.8862 0 9
20.9569 7.8165 6.1417 0.7514 0 9
20.7239 9.4642 6.2559 0.9416 0 9
20.7685 11.3404 6.4976 0.7225 0 9
22.2732 14.3140 7.2700 0.9259 0 9
32.7528 24.5183 11.2343 0.7256 0 9
30.0532 26.0412 10.9193 0.5888 0 9
12.1207 -12.1207 4.5551 0.9197 0 9
13.2001 -11.4380 4.6415 0.9026 0 9
15.0826 -11.2908 5.0067 0.9302 0 9
16.7091 -10.7383 5.2782 0.1029 0 9
24.1240 -13.1728 7.3042 0.6971 0 9
36.7786 -16.7962 10.7445 0.6373 0 9
18.9472 -7.0671 5.3739 0.6049 0 9
14.9879 -4.4009 4.1510 0.7520 0 9
14.5417 -3.1634 3.9547 0.5490 0 9
15.3469 -2.2066 4.1202 0.5983 0 9
13.9343 -0.9967 3.7124 0.6182 0 9
16.2158 -0.0000 4.3092 0.7834 0 9
16.7050 1.1947 4.4505 0.9502 0 9
27.6902 3.9812 7.4341 0.8264 0 9
25.4366 5.5333 6.9176 0.9068 0 9
21.6496 6.3568 5.9960 0.8824 0 9
21.0362 7.8460 5.9663 0.4219 0 9
20.7931 9.4958 6.0745 0.9406 0 9
20.9628 11.4464 6.3470 0.7174 0 9
23.0969 14.8434 7.2960 0.9944 0 9
32.5907 24.3970 10.8185 0.7308 0 9
29.4109 25.4846 10.3416 0.9916 0 9
12.1114 -12.1115 4.4008 0.9224 0 9
13.1899 -11.4291 4.4842 0.9052 0 9
15.0670 -11.2791 4.8357 0.9331 0 9
17.2156 -11.0638 5.2579 0.9416 0 9
26.0251 -14.2109 7.6186 0.8109 0 9
20.4259 -9.3282 5.7695 0.6356 0 9
18.9591 -7.0715 5.1990 0.6058 0 9
15.0129 -4.4082 4.0201 0.7524 0 9
14.7086 -3.1997 3.8675 0.5440 0 9
15.3218 -2.2030 3.9771 0.6006 0 9
13.8901 -0.9935 3.5779 0.6215 0 9
16.1917 -0.0001 4.1602 0.7863 0 9
18.6394 1.3331 4.8013 0.8617 0 9
38.1278 5.4820 9.8970 0.6420 0 9
25.4260 5.5310 6.6855 0.9092 0 9
21.7926 6.3988 5.8356 0.8785 0 9
21.2524 7.9266 5.8279 0.7442 0 9
20.8625 9.5275 5.8928 0.9395 0 9
22.8076 12.4538 6.6767 0.8208 0 9
23.1368 14.8691 7.0663 0.9948 0 9
32.4309 24.2774 10.4086 0.7360 0 9
28.1066 24.3545 9.5554 0.8910 0 9
12.1023 -12.1023 4.2473 0.9250 0 9
13.1797 -11.4203 4.3277 0.9078 0 9
14.5065 -10.8596 4.4969 0.4978 0 9
17.2342 -11.0758 5.0839 0.9426 0 9
25.9876 -14.1904 7.3479 0.8138 0 9
20.3079 -9.2744 5.5403 0.6407 0 9
18.9709 -7.0758 5.0246 0.6067 0 9
15.0379 -4.4156 3.8894 0.7527 0 9
14.8787 -3.2367 3.7787 0.5389 0 9
15.2968 -2.1994 3.8351 0.6028 0 9
13.8464 -0.9904 3.4449 0.6248 0 9
16.1678 -0.0001 4.0122 0.7891 0 9
18.6592 1.3345 4.6423 0.8626 0 9
36.8250 5.2946 9.2325 0.7388 0 9
22.5291 4.9008 5.7216 0.8575 0 9
21.9370 6.4412 5.6737 0.8745 0 9
21.4023 7.9826 5.6686 0.7406 0 9
20.9321 9.5593 5.7106 0.9383 0 9
22.7772 12.4372 6.4402 0.8236 0 9
23.1767 14.8947 6.8369 0.9951 0 9
32.7182 24.4924 10.1423 0.2199 0 9
28.2053 24.4399 9.2616 0.8897 0 9
12.0932 -12.0932 4.0947 0.9276 0 9
13.1696 -11.4116 4.1722 0.9104 0 9
14.7424 -11.0361 4.4091 0.4908 0 9
17.2527 -11.0877 4.9102 0.9435 0 9
25.9503 -14.1700 7.0790 0.8166 0 9
20.1917 -9.2213 5.3147 0.6456 0 9
18.9826 -7.0802 4.8508 0.6075 0 9
15.0629 -4.4229 3.7587 0.7529 0 9
15.0520 -3.2744 3.6881 0.5337 0 9
15.2720 -2.1958 3.6941 0.6050 0 9
15.3660 -1.0991 3.6884 0.0928 0 9
16.1440 -0.0001 3.8653 0.7918 0 9
18.6789 1.3359 4.4836 0.8634 0 9
36.8211 5.2941 8.9065 0.7404 0 9
22.4668 4.8873 5.5049 0.8616 0 9
22.0739 6.4814 5.5081 0.4706 0 9
21.5538 8.0390 5.5078 0.7368 0 9
21.0018 9.5911 5.5279 0.9371 0 9
22.7470 12.4207 6.2052 0.8264 0 9
33.6762 21.6422 9.5844 0.7843 0 9
33.6799 25.2124 10.0729 0.9873 0 9
28.3041 24.5255 8.9669 0.8884 0 9
12.0841 -12.0841 3.9429 0.9301 0 9
13.1595 -11.4029 4.0175 0.9128 0 9
14.9851 -11.2177 4.3188 0.4838 0 9
17.2712 -11.0996 4.7368 0.9443 0 9
28.5419 -15.5852 7.5031 0.9273 0 9
20.0772 -9.1690 5.0925 0.6506 0 9
18.9698 -7.0754 4.6713 0.8704 0 9
15.0879 -4.4303 3.6281 0.7531 0 9
15.2287 -3.3129 3.5958 0.5286 0 9
15.2474 -2.1923 3.5541 0.6071 0 9
15.3634 -1.0989 3.5538 0.0930 0 9
16.1204 -0.0001 3.7194 0.7945 0 9
18.6986 1.3372 4.3252 0.8642 0 9
36.8171 5.2935 8.5819 0.7419 0 9
22.4050 4.8738 5.2903 0.8657 0 9
22.0822 6.4839 5.3100 0.4714 0 9
21.7068 8.0961 5.3453 0.7331 0 9
21.0717 9.6230 5.3447 0.9358 0 9
22.7171 12.4043 5.9718 0.8291 0 9
33.5677 21.5725 9.2063 0.7883 0 9
30.5607 22.8773 8.8079 0.9488 0 9
28.4033 24.6115 8.6713 0.8870 0 9
12.0751 -12.0751 3.7920 0.9325 0 9
13.3955 -11.6073 3.9359 0.4626 0 9
15.0053 -11.2329 4.1622 0.9444 0 9
17.0702 -10.9704 4.5058 0.3131 0 9
28.5124 -15.5691 7.2137 0.9300 0 9
19.9645 -9.1175 4.8736 0.6555 0 9
18.9457 -7.0665 4.4901 0.8732 0 9
15.1128 -4.4376 3.4976 0.7533 0 9
15.4089 -3.3521 3.5016 0.5234 0 9
15.2230 -2.1888 3.4151 0.6093 0 9
15.3607 -1.0987 3.4196 0.0932 0 9
17.8130 -0.0000 3.9555 0.6557 0 9
18.7183 1.3387 4.1671 0.8649 0 9
36.8131 5.2929 8.2586 0.7433 0 9
22.3439 4.8606 5.0776 0.8697 0 9
22.0905 6.4862 5.1124 0.4721 0 9
21.8614 8.1537 5.1811 0.7292 0 9
21.1419 9.6551 5.1610 0.9344 0 9
25.3657 13.8506 6.4176 0.8998 0 9
26.2594 16.8757 6.9314 0.7010 0 9
30.5377 22.8601 8.4706 0.9513 0 9
28.4892 24.6859 8.3707 0.6253 0 9
15.7754 -15.7755 4.7613 0.9634 0 9
13.4283 -11.6357 3.7920 0.4623 0 9
14.9901 -11.2215 3.9962 0.9470 0 9
17.3082 -11.1234 4.3909 0.9457 0 9
28.4831 -15.5531 6.9260 0.9326 0 9
19.8534 -9.0669 4.6580 0.6603 0 9
18.9216 -7.0575 4.3100 0.8758 0 9
15.1378 -4.4449 3.3671 0.7534 0 9
15.5927 -3.3921 3.4056 0.5181 0 9
15.1987 -2.1853 3.2770 0.6113 0 9
16.2242 -1.1604 3.4714 0.9124 0 9
17.7917 -0.0000 3.7971 0.6577 0 9
18.7379 1.3401 4.0092 0.8655 0 9
22.8138 3.2801 4.9190 0.9761 0 9
22.2833 4.8473 4.8669 0.8736 0 9
22.0987 6.4887 4.9154 0.4727 0 9
22.0910 8.2395 5.0319 0.9989 0 9
21.0264 9.6023 4.9332 0.0994 0 9
25.2611 13.7935 6.1425 0.0654 0 9
26.0894 16.7666 6.6186 0.7068 0 9
30.5148 22.8430 8.1350 0.9537 0 9
27.6455 23.9548 7.8069 0.1029 0 9
15.8294 -15.8295 4.5850 0.9618 0 9
14.2185 -12.3204 3.8533 0.9442 0 9
14.9749 -11.2102 3.8312 0.9496 0 9
17.3267 -11.1352 4.2184 0.9463 0 9
28.4540 -15.5371 6.6399 0.9352 0 9
19.7440 -9.0168 4.4455 0.6651 0 9
18.8978 -7.0486 4.1310 0.8785 0 9
15.1627 -4.4523 3.2366 0.7535 0 9
15.7803 -3.4329 3.3076 0.5129 0 9
15.1746 -2.1818 3.1399 0.6133 0 9
16.3048 -1.1662 3.3480 0.9094 0 9
18.2792 -0.0001 3.7438 0.4434 0 9
18.7575 1.3415 3.8516 0.8661 0 9
22.8325 3.2828 4.7245 0.9770 0 9
22.2232 4.8343 4.6580 0.8775 0 9
21.6216 6.3486 4.6153 0.0539 0 9
22.5447 8.4087 4.9281 0.9589 0 9
21.2827 9.7194 4.7920 0.9315 0 9
25.2783 13.8029 5.8989 0.9061 0 9
25.9221 16.6590 6.3110 0.7126 0 9
28.0299 20.9828 7.1712 0.9662 0 9
26.4705 22.9367 7.1736 0.7490 0 9
15.8835 -15.8836 4.4080 0.9601 0 9
14.2041 -12.3080 3.6882 0.9467 0 9
14.9599 -11.1989 3.6671 0.9522 0 9
17.3451 -11.1470 4.0460 0.9469 0 9
28.4250 -15.5214 6.3554 0.9377 0 9
19.6361 -8.9675 4.2361 0.6699 0 9
18.8740 -7.0397 3.9530 0.8810 0 9
15.1877 -4.4596 3.1062 0.7535 0 9
15.9718 -3.4745 3.2075 0.5075 0 9
15.1506 -2.1784 3.0037 0.6153 0 9
16.3859 -1.1721 3.2237 0.9064 0 9
18.2831 -0.0000 3.5878 0.4440 0 9
18.7770 1.3429 3.6941 0.8666 0 9
22.8511 3.2855 4.5303 0.9778 0 9
22.1636 4.8213 4.4510 0.8813 0 9
22.0200 6.4656 4.5035 0.8710 0 9
22.5378 8.4061 4.7203 0.9608 0 9
23.3830 10.6785 5.0444 0.9029 0 9
25.2351 13.7794 5.6422 0.9091 0 9
31.7683 20.4161 7.4104 0.5120 0 9
28.0690 21.0121 6.8805 0.9664 0 9
26.6981 23.1339 6.9323 0.7439 0 9
15.9379 -15.9379 4.2303 0.9584 0 9
14.1898 -12.2956 3.5239 0.9492 0 9
14.9450 -11.1877 3.5038 0.9546 0 9
17.3635 -11.1589 3.8738 0.9474 0 9
27.2105 -14.8582 5.8188 0.9429 0 9
19.5297 -8.9190 4.0296 0.6746 0 9
18.8505 -7.0309 3.7760 0.8835 0 9
15.2126 -4.4669 2.9757 0.7534 0 9
16.0542 -3.4925 3.0836 0.7357 0 9
15.1268 -2.1750 2.8683 0.6173 0 9
16.7140 -1.1955 3.1450 0.5630 0 9
19.7810 -0.0001 3.7126 0.2357 0 9
18.7966 1.3443 3.5369 0.8671 0 9
22.8697 3.2881 4.3364 0.9786 0 9
22.1046 4.8084 4.2457 0.8851 0 9
21.9607 6.4482 4.2957 0.8748 0 9
22.5166 8.3982 4.5104 0.9235 0 9
23.3512 10.6641 4.8181 0.9056 0 9
25.1922 13.7559 5.3872 0.9121 0 9
23.8475 15.3257 5.3204 0.9236 0 9
28.1080 21.0412 6.5898 0.9666 0 9
26.9289 23.3339 6.6876 0.7387 0 9
14.6441 -14.6441 3.7104 0.7283 0 9
13.7490 -11.9136 3.2594 0.1812 0 9
14.9301 -11.1765 3.3414 0.9570 0 9
18.5626 -11.9296 3.9533 0.8458 0 9
27.1737 -14.8381 5.5470 0.9456 0 9
18.8658 -8.6158 3.7158 0.8584 0 9
18.8270 -7.0221 3.6001 0.8860 0 9
16.9812 -4.9862 3.1708 0.9187 0 9
16.5580 -3.6021 3.0360 0.2258 0 9
15.1032 -2.1716 2.7338 0.6192 0 9
16.6853 -1.1934 2.9970 0.5648 0 9
19.8838 -0.0001 3.5624 0.2348 0 9
20.5619 1.4706 3.6933 0.8454 0 9
22.8882 3.2908 4.1429 0.9793 0 9
25.2723 5.4976 4.6337 0.9632 0 9
22.1316 6.4983 4.1325 0.4751 0 9
22.4749 8.3826 4.2976 0.9266 0 9
23.3196 10.6496 4.5930 0.9082 0 9
25.1495 13.7326 5.1338 0.9151 0 9
29.0395 18.6624 6.1845 0.7981 0 9
28.1248 21.0539 6.2944 0.9697 0 9
27.1071 23.4883 6.4262 0.7613 0 9
16.0471 -16.0472 3.8731 0.9547 0 9
14.0778 -12.1985 3.1791 0.1772 0 9
14.9153 -11.1655 3.1797 0.9594 0 9
24.4784 -15.7314 4.9659 0.9082 0 9
27.1371 -14.8180 5.2768 0.9482 0 9
18.8417 -8.6047 3.5351 0.8607 0 9
16.7762 -6.2573 3.0558 0.9094 0 9
15.6675 -4.6004 2.7868 0.2729 0 9
16.6035 -3.6119 2.8999 0.7051 0 9
15.0797 -2.1682 2.6000 0.6210 0 9
16.6568 -1.1914 2.8500 0.5666 0 9
19.9873 -0.0001 3.4111 0.2339 0 9
20.5349 1.4686 3.5135 0.8477 0 9
36.7586 5.2850 6.3379 0.8438 0 9
25.2958 5.5027 4.4181 0.9637 0 9
22.1397 6.5007 3.9380 0.4756 0 9
22.4335 8.3671 4.0862 0.9297 0 9
23.2882 10.6352 4.3693 0.9107 0 9
23.9141 13.0579 4.6501 0.9287 0 9
28.9542 18.6076 5.8739 0.8016 0 9
27.4590 20.5554 5.8539 0.5406 0 9
27.1444 23.5207 6.1298 0.7614 0 9
16.1021 -16.1022 3.6934 0.9527 0 9
14.1693 -12.2779 3.0409 0.1553 0 9
14.9005 -11.1544 3.0189 0.9616 0 9
24.4468 -15.7112 4.7132 0.9106 0 9
26.5335 -14.4885 4.9032 0.4634 0 9
18.8177 -8.5938 3.3553 0.8630 0 9
18.7804 -7.0048 3.2510 0.8907 0 9
15.7037 -4.6111 2.6545 0.2726 0 9
17.1967 -3.7410 2.8544 0.8597 0 9
15.0563 -2.1648 2.4671 0.6229 0 9
16.6286 -1.1894 2.7039 0.5683 0 9
20.0916 -0.0000 3.2587 0.2330 0 9
20.5080 1.4667 3.3347 0.8500 0 9
41.0995 5.9092 6.7345 0.0539 0 9
25.3194 5.5078 4.2026 0.9641 0 9
22.1479 6.5031 3.7438 0.4761 0 9
22.3923 8.3518 3.8762 0.9327 0 9
23.2569 10.6210 4.1468 0.9132 0 9
23.8697 13.0337 4.4110 0.9317 0 9
24.0491 15.4553 4.6366 0.9339 0 9
27.3528 20.4760 5.5417 0.5145 0 9
27.1817 23.5529 5.8334 0.7614 0 9
16.0609 -16.0610 3.4920 0.6787 0 9
14.7798 -12.8069 3.0066 0.2635 0 9
21.9835 -16.4568 4.2218 0.9488 0 9
24.4154 -15.6909 4.4619 0.9130 0 9
26.9896 -14.7376 4.7276 0.4562 0 9
29.5399 -13.4905 4.9926 0.9578 0 9
18.7574 -6.9962 3.0778 0.8929 0 9
15.7400 -4.6217 2.5220 0.2724 0 9
17.2958 -3.7625 2.7212 0.8559 0 9
16.9124 -2.4317 2.6268 0.9763 0 9
16.6005 -1.1874 2.5587 0.5700 0 9
20.1968 -0.0000 3.1050 0.2321 0 9
20.4812 1.4648 3.1568 0.8522 0 9
36.7320 5.2813 5.7052 0.0757 0 9
24.2932 5.2846 3.8222 0.7513 0 9
23.4365 6.8815 3.7552 0.7470 0 9
22.3515 8.3366 3.6675 0.9356 0 9
23.2258 10.6068 3.9254 0.9156 0 9
23.8256 13.0097 4.1734 0.9346 0 9
24.0516 15.4569 4.3954 0.9350 0 9
27.6264 20.6807 5.3055 0.5100 0 9
27.2189 23.5852 5.5370 0.7613 0 9
16.2127 -16.2128 3.3317 0.9486 0 9
14.7053 -12.7423 2.8274 0.2651 0 9
22.4062 -16.7732 4.0670 0.7139 0 9
24.3842 -15.6708 4.2118 0.9153 0 9
27.0283 -14.7587 4.4748 0.9558 0 9
29.5668 -13.5028 4.7231 0.9581 0 9
35.1821 -13.1223 5.4563 0.2457 0 9
15.7764 -4.6324 2.3892 0.2721 0 9
17.8916 -3.8921 2.6606 0.9797 0 9
16.9151 -2.4321 2.4832 0.9774 0 9
16.5725 -1.1853 2.4143 0.5717 0 9
20.3028 -0.0000 2.9502 0.2312 0 9
20.4546 1.4629 2.9798 0.8544 0 9
36.2810 5.2164 5.3262 0.8332 0 9
24.4866 5.3266 3.6413 0.7463 0 9
23.3957 6.8695 3.5431 0.7492 0 9
24.9066 9.2896 3.8627 0.9441 0 9
23.1949 10.5926 3.7052 0.9180 0 9
23.1149 12.6216 3.8269 0.4867 0 9
24.0541 15.4585 4.1548 0.9361 0 9
27.9048 20.8891 5.0651 0.5056 0 9
30.7759 26.6674 5.9173 0.8496 0 9
16.2684 -16.2685 3.1496 0.9465 0 9
17.4483 -15.1191 3.1606 0.8987 0 9
22.5541 -16.8839 3.8569 0.7101 0 9
28.7709 -18.4901 4.6819 0.5386 0 9
26.9925 -14.7391 4.2102 0.9581 0 9
29.5937 -13.5151 4.4538 0.9583 0 9
35.3753 -13.1943 5.1687 0.2446 0 9
15.8128 -4.6431 2.2562 0.2718 0 9
17.8835 -3.8904 2.5055 0.9813 0 9
22.6280 -3.2535 3.1296 0.9459 0 9
23.0823 -1.6510 3.1680 0.9657 0 9
20.4096 -0.0001 2.7941 0.2302 0 9
20.4281 1.4610 2.8037 0.8565 0 9
34.2428 4.9234 4.7360 0.7717 0 9
24.6827 5.3693 3.4581 0.7412 0 9
23.3551 6.8576 3.3323 0.7514 0 9
29.8765 11.1433 4.3653 0.6948 0 9
23.1641 10.5786 3.4862 0.9203 0 9
23.4745 12.8180 3.6615 0.4798 0 9
24.0566 15.4601 3.9148 0.9370 0 9
28.1882 21.1013 4.8204 0.5011 0 9
30.7481 26.6433 5.5698 0.8514 0 9
16.3244 -16.3244 2.9668 0.9442 0 9
17.3990 -15.0764 2.9585 0.9022 0 9
22.7036 -16.9958 3.6445 0.7062 0 9
28.7154 -18.4544 4.3865 0.5403 0 9
26.9568 -14.7197 3.9470 0.9605 0 9
29.6206 -13.5274 4.1846 0.9585 0 9
35.5703 -13.2671 4.8787 0.2435 0 9
15.8494 -4.6538 2.1228 0.2714 0 9
17.8755 -3.8886 2.3509 0.9828 0 9
22.7022 -3.2642 2.9474 0.9438 0 9
23.1493 -1.6557 2.9825 0.9640 0 9
20.5173 -0.0001 2.6366 0.2293 0 9
20.4018 1.4591 2.6285 0.8585 0 9
36.6385 5.2678 4.7568 0.8269 0 9
24.8815 5.4126 3.2722 0.7361 0 9
23.3148 6.8458 3.1226 0.7535 0 9
29.9335 11.1645 4.1055 0.6943 0 9
23.6827 10.8154 3.3458 0.8262 0 9
23.6948 12.9382 3.4693 0.9431 0 9
24.0591 15.4617 3.6752 0.9380 0 9
28.6939 21.4798 4.6061 0.9693 0 9
30.7204 26.6193 5.2237 0.8531 0 9
16.3806 -16.3806 2.7830 0.9420 0 9
17.3079 -14.9975 2.7513 0.9528 0 9
22.7574 -17.0360 3.4151 0.8698 0 9
27.4948 -17.6699 3.9264 0.6887 0 9
26.9213 -14.7003 3.6849 0.9627 0 9
33.7429 -15.4099 4.4564 0.9476 0 9
35.7670 -13.3404 4.5860 0.2425 0 9
17.5896 -5.1648 2.2023 0.8946 0 9
17.8675 -3.8869 2.1967 0.9842 0 9
22.7766 -3.2748 2.7644 0.9417 0 9
23.2166 -1.6605 2.7963 0.9622 0 9
20.6259 -0.0000 2.4779 0.2283 0 9
40.9515 2.9289 4.9323 0.6498 0 9
36.6937 5.2758 4.4535 0.8009 0 9
25.4371 5.5334 3.1273 0.9653 0 9
23.2747 6.8340 2.9141 0.7556 0 9
27.2723 10.1720 3.4968 0.7462 0 9
27.6697 12.6363 3.6543 0.9488 0 9
23.6518 12.9148 3.2374 0.9458 0 9
24.0616 15.4633 3.4361 0.9388 0 9
28.7126 21.4939 4.3088 0.9850 0 9
30.6929 26.5954 4.8790 0.8547 0 9
16.4371 -16.4371 2.5983 0.9396 0 9
17.3669 -15.0486 2.5686 0.9505 0 9
22.7196 -17.0078 3.1723 0.8721 0 9
29.0375 -18.6614 3.8582 0.9517 0 9
26.8859 -14.6810 3.4241 0.9649 0 9
33.7215 -15.4001 4.1438 0.9491 0 9
35.8788 -13.3821 4.2804 0.9871 0 9
17.6792 -5.1911 2.0596 0.8909 0 9
17.8595 -3.8852 2.0430 0.9856 0 9
21.0348 -3.0244 2.3754 0.4310 0 9
23.2842 -1.6654 2.6093 0.9603 0 9
21.1734 -0.0000 2.3667 0.3337 0 9
41.4125 2.9619 4.6409 0.8406 0 9
36.1750 5.2012 4.0852 0.1086 0 9
25.4605 5.5385 2.9125 0.9653 0 9
23.2348 6.8223 2.7068 0.7576 0 9
30.0476 11.2071 3.5847 0.6930 0 9
26.2910 12.0066 3.2307 0.5454 0 9
23.6090 12.8914 3.0068 0.9484 0 9
24.0640 15.4649 3.1974 0.9396 0 9
28.6948 21.4805 4.0066 0.9308 0 9
30.3979 26.3399 4.4960 0.6545 0 9
16.4938 -16.4939 2.4128 0.9372 0 9
17.4262 -15.1000 2.3851 0.9481 0 9
22.6820 -16.9797 2.9307 0.8743 0 9
29.1217 -18.7155 3.5807 0.9498 0 9
26.8508 -14.6617 3.1644 0.9670 0 9
33.7001 -15.3903 3.8321 0.9505 0 9
35.8677 -13.3780 3.9597 0.9883 0 9
29.6373 -8.7023 3.1950 0.2678 0 9
17.8515 -3.8834 1.8897 0.9869 0 9
22.9266 -3.2964 2.3959 0.9373 0 9
23.3521 -1.6702 2.4216 0.9584 0 9
33.5585 -0.0000 3.4712 0.8996 0 9
41.3312 2.9561 4.2861 0.8430 0 9
35.6555 5.1265 3.7260 0.5545 0 9
25.4841 5.5436 2.6976 0.9653 0 9
23.4630 6.8893 2.5294 0.9089 0 9
30.1049 11.2285 3.3235 0.6923 0 9
27.7960 12.6939 3.1608 0.9462 0 9
23.5664 12.8681 2.7774 0.9510 0 9
24.0665 15.4665 2.9591 0.9404 0 9
28.6428 21.4416 3.7009 0.9334 0 9
30.4375 26.3741 4.1659 0.1395 0 9
16.5509 -16.5509 2.2262 0.9348 0 9
20.4444 -17.7153 2.5729 0.8149 0 6
28.9351 -21.6607 3.4377 0.9864 0 9
29.2063 -18.7698 3.3020 0.9479 0 9
31.8893 -17.4130 3.4557 0.9615 0 9
36.1120 -16.4919 3.7758 0.9753 0 9
37.3529 -13.9319 3.7917 0.4961 0 9
30.4407 -8.9382 3.0174 0.7078 0 9
23.3221 -5.0734 2.2700 0.8873 0 9
23.0022 -3.3073 2.2102 0.9349 0 9
23.4202 -1.6751 2.2332 0.9564 0 9
34.4714 -0.0000 3.2786 0.9111 0 9
29.3141 2.0966 2.7952 0.3823 0 6
36.0519 5.1834 3.4642 0.5488 0 9
26.0861 5.6746 2.5391 0.6667 0 9
25.0110 7.3438 2.4792 0.8001 0 9
26.6341 9.9339 2.7036 0.5089 0 9
27.8595 12.7229 2.9130 0.9449 0 9
23.5240 12.8449 2.5492 0.9534 0 9
24.0690 15.4681 2.7212 0.9411 0 9
28.5911 21.4029 3.3968 0.9358 0 9
30.9646 26.8309 3.8969 0.6436 0 9
30.7623 -30.7623 3.7760 0.4925 0 9
20.3029 -17.5926 2.3317 0.9331 0 6
28.9334 -21.6594 3.1370 0.9872 0 9
29.2913 -18.8245 3.0221 0.9458 0 9
33.9935 -18.5619 3.3617 0.5312 0 9
36.0960 -16.4846 3.4442 0.9765 0 9
37.2592 -13.8970 3.4516 0.4977 0 9
30.4822 -8.9504 2.7574 0.7074 0 9
31.5343 -6.8599 2.8011 0.8446 0 9
20.4451 -2.9396 1.7928 0.8223 0 9
23.6974 -1.6949 2.0621 0.9152 0 9
34.4945 -0.0000 2.9940 0.9112 0 9
41.1700 2.9446 3.5825 0.8476 0 9
36.6967 5.2762 3.2179 0.7688 0 9
26.1126 5.6804 2.3195 0.6665 0 9
26.2521 7.7082 2.3748 0.8580 0 9
30.5499 11.3945 2.8301 0.9889 0 9
27.9231 12.7520 2.6644 0.9434 0 9
23.4818 12.8220 2.3222 0.9559 0 9
31.1491 20.0182 3.2138 0.7866 0 9
29.7941 22.3035 3.2303 0.6869 0 9
31.0024 26.8637 3.5606 0.3815 0 9
31.6929 -31.6929 3.5181 0.2766 0 9
20.4598 -17.7286 2.1250 0.9664 0 6
28.9316 -21.6581 2.8368 0.9880 0 9
29.3766 -18.8793 2.7410 0.9437 0 9
35.0035 -19.1134 3.1305 0.6817 0 9
42.5076 -19.4126 3.6681 0.6840 0 9
37.1661 -13.8622 3.1136 0.4993 0 9
30.5239 -8.9627 2.4971 0.7069 0 9
31.4970 -6.8518 2.5302 0.8461 0 9
20.4445 -2.9395 1.6213 0.8229 0 9
23.7773 -1.7006 1.8712 0.9127 0 9
43.2200 -0.0001 3.3925 0.9078 0 9
41.0900 2.9388 3.2336 0.8499 0 9
36.6647 5.2715 2.9076 0.2893 0 9
26.1391 5.6861 2.0998 0.6663 0 9
26.2182 7.6983 2.1449 0.8597 0 9
30.5429 11.3918 2.5588 0.9898 0 9
27.9869 12.7812 2.4151 0.9419 0 9
35.5453 19.4091 3.1789 0.5374 0 9
31.0441 19.9507 2.8966 0.7594 0 9
33.7640 25.2753 3.3106 0.9778 0 9
29.7036 25.7382 3.0851 0.9532 0 9
31.5999 -31.5998 3.1373 0.2776 0 9
23.5382 -20.3961 2.1865 0.5872 0 9
28.9299 -21.6568 2.5370 0.9886 0 9
29.4623 -18.9344 2.4586 0.9415 0 9
35.1375 -19.1866 2.8105 0.9831 0 9
42.2112 -19.2772 3.2577 0.6892 0 9
41.2538 -15.3869 3.0910 0.8329 0 9
31.8551 -9.3535 2.3307 0.4216 0 6
31.4598 -6.8437 2.2602 0.8477 0 9
20.4437 -2.9394 1.4500 0.8235 0 9
32.7900 -2.3452 2.3078 0.2334 0 9
43.1370 -0.0001 3.0283 0.9101 0 9
45.8453 3.2789 3.2267 0.9671 0 9
38.0785 5.4748 2.7007 0.8944 0 9
36.0391 7.8398 2.5892 0.7305 0 9
26.1845 7.6884 1.9158 0.8613 0 9
27.1279 10.1181 2.0326 0.4869 0 9
28.0509 12.8104 2.1649 0.9403 0 9
33.9482 18.5370 2.7154 0.8814 0 9
31.4313 20.1995 2.6229 0.7806 0 9
32.6840 24.4668 2.8662 0.6217 0 9
29.6511 25.6928 2.7543 0.9554 0 9
31.5075 -31.5076 2.7591 0.2786 0 9
28.9281 -21.6555 2.2376 0.9892 0 9
35.8752 -19.5893 2.5310 0.7652 0 9
41.4200 -15.4489 2.7374 0.8300 0 9
20.4430 -2.9393 1.2789 0.8239 0 9
35.7999 -2.5605 2.2224 0.8990 0 9
43.0543 -0.0000 2.6660 0.9124 0 9
38.4055 5.5219 2.4026 0.9566 0 9
41.7931 9.0915 2.6484 0.9743 0 9
26.2674 7.7128 1.6952 0.8263 0 9
27.0908 10.1042 1.7904 0.4879 0 9
28.1152 12.8397 1.9139 0.9387 0 9
35.7615 19.5272 2.5230 0.8383 0 9
31.4672 20.2227 2.3162 0.9178 0 9
33.9031 25.3794 2.6224 0.9750 0 9
29.5989 25.6475 2.4251 0.9576 0 9
34.7640 -26.0240 2.3297 0.5502 0 9
35.9082 -19.6074 2.1949 0.7649 0 9
41.5874 -15.5113 2.3812 0.8270 0 9
20.4423 -2.9391 1.1080 0.8244 0 9
36.4715 -2.6085 1.9616 0.6188 0 9
47.7218 -0.0000 2.5602 0.8621 0 9
38.3655 5.5161 2.0794 0.9580 0 9
41.8838 9.1112 2.2995 0.9727 0 9
37.7160 11.0744 2.1088 0.9605 0 9
27.0538 10.0905 1.5490 0.4888 0 9
28.1797 12.8692 1.6620 0.9370 0 9
31.4494 20.2111 2.0056 0.9188 0 9
33.9730 25.4317 2.2767 0.9734 0 9
20.4416 -2.9391 0.9372 0.8247 0 9
49.5608 -3.5447 2.2549 0.9906 0 9
47.5411 -0.0001 2.1575 0.8657 0 9
38.3256 5.5104 1.7572 0.9594 0 9
41.9748 9.1310 1.9495 0.9710 0 9
42.1900 12.3881 1.9955 0.8839 0 6
27.0170 10.0767 1.3086 0.4896 0 9
28.2444 12.8987 1.4091 0.9352 0 9
32.3393 20.7831 1.7446 0.9506 0 9
34.0431 25.4842 1.9299 0.9718 0 9
20.4409 -2.9390 0.7666 0.8250 0 9
49.5491 -3.5438 1.8441 0.9912 0 9
47.5085 -0.0000 1.7636 0.8989 0 9
42.0661 9.1509 1.5981 0.9692 0 9
42.1922 12.3888 1.6324 0.8841 0 6
26.9804 10.0631 1.0690 0.4905 0 9
32.3023 20.7593 1.4254 0.9521 0 9
34.1134 25.5369 1.5819 0.9701 0 9
20.4402 -2.9389 0.5961 0.8253 0 9
26.9438 10.0494 0.8301 0.4913 0 9
36.8744 23.6977 1.2653 0.9599 0 9
34.1840 25.5897 1.2327 0.9684 0 9
20.4395 -2.9388 0.4257 0.8255 0 9
26.9073 10.0358 0.5921 0.4920 0 9
34.2548 25.6427 0.8822 0.9666 0 9
12.1222 -6.6193 0.1708 0.0373 0 4
42.7892 -19.5412 0.5818 0.9994 0 4
12.9430 -4.8275 0.1709 0.9952 0 4
20.4388 -2.9387 0.2554 0.8256 0 9
45.8435 -3.2789 0.5685 0.2964 0 9
26.8710 10.0223 0.3547 0.4928 0 9
42.8291 -19.5594 0.1941 0.9995 0 4
12.9776 -4.8404 0.0571 0.9944 0 4
20.4381 -2.9386 0.0851 0.8257 0 9
45.7259 -3.2704 0.1890 0.2972 0 9
26.8347 10.0088 0.1181 0.4935 0 9
35.1839 -35.1839 -0.2051 0.9483 0 4
36.8190 -31.9039 -0.2009 0.9689 0 4
38.4212 -28.7618 -0.1979 0.7103 0 4
42.8333 -19.5613 -0.1941 0.9993 0 4
12.9788 -4.8409 -0.0571 0.9943 0 4
20.4374 -2.9385 -0.0851 0.8257 0 9
45.6089 -3.2620 -0.1885 0.2980 0 9
17.2516 3.7528 -0.0728 0.9967 0 4
26.7986 9.9953 -0.1179 0.4941 0 9
35.1875 -35.1875 -0.6155 0.9482 0 4
36.8230 -31.9074 -0.6027 0.9687 0 4
38.4028 -28.7480 -0.5934 0.9839 0 4
41.3343 -22.5703 -0.5825 0.9990 0 4
42.8374 -19.5632 -0.5825 0.9991 0 4
12.9801 -4.8413 -0.1714 0.9942 0 4
20.4367 -2.9384 -0.2554 0.8257 0 9
45.4925 -3.2537 -0.5641 0.2987 0 9
17.3005 3.7635 -0.2190 0.9966 0 4
42.2137 12.3951 -0.5442 0.4596 0 6
26.7626 9.9818 -0.3533 0.4947 0 9
22.6941 14.5846 -0.3337 0.9622 0 4
33.9312 25.4005 -0.5243 0.8970 0 4
30.2997 -30.2997 -0.8835 0.0936 0 0
35.1941 -30.4959 -0.9601 0.0417 0 0
37.9030 -28.3739 -0.9762 0.0296 0 0
40.7273 -26.1739 -0.9981 0.0351 0 2
36.5077 -19.9347 -0.8576 0.1614 0 0
42.8417 -19.5651 -0.9710 0.9989 0 4
12.9813 -4.8418 -0.2856 0.9939 0 4
45.8888 -13.4742 -0.9860 0.9834 0 4
47.4647 -10.3253 -1.0015 0.9685 0 4
20.4360 -2.9383 -0.4257 0.8256 0 9
45.3754 -3.2454 -0.9379 0.2455 0 9
17.2998 3.7633 -0.3650 0.9965 0 4
42.1942 12.3893 -0.9066 0.4597 0 6
26.7266 9.9684 -0.5881 0.4953 0 9
22.7370 14.6121 -0.5572 0.9622 0 4
33.9594 25.4216 -0.8746 0.8971 0 4
27.1519 23.5272 -0.7407 0.3834 0 4
25.4159 -25.4160 -1.0376 0.0253 0 0
27.6387 -23.9491 -1.0558 0.0482 0 0
31.1153 -23.2927 -1.1220 0.0678 0 0
31.1997 -20.0509 -1.0706 0.1373 0 0
12.2018 -6.6627 -0.4013 0.5876 0 4
40.4680 -18.4811 -1.2843 0.0400 0 0
12.9825 -4.8423 -0.4000 0.9936 0 4
45.8933 -13.4755 -1.3808 0.9831 0 4
47.4698 -10.3264 -1.4024 0.9682 0 4
20.4352 -2.9382 -0.5960 0.8255 0 9
45.3548 -3.2439 -1.3126 0.8456 0 9
17.2990 3.7632 -0.5111 0.9964 0 4
18.2102 5.3470 -0.5479 0.9876 0 4
26.6907 9.9550 -0.8224 0.4959 0 9
22.7355 14.6112 -0.7802 0.9621 0 4
33.9522 25.4163 -1.2243 0.8971 0 4
27.1583 23.5328 -1.0374 0.3832 0 4
21.2101 -21.2101 -1.1135 0.1100 0 0
13.9164 -12.0587 -0.6836 0.0981 0 0
11.3079 -8.4651 -0.5244 0.8376 0 4
28.6190 -18.3923 -1.2629 0.0369 0 0
12.1997 -6.6616 -0.5160 0.5875 0 4
31.1446 -14.2233 -1.2710 0.0307 0 0
12.9838 -4.8427 -0.5144 0.9933 0 4
31.7630 -9.3264 -1.2289 0.8086 0 6
38.0364 -8.2743 -1.4450 0.1406 0 0
20.4345 -2.9381 -0.7664 0.8253 0 9
45.2768 -3.2383 -1.6851 0.0392 0 0
47.6773 -0.0000 -1.7699 0.0373 0 0
42.2174 3.0195 -1.5712 0.0891 0 0
16.7350 2.4061 -0.6276 0.9547 0 4
17.2983 3.7630 -0.6572 0.9962 0 4
18.2086 5.3465 -0.7045 0.9875 0 4
26.6549 9.9417 -1.0561 0.4964 0 9
40.4597 22.0926 -1.7113 0.8255 0 4
22.7341 14.6103 -1.0032 0.9619 0 4
33.9449 25.4108 -1.5741 0.8970 0 4
27.1647 23.5383 -1.3343 0.3830 0 4
12.5779 -12.5779 -0.8073 0.3078 0 0
13.4699 -11.6717 -0.8089 0.3281 0 0
11.3097 -8.4664 -0.6411 0.4674 0 4
22.2745 -14.3150 -1.2016 0.0296 0 0
12.1976 -6.6605 -0.6307 0.5874 0 4
12.6490 -5.7767 -0.6311 0.7610 0 4
12.9850 -4.8432 -0.6289 0.9928 0 4
26.1722 -7.6848 -1.2379 0.0830 0 0
28.7661 -6.2577 -1.3360 0.1797 0 0
20.4339 -2.9380 -0.9369 0.8250 0 9
36.1318 -2.5842 -1.6439 0.0847 0 0
37.5575 -0.0001 -1.7044 0.0560 0 0
39.2107 2.8044 -1.7840 0.1118 0 0
16.7337 2.4059 -0.7672 0.9545 0 4
17.2975 3.7628 -0.8034 0.9959 0 4
18.2070 5.3460 -0.8612 0.9872 0 4
19.1141 7.1292 -0.9258 0.1767 0 4
20.1164 9.1868 -1.0036 0.5321 0 4
40.4498 22.0872 -2.0915 0.8254 0 4
22.7326 14.6094 -1.2263 0.9616 0 4
33.9380 25.4057 -1.9239 0.8969 0 4
27.1710 23.5438 -1.6316 0.3828 0 4
12.2639 -12.2640 -0.9305 0.3221 0 0
13.1900 -11.4292 -0.9363 0.3914 0 0
11.3078 -8.4650 -0.7578 0.4673 0 4
20.8355 -13.3902 -1.3287 0.0700 0 0
12.1955 -6.6593 -0.7455 0.5872 0 4
24.9818 -11.4088 -1.4734 0.0644 0 0
12.9862 -4.8436 -0.7436 0.9923 0 4
24.6763 -7.2457 -1.3797 0.1546 0 0
26.3818 -5.7390 -1.4485 0.0662 0 0
20.4331 -2.9379 -1.1075 0.8247 0 9
31.1484 -2.2278 -1.6753 0.0946 0 0
32.1847 -0.0001 -1.7267 0.0988 0 0
31.7991 2.2743 -1.7103 0.0906 0 0
16.7324 2.4057 -0.9069 0.9541 0 4
17.2968 3.7627 -0.9496 0.9955 0 4
18.2054 5.3456 -1.0179 0.9869 0 4
19.1033 7.1252 -1.0938 0.9955 0 4
37.7120 17.2225 -2.2242 0.0417 0 0
37.8538 20.6697 -2.3138 0.0565 0 0
22.7051 14.5917 -1.4479 0.8010 0 4
24.6163 18.4275 -1.6497 0.4474 0 4
27.1774 23.5494 -1.9292 0.3825 0 4
11.9663 -11.9664 -1.0479 0.3211 0 0
12.9289 -11.2030 -1.0593 0.3541 0 0
11.2158 -8.3961 -0.8675 0.9814 0 4
11.6774 -7.5046 -0.8595 0.7550 0 4
12.1439 -6.6311 -0.8568 0.7571 0 4
22.1669 -10.1233 -1.5090 0.0729 0 0
12.9875 -4.8441 -0.8583 0.9918 0 4
23.3894 -6.8678 -1.5095 0.1912 0 0
24.4733 -5.3239 -1.5509 0.1800 0 0
20.4324 -2.9378 -1.2782 0.8244 0 9
26.3768 -1.8865 -1.6375 0.1296 0 0
26.8033 -0.0000 -1.6597 0.1141 0 0
27.9202 1.9969 -1.7333 0.0787 0 0
16.7311 2.4055 -1.0467 0.9538 0 4
17.2960 3.7625 -1.0960 0.9951 0 4
18.1139 5.3187 -1.1690 0.5550 0 4
18.9482 7.0673 -1.2523 0.5179 0 4
19.9651 9.1177 -1.3591 0.6269 0 4
21.1945 11.5729 -1.4953 0.5681 0 4
22.6973 14.5866 -1.6707 0.5102 0 4
24.6216 18.4315 -1.9045 0.4471 0 4
27.1838 23.5549 -2.2273 0.3823 0 4
11.6765 -11.6765 -1.1593 0.3289 0 0
12.6321 -10.9459 -1.1734 0.3210 0 0
11.2170 -8.3970 -0.9837 0.9807 0 4
11.6667 -7.4978 -0.9736 0.9909 0 4
12.1078 -6.6114 -0.9685 0.9960 0 4
12.5472 -5.7301 -0.9684 0.9961 0 4
12.9887 -4.8446 -0.9732 0.9911 0 4
13.4404 -3.9465 -0.9834 0.9809 0 4
13.9025 -3.0244 -0.9988 0.9657 0 4
14.3760 -2.0670 -1.0196 0.9464 0 4
14.8751 -1.0639 -1.0469 0.9217 0 4
15.4099 -0.0000 -1.0818 0.8920 0 4
15.9798 1.1429 -1.1247 0.8580 0 4
16.6006 2.3868 -1.1774 0.8196 0 4
17.2853 3.7602 -1.2419 0.7771 0 4
18.0621 5.3035 -1.3216 0.7297 0 4
18.9408 7.0646 -1.4192 0.6791 0 4
19.9680 9.1191 -1.5411 0.6265 0 4
21.1982 11.5750 -1.6956 0.5676 0 4
22.7017 14.5895 -1.8945 0.5098 0 4
24.6269 18.4354 -2.1596 0.4468 0 4
24.1592 20.9341 -2.2442 0.0530 0 2
11.4436 -11.4436 -1.2703 0.4100 0 0
12.3263 -10.6809 -1.2803 0.3288 0 0
11.2181 -8.3979 -1.1000 0.9800 0 4
11.6679 -7.4986 -1.0887 0.9902 0 4
12.1090 -6.6120 -1.0830 0.9953 0 4
12.5484 -5.7307 -1.0828 0.9954 0 4
12.9900 -4.8451 -1.0883 0.9904 0 4
13.4416 -3.9468 -1.0996 0.9802 0 4
13.9037 -3.0246 -1.1169 0.9650 0 4
14.3775 -2.0672 -1.1402 0.9457 0 4
14.8767 -1.0640 -1.1707 0.9211 0 4
15.4115 -0.0000 -1.2097 0.8914 0 4
15.9816 1.1430 -1.2577 0.8574 0 4
16.6028 2.3871 -1.3166 0.8190 0 4
17.2878 3.7607 -1.3887 0.7765 0 4
18.0643 5.3041 -1.4778 0.7291 0 4
18.9438 7.0657 -1.5871 0.6786 0 4
19.9709 9.1204 -1.7233 0.6260 0 4
21.2019 11.5770 -1.8962 0.5672 0 4
22.1682 14.2466 -2.0684 0.0642 0 2
21.6173 16.1825 -2.1196 0.0627 0 2
20.8980 18.1082 -2.1705 0.0612 0 2
11.2305 -11.2306 -1.3785 0.4175 0 0
11.8744 -10.2893 -1.3638 0.1602 0 0
11.2193 -8.3987 -1.2164 0.9793 0 4
11.6691 -7.4993 -1.2040 0.9894 0 4
12.1101 -6.6127 -1.1976 0.9945 0 4
12.5496 -5.7312 -1.1975 0.9946 0 4
12.9912 -4.8455 -1.2035 0.9897 0 4
13.4428 -3.9472 -1.2160 0.9794 0 4
13.9050 -3.0249 -1.2351 0.9643 0 4
14.3790 -2.0674 -1.2609 0.9450 0 4
14.8783 -1.0642 -1.2947 0.9203 0 4
15.4131 -0.0000 -1.3378 0.8907 0 4
15.9833 1.1431 -1.3908 0.8567 0 4
16.6051 2.3874 -1.4561 0.8183 0 4
17.2902 3.7612 -1.5358 0.7758 0 4
18.0665 5.3048 -1.6343 0.7286 0 4
18.9469 7.0669 -1.7552 0.6780 0 4
19.9737 9.1217 -1.9059 0.6255 0 4
20.0400 10.9427 -1.9818 0.0741 0 2
19.6380 12.6206 -2.0262 0.0724 0 2
19.0961 14.2951 -2.0704 0.0709 0 2
19.2322 16.6648 -2.2088 0.3826 0 2
11.0249 -11.0249 -1.4829 0.4249 0 0
11.2425 -9.7417 -1.4149 0.1625 0 0
11.2204 -8.3996 -1.3331 0.9784 0 4
11.6702 -7.5001 -1.3194 0.9886 0 4
12.1113 -6.6133 -1.3125 0.9937 0 4
12.5508 -5.7318 -1.3123 0.9938 0 4
12.9925 -4.8460 -1.3189 0.9888 0 4
13.4440 -3.9476 -1.3326 0.9786 0 4
13.9063 -3.0252 -1.3536 0.9635 0 4
14.3806 -2.0676 -1.3818 0.9442 0 4
14.8799 -1.0643 -1.4189 0.9195 0 4
15.4147 -0.0000 -1.4661 0.8899 0 4
15.9850 1.1432 -1.5242 0.8560 0 4
16.6074 2.3878 -1.5958 0.8176 0 4
17.2927 3.7618 -1.6832 0.7752 0 4
18.0686 5.3054 -1.7911 0.7279 0 4
18.4744 6.8906 -1.8753 0.0857 0 2
18.3068 8.3604 -1.9141 0.0840 0 2
18.0249 9.8423 -1.9533 0.0823 0 2
17.6237 11.3260 -1.9925 0.0807 0 2
17.4397 13.0552 -2.0720 0.4531 0 2
17.4466 15.1175 -2.1956 0.0776 0 1
9.8216 -9.8216 -1.4367 0.1216 0 2
10.6159 -9.1987 -1.4530 0.1202 0 2
11.2216 -8.4005 -1.4499 0.9775 0 4
11.6714 -7.5008 -1.4351 0.9876 0 4
12.1125 -6.6140 -1.4275 0.9928 0 4
12.5520 -5.7323 -1.4273 0.9929 0 4
12.9937 -4.8464 -1.4345 0.9879 0 4
13.4452 -3.9479 -1.4494 0.9777 0 4
13.9075 -3.0254 -1.4722 0.9626 0 4
14.3821 -2.0679 -1.5029 0.9433 0 4
14.8816 -1.0644 -1.5432 0.9187 0 4
15.4163 -0.0000 -1.5946 0.8891 0 4
15.9868 1.1433 -1.6578 0.8552 0 4
16.6096 2.3881 -1.7357 0.8168 0 4
16.9199 3.6806 -1.7911 0.0975 0 2
16.9297 4.9710 -1.8251 0.0957 0 2
16.8455 6.2830 -1.8597 0.0939 0 2
16.6623 7.6094 -1.8947 0.0922 0 2
16.3757 8.9418 -1.9299 0.0905 0 2
16.0683 10.3264 -1.9757 0.4716 0 2
16.4178 12.2902 -2.1213 0.0873 0 1
15.7641 13.6597 -2.1576 0.0859 0 1
9.1943 -9.1943 -1.4534 0.1297 0 2
9.9307 -8.6049 -1.4688 0.1284 0 2
10.6390 -7.9643 -1.4855 0.1269 0 2
11.3161 -7.2725 -1.5036 0.1254 0 2
11.9587 -6.5299 -1.5230 0.1238 0 2
12.5532 -5.7328 -1.5426 0.9919 0 4
12.9950 -4.8469 -1.5503 0.9870 0 4
13.4464 -3.9483 -1.5665 0.9767 0 4
13.9088 -3.0257 -1.5911 0.9616 0 4
14.3836 -2.0681 -1.6243 0.9424 0 4
14.8707 -1.0636 -1.6665 0.1132 0 2
15.1589 0.0000 -1.6944 0.1113 0 2
15.3786 1.0999 -1.7234 0.1094 0 2
15.5250 2.2321 -1.7532 0.1076 0 2
15.5935 3.3922 -1.7838 0.1057 0 2
15.5794 4.5745 -1.8150 0.1039 0 2
15.4785 5.7732 -1.8466 0.1021 0 2
15.2868 6.9812 -1.8785 0.1004 0 2
15.0104 8.1962 -1.9117 0.5293 0 2
15.5054 9.9647 -2.0602 0.0971 0 1
14.9937 11.2242 -2.0936 0.0955 0 1
14.3755 12.4564 -2.1262 0.0941 0 1
8.6413 -8.6414 -1.4681 0.1379 0 2
9.3275 -8.0823 -1.4827 0.1366 0 2
9.9859 -7.4754 -1.4986 0.1351 0 2
10.6135 -6.8209 -1.5157 0.1336 0 2
11.2072 -6.1196 -1.5340 0.1320 0 2
11.7634 -5.3722 -1.5536 0.1303 0 2
12.2787 -4.5797 -1.5744 0.1286 0 2
12.7493 -3.7436 -1.5963 0.1268 0 2
13.1715 -2.8653 -1.6194 0.1250 0 2
13.5411 -1.9469 -1.6435 0.1232 0 2
13.8541 -0.9909 -1.6686 0.1213 0 2
14.1065 -0.0000 -1.6947 0.1195 0 2
14.2940 1.0223 -1.7216 0.1176 0 2
14.4125 2.0722 -1.7493 0.1157 0 2
14.4580 3.1451 -1.7775 0.1139 0 2
14.4266 4.2360 -1.8063 0.1121 0 2
14.3147 5.3390 -1.8354 0.1103 0 2
14.1466 6.4605 -1.8683 0.5822 0 2
14.6773 8.0144 -2.0090 0.1069 0 1
14.2840 9.1797 -2.0398 0.1053 0 1
13.7950 10.3268 -2.0702 0.1037 0 1
13.2097 11.4462 -2.0998 0.1023 0 1
8.1501 -8.1502 -1.4812 0.1461 0 2
8.7924 -7.6186 -1.4951 0.1447 0 2
9.4073 -7.0422 -1.5101 0.1433 0 2
9.9919 -6.4214 -1.5263 0.1417 0 2
10.5433 -5.7571 -1.5437 0.1401 0 2
11.0582 -5.0501 -1.5622 0.1385 0 2
11.5334 -4.3017 -1.5819 0.1368 0 2
11.9653 -3.5134 -1.6026 0.1350 0 2
12.3505 -2.6867 -1.6243 0.1332 0 2
12.6853 -1.8239 -1.6469 0.1314 0 2
12.9661 -0.9274 -1.6705 0.1295 0 2
13.1891 -0.0000 -1.6949 0.1276 0 2
13.3506 0.9549 -1.7200 0.1258 0 2
13.4470 1.9334 -1.7458 0.1239 0 2
13.4749 2.9312 -1.7721 0.1221 0 2
13.4308 3.9437 -1.7988 0.1203 0 2
13.4168 5.0041 -1.8402 0.6317 0 2
13.9117 6.3533 -1.9654 0.1168 0 1
13.6185 7.4363 -1.9940 0.1151 0 1
13.2390 8.5081 -2.0224 0.1135 0 1
12.7718 9.5608 -2.0502 0.1119 0 1
12.2170 10.5860 -2.0774 0.1105 0 1
7.7110 -7.7110 -1.4929 0.1542 0 2
8.3144 -7.2044 -1.5061 0.1529 0 2
8.8910 -6.6557 -1.5204 0.1514 0 2
9.4380 -6.0654 -1.5359 0.1499 0 2
9.9525 -5.4345 -1.5524 0.1483 0 2
10.4316 -4.7639 -1.5699 0.1466 0 2
10.8720 -4.0551 -1.5885 0.1449 0 2
11.2708 -3.3094 -1.6081 0.1432 0 2
11.6245 -2.5288 -1.6286 0.1414 0 2
11.9298 -1.7153 -1.6500 0.1395 0 2
12.1835 -0.8714 -1.6722 0.1377 0 2
12.3821 0.0000 -1.6951 0.1358 0 2
12.5223 0.8956 -1.7187 0.1340 0 2
12.6011 1.8117 -1.7428 0.1321 0 2
12.6152 2.7442 -1.7674 0.1303 0 2
12.7934 3.7565 -1.8253 0.7260 0 2
13.1939 4.9211 -1.9278 0.1267 0 1
12.9864 5.9307 -1.9545 0.1250 0 1
12.7005 6.9350 -1.9810 0.1233 0 1
12.3346 7.9270 -2.0072 0.1217 0 1
11.8883 8.8994 -2.0330 0.1201 0 1
11.3614 9.8447 -2.0580 0.1187 0 1
7.3158 -7.3159 -1.5034 0.1624 0 2
7.8847 -6.8322 -1.5160 0.1610 0 2
8.4274 -6.3087 -1.5297 0.1596 0 2
8.9411 -5.7461 -1.5444 0.1580 0 2
9.4233 -5.1455 -1.5601 0.1565 0 2
9.8709 -4.5079 -1.5768 0.1548 0 2
10.2812 -3.8347 -1.5945 0.1531 0 2
10.6511 -3.1275 -1.6130 0.1513 0 2
10.9776 -2.3880 -1.6325 0.1495 0 2
11.2578 -1.6186 -1.6527 0.1477 0 2
11.4884 -0.8217 -1.6736 0.1458 0 2
11.6666 0.0000 -1.6953 0.1440 0 2
11.7893 0.8432 -1.7175 0.1421 0 2
11.8537 1.7043 -1.7402 0.1403 0 2
12.2523 2.6653 -1.8220 0.7711 0 2
12.5134 3.6742 -1.8951 0.1366 0 1
12.3799 4.6174 -1.9200 0.1349 0 1
12.1749 5.5601 -1.9449 0.1331 0 1
11.8967 6.4961 -1.9696 0.1315 0 1
11.5443 7.4190 -1.9940 0.1298 0 1
11.1174 8.3224 -2.0180 0.1283 0 1
10.6162 9.1989 -2.0412 0.1268 0 1
7.2905 -7.2905 -1.5851 0.9357 0 2
7.6295 -6.6110 -1.5520 0.9556 0 2
8.0088 -5.9954 -1.5380 0.1677 0 2
8.4930 -5.4581 -1.5521 0.1662 0 2
8.9464 -4.8851 -1.5671 0.1646 0 2
9.3663 -4.2775 -1.5830 0.1629 0 2
9.7500 -3.6366 -1.5998 0.1612 0 2
10.0948 -2.9641 -1.6175 0.1595 0 2
10.3977 -2.2619 -1.6359 0.1577 0 2
10.6561 -1.5321 -1.6551 0.1558 0 2
10.8671 -0.7772 -1.6750 0.1540 0 2
11.0279 0.0000 -1.6954 0.1521 0 2
11.3304 0.8103 -1.7464 0.8491 0 2
11.7699 1.6922 -1.8281 0.8121 0 2
11.8625 2.5805 -1.8664 0.1466 0 1
11.7935 3.4629 -1.8897 0.1448 0 1
11.6589 4.3485 -1.9130 0.1430 0 1
11.4572 5.2323 -1.9364 0.1413 0 1
11.1870 6.1085 -1.9596 0.1396 0 1
10.8476 6.9713 -1.9824 0.1380 0 1
10.4389 7.8144 -2.0047 0.1365 0 1
9.9612 8.6315 -2.0264 0.1350 0 1
7.0364 -7.0364 -1.6139 0.1786 0 1
7.5776 -6.5661 -1.6262 0.1773 0 1
7.9571 -5.9567 -1.6121 0.9693 0 2
8.2757 -5.3185 -1.5955 0.9794 0 2
8.5918 -4.6915 -1.5877 0.9188 0 2
8.9129 -4.0704 -1.5892 0.9180 0 2
9.2699 -3.4575 -1.6047 0.1694 0 2
9.5925 -2.8166 -1.6215 0.1676 0 2
9.8747 -2.1481 -1.6390 0.1658 0 2
10.1996 -1.4665 -1.6713 0.8730 0 2
10.5503 -0.7546 -1.7155 0.9110 0 2
10.9270 -0.0000 -1.7723 0.8815 0 2
11.1903 0.8003 -1.8196 0.1584 0 1
11.2358 1.6154 -1.8411 0.1566 0 1
11.2232 2.4414 -1.8629 0.1547 0 1
11.1504 3.2740 -1.8848 0.1529 0 1
11.0157 4.1086 -1.9069 0.1512 0 1
10.8178 4.9403 -1.9289 0.1494 0 1
10.5556 5.7638 -1.9506 0.1478 0 1
10.2287 6.5736 -1.9721 0.1462 0 1
9.8370 7.3638 -1.9930 0.1446 0 1
9.3811 8.1287 -2.0133 0.1432 0 1
6.7217 -6.7217 -1.6223 0.1867 0 1
7.2363 -6.2703 -1.6341 0.1854 0 1
7.7249 -5.7828 -1.6468 0.1839 0 1
8.1851 -5.2603 -1.6605 0.1824 0 1
8.5903 -4.6906 -1.6704 0.9830 0 2
8.9025 -4.0657 -1.6703 0.9831 0 2
9.2159 -3.4373 -1.6787 0.9783 0 2
9.5334 -2.7993 -1.6957 0.9685 0 2
9.8592 -2.1448 -1.7220 0.9537 0 2
10.1971 -1.4661 -1.7582 0.9341 0 2
10.3978 -0.7437 -1.7791 0.1703 0 1
10.5391 -0.0000 -1.7987 0.1684 0 1
10.6293 0.7602 -1.8187 0.1666 0 1
10.6662 1.5335 -1.8391 0.1647 0 1
10.6478 2.3163 -1.8597 0.1629 0 1
10.5724 3.1043 -1.8805 0.1611 0 1
10.4383 3.8933 -1.9013 0.1593 0 1
10.2446 4.6785 -1.9221 0.1576 0 1
9.9903 5.4551 -1.9426 0.1559 0 1
9.6752 6.2179 -1.9628 0.1543 0 1
9.2994 6.9614 -1.9825 0.1528 0 1
8.8634 7.6802 -2.0016 0.1513 0 1
6.4332 -6.4332 -1.6300 0.1948 0 1
6.9235 -5.9993 -1.6413 0.1935 0 1
7.3885 -5.5310 -1.6536 0.1920 0 1
7.8259 -5.0294 -1.6667 0.1905 0 1
8.2332 -4.4957 -1.6807 0.1889 0 1
8.6081 -3.9312 -1.6955 0.1873 0 1
8.9480 -3.3375 -1.7110 0.1856 0 1
9.2507 -2.7163 -1.7273 0.1838 0 1
9.5135 -2.0696 -1.7443 0.1820 0 1
9.7342 -1.3996 -1.7619 0.1802 0 1
9.9104 -0.7088 -1.7801 0.1784 0 1
10.0399 0.0000 -1.7988 0.1765 0 1
10.1205 0.7238 -1.8178 0.1747 0 1
10.1501 1.4593 -1.8372 0.1728 0 1
10.1271 2.2030 -1.8568 0.1710 0 1
10.0499 2.9509 -1.8766 0.1692 0 1
9.9171 3.6988 -1.8963 0.1674 0 1
9.7277 4.4425 -1.9160 0.1657 0 1
9.4811 5.1771 -1.9354 0.1641 0 1
9.1772 5.8978 -1.9545 0.1625 0 1
8.8162 6.5996 -1.9731 0.1609 0 1
8.3987 7.2775 -1.9910 0.1595 0 1
6.1676 -6.1677 -1.6371 0.2029 0 1
6.6358 -5.7500 -1.6480 0.2015 0 1
7.0793 -5.2995 -1.6597 0.2001 0 1
7.4959 -4.8173 -1.6724 0.1986 0 1
7.8833 -4.3046 -1.6858 0.1970 0 1
8.2391 -3.7627 -1.7000 0.1954 0 1
8.5611 -3.1932 -1.7149 0.1937 0 1
8.8470 -2.5978 -1.7306 0.1919 0 1
9.0945 -1.9784 -1.7468 0.1901 0 1
9.3014 -1.3374 -1.7637 0.1883 0 1
9.4654 -0.6770 -1.7811 0.1865 0 1
9.5845 -0.0000 -1.7989 0.1846 0 1
9.6568 0.6907 -1.8171 0.1828 0 1
9.6804 1.3918 -1.8356 0.1809 0 1
9.6537 2.1000 -1.8542 0.1791 0 1
9.5753 2.8115 -1.8730 0.1773 0 1
9.4441 3.5224 -1.8918 0.1756 0 1
9.2591 4.2285 -1.9104 0.1738 0 1
9.0200 4.9253 -1.9289 0.1722 0 1
8.7267 5.6083 -1.9470 0.1706 0 1
8.3795 6.2728 -1.9646 0.1691 0 1
7.9791 6.9139 -1.9816 0.1676 0 1
5.9224 -5.9225 -1.6436 0.2109 0 1
6.3703 -5.5199 -1.6541 0.2096 0 1
6.7941 -5.0861 -1.6654 0.2082 0 1
7.1917 -4.6219 -1.6776 0.2067 0 1
7.5609 -4.1286 -1.6905 0.2051 0 1
7.8995 -3.6076 -1.7042 0.2035 0 1
8.2052 -3.0604 -1.7185 0.2018 0 1
8.4760 -2.4888 -1.7335 0.2000 0 1
8.7097 -1.8947 -1.7491 0.1982 0 1
8.9042 -1.2803 -1.7653 0.1964 0 1
9.0574 -0.6478 -1.7819 0.1946 0 1
9.1674 -0.0000 -1.7990 0.1927 0 1
9.2325 0.6603 -1.8164 0.1909 0 1
9.2509 1.3300 -1.8340 0.1890 0 1
9.2212 2.0059 -1.8519 0.1872 0 1
9.1422 2.6843 -1.8698 0.1854 0 1
9.0128 3.3616 -1.8876 0.1837 0 1
8.8324 4.0336 -1.9054 0.1820 0 1
8.6005 4.6962 -1.9229 0.1803 0 1
8.3172 5.3451 -1.9401 0.1787 0 1
7.9829 5.9759 -1.9568 0.1772 0 1
7.5983 6.5839 -1.9729 0.1757 0 1
5.6953 -5.6953 -1.6496 0.2190 0 1
6.1245 -5.3069 -1.6598 0.2177 0 1
6.5302 -4.8885 -1.6707 0.2162 0 1
6.9104 -4.4411 -1.6824 0.2147 0 1
7.2629 -3.9659 -1.6949 0.2132 0 1
7.5857 -3.4643 -1.7080 0.2115 0 1
7.8767 -2.9379 -1.7218 0.2098 0 1
8.1339 -2.3884 -1.7362 0.2081 0 1
8.3551 -1.8176 -1.7512 0.2063 0 1
8.5384 -1.2277 -1.7668 0.2045 0 1
8.6820 -0.6210 -1.7827 0.2026 0 1
8.7840 -0.0000 -1.7991 0.2008 0 1
8.8427 0.6324 -1.8157 0.1990 0 1
8.8567 1.2734 -1.8326 0.1971 0 1
8.8247 1.9197 -1.8497 0.1953 0 1
8.7454 2.5679 -1.8668 0.1935 0 1
8.6180 3.2143 -1.8839 0.1918 0 1
8.4420 3.8553 -1.9008 0.1901 0 1
8.2171 4.4868 -1.9175 0.1884 0 1
7.9432 5.1047 -1.9339 0.1868 0 1
7.6210 5.7050 -1.9498 0.1853 0 1
7.2511 6.2831 -1.9651 0.1838 0 1
5.4842 -5.4842 -1.6552 0.2270 0 1
5.8962 -5.1091 -1.6650 0.2257 0 1
6.2852 -4.7051 -1.6756 0.2243 0 1
6.6494 -4.2733 -1.6869 0.2228 0 1
6.9867 -3.8151 -1.6989 0.2212 0 1
7.2951 -3.3315 -1.7116 0.2196 0 1
7.5726 -2.8244 -1.7249 0.2179 0 1
7.8172 -2.2954 -1.7388 0.2161 0 1
8.0271 -1.7462 -1.7532 0.2144 0 1
8.2004 -1.1791 -1.7681 0.2125 0 1
8.3353 -0.5962 -1.7835 0.2107 0 1
8.4301 -0.0001 -1.7992 0.2089 0 1
8.4834 0.6067 -1.8151 0.2070 0 1
8.4936 1.2212 -1.8313 0.2052 0 1
8.4596 1.8403 -1.8477 0.2034 0 1
8.3804 2.4607 -1.8640 0.2016 0 1
8.2552 3.0790 -1.8804 0.1999 0 1
8.0835 3.6916 -1.8966 0.1981 0 1
7.8652 4.2947 -1.9125 0.1965 0 1
7.6003 4.8844 -1.9281 0.1949 0 1
7.2894 5.4568 -1.9433 0.1934 0 1
6.9333 6.0077 -1.9579 0.1919 0 1
5.2875 -5.2876 -1.6605 0.2351 0 1
5.6835 -4.9249 -1.6699 0.2337 0 1
6.0572 -4.5344 -1.6802 0.2323 0 1
6.4066 -4.1173 -1.6911 0.2308 0 1
6.7298 -3.6748 -1.7027 0.2292 0 1
7.0249 -3.2082 -1.7149 0.2276 0 1
7.2900 -2.7191 -1.7277 0.2259 0 1
7.5233 -2.2091 -1.7411 0.2242 0 1
7.7229 -1.6800 -1.7550 0.2224 0 1
7.8871 -1.1340 -1.7694 0.2206 0 1
8.0142 -0.5732 -1.7841 0.2188 0 1
8.1026 -0.0000 -1.7992 0.2169 0 1
8.1510 0.5830 -1.8146 0.2151 0 1
8.1579 1.1729 -1.8301 0.2133 0 1
8.1224 1.7669 -1.8458 0.2115 0 1
8.0436 2.3618 -1.8615 0.2097 0 1
7.9206 2.9542 -1.8772 0.2079 0 1
7.7532 3.5407 -1.8927 0.2062 0 1
7.5411 4.1178 -1.9079 0.2046 0 1
7.2847 4.6816 -1.9229 0.2030 0 1
6.9844 5.2285 -1.9374 0.2015 0 1
6.6411 5.7545 -1.9513 0.2000 0 1
5.1039 -5.1039 -1.6654 0.2431 0 1
5.4850 -4.7528 -1.6745 0.2417 0 1
5.8444 -4.3751 -1.6844 0.2403 0 1
6.1801 -3.9717 -1.6950 0.2388 0 1
6.4903 -3.5440 -1.7062 0.2372 0 1
6.7732 -3.0933 -1.7180 0.2356 0 1
7.0269 -2.6209 -1.7304 0.2339 0 1
7.2497 -2.1287 -1.7433 0.2322 0 1
7.4399 -1.6185 -1.7567 0.2304 0 1
7.5958 -1.0921 -1.7706 0.2286 0 1
7.7158 -0.5519 -1.7848 0.2268 0 1
7.7985 -0.0000 -1.7993 0.2250 0 1
7.8425 0.5609 -1.8141 0.2231 0 1
7.8467 1.1282 -1.8290 0.2213 0 1
7.8100 1.6989 -1.8441 0.2195 0 1
7.7316 2.2702 -1.8592 0.2177 0 1
7.6109 2.8387 -1.8742 0.2160 0 1
7.4477 3.4012 -1.8891 0.2143 0 1
7.2417 3.9542 -1.9037 0.2126 0 1
6.9933 4.4943 -1.9180 0.2110 0 1
6.7030 5.0178 -1.9319 0.2095 0 1
6.3717 5.5211 -1.9452 0.2081 0 1
4.9319 -4.9320 -1.6699 0.2511 0 1
5.2992 -4.5919 -1.6788 0.2497 0 1
5.6453 -4.2260 -1.6884 0.2483 0 1
5.9683 -3.8356 -1.6986 0.2468 0 1
6.2664 -3.4218 -1.7094 0.2452 0 1
6.5380 -2.9858 -1.7209 0.2436 0 1
6.7812 -2.5293 -1.7328 0.2419 0 1
6.9944 -2.0538 -1.7453 0.2402 0 1
7.1759 -1.5611 -1.7583 0.2384 0 1
7.3243 -1.0531 -1.7716 0.2366 0 1
7.4378 -0.5320 -1.7854 0.2348 0 1
7.5154 -0.0000 -1.7994 0.2330 0 1
7.5555 0.5404 -1.8136 0.2312 0 1
7.5573 1.0865 -1.8280 0.2293 0 1
7.5196 1.6357 -1.8425 0.2275 0 1
7.4419 2.1851 -1.8570 0.2258 0 1
7.3235 2.7315 -1.8714 0.2240 0 1
7.1643 3.2718 -1.8857 0.2223 0 1
6.9641 3.8027 -1.8998 0.2207 0 1
6.7233 4.3208 -1.9135 0.2191 0 1
6.4424 4.8227 -1.9268 0.2176 0 1
6.1223 5.3050 -1.9396 0.2161 0 1
4.7705 -4.7706 -1.6742 0.2590 0 1
5.1249 -4.4408 -1.6828 0.2577 0 1
5.4586 -4.0863 -1.6921 0.2563 0 1
5.7697 -3.7080 -1.7020 0.2548 0 1
6.0567 -3.3072 -1.7125 0.2532 0 1
6.3177 -2.8853 -1.7236 0.2516 0 1
6.5512 -2.4435 -1.7352 0.2499 0 1
6.7556 -1.9836 -1.7472 0.2482 0 1
6.9292 -1.5074 -1.7598 0.2464 0 1
7.0705 -1.0166 -1.7727 0.2446 0 1
7.1782 -0.5134 -1.7859 0.2428 0 1
7.2511 -0.0000 -1.7994 0.2410 0 1
7.2878 0.5212 -1.8132 0.2392 0 1
7.2874 1.0478 -1.8270 0.2374 0 1
7.2491 1.5769 -1.8410 0.2356 0 1
7.1721 2.1059 -1.8550 0.2338 0 1
7.0560 2.6317 -1.8689 0.2320 0 1
6.9007 3.1514 -1.8826 0.2304 0 1
6.7060 3.6617 -1.8961 0.2287 0 1
6.4724 4.1595 -1.9093 0.2271 0 1
6.2004 4.6415 -1.9221 0.2256 0 1
5.8908 5.1044 -1.9343 0.2242 0 1
4.6188 -4.6188 -1.6783 0.2670 0 1
4.9611 -4.2988 -1.6866 0.2657 0 1
5.2831 -3.9550 -1.6956 0.2642 0 1
5.5832 -3.5881 -1.7052 0.2628 0 1
5.8598 -3.1997 -1.7154 0.2612 0 1
6.1110 -2.7908 -1.7261 0.2596 0 1
6.3355 -2.3631 -1.7373 0.2579 0 1
6.5316 -1.9179 -1.7490 0.2562 0 1
6.6978 -1.4570 -1.7611 0.2544 0 1
6.8328 -0.9824 -1.7736 0.2526 0 1
6.9352 -0.4961 -1.7864 0.2508 0 1
7.0037 -0.0000 -1.7995 0.2490 0 1
7.0374 0.5033 -1.8127 0.2472 0 1
7.0352 1.0115 -1.8261 0.2454 0 1
6.9963 1.5219 -1.8396 0.2436 0 1
6.9202 2.0319 -1.8531 0.2418 0 1
6.8064 2.5386 -1.8665 0.2401 0 1
6.6548 3.0391 -1.8797 0.2384 0 1
6.4654 3.5304 -1.8927 0.2367 0 1
6.2386 4.0093 -1.9054 0.2352 0 1
5.9750 4.4728 -1.9177 0.2336 0 1
5.6754 4.9177 -1.9295 0.2322 0 1
4.4758 -4.4758 -1.6821 0.2749 0 1
4.8067 -4.1652 -1.6902 0.2736 0 1
5.1179 -3.8313 -1.6989 0.2722 0 1
5.4077 -3.4753 -1.7082 0.2707 0 1
5.6745 -3.0985 -1.7181 0.2691 0 1
5.9166 -2.7021 -1.7285 0.2675 0 1
6.1327 -2.2874 -1.7394 0.2659 0 1
6.3212 -1.8561 -1.7507 0.2641 0 1
6.4806 -1.4098 -1.7624 0.2624 0 1
6.6097 -0.9504 -1.7745 0.2606 0 1
6.7071 -0.4797 -1.7869 0.2588 0 1
6.7718 -0.0000 -1.7995 0.2570 0 1
6.8027 0.4865 -1.8124 0.2551 0 1
6.7988 0.9775 -1.8253 0.2533 0 1
6.7596 1.4704 -1.8383 0.2515 0 1
6.6844 1.9627 -1.8513 0.2498 0 1
6.5729 2.4515 -1.8642 0.2480 0 1
6.4249 2.9342 -1.8770 0.2464 0 1
6.2406 3.4076 -1.8895 0.2447 0 1
6.0203 3.8690 -1.9017 0.2432 0 1
5.7646 4.3153 -1.9136 0.2417 0 1
5.4743 4.7435 -1.9249 0.2402 0 1
4.3408 -4.3409 -1.6857 0.2828 0 1
4.6611 -4.0389 -1.6935 0.2815 0 1
4.9621 -3.7146 -1.7020 0.2801 0 1
5.2422 -3.3690 -1.7111 0.2786 0 1
5.4998 -3.0031 -1.7207 0.2771 0 1
5.7334 -2.6184 -1.7307 0.2755 0 1
5.9417 -2.2162 -1.7413 0.2738 0 1
6.1230 -1.7979 -1.7523 0.2721 0 1
6.2761 -1.3653 -1.7637 0.2703 0 1
6.3997 -0.9202 -1.7754 0.2685 0 1
6.4926 -0.4644 -1.7874 0.2667 0 1
6.5538 0.0000 -1.7996 0.2649 0 1
6.5821 0.4707 -1.8120 0.2631 0 1
6.5769 0.9456 -1.8245 0.2613 0 1
6.5375 1.4221 -1.8371 0.2595 0 1
6.4632 1.8977 -1.8497 0.2578 0 1
6.3539 2.3699 -1.8621 0.2560 0 1
6.2095 2.8357 -1.8744 0.2543 0 1
6.0300 3.2926 -1.8865 0.2527 0 1
5.8158 3.7376 -1.8983 0.2511 0 1
5.5676 4.1679 -1.9097 0.2496 0 1
5.2862 4.5805 -1.9207 0.2482 0 1
4.2132 -4.2132 -1.6891 0.2907 0 1
4.5235 -3.9196 -1.6967 0.2894 0 1
4.8149 -3.6043 -1.7050 0.2880 0 1
5.0858 -3.2685 -1.7138 0.2865 0 1
5.3348 -2.9131 -1.7231 0.2850 0 1
5.5605 -2.5394 -1.7329 0.2834 0 1
5.7614 -2.1489 -1.7431 0.2817 0 1
5.9361 -1.7430 -1.7538 0.2800 0 1
6.0833 -1.3234 -1.7648 0.2782 0 1
6.2019 -0.8917 -1.7762 0.2765 0 1
6.2906 -0.4500 -1.7878 0.2747 0 1
6.3485 -0.0000 -1.7996 0.2729 0 1
6.3746 0.4559 -1.8117 0.2711 0 1
6.3681 0.9156 -1.8238 0.2693 0 1
6.3285 1.3766 -1.8359 0.2675 0 1
6.2553 1.8367 -1.8481 0.2657 0 1
1.7090 0.6374 -0.5171 0.0144 294 14
1.4411 0.6581 -0.4491 0.1670 294 14
1.4194 0.7751 -0.4585 0.1105 294 14
1.4304 0.9192 -0.4820 0.1051 294 14
1.4229 1.0652 -0.5039 0.1006 294 14
5.1099 4.4277 -1.9167 0.2562 0 1
4.0923 -4.0923 -1.6923 0.2986 0 1
4.3931 -3.8067 -1.6997 0.2973 0 1
4.6754 -3.5000 -1.7078 0.2959 0 1
4.9378 -3.1734 -1.7163 0.2944 0 1
5.1788 -2.8279 -1.7254 0.2929 0 1
5.3969 -2.4648 -1.7349 0.2913 0 1
5.5909 -2.0853 -1.7448 0.2896 0 1
5.7594 -1.6911 -1.7552 0.2879 0 1
5.9012 -1.2837 -1.7659 0.2862 0 1
6.0150 -0.8648 -1.7769 0.2844 0 1
6.0999 -0.4363 -1.7882 0.2826 0 1
6.1548 -0.0000 -1.7997 0.2808 0 1
6.1788 0.4419 -1.8113 0.2790 0 1
6.1713 0.8872 -1.8231 0.2772 0 1
1.4798 0.3219 -0.4428 0.1743 294 14
1.4552 0.4272 -0.4435 0.1741 294 14
1.4187 0.5291 -0.4428 0.1743 294 14
1.3711 0.6261 -0.4407 0.1755 294 14
1.3187 0.7200 -0.4393 0.1187 294 14
1.3240 0.8509 -0.4602 0.1133 294 14
1.3127 0.9827 -0.4795 0.1088 294 14
1.2880 1.1161 -0.4983 0.1074 294 14
3.9776 -3.9777 -1.6953 0.3065 0 1
4.2695 -3.6995 -1.7026 0.3052 0 1
4.5433 -3.4011 -1.7104 0.3038 0 1
4.7975 -3.0833 -1.7187 0.3023 0 1
5.0309 -2.7471 -1.7275 0.3008 0 1
5.2420 -2.3940 -1.7368 0.2991 0 1
5.4295 -2.0252 -1.7465 0.2975 0 1
5.5922 -1.6421 -1.7565 0.2958 0 1
5.7288 -1.2463 -1.7669 0.2940 0 1
5.8383 -0.8395 -1.7776 0.2923 0 1
1.7098 -0.1223 -0.5166 0.0271 294 14
1.5819 -0.0000 -0.4768 0.0293 294 14
1.4694 0.1051 -0.4440 0.1887 294 14
1.4365 0.2065 -0.4374 0.1916 294 14
1.4105 0.3069 -0.4350 0.1824 294 14
1.3870 0.4072 -0.4357 0.1822 294 14
1.3523 0.5044 -0.4350 0.1824 294 14
1.3073 0.5970 -0.4331 0.1836 294 14
1.2525 0.6839 -0.4301 0.1849 294 14
1.2320 0.7918 -0.4414 0.1215 294 14
1.2182 0.9119 -0.4586 0.1200 294 14
1.1939 1.0345 -0.4761 0.1156 294 14
3.8687 -3.8687 -1.6982 0.3143 0 1
4.1520 -3.5978 -1.7053 0.3130 0 1
4.4177 -3.3071 -1.7129 0.3116 0 1
4.6643 -2.9976 -1.7210 0.3101 0 1
4.8906 -2.6705 -1.7296 0.3086 0 1
5.0950 -2.3268 -1.7386 0.3070 0 1
5.2765 -1.9680 -1.7480 0.3053 0 1
5.4337 -1.5955 -1.7578 0.3036 0 1
5.5655 -1.2107 -1.7679 0.3019 0 1
1.4348 -0.2063 -0.4499 0.1918 294 14
1.4360 -0.1027 -0.4469 0.1926 294 14
1.4260 -0.0000 -0.4426 0.1945 294 14
1.4055 0.1004 -0.4374 0.1968 294 14
