ply
format ascii 1.0
element vertex 1427
property float32 x
property float32 y
property float32 z
property float32 CosAngle
property uint32 ObjIdx
property uint32 ObjTag
end_header
6.7604 1.3368 -1.8313 0.2523 0 1
6.7592 1.3524 -1.8318 0.2523 0 1
6.7579 1.3679 -1.8323 0.2522 0 1
6.7566 1.3834 -1.8328 0.2521 0 1
6.7553 1.3990 -1.8332 0.2521 0 1
6.7539 1.4145 -1.8337 0.2520 0 1
6.7525 1.4300 -1.8342 0.2519 0 1
6.7511 1.4456 -1.8347 0.2519 0 1
6.7496 1.4611 -1.8352 0.2518 0 1
6.7481 1.4766 -1.8357 0.2517 0 1
6.7466 1.4921 -1.8362 0.2517 0 1
6.7450 1.5077 -1.8367 0.2516 0 1
6.7434 1.5232 -1.8371 0.2515 0 1
6.7418 1.5388 -1.8376 0.2515 0 1
6.7401 1.5543 -1.8381 0.2514 0 1
6.7384 1.5699 -1.8386 0.2513 0 1
6.7366 1.5854 -1.8391 0.2513 0 1
6.7348 1.6009 -1.8396 0.2512 0 1
6.7330 1.6165 -1.8401 0.2511 0 1
6.7312 1.6320 -1.8406 0.2511 0 1
6.7293 1.6476 -1.8411 0.2510 0 1
6.7273 1.6631 -1.8415 0.2509 0 1
6.7254 1.6786 -1.8420 0.2509 0 1
6.7234 1.6941 -1.8425 0.2508 0 1
6.7213 1.7097 -1.8430 0.2507 0 1
6.7193 1.7253 -1.8435 0.2507 0 1
6.7171 1.7408 -1.8440 0.2506 0 1
6.7150 1.7563 -1.8445 0.2505 0 1
6.7128 1.7718 -1.8450 0.2505 0 1
6.7106 1.7874 -1.8455 0.2504 0 1
6.7084 1.8029 -1.8459 0.2503 0 1
6.7061 1.8185 -1.8464 0.2503 0 1
6.7038 1.8340 -1.8469 0.2502 0 1
6.7014 1.8495 -1.8474 0.2501 0 1
6.6990 1.8650 -1.8479 0.2501 0 1
6.6966 1.8805 -1.8484 0.2500 0 1
6.6941 1.8961 -1.8489 0.2499 0 1
6.6916 1.9116 -1.8494 0.2499 0 1
6.6891 1.9271 -1.8499 0.2498 0 1
6.6865 1.9426 -1.8503 0.2497 0 1
6.6839 1.9581 -1.8508 0.2497 0 1
6.6812 1.9736 -1.8513 0.2496 0 1
6.6785 1.9891 -1.8518 0.2495 0 1
6.6758 2.0047 -1.8523 0.2495 0 1
6.6731 2.0202 -1.8528 0.2494 0 1
6.6703 2.0357 -1.8533 0.2493 0 1
6.6675 2.0512 -1.8538 0.2493 0 1
6.6646 2.0667 -1.8543 0.2492 0 1
6.6617 2.0822 -1.8547 0.2491 0 1
6.6588 2.0977 -1.8552 0.2491 0 1
6.6558 2.1131 -1.8557 0.2490 0 1
6.6528 2.1287 -1.8562 0.2490 0 1
6.6498 2.1442 -1.8567 0.2489 0 1
6.6467 2.1596 -1.8572 0.2488 0 1
6.6436 2.1751 -1.8577 0.2488 0 1
6.6404 2.1906 -1.8582 0.2487 0 1
6.6372 2.2061 -1.8587 0.2486 0 1
6.6340 2.2216 -1.8591 0.2486 0 1
6.6307 2.2370 -1.8596 0.2485 0 1
6.6275 2.2525 -1.8601 0.2484 0 1
6.6241 2.2680 -1.8606 0.2484 0 1
6.6207 2.2834 -1.8611 0.2483 0 1
6.6173 2.2989 -1.8616 0.2482 0 1
6.6139 2.3143 -1.8621 0.2482 0 1
6.6104 2.3298 -1.8626 0.2481 0 1
6.6069 2.3452 -1.8631 0.2480 0 1
6.6034 2.3606 -1.8635 0.2480 0 1
6.5998 2.3761 -1.8640 0.2479 0 1
6.5962 2.3915 -1.8645 0.2478 0 1
6.5925 2.4069 -1.8650 0.2478 0 1
6.5888 2.4223 -1.8655 0.2477 0 1
6.5851 2.4378 -1.8660 0.2476 0 1
6.5813 2.4532 -1.8665 0.2476 0 1
6.5775 2.4686 -1.8670 0.2475 0 1
6.5736 2.4840 -1.8674 0.2475 0 1
6.5698 2.4994 -1.8679 0.2474 0 1
6.5659 2.5148 -1.8684 0.2473 0 1
6.5619 2.5302 -1.8689 0.2473 0 1
6.5579 2.5455 -1.8694 0.2472 0 1
6.5539 2.5609 -1.8699 0.2471 0 1
6.5498 2.5763 -1.8704 0.2471 0 1
6.5457 2.5916 -1.8709 0.2470 0 1
6.5416 2.6070 -1.8713 0.2469 0 1
6.5375 2.6224 -1.8718 0.2469 0 1
6.5333 2.6377 -1.8723 0.2468 0 1
6.5290 2.6531 -1.8728 0.2467 0 1
6.5247 2.6684 -1.8733 0.2467 0 1
6.5204 2.6837 -1.8738 0.2466 0 1
6.5161 2.6990 -1.8743 0.2466 0 1
6.5117 2.7143 -1.8747 0.2465 0 1
6.5073 2.7297 -1.8752 0.2464 0 1
6.5028 2.7450 -1.8757 0.2464 0 1
6.4983 2.7603 -1.8762 0.2463 0 1
6.4938 2.7756 -1.8767 0.2462 0 1
6.4892 2.7909 -1.8772 0.2462 0 1
6.4846 2.8062 -1.8777 0.2461 0 1
6.4800 2.8214 -1.8781 0.2460 0 1
6.4753 2.8367 -1.8786 0.2460 0 1
6.4706 2.8520 -1.8791 0.2459 0 1
6.4658 2.8672 -1.8796 0.2459 0 1
6.4611 2.8825 -1.8801 0.2458 0 1
6.4562 2.8977 -1.8806 0.2457 0 1
6.4514 2.9129 -1.8810 0.2457 0 1
6.4465 2.9281 -1.8815 0.2456 0 1
6.4415 2.9434 -1.8820 0.2455 0 1
6.4366 2.9586 -1.8825 0.2455 0 1
6.4315 2.9737 -1.8830 0.2454 0 1
6.4265 2.9890 -1.8835 0.2453 0 1
6.4214 3.0042 -1.8839 0.2453 0 1
6.4163 3.0193 -1.8844 0.2452 0 1
6.4112 3.0345 -1.8849 0.2452 0 1
6.4060 3.0496 -1.8854 0.2451 0 1
6.4007 3.0648 -1.8859 0.2450 0 1
6.3955 3.0799 -1.8864 0.2450 0 1
6.3902 3.0950 -1.8868 0.2449 0 1
6.3848 3.1102 -1.8873 0.2448 0 1
6.3795 3.1253 -1.8878 0.2448 0 1
6.3741 3.1404 -1.8883 0.2447 0 1
6.3686 3.1555 -1.8888 0.2447 0 1
6.3632 3.1706 -1.8892 0.2446 0 1
6.3577 3.1857 -1.8897 0.2445 0 1
6.3521 3.2007 -1.8902 0.2445 0 1
6.3465 3.2158 -1.8907 0.2444 0 1
6.3409 3.2308 -1.8912 0.2444 0 1
6.3352 3.2459 -1.8916 0.2443 0 1
6.3295 3.2609 -1.8921 0.2442 0 1
6.3238 3.2760 -1.8926 0.2442 0 1
6.3180 3.2910 -1.8931 0.2441 0 1
6.3122 3.3060 -1.8935 0.2440 0 1
6.3064 3.3210 -1.8940 0.2440 0 1
6.3005 3.3359 -1.8945 0.2439 0 1
6.2946 3.3509 -1.8950 0.2439 0 1
6.2886 3.3659 -1.8955 0.2438 0 1
6.2826 3.3808 -1.8959 0.2437 0 1
6.2766 3.3958 -1.8964 0.2437 0 1
6.2705 3.4107 -1.8969 0.2436 0 1
6.2645 3.4256 -1.8974 0.2436 0 1
6.2583 3.4406 -1.8978 0.2435 0 1
6.2521 3.4555 -1.8983 0.2434 0 1
6.2459 3.4704 -1.8988 0.2434 0 1
6.2397 3.4852 -1.8993 0.2433 0 1
6.2334 3.5001 -1.8997 0.2432 0 1
6.2271 3.5149 -1.9002 0.2432 0 1
6.2207 3.5298 -1.9007 0.2431 0 1
6.2143 3.5446 -1.9012 0.2431 0 1
6.2079 3.5594 -1.9016 0.2430 0 1
6.2014 3.5742 -1.9021 0.2429 0 1
6.1950 3.5890 -1.9026 0.2429 0 1
6.1884 3.6038 -1.9031 0.2428 0 1
6.1819 3.6186 -1.9035 0.2428 0 1
6.1753 3.6333 -1.9040 0.2427 0 1
6.1686 3.6481 -1.9045 0.2426 0 1
6.1619 3.6628 -1.9049 0.2426 0 1
6.1552 3.6776 -1.9054 0.2425 0 1
6.1485 3.6923 -1.9059 0.2425 0 1
6.1417 3.7070 -1.9064 0.2424 0 1
6.1349 3.7217 -1.9068 0.2423 0 1
6.1280 3.7364 -1.9073 0.2423 0 1
6.1211 3.7510 -1.9078 0.2422 0 1
6.1142 3.7657 -1.9082 0.2422 0 1
6.1072 3.7804 -1.9087 0.2421 0 1
6.1002 3.7950 -1.9092 0.2420 0 1
6.0932 3.8096 -1.9096 0.2420 0 1
6.0861 3.8242 -1.9101 0.2419 0 1
6.0790 3.8387 -1.9106 0.2419 0 1
6.0719 3.8533 -1.9110 0.2418 0 1
6.0647 3.8679 -1.9115 0.2417 0 1
6.0575 3.8824 -1.9120 0.2417 0 1
6.0502 3.8970 -1.9124 0.2416 0 1
6.0429 3.9115 -1.9129 0.2416 0 1
6.0356 3.9260 -1.9134 0.2415 0 1
6.0282 3.9405 -1.9138 0.2415 0 1
6.0208 3.9549 -1.9143 0.2414 0 1
6.0134 3.9694 -1.9148 0.2413 0 1
6.0059 3.9838 -1.9152 0.2413 0 1
5.9984 3.9983 -1.9157 0.2412 0 1
5.9909 4.0127 -1.9161 0.2412 0 1
5.9833 4.0271 -1.9166 0.2411 0 1
5.9757 4.0415 -1.9171 0.2410 0 1
5.9680 4.0559 -1.9175 0.2410 0 1
5.9603 4.0702 -1.9180 0.2409 0 1
5.9526 4.0846 -1.9185 0.2409 0 1
5.9449 4.0989 -1.9189 0.2408 0 1
5.9371 4.1132 -1.9194 0.2408 0 1
5.9292 4.1275 -1.9198 0.2407 0 1
5.9214 4.1418 -1.9203 0.2406 0 1
5.9135 4.1561 -1.9207 0.2406 0 1
5.9055 4.1704 -1.9212 0.2405 0 1
5.8976 4.1846 -1.9217 0.2405 0 1
5.8896 4.1988 -1.9221 0.2404 0 1
5.8816 4.2130 -1.9226 0.2404 0 1
5.8735 4.2272 -1.9230 0.2403 0 1
5.8654 4.2414 -1.9235 0.2402 0 1
5.8572 4.2556 -1.9239 0.2402 0 1
5.8490 4.2697 -1.9244 0.2401 0 1
5.8408 4.2838 -1.9249 0.2401 0 1
5.8325 4.2979 -1.9253 0.2400 0 1
5.8243 4.3120 -1.9258 0.2400 0 1
5.8159 4.3261 -1.9262 0.2399 0 1
5.8076 4.3402 -1.9267 0.2398 0 1
5.7992 4.3542 -1.9271 0.2398 0 1
5.7908 4.3682 -1.9276 0.2397 0 1
5.7823 4.3822 -1.9280 0.2397 0 1
5.7738 4.3962 -1.9285 0.2396 0 1
5.7653 4.4102 -1.9289 0.2396 0 1
5.7567 4.4241 -1.9294 0.2395 0 1
5.7481 4.4381 -1.9298 0.2395 0 1
5.7395 4.4520 -1.9303 0.2394 0 1
5.7308 4.4659 -1.9307 0.2393 0 1
5.7221 4.4798 -1.9312 0.2393 0 1
5.7134 4.4937 -1.9316 0.2392 0 1
5.7046 4.5075 -1.9321 0.2392 0 1
5.6957 4.5214 -1.9325 0.2391 0 1
5.6869 4.5352 -1.9330 0.2391 0 1
5.6780 4.5489 -1.9334 0.2390 0 1
5.6691 4.5628 -1.9338 0.2390 0 1
5.6601 4.5765 -1.9343 0.2389 0 1
5.6512 4.5902 -1.9347 0.2388 0 1
5.6421 4.6039 -1.9352 0.2388 0 1
5.6331 4.6177 -1.9356 0.2387 0 1
5.6240 4.6314 -1.9361 0.2387 0 1
5.6149 4.6450 -1.9365 0.2386 0 1
5.6057 4.6587 -1.9369 0.2386 0 1
5.5965 4.6723 -1.9374 0.2385 0 1
5.5873 4.6859 -1.9378 0.2385 0 1
5.5780 4.6995 -1.9383 0.2384 0 1
5.5687 4.7131 -1.9387 0.2384 0 1
5.5594 4.7266 -1.9391 0.2383 0 1
5.5500 4.7402 -1.9396 0.2383 0 1
5.5406 4.7537 -1.9400 0.2382 0 1
5.5312 4.7671 -1.9404 0.2381 0 1
5.5217 4.7807 -1.9409 0.2381 0 1
5.5122 4.7941 -1.9413 0.2380 0 1
5.5027 4.8075 -1.9418 0.2380 0 1
5.4931 4.8209 -1.9422 0.2379 0 1
5.4835 4.8344 -1.9426 0.2379 0 1
5.4738 4.8477 -1.9431 0.2378 0 1
5.4642 4.8611 -1.9435 0.2378 0 1
5.4545 4.8744 -1.9439 0.2377 0 1
5.4447 4.8877 -1.9444 0.2377 0 1
5.4349 4.9010 -1.9448 0.2376 0 1
5.4251 4.9142 -1.9452 0.2376 0 1
5.4153 4.9275 -1.9456 0.2375 0 1
5.4054 4.9407 -1.9461 0.2375 0 1
5.3955 4.9539 -1.9465 0.2374 0 1
5.3855 4.9671 -1.9469 0.2374 0 1
5.3755 4.9803 -1.9474 0.2373 0 1
5.3655 4.9934 -1.9478 0.2372 0 1
5.3555 5.0066 -1.9482 0.2372 0 1
5.3454 5.0197 -1.9486 0.2371 0 1
5.3353 5.0328 -1.9491 0.2371 0 1
5.3252 5.0458 -1.9495 0.2370 0 1
5.3150 5.0588 -1.9499 0.2370 0 1
5.3047 5.0719 -1.9503 0.2369 0 1
5.2945 5.0849 -1.9508 0.2369 0 1
5.2842 5.0979 -1.9512 0.2368 0 1
5.2739 5.1108 -1.9516 0.2368 0 1
5.2636 5.1237 -1.9520 0.2367 0 1
5.2532 5.1366 -1.9524 0.2367 0 1
5.2428 5.1495 -1.9529 0.2366 0 1
5.2323 5.1623 -1.9533 0.2366 0 1
5.2218 5.1752 -1.9537 0.2365 0 1
5.2113 5.1879 -1.9541 0.2365 0 1
4.2743 -4.2743 -1.6598 0.2870 0 1
4.2846 -4.2654 -1.6601 0.2870 0 1
4.2948 -4.2564 -1.6604 0.2869 0 1
4.3050 -4.2474 -1.6606 0.2869 0 1
4.3152 -4.2385 -1.6609 0.2869 0 1
4.3254 -4.2295 -1.6612 0.2868 0 1
4.3356 -4.2204 -1.6614 0.2868 0 1
4.3458 -4.2113 -1.6617 0.2867 0 1
4.3559 -4.2023 -1.6620 0.2867 0 1
4.3660 -4.1931 -1.6622 0.2866 0 1
4.3761 -4.1840 -1.6625 0.2866 0 1
4.3863 -4.1749 -1.6628 0.2865 0 1
4.3963 -4.1657 -1.6630 0.2865 0 1
4.4064 -4.1565 -1.6633 0.2864 0 1
4.4164 -4.1473 -1.6636 0.2864 0 1
4.4264 -4.1380 -1.6638 0.2863 0 1
4.4364 -4.1288 -1.6641 0.2863 0 1
4.4464 -4.1195 -1.6644 0.2862 0 1
4.4564 -4.1102 -1.6647 0.2862 0 1
4.4663 -4.1009 -1.6649 0.2862 0 1
4.4763 -4.0915 -1.6652 0.2861 0 1
4.4862 -4.0821 -1.6655 0.2861 0 1
4.4961 -4.0727 -1.6658 0.2860 0 1
4.5060 -4.0633 -1.6661 0.2860 0 1
4.5158 -4.0539 -1.6663 0.2859 0 1
4.5257 -4.0444 -1.6666 0.2859 0 1
4.5355 -4.0349 -1.6669 0.2858 0 1
4.5453 -4.0254 -1.6672 0.2858 0 1
4.5551 -4.0159 -1.6675 0.2857 0 1
4.5649 -4.0063 -1.6677 0.2857 0 1
4.5747 -3.9967 -1.6680 0.2856 0 1
4.5844 -3.9871 -1.6683 0.2856 0 1
4.5941 -3.9775 -1.6686 0.2855 0 1
4.6038 -3.9679 -1.6689 0.2855 0 1
4.6135 -3.9582 -1.6692 0.2854 0 1
4.6232 -3.9486 -1.6695 0.2854 0 1
4.6328 -3.9388 -1.6697 0.2853 0 1
4.6425 -3.9291 -1.6700 0.2853 0 1
4.6521 -3.9194 -1.6703 0.2852 0 1
4.6617 -3.9096 -1.6706 0.2852 0 1
4.6712 -3.8998 -1.6709 0.2851 0 1
4.6808 -3.8900 -1.6712 0.2851 0 1
4.6903 -3.8802 -1.6715 0.2850 0 1
4.6998 -3.8703 -1.6718 0.2850 0 1
4.7093 -3.8604 -1.6721 0.2849 0 1
4.7188 -3.8505 -1.6724 0.2849 0 1
4.7283 -3.8406 -1.6727 0.2848 0 1
4.7377 -3.8306 -1.6730 0.2848 0 1
4.7471 -3.8207 -1.6733 0.2847 0 1
4.7566 -3.8107 -1.6736 0.2847 0 1
4.7660 -3.8007 -1.6739 0.2846 0 1
4.7753 -3.7907 -1.6742 0.2846 0 1
4.7847 -3.7806 -1.6745 0.2845 0 1
4.7940 -3.7705 -1.6748 0.2845 0 1
4.8033 -3.7604 -1.6751 0.2844 0 1
4.8126 -3.7503 -1.6754 0.2844 0 1
4.8219 -3.7402 -1.6757 0.2843 0 1
4.8311 -3.7301 -1.6760 0.2843 0 1
4.8404 -3.7199 -1.6763 0.2842 0 1
4.8496 -3.7097 -1.6766 0.2842 0 1
4.8588 -3.6995 -1.6769 0.2841 0 1
4.8679 -3.6892 -1.6772 0.2841 0 1
4.8771 -3.6790 -1.6775 0.2840 0 1
4.8863 -3.6687 -1.6778 0.2840 0 1
4.8954 -3.6584 -1.6781 0.2839 0 1
4.9045 -3.6480 -1.6784 0.2839 0 1
4.9135 -3.6377 -1.6787 0.2838 0 1
4.9226 -3.6273 -1.6790 0.2838 0 1
4.9316 -3.6170 -1.6793 0.2837 0 1
4.9406 -3.6065 -1.6797 0.2836 0 1
4.9496 -3.5961 -1.6800 0.2836 0 1
4.9586 -3.5857 -1.6803 0.2835 0 1
4.9676 -3.5752 -1.6806 0.2835 0 1
4.9765 -3.5647 -1.6809 0.2834 0 1
4.9854 -3.5542 -1.6812 0.2834 0 1
4.9943 -3.5437 -1.6815 0.2833 0 1
5.0032 -3.5331 -1.6818 0.2833 0 1
5.0121 -3.5226 -1.6822 0.2832 0 1
5.0209 -3.5120 -1.6825 0.2832 0 1
5.0297 -3.5014 -1.6828 0.2831 0 1
5.0385 -3.4907 -1.6831 0.2831 0 1
5.0473 -3.4800 -1.6834 0.2830 0 1
5.0561 -3.4694 -1.6838 0.2830 0 1
5.0648 -3.4587 -1.6841 0.2829 0 1
5.0735 -3.4479 -1.6844 0.2828 0 1
5.0822 -3.4372 -1.6847 0.2828 0 1
5.0909 -3.4264 -1.6850 0.2827 0 1
5.0996 -3.4157 -1.6854 0.2827 0 1
5.1082 -3.4049 -1.6857 0.2826 0 1
5.1168 -3.3941 -1.6860 0.2826 0 1
5.1254 -3.3832 -1.6863 0.2825 0 1
5.1339 -3.3724 -1.6867 0.2825 0 1
5.1425 -3.3615 -1.6870 0.2824 0 1
5.1510 -3.3506 -1.6873 0.2824 0 1
5.1596 -3.3397 -1.6876 0.2823 0 1
5.1680 -3.3287 -1.6880 0.2822 0 1
5.1765 -3.3178 -1.6883 0.2822 0 1
5.1850 -3.3068 -1.6886 0.2821 0 1
5.1934 -3.2958 -1.6890 0.2821 0 1
5.2018 -3.2848 -1.6893 0.2820 0 1
5.2101 -3.2737 -1.6896 0.2820 0 1
5.2185 -3.2627 -1.6900 0.2819 0 1
5.2269 -3.2516 -1.6903 0.2819 0 1
5.2352 -3.2405 -1.6906 0.2818 0 1
5.2435 -3.2294 -1.6910 0.2817 0 1
5.2517 -3.2183 -1.6913 0.2817 0 1
5.2600 -3.2071 -1.6916 0.2816 0 1
5.2682 -3.1959 -1.6920 0.2816 0 1
5.2764 -3.1847 -1.6923 0.2815 0 1
5.2846 -3.1735 -1.6926 0.2815 0 1
5.2928 -3.1623 -1.6930 0.2814 0 1
5.3009 -3.1510 -1.6933 0.2814 0 1
5.3091 -3.1397 -1.6937 0.2813 0 1
5.3171 -3.1285 -1.6940 0.2812 0 1
5.3252 -3.1171 -1.6943 0.2812 0 1
5.3333 -3.1059 -1.6947 0.2811 0 1
5.3413 -3.0945 -1.6950 0.2811 0 1
5.3493 -3.0831 -1.6954 0.2810 0 1
5.3573 -3.0717 -1.6957 0.2810 0 1
5.3653 -3.0603 -1.6961 0.2809 0 1
5.3732 -3.0489 -1.6964 0.2808 0 1
5.3812 -3.0374 -1.6967 0.2808 0 1
5.3890 -3.0260 -1.6971 0.2807 0 1
5.3969 -3.0145 -1.6974 0.2807 0 1
5.4048 -3.0030 -1.6978 0.2806 0 1
5.4126 -2.9915 -1.6981 0.2806 0 1
5.4204 -2.9799 -1.6985 0.2805 0 1
5.4282 -2.9684 -1.6988 0.2804 0 1
5.4360 -2.9568 -1.6992 0.2804 0 1
5.4437 -2.9452 -1.6995 0.2803 0 1
5.4514 -2.9335 -1.6999 0.2803 0 1
5.4592 -2.9219 -1.7002 0.2802 0 1
5.4668 -2.9103 -1.7006 0.2802 0 1
5.4745 -2.8986 -1.7009 0.2801 0 1
5.4821 -2.8869 -1.7013 0.2800 0 1
5.4897 -2.8752 -1.7016 0.2800 0 1
5.4973 -2.8634 -1.7020 0.2799 0 1
5.5048 -2.8517 -1.7024 0.2799 0 1
5.5124 -2.8399 -1.7027 0.2798 0 1
5.5199 -2.8281 -1.7031 0.2797 0 1
5.5274 -2.8163 -1.7034 0.2797 0 1
5.5349 -2.8045 -1.7038 0.2796 0 1
5.5423 -2.7927 -1.7041 0.2796 0 1
5.5497 -2.7808 -1.7045 0.2795 0 1
5.5571 -2.7689 -1.7049 0.2795 0 1
5.5645 -2.7571 -1.7052 0.2794 0 1
5.5719 -2.7451 -1.7056 0.2793 0 1
5.5792 -2.7332 -1.7059 0.2793 0 1
5.5865 -2.7213 -1.7063 0.2792 0 1
5.5938 -2.7093 -1.7067 0.2792 0 1
5.6011 -2.6973 -1.7070 0.2791 0 1
5.6083 -2.6853 -1.7074 0.2790 0 1
5.6155 -2.6733 -1.7078 0.2790 0 1
5.6227 -2.6612 -1.7081 0.2789 0 1
5.6298 -2.6492 -1.7085 0.2789 0 1
5.6370 -2.6371 -1.7089 0.2788 0 1
5.6441 -2.6250 -1.7092 0.2787 0 1
5.6512 -2.6129 -1.7096 0.2787 0 1
5.6582 -2.6008 -1.7100 0.2786 0 1
5.6653 -2.5887 -1.7103 0.2786 0 1
5.6723 -2.5765 -1.7107 0.2785 0 1
5.6793 -2.5643 -1.7111 0.2784 0 1
5.6863 -2.5521 -1.7114 0.2784 0 1
5.6932 -2.5399 -1.7118 0.2783 0 1
5.7001 -2.5277 -1.7122 0.2783 0 1
5.7070 -2.5154 -1.7125 0.2782 0 1
5.7139 -2.5031 -1.7129 0.2781 0 1
5.7208 -2.4908 -1.7133 0.2781 0 1
5.7276 -2.4786 -1.7137 0.2780 0 1
5.7344 -2.4662 -1.7140 0.2780 0 1
5.7411 -2.4539 -1.7144 0.2779 0 1
5.7479 -2.4415 -1.7148 0.2778 0 1
5.7546 -2.4292 -1.7152 0.2778 0 1
5.7613 -2.4168 -1.7155 0.2777 0 1
5.7680 -2.4044 -1.7159 0.2777 0 1
5.7746 -2.3920 -1.7163 0.2776 0 1
5.7813 -2.3795 -1.7167 0.2775 0 1
5.7879 -2.3671 -1.7171 0.2775 0 1
5.7945 -2.3546 -1.7174 0.2774 0 1
5.8010 -2.3421 -1.7178 0.2773 0 1
5.8075 -2.3296 -1.7182 0.2773 0 1
5.8141 -2.3171 -1.7186 0.2772 0 1
5.8205 -2.3045 -1.7190 0.2772 0 1
5.8270 -2.2920 -1.7193 0.2771 0 1
5.8334 -2.2794 -1.7197 0.2770 0 1
5.8398 -2.2668 -1.7201 0.2770 0 1
5.8462 -2.2542 -1.7205 0.2769 0 1
5.8525 -2.2415 -1.7209 0.2769 0 1
5.8589 -2.2290 -1.7213 0.2768 0 1
5.8652 -2.2162 -1.7216 0.2767 0 1
5.8714 -2.2036 -1.7220 0.2767 0 1
5.8777 -2.1909 -1.7224 0.2766 0 1
5.8839 -2.1782 -1.7228 0.2765 0 1
5.8901 -2.1654 -1.7232 0.2765 0 1
5.8963 -2.1527 -1.7236 0.2764 0 1
5.9024 -2.1399 -1.7240 0.2764 0 1
5.9086 -2.1272 -1.7244 0.2763 0 1
5.9146 -2.1144 -1.7248 0.2762 0 1
5.9207 -2.1016 -1.7251 0.2762 0 1
5.9268 -2.0888 -1.7255 0.2761 0 1
5.9328 -2.0760 -1.7259 0.2760 0 1
5.9388 -2.0631 -1.7263 0.2760 0 1
5.9447 -2.0502 -1.7267 0.2759 0 1
5.9507 -2.0374 -1.7271 0.2759 0 1
5.9566 -2.0245 -1.7275 0.2758 0 1
5.9625 -2.0116 -1.7279 0.2757 0 1
5.9684 -1.9986 -1.7283 0.2757 0 1
5.9742 -1.9857 -1.7287 0.2756 0 1
5.9800 -1.9727 -1.7291 0.2755 0 1
5.9858 -1.9597 -1.7295 0.2755 0 1
5.9915 -1.9467 -1.7299 0.2754 0 1
5.9973 -1.9337 -1.7303 0.2753 0 1
6.0030 -1.9207 -1.7307 0.2753 0 1
6.0087 -1.9077 -1.7311 0.2752 0 1
6.0143 -1.8946 -1.7315 0.2752 0 1
6.0199 -1.8816 -1.7319 0.2751 0 1
6.0255 -1.8685 -1.7323 0.2750 0 1
6.0311 -1.8554 -1.7327 0.2750 0 1
6.0366 -1.8423 -1.7331 0.2749 0 1
6.0421 -1.8291 -1.7335 0.2748 0 1
6.0477 -1.8161 -1.7339 0.2748 0 1
6.0531 -1.8029 -1.7343 0.2747 0 1
6.0586 -1.7897 -1.7347 0.2746 0 1
6.0640 -1.7765 -1.7351 0.2746 0 1
6.0694 -1.7633 -1.7355 0.2745 0 1
6.0747 -1.7501 -1.7359 0.2745 0 1
6.0800 -1.7369 -1.7363 0.2744 0 1
6.0853 -1.7236 -1.7367 0.2743 0 1
6.0906 -1.7104 -1.7371 0.2743 0 1
6.0959 -1.6971 -1.7375 0.2742 0 1
6.1011 -1.6838 -1.7379 0.2741 0 1
6.1063 -1.6705 -1.7383 0.2741 0 1
6.1115 -1.6571 -1.7387 0.2740 0 1
6.1166 -1.6438 -1.7391 0.2739 0 1
6.1217 -1.6305 -1.7396 0.2739 0 1
6.1268 -1.6171 -1.7400 0.2738 0 1
6.1319 -1.6037 -1.7404 0.2738 0 1
6.1369 -1.5903 -1.7408 0.2737 0 1
6.1419 -1.5770 -1.7412 0.2736 0 1
6.1469 -1.5636 -1.7416 0.2736 0 1
6.1518 -1.5501 -1.7420 0.2735 0 1
6.1567 -1.5367 -1.7424 0.2734 0 1
6.1616 -1.5232 -1.7428 0.2734 0 1
6.1665 -1.5097 -1.7433 0.2733 0 1
6.1713 -1.4963 -1.7437 0.2732 0 1
6.1761 -1.4827 -1.7441 0.2732 0 1
6.1809 -1.4692 -1.7445 0.2731 0 1
6.1857 -1.4557 -1.7449 0.2730 0 1
6.1904 -1.4421 -1.7453 0.2730 0 1
6.1951 -1.4286 -1.7457 0.2729 0 1
6.1998 -1.4150 -1.7462 0.2728 0 1
6.2044 -1.4015 -1.7466 0.2728 0 1
6.2090 -1.3879 -1.7470 0.2727 0 1
6.2136 -1.3743 -1.7474 0.2726 0 1
6.2182 -1.3607 -1.7478 0.2726 0 1
6.2227 -1.3470 -1.7483 0.2725 0 1
6.2272 -1.3334 -1.7487 0.2725 0 1
6.2317 -1.3197 -1.7491 0.2724 0 1
6.2361 -1.3060 -1.7495 0.2723 0 1
6.2405 -1.2924 -1.7499 0.2723 0 1
6.2449 -1.2786 -1.7504 0.2722 0 1
6.2493 -1.2649 -1.7508 0.2721 0 1
6.2536 -1.2512 -1.7512 0.2721 0 1
6.2579 -1.2375 -1.7516 0.2720 0 1
6.2622 -1.2237 -1.7520 0.2719 0 1
6.2664 -1.2100 -1.7525 0.2719 0 1
6.2706 -1.1962 -1.7529 0.2718 0 1
6.2748 -1.1824 -1.7533 0.2717 0 1
6.2790 -1.1686 -1.7537 0.2717 0 1
6.2831 -1.1548 -1.7542 0.2716 0 1
6.2872 -1.1410 -1.7546 0.2715 0 1
6.2913 -1.1271 -1.7550 0.2715 0 1
6.2953 -1.1132 -1.7554 0.2714 0 1
6.2993 -1.0995 -1.7559 0.2713 0 1
6.3033 -1.0855 -1.7563 0.2713 0 1
6.3073 -1.0716 -1.7567 0.2712 0 1
6.3112 -1.0577 -1.7572 0.2711 0 1
6.3151 -1.0439 -1.7576 0.2711 0 1
6.3190 -1.0299 -1.7580 0.2710 0 1
6.3228 -1.0160 -1.7584 0.2709 0 1
6.3266 -1.0020 -1.7589 0.2709 0 1
6.3304 -0.9881 -1.7593 0.2708 0 1
6.3342 -0.9741 -1.7597 0.2707 0 1
6.3379 -0.9601 -1.7602 0.2707 0 1
6.3416 -0.9462 -1.7606 0.2706 0 1
6.3452 -0.9321 -1.7610 0.2705 0 1
6.3489 -0.9181 -1.7615 0.2705 0 1
6.3525 -0.9041 -1.7619 0.2704 0 1
6.3561 -0.8901 -1.7623 0.2703 0 1
6.3596 -0.8760 -1.7628 0.2703 0 1
6.3631 -0.8620 -1.7632 0.2702 0 1
6.3666 -0.8479 -1.7636 0.2701 0 1
6.3701 -0.8338 -1.7641 0.2701 0 1
6.3735 -0.8197 -1.7645 0.2700 0 1
6.3769 -0.8056 -1.7649 0.2699 0 1
6.3803 -0.7915 -1.7654 0.2699 0 1
6.3836 -0.7773 -1.7658 0.2698 0 1
6.3869 -0.7632 -1.7662 0.2697 0 1
6.3902 -0.7490 -1.7667 0.2697 0 1
6.3934 -0.7349 -1.7671 0.2696 0 1
6.3966 -0.7208 -1.7676 0.2695 0 1
6.3998 -0.7066 -1.7680 0.2695 0 1
6.4030 -0.6924 -1.7684 0.2694 0 1
6.4061 -0.6782 -1.7689 0.2693 0 1
6.4092 -0.6640 -1.7693 0.2693 0 1
6.4123 -0.6497 -1.7698 0.2692 0 1
6.4153 -0.6355 -1.7702 0.2691 0 1
6.4183 -0.6213 -1.7706 0.2691 0 1
6.4213 -0.6070 -1.7711 0.2690 0 1
6.4242 -0.5928 -1.7715 0.2689 0 1
6.4271 -0.5785 -1.7720 0.2689 0 1
6.4301 -0.5642 -1.7724 0.2688 0 1
6.4329 -0.5499 -1.7728 0.2687 0 1
6.4357 -0.5356 -1.7733 0.2687 0 1
6.4385 -0.5213 -1.7737 0.2686 0 1
6.4412 -0.5069 -1.7742 0.2685 0 1
6.4440 -0.4926 -1.7746 0.2685 0 1
6.4467 -0.4783 -1.7751 0.2684 0 1
6.4494 -0.4639 -1.7755 0.2683 0 1
6.4520 -0.4496 -1.7759 0.2683 0 1
6.4546 -0.4352 -1.7764 0.2682 0 1
6.4572 -0.4208 -1.7768 0.2681 0 1
6.4598 -0.4064 -1.7773 0.2681 0 1
6.4623 -0.3920 -1.7777 0.2680 0 1
6.4648 -0.3776 -1.7782 0.2679 0 1
6.4672 -0.3632 -1.7786 0.2679 0 1
6.4696 -0.3487 -1.7791 0.2678 0 1
6.4720 -0.3343 -1.7795 0.2677 0 1
6.4744 -0.3199 -1.7800 0.2677 0 1
6.4767 -0.3054 -1.7804 0.2676 0 1
6.4790 -0.2910 -1.7809 0.2675 0 1
6.4813 -0.2765 -1.7813 0.2675 0 1
6.4836 -0.2620 -1.7818 0.2674 0 1
6.4857 -0.2475 -1.7822 0.2673 0 1
6.4879 -0.2330 -1.7827 0.2673 0 1
6.4901 -0.2186 -1.7831 0.2672 0 1
6.4922 -0.2040 -1.7836 0.2671 0 1
6.4943 -0.1895 -1.7840 0.2671 0 1
6.4963 -0.1750 -1.7845 0.2670 0 1
6.4983 -0.1604 -1.7849 0.2669 0 1
6.5003 -0.1459 -1.7854 0.2669 0 1
6.5023 -0.1313 -1.7858 0.2668 0 1
6.5042 -0.1168 -1.7863 0.2667 0 1
6.5061 -0.1022 -1.7867 0.2666 0 1
6.5079 -0.0876 -1.7872 0.2666 0 1
6.5098 -0.0731 -1.7876 0.2665 0 1
6.5116 -0.0584 -1.7881 0.2664 0 1
6.5133 -0.0438 -1.7885 0.2664 0 1
6.5151 -0.0292 -1.7890 0.2663 0 1
6.5168 -0.0146 -1.7894 0.2662 0 1
6.5184 0.0000 -1.7899 0.2662 0 1
6.5201 0.0146 -1.7903 0.2661 0 1
6.5217 0.0293 -1.7908 0.2660 0 1
6.5233 0.0439 -1.7913 0.2660 0 1
6.5248 0.0586 -1.7917 0.2659 0 1
6.5263 0.0732 -1.7922 0.2658 0 1
6.5278 0.0879 -1.7926 0.2658 0 1
6.5293 0.1026 -1.7931 0.2657 0 1
6.5307 0.1173 -1.7935 0.2656 0 1
6.5321 0.1320 -1.7940 0.2656 0 1
6.5334 0.1466 -1.7945 0.2655 0 1
6.5347 0.1613 -1.7949 0.2654 0 1
6.5360 0.1761 -1.7954 0.2654 0 1
6.5373 0.1907 -1.7958 0.2653 0 1
6.5385 0.2055 -1.7963 0.2652 0 1
6.5397 0.2202 -1.7967 0.2652 0 1
6.5409 0.2350 -1.7972 0.2651 0 1
6.5420 0.2496 -1.7977 0.2650 0 1
6.5431 0.2644 -1.7981 0.2650 0 1
6.5441 0.2792 -1.7986 0.2649 0 1
6.5452 0.2939 -1.7990 0.2648 0 1
6.5462 0.3087 -1.7995 0.2648 0 1
6.5471 0.3235 -1.8000 0.2647 0 1
6.5480 0.3383 -1.8004 0.2646 0 1
6.5489 0.3531 -1.8009 0.2646 0 1
6.5498 0.3679 -1.8013 0.2645 0 1
6.5507 0.3826 -1.8018 0.2644 0 1
6.5514 0.3975 -1.8023 0.2643 0 1
6.5522 0.4123 -1.8027 0.2643 0 1
6.5530 0.4271 -1.8032 0.2642 0 1
6.5537 0.4419 -1.8036 0.2641 0 1
6.5544 0.4567 -1.8041 0.2641 0 1
6.5550 0.4715 -1.8046 0.2640 0 1
6.5556 0.4864 -1.8050 0.2639 0 1
6.5562 0.5012 -1.8055 0.2639 0 1
6.5567 0.5161 -1.8060 0.2638 0 1
6.5572 0.5309 -1.8064 0.2637 0 1
6.5577 0.5457 -1.8069 0.2637 0 1
6.5581 0.5606 -1.8074 0.2636 0 1
6.5585 0.5754 -1.8078 0.2635 0 1
6.5589 0.5903 -1.8083 0.2635 0 1
6.5592 0.6052 -1.8087 0.2634 0 1
6.5596 0.6201 -1.8092 0.2633 0 1
6.5598 0.6350 -1.8097 0.2633 0 1
6.5600 0.6498 -1.8101 0.2632 0 1
6.5603 0.6647 -1.8106 0.2631 0 1
6.5605 0.6796 -1.8111 0.2631 0 1
6.5606 0.6945 -1.8115 0.2630 0 1
6.5607 0.7094 -1.8120 0.2629 0 1
6.5608 0.7244 -1.8125 0.2629 0 1
6.5608 0.7392 -1.8129 0.2628 0 1
6.5609 0.7542 -1.8134 0.2627 0 1
6.5608 0.7691 -1.8139 0.2627 0 1
6.5607 0.7840 -1.8143 0.2626 0 1
6.5607 0.7989 -1.8148 0.2625 0 1
6.5605 0.8139 -1.8153 0.2625 0 1
6.5604 0.8288 -1.8157 0.2624 0 1
6.5602 0.8437 -1.8162 0.2623 0 1
6.5600 0.8587 -1.8167 0.2623 0 1
6.5597 0.8736 -1.8171 0.2622 0 1
6.5595 0.8886 -1.8176 0.2621 0 1
6.5591 0.9035 -1.8181 0.2621 0 1
6.5588 0.9185 -1.8185 0.2620 0 1
6.5584 0.9334 -1.8190 0.2619 0 1
6.5580 0.9484 -1.8195 0.2618 0 1
6.5575 0.9633 -1.8199 0.2618 0 1
6.5570 0.9783 -1.8204 0.2617 0 1
6.5565 0.9932 -1.8209 0.2616 0 1
6.5559 1.0083 -1.8213 0.2616 0 1
6.5553 1.0232 -1.8218 0.2615 0 1
6.5547 1.0382 -1.8223 0.2614 0 1
6.5540 1.0532 -1.8228 0.2614 0 1
6.5534 1.0682 -1.8232 0.2613 0 1
6.5526 1.0832 -1.8237 0.2612 0 1
6.5519 1.0981 -1.8242 0.2612 0 1
6.5511 1.1131 -1.8246 0.2611 0 1
6.5503 1.1281 -1.8251 0.2610 0 1
6.5494 1.1430 -1.8256 0.2610 0 1
6.5485 1.1580 -1.8260 0.2609 0 1
6.5475 1.1730 -1.8265 0.2608 0 1
6.5466 1.1880 -1.8270 0.2608 0 1
6.5456 1.2030 -1.8275 0.2607 0 1
6.5446 1.2180 -1.8279 0.2606 0 1
6.5435 1.2330 -1.8284 0.2606 0 1
6.5424 1.2480 -1.8289 0.2605 0 1
6.5413 1.2630 -1.8293 0.2604 0 1
6.5401 1.2780 -1.8298 0.2604 0 1
6.5389 1.2930 -1.8303 0.2603 0 1
6.5377 1.3080 -1.8307 0.2602 0 1
6.5364 1.3230 -1.8312 0.2602 0 1
6.5351 1.3381 -1.8317 0.2601 0 1
6.5337 1.3531 -1.8322 0.2600 0 1
6.5324 1.3680 -1.8326 0.2600 0 1
6.5310 1.3831 -1.8331 0.2599 0 1
6.5295 1.3981 -1.8336 0.2598 0 1
6.5281 1.4131 -1.8340 0.2598 0 1
6.5265 1.4281 -1.8345 0.2597 0 1
6.5250 1.4431 -1.8350 0.2596 0 1
6.5234 1.4582 -1.8355 0.2596 0 1
6.5218 1.4732 -1.8359 0.2595 0 1
6.5202 1.4882 -1.8364 0.2594 0 1
6.5185 1.5032 -1.8369 0.2594 0 1
6.5168 1.5182 -1.8373 0.2593 0 1
6.5150 1.5332 -1.8378 0.2592 0 1
6.5132 1.5482 -1.8383 0.2592 0 1
6.5114 1.5633 -1.8388 0.2591 0 1
6.5096 1.5782 -1.8392 0.2590 0 1
6.5077 1.5933 -1.8397 0.2590 0 1
6.5057 1.6083 -1.8402 0.2589 0 1
6.5038 1.6233 -1.8407 0.2588 0 1
6.5018 1.6383 -1.8411 0.2588 0 1
6.4998 1.6533 -1.8416 0.2587 0 1
6.4977 1.6684 -1.8421 0.2586 0 1
6.4956 1.6833 -1.8425 0.2586 0 1
6.4935 1.6984 -1.8430 0.2585 0 1
6.4913 1.7134 -1.8435 0.2584 0 1
6.4891 1.7284 -1.8440 0.2584 0 1
6.4869 1.7434 -1.8444 0.2583 0 1
6.4846 1.7584 -1.8449 0.2582 0 1
6.4823 1.7734 -1.8454 0.2582 0 1
6.4800 1.7884 -1.8458 0.2581 0 1
6.4776 1.8034 -1.8463 0.2580 0 1
6.4752 1.8184 -1.8468 0.2580 0 1
6.4728 1.8334 -1.8473 0.2579 0 1
6.4703 1.8484 -1.8477 0.2578 0 1
6.4678 1.8634 -1.8482 0.2578 0 1
6.4653 1.8784 -1.8487 0.2577 0 1
6.4627 1.8934 -1.8492 0.2576 0 1
6.4601 1.9084 -1.8496 0.2576 0 1
6.4574 1.9233 -1.8501 0.2575 0 1
6.4547 1.9383 -1.8506 0.2574 0 1
6.4520 1.9532 -1.8510 0.2574 0 1
6.4492 1.9682 -1.8515 0.2573 0 1
6.4465 1.9832 -1.8520 0.2573 0 1
6.4436 1.9981 -1.8525 0.2572 0 1
6.4408 2.0131 -1.8529 0.2571 0 1
6.4379 2.0281 -1.8534 0.2571 0 1
6.4349 2.0430 -1.8539 0.2570 0 1
6.4320 2.0580 -1.8544 0.2569 0 1
6.4290 2.0730 -1.8548 0.2569 0 1
6.4260 2.0879 -1.8553 0.2568 0 1
6.4229 2.1029 -1.8558 0.2567 0 1
6.4198 2.1178 -1.8562 0.2567 0 1
6.4167 2.1328 -1.8567 0.2566 0 1
6.4135 2.1477 -1.8572 0.2565 0 1
6.4103 2.1627 -1.8577 0.2565 0 1
6.4070 2.1776 -1.8581 0.2564 0 1
6.4037 2.1925 -1.8586 0.2563 0 1
6.4004 2.2074 -1.8591 0.2563 0 1
6.3971 2.2223 -1.8595 0.2562 0 1
6.3937 2.2372 -1.8600 0.2561 0 1
6.3903 2.2522 -1.8605 0.2561 0 1
6.3868 2.2671 -1.8610 0.2560 0 1
6.3834 2.2820 -1.8614 0.2559 0 1
6.3798 2.2969 -1.8619 0.2559 0 1
6.3763 2.3118 -1.8624 0.2558 0 1
6.3727 2.3267 -1.8628 0.2558 0 1
6.3690 2.3415 -1.8633 0.2557 0 1
6.3654 2.3564 -1.8638 0.2556 0 1
6.3617 2.3713 -1.8643 0.2556 0 1
6.3580 2.3862 -1.8647 0.2555 0 1
6.3542 2.4011 -1.8652 0.2554 0 1
6.3504 2.4159 -1.8657 0.2554 0 1
6.3465 2.4308 -1.8661 0.2553 0 1
6.3427 2.4456 -1.8666 0.2552 0 1
6.3388 2.4605 -1.8671 0.2552 0 1
6.3348 2.4753 -1.8675 0.2551 0 1
6.3309 2.4902 -1.8680 0.2550 0 1
6.3268 2.5050 -1.8685 0.2550 0 1
6.3228 2.5198 -1.8690 0.2549 0 1
6.3187 2.5346 -1.8694 0.2549 0 1
6.3146 2.5495 -1.8699 0.2548 0 1
6.3104 2.5643 -1.8704 0.2547 0 1
6.3063 2.5790 -1.8708 0.2547 0 1
6.3020 2.5938 -1.8713 0.2546 0 1
6.2977 2.6086 -1.8718 0.2545 0 1
6.2935 2.6234 -1.8722 0.2545 0 1
6.2891 2.6382 -1.8727 0.2544 0 1
6.2848 2.6530 -1.8732 0.2543 0 1
6.2804 2.6677 -1.8736 0.2543 0 1
6.2759 2.6824 -1.8741 0.2542 0 1
6.2715 2.6972 -1.8746 0.2542 0 1
6.2670 2.7120 -1.8751 0.2541 0 1
6.2624 2.7267 -1.8755 0.2540 0 1
6.2579 2.7414 -1.8760 0.2540 0 1
6.2532 2.7562 -1.8765 0.2539 0 1
6.2486 2.7708 -1.8769 0.2538 0 1
6.2439 2.7856 -1.8774 0.2538 0 1
6.2392 2.8003 -1.8779 0.2537 0 1
6.2344 2.8150 -1.8783 0.2536 0 1
6.2297 2.8297 -1.8788 0.2536 0 1
6.2248 2.8443 -1.8793 0.2535 0 1
6.2200 2.8590 -1.8797 0.2535 0 1
6.2151 2.8737 -1.8802 0.2534 0 1
6.2102 2.8883 -1.8807 0.2533 0 1
6.2052 2.9030 -1.8811 0.2533 0 1
6.2002 2.9176 -1.8816 0.2532 0 1
6.1952 2.9322 -1.8821 0.2531 0 1
6.1901 2.9469 -1.8825 0.2531 0 1
6.1850 2.9614 -1.8830 0.2530 0 1
6.1799 2.9761 -1.8834 0.2530 0 1
6.1747 2.9907 -1.8839 0.2529 0 1
6.1695 3.0053 -1.8844 0.2528 0 1
6.1643 3.0199 -1.8848 0.2528 0 1
6.1590 3.0345 -1.8853 0.2527 0 1
6.1537 3.0490 -1.8858 0.2526 0 1
6.1483 3.0636 -1.8862 0.2526 0 1
6.1430 3.0781 -1.8867 0.2525 0 1
6.1375 3.0926 -1.8872 0.2525 0 1
6.1321 3.1071 -1.8876 0.2524 0 1
6.1266 3.1216 -1.8881 0.2523 0 1
6.1211 3.1362 -1.8885 0.2523 0 1
6.1155 3.1506 -1.8890 0.2522 0 1
6.1099 3.1652 -1.8895 0.2521 0 1
6.1043 3.1796 -1.8899 0.2521 0 1
6.0986 3.1941 -1.8904 0.2520 0 1
6.0929 3.2086 -1.8908 0.2520 0 1
6.0872 3.2230 -1.8913 0.2519 0 1
6.0814 3.2374 -1.8918 0.2518 0 1
6.0756 3.2519 -1.8922 0.2518 0 1
6.0698 3.2663 -1.8927 0.2517 0 1
6.0639 3.2807 -1.8931 0.2517 0 1
6.0580 3.2951 -1.8936 0.2516 0 1
6.0521 3.3095 -1.8941 0.2515 0 1
6.0461 3.3239 -1.8945 0.2515 0 1
6.0401 3.3383 -1.8950 0.2514 0 1
6.0340 3.3526 -1.8954 0.2514 0 1
6.0279 3.3669 -1.8959 0.2513 0 1
6.0218 3.3813 -1.8964 0.2512 0 1
6.0157 3.3956 -1.8968 0.2512 0 1
6.0095 3.4099 -1.8973 0.2511 0 1
6.0033 3.4242 -1.8977 0.2511 0 1
5.9970 3.4385 -1.8982 0.2510 0 1
5.9907 3.4528 -1.8986 0.2509 0 1
5.9844 3.4671 -1.8991 0.2509 0 1
5.9780 3.4813 -1.8996 0.2508 0 1
5.9716 3.4956 -1.9000 0.2507 0 1
5.9652 3.5098 -1.9005 0.2507 0 1
5.9587 3.5240 -1.9009 0.2506 0 1
5.9522 3.5382 -1.9014 0.2506 0 1
5.9457 3.5524 -1.9018 0.2505 0 1
5.9391 3.5666 -1.9023 0.2505 0 1
5.9325 3.5807 -1.9027 0.2504 0 1
5.9259 3.5949 -1.9032 0.2503 0 1
5.9192 3.6091 -1.9036 0.2503 0 1
5.9125 3.6232 -1.9041 0.2502 0 1
5.9057 3.6373 -1.9045 0.2502 0 1
5.8990 3.6514 -1.9050 0.2501 0 1
5.8921 3.6655 -1.9054 0.2500 0 1
5.8854 3.6796 -1.9059 0.2500 0 1
5.8784 3.6937 -1.9063 0.2499 0 1
5.8715 3.7077 -1.9068 0.2499 0 1
5.8646 3.7218 -1.9072 0.2498 0 1
5.8576 3.7358 -1.9077 0.2497 0 1
5.8505 3.7498 -1.9081 0.2497 0 1
5.8435 3.7638 -1.9086 0.2496 0 1
5.8364 3.7778 -1.9090 0.2496 0 1
5.8293 3.7918 -1.9095 0.2495 0 1
5.8221 3.8057 -1.9099 0.2494 0 1
5.8149 3.8197 -1.9104 0.2494 0 1
5.8077 3.8337 -1.9108 0.2493 0 1
5.8004 3.8476 -1.9113 0.2493 0 1
5.7932 3.8615 -1.9117 0.2492 0 1
5.7858 3.8754 -1.9122 0.2492 0 1
5.7785 3.8893 -1.9126 0.2491 0 1
5.7711 3.9031 -1.9131 0.2490 0 1
5.7636 3.9169 -1.9135 0.2490 0 1
5.7561 3.9308 -1.9140 0.2489 0 1
5.7487 3.9446 -1.9144 0.2489 0 1
5.7411 3.9584 -1.9148 0.2488 0 1
5.7336 3.9722 -1.9153 0.2488 0 1
5.7259 3.9860 -1.9157 0.2487 0 1
5.7183 3.9998 -1.9162 0.2486 0 1
5.7106 4.0135 -1.9166 0.2486 0 1
5.7029 4.0272 -1.9171 0.2485 0 1
5.6952 4.0409 -1.9175 0.2485 0 1
5.6874 4.0546 -1.9179 0.2484 0 1
5.6796 4.0683 -1.9184 0.2483 0 1
5.6718 4.0820 -1.9188 0.2483 0 1
5.6639 4.0957 -1.9193 0.2482 0 1
5.6559 4.1093 -1.9197 0.2482 0 1
5.6480 4.1229 -1.9201 0.2481 0 1
5.6400 4.1365 -1.9206 0.2481 0 1
5.6320 4.1501 -1.9210 0.2480 0 1
5.6240 4.1637 -1.9214 0.2480 0 1
5.6159 4.1773 -1.9219 0.2479 0 1
5.6078 4.1908 -1.9223 0.2478 0 1
5.5996 4.2044 -1.9227 0.2478 0 1
5.5914 4.2179 -1.9232 0.2477 0 1
5.5832 4.2314 -1.9236 0.2477 0 1
5.5750 4.2448 -1.9241 0.2476 0 1
5.5667 4.2583 -1.9245 0.2476 0 1
5.5584 4.2717 -1.9249 0.2475 0 1
5.5500 4.2851 -1.9254 0.2474 0 1
5.5416 4.2985 -1.9258 0.2474 0 1
5.5332 4.3119 -1.9262 0.2473 0 1
5.5248 4.3253 -1.9266 0.2473 0 1
5.5163 4.3387 -1.9271 0.2472 0 1
5.5078 4.3520 -1.9275 0.2472 0 1
5.4992 4.3653 -1.9279 0.2471 0 1
5.4906 4.3786 -1.9284 0.2471 0 1
5.4820 4.3919 -1.9288 0.2470 0 1
5.4733 4.4052 -1.9292 0.2470 0 1
5.4646 4.4184 -1.9297 0.2469 0 1
5.4559 4.4317 -1.9301 0.2468 0 1
5.4472 4.4449 -1.9305 0.2468 0 1
5.4384 4.4581 -1.9309 0.2467 0 1
5.4296 4.4713 -1.9314 0.2467 0 1
5.4207 4.4844 -1.9318 0.2466 0 1
5.4118 4.4976 -1.9322 0.2466 0 1
5.4029 4.5107 -1.9326 0.2465 0 1
5.3940 4.5238 -1.9331 0.2465 0 1
5.3850 4.5369 -1.9335 0.2464 0 1
5.3759 4.5500 -1.9339 0.2464 0 1
5.3669 4.5630 -1.9343 0.2463 0 1
5.3578 4.5760 -1.9347 0.2462 0 1
5.3487 4.5890 -1.9352 0.2462 0 1
5.3396 4.6020 -1.9356 0.2461 0 1
5.3304 4.6150 -1.9360 0.2461 0 1
5.3211 4.6279 -1.9364 0.2460 0 1
5.3119 4.6409 -1.9368 0.2460 0 1
5.3026 4.6538 -1.9373 0.2459 0 1
5.2933 4.6667 -1.9377 0.2459 0 1
5.2839 4.6795 -1.9381 0.2458 0 1
5.2746 4.6924 -1.9385 0.2458 0 1
5.2652 4.7052 -1.9389 0.2457 0 1
5.2557 4.7181 -1.9393 0.2457 0 1
5.2462 4.7308 -1.9398 0.2456 0 1
5.2367 4.7436 -1.9402 0.2456 0 1
5.2271 4.7563 -1.9406 0.2455 0 1
5.2176 4.7691 -1.9410 0.2455 0 1
5.2080 4.7818 -1.9414 0.2454 0 1
5.1984 4.7945 -1.9418 0.2453 0 1
5.1887 4.8072 -1.9422 0.2453 0 1
5.1790 4.8199 -1.9427 0.2452 0 1
5.1692 4.8325 -1.9431 0.2452 0 1
5.1595 4.8451 -1.9435 0.2451 0 1
5.1497 4.8577 -1.9439 0.2451 0 1
5.1398 4.8702 -1.9443 0.2450 0 1
5.1299 4.8827 -1.9447 0.2450 0 1
5.1200 4.8953 -1.9451 0.2449 0 1
5.1101 4.9078 -1.9455 0.2449 0 1
5.1002 4.9203 -1.9459 0.2448 0 1
5.0902 4.9327 -1.9463 0.2448 0 1
5.0802 4.9452 -1.9467 0.2447 0 1
5.0701 4.9575 -1.9471 0.2447 0 1
5.0600 4.9700 -1.9475 0.2446 0 1
5.0499 4.9823 -1.9479 0.2446 0 1
5.0397 4.9947 -1.9483 0.2445 0 1
5.0295 5.0071 -1.9487 0.2445 0 1
4.1504 -4.1504 -1.6639 0.2949 0 1
4.1604 -4.1418 -1.6642 0.2949 0 1
4.1703 -4.1330 -1.6644 0.2948 0 1
4.1802 -4.1243 -1.6647 0.2948 0 1
4.1901 -4.1155 -1.6649 0.2947 0 1
4.2000 -4.1068 -1.6652 0.2947 0 1
4.2098 -4.0980 -1.6654 0.2946 0 1
4.2197 -4.0892 -1.6657 0.2946 0 1
4.2295 -4.0803 -1.6660 0.2946 0 1
4.2393 -4.0715 -1.6662 0.2945 0 1
4.2491 -4.0626 -1.6665 0.2945 0 1
4.2589 -4.0537 -1.6668 0.2944 0 1
4.2687 -4.0448 -1.6670 0.2944 0 1
4.2784 -4.0358 -1.6673 0.2943 0 1
4.2881 -4.0268 -1.6675 0.2943 0 1
4.2979 -4.0178 -1.6678 0.2942 0 1
4.3075 -4.0088 -1.6681 0.2942 0 1
4.3172 -3.9998 -1.6683 0.2941 0 1
4.3269 -3.9908 -1.6686 0.2941 0 1
4.3365 -3.9817 -1.6689 0.2940 0 1
4.3462 -3.9725 -1.6691 0.2940 0 1
4.3558 -3.9634 -1.6694 0.2939 0 1
4.3654 -3.9543 -1.6697 0.2939 0 1
4.3749 -3.9451 -1.6700 0.2938 0 1
4.3845 -3.9359 -1.6702 0.2938 0 1
4.3940 -3.9268 -1.6705 0.2938 0 1
4.4035 -3.9175 -1.6708 0.2937 0 1
4.4130 -3.9082 -1.6711 0.2937 0 1
4.4225 -3.8990 -1.6713 0.2936 0 1
4.4320 -3.8896 -1.6716 0.2936 0 1
4.4414 -3.8803 -1.6719 0.2935 0 1
4.4509 -3.8710 -1.6722 0.2935 0 1
4.4603 -3.8616 -1.6724 0.2934 0 1
4.4697 -3.8522 -1.6727 0.2934 0 1
4.4791 -3.8429 -1.6730 0.2933 0 1
4.4884 -3.8335 -1.6733 0.2933 0 1
4.4978 -3.8241 -1.6736 0.2932 0 1
4.5071 -3.8146 -1.6738 0.2932 0 1
4.5164 -3.8051 -1.6741 0.2931 0 1
4.5257 -3.7955 -1.6744 0.2931 0 1
4.5350 -3.7861 -1.6747 0.2930 0 1
4.5442 -3.7765 -1.6750 0.2930 0 1
4.5535 -3.7670 -1.6752 0.2929 0 1
4.5627 -3.7573 -1.6755 0.2929 0 1
4.5719 -3.7478 -1.6758 0.2928 0 1
4.5811 -3.7381 -1.6761 0.2928 0 1
4.5902 -3.7285 -1.6764 0.2927 0 1
4.5994 -3.7188 -1.6767 0.2927 0 1
4.6085 -3.7091 -1.6770 0.2926 0 1
4.6176 -3.6994 -1.6773 0.2926 0 1
4.6267 -3.6897 -1.6775 0.2925 0 1
4.6358 -3.6799 -1.6778 0.2925 0 1
4.6448 -3.6701 -1.6781 0.2924 0 1
4.6538 -3.6604 -1.6784 0.2924 0 1
4.6629 -3.6505 -1.6787 0.2923 0 1
4.6719 -3.6407 -1.6790 0.2923 0 1
4.6809 -3.6308 -1.6793 0.2922 0 1
4.6898 -3.6209 -1.6796 0.2922 0 1
4.6988 -3.6111 -1.6799 0.2921 0 1
4.7077 -3.6011 -1.6802 0.2921 0 1
4.7166 -3.5912 -1.6805 0.2920 0 1
4.7255 -3.5812 -1.6808 0.2920 0 1
4.7343 -3.5713 -1.6811 0.2919 0 1
4.7432 -3.5613 -1.6814 0.2919 0 1
4.7520 -3.5512 -1.6817 0.2918 0 1
4.7608 -3.5412 -1.6820 0.2918 0 1
4.7696 -3.5312 -1.6823 0.2917 0 1
4.7784 -3.5210 -1.6826 0.2916 0 1
4.7871 -3.5109 -1.6829 0.2916 0 1
4.7958 -3.5008 -1.6832 0.2915 0 1
4.8045 -3.4907 -1.6835 0.2915 0 1
4.8132 -3.4805 -1.6838 0.2914 0 1
4.8219 -3.4703 -1.6841 0.2914 0 1
4.8305 -3.4601 -1.6844 0.2913 0 1
4.8392 -3.4499 -1.6847 0.2913 0 1
4.8478 -3.4396 -1.6850 0.2912 0 1
4.8564 -3.4294 -1.6853 0.2912 0 1
4.8649 -3.4191 -1.6856 0.2911 0 1
4.8735 -3.4088 -1.6859 0.2911 0 1
4.8820 -3.3985 -1.6862 0.2910 0 1
4.8905 -3.3881 -1.6866 0.2910 0 1
4.8990 -3.3778 -1.6869 0.2909 0 1
4.9075 -3.3675 -1.6872 0.2909 0 1
4.9160 -3.3570 -1.6875 0.2908 0 1
4.9244 -3.3466 -1.6878 0.2907 0 1
4.9328 -3.3362 -1.6881 0.2907 0 1
4.9412 -3.3257 -1.6884 0.2906 0 1
4.9496 -3.3152 -1.6887 0.2906 0 1
4.9579 -3.3047 -1.6891 0.2905 0 1
4.9662 -3.2942 -1.6894 0.2905 0 1
4.9746 -3.2837 -1.6897 0.2904 0 1
4.9829 -3.2731 -1.6900 0.2904 0 1
4.9911 -3.2625 -1.6903 0.2903 0 1
4.9994 -3.2520 -1.6906 0.2903 0 1
5.0076 -3.2413 -1.6910 0.2902 0 1
5.0158 -3.2307 -1.6913 0.2901 0 1
5.0240 -3.2200 -1.6916 0.2901 0 1
5.0322 -3.2094 -1.6919 0.2900 0 1
5.0403 -3.1987 -1.6922 0.2900 0 1
5.0484 -3.1880 -1.6926 0.2899 0 1
5.0565 -3.1772 -1.6929 0.2899 0 1
5.0646 -3.1665 -1.6932 0.2898 0 1
5.0727 -3.1557 -1.6935 0.2898 0 1
5.0807 -3.1449 -1.6939 0.2897 0 1
5.0887 -3.1341 -1.6942 0.2896 0 1
5.0968 -3.1233 -1.6945 0.2896 0 1
5.1047 -3.1124 -1.6948 0.2895 0 1
5.1127 -3.1016 -1.6952 0.2895 0 1
5.1206 -3.0907 -1.6955 0.2894 0 1
5.1285 -3.0798 -1.6958 0.2894 0 1
5.1364 -3.0689 -1.6961 0.2893 0 1
5.1443 -3.0579 -1.6965 0.2893 0 1
5.1522 -3.0470 -1.6968 0.2892 0 1
5.1600 -3.0360 -1.6971 0.2891 0 1
5.1678 -3.0250 -1.6975 0.2891 0 1
5.1756 -3.0140 -1.6978 0.2890 0 1
5.1834 -3.0029 -1.6981 0.2890 0 1
5.1911 -2.9919 -1.6985 0.2889 0 1
5.1988 -2.9808 -1.6988 0.2889 0 1
5.2065 -2.9697 -1.6991 0.2888 0 1
5.2142 -2.9587 -1.6995 0.2887 0 1
5.2218 -2.9475 -1.6998 0.2887 0 1
5.2295 -2.9364 -1.7001 0.2886 0 1
5.2371 -2.9252 -1.7005 0.2886 0 1
5.2447 -2.9140 -1.7008 0.2885 0 1
5.2523 -2.9028 -1.7012 0.2885 0 1
5.2598 -2.8916 -1.7015 0.2884 0 1
5.2673 -2.8804 -1.7018 0.2883 0 1
5.2748 -2.8691 -1.7022 0.2883 0 1
5.2823 -2.8578 -1.7025 0.2882 0 1
5.2898 -2.8465 -1.7029 0.2882 0 1
5.2972 -2.8352 -1.7032 0.2881 0 1
5.3046 -2.8239 -1.7035 0.2881 0 1
5.3120 -2.8126 -1.7039 0.2880 0 1
5.3194 -2.8012 -1.7042 0.2879 0 1
5.3268 -2.7898 -1.7046 0.2879 0 1
5.3341 -2.7784 -1.7049 0.2878 0 1
5.3414 -2.7670 -1.7053 0.2878 0 1
5.3486 -2.7556 -1.7056 0.2877 0 1
5.3559 -2.7441 -1.7060 0.2877 0 1
5.3631 -2.7327 -1.7063 0.2876 0 1
5.3704 -2.7212 -1.7066 0.2875 0 1
5.3776 -2.7097 -1.7070 0.2875 0 1
5.3847 -2.6981 -1.7073 0.2874 0 1
5.3919 -2.6866 -1.7077 0.2874 0 1
5.3990 -2.6751 -1.7080 0.2873 0 1
5.4061 -2.6635 -1.7084 0.2872 0 1
5.4132 -2.6519 -1.7087 0.2872 0 1
5.4202 -2.6403 -1.7091 0.2871 0 1
5.4272 -2.6286 -1.7095 0.2871 0 1
5.4342 -2.6170 -1.7098 0.2870 0 1
5.4412 -2.6053 -1.7102 0.2869 0 1
5.4482 -2.5937 -1.7105 0.2869 0 1
5.4551 -2.5820 -1.7109 0.2868 0 1
5.4620 -2.5703 -1.7112 0.2868 0 1
5.4689 -2.5585 -1.7116 0.2867 0 1
5.4758 -2.5468 -1.7119 0.2866 0 1
5.4827 -2.5350 -1.7123 0.2866 0 1
5.4895 -2.5232 -1.7126 0.2865 0 1
5.4962 -2.5114 -1.7130 0.2865 0 1
5.5030 -2.4996 -1.7134 0.2864 0 1
5.5098 -2.4878 -1.7137 0.2863 0 1
5.5165 -2.4759 -1.7141 0.2863 0 1
5.5232 -2.4641 -1.7144 0.2862 0 1
5.5299 -2.4522 -1.7148 0.2862 0 1
5.5366 -2.4403 -1.7152 0.2861 0 1
5.5432 -2.4284 -1.7155 0.2860 0 1
5.5498 -2.4164 -1.7159 0.2860 0 1
5.5564 -2.4044 -1.7163 0.2859 0 1
5.5629 -2.3924 -1.7166 0.2859 0 1
5.5695 -2.3805 -1.7170 0.2858 0 1
5.5760 -2.3685 -1.7173 0.2857 0 1
5.5825 -2.3565 -1.7177 0.2857 0 1
5.5889 -2.3444 -1.7181 0.2856 0 1
5.5954 -2.3324 -1.7184 0.2856 0 1
5.6018 -2.3203 -1.7188 0.2855 0 1
5.6082 -2.3082 -1.7192 0.2854 0 1
5.6146 -2.2961 -1.7195 0.2854 0 1
5.6209 -2.2840 -1.7199 0.2853 0 1
5.6272 -2.2719 -1.7203 0.2853 0 1
5.6335 -2.2597 -1.7207 0.2852 0 1
5.6398 -2.2476 -1.7210 0.2851 0 1
5.6460 -2.2354 -1.7214 0.2851 0 1
5.6523 -2.2232 -1.7218 0.2850 0 1
5.6584 -2.2110 -1.7221 0.2849 0 1
5.6646 -2.1988 -1.7225 0.2849 0 1
5.6708 -2.1865 -1.7229 0.2848 0 1
5.6769 -2.1743 -1.7233 0.2848 0 1
5.6830 -2.1620 -1.7236 0.2847 0 1
5.6890 -2.1497 -1.7240 0.2846 0 1
5.6951 -2.1374 -1.7244 0.2846 0 1
5.7011 -2.1251 -1.7248 0.2845 0 1
5.7071 -2.1127 -1.7251 0.2845 0 1
5.7131 -2.1004 -1.7255 0.2844 0 1
5.7191 -2.0880 -1.7259 0.2843 0 1
5.7250 -2.0756 -1.7263 0.2843 0 1
5.7309 -2.0632 -1.7266 0.2842 0 1
5.7368 -2.0508 -1.7270 0.2841 0 1
5.7426 -2.0384 -1.7274 0.2841 0 1
5.7484 -2.0260 -1.7278 0.2840 0 1
5.7542 -2.0134 -1.7282 0.2840 0 1
5.7600 -2.0010 -1.7285 0.2839 0 1
5.7657 -1.9885 -1.7289 0.2838 0 1
5.7715 -1.9760 -1.7293 0.2838 0 1
5.7771 -1.9635 -1.7297 0.2837 0 1
5.7828 -1.9509 -1.7301 0.2836 0 1
5.7885 -1.9384 -1.7305 0.2836 0 1
5.7941 -1.9258 -1.7308 0.2835 0 1
5.7997 -1.9133 -1.7312 0.2835 0 1
5.8053 -1.9006 -1.7316 0.2834 0 1
5.8108 -1.8880 -1.7320 0.2833 0 1
5.8163 -1.8754 -1.7324 0.2833 0 1
5.8218 -1.8628 -1.7328 0.2832 0 1
5.8273 -1.8501 -1.7332 0.2831 0 1
5.8327 -1.8374 -1.7335 0.2831 0 1
5.8381 -1.8247 -1.7339 0.2830 0 1
5.8435 -1.8121 -1.7343 0.2829 0 1
5.8489 -1.7993 -1.7347 0.2829 0 1
5.8542 -1.7866 -1.7351 0.2828 0 1
5.8595 -1.7739 -1.7355 0.2828 0 1
5.8648 -1.7611 -1.7359 0.2827 0 1
5.8701 -1.7483 -1.7363 0.2826 0 1
5.8753 -1.7356 -1.7367 0.2826 0 1
5.8805 -1.7228 -1.7371 0.2825 0 1
5.8857 -1.7099 -1.7374 0.2824 0 1
5.8909 -1.6971 -1.7378 0.2824 0 1
5.8960 -1.6843 -1.7382 0.2823 0 1
5.9011 -1.6714 -1.7386 0.2822 0 1
5.9062 -1.6586 -1.7390 0.2822 0 1
5.9112 -1.6457 -1.7394 0.2821 0 1
5.9162 -1.6328 -1.7398 0.2821 0 1
5.9212 -1.6198 -1.7402 0.2820 0 1
5.9262 -1.6069 -1.7406 0.2819 0 1
5.9311 -1.5940 -1.7410 0.2819 0 1
5.9361 -1.5810 -1.7414 0.2818 0 1
5.9409 -1.5681 -1.7418 0.2817 0 1
5.9458 -1.5551 -1.7422 0.2817 0 1
5.9506 -1.5421 -1.7426 0.2816 0 1
5.9554 -1.5291 -1.7430 0.2815 0 1
5.9602 -1.5161 -1.7434 0.2815 0 1
5.9650 -1.5031 -1.7438 0.2814 0 1
5.9697 -1.4900 -1.7442 0.2813 0 1
5.9744 -1.4769 -1.7446 0.2813 0 1
5.9791 -1.4638 -1.7450 0.2812 0 1
5.9837 -1.4508 -1.7454 0.2812 0 1
5.9884 -1.4377 -1.7458 0.2811 0 1
5.9929 -1.4246 -1.7462 0.2810 0 1
5.9975 -1.4114 -1.7466 0.2810 0 1
6.0020 -1.3983 -1.7470 0.2809 0 1
6.0066 -1.3852 -1.7474 0.2808 0 1
6.0111 -1.3720 -1.7478 0.2808 0 1
6.0155 -1.3588 -1.7482 0.2807 0 1
6.0200 -1.3456 -1.7486 0.2806 0 1
6.0243 -1.3324 -1.7490 0.2806 0 1
6.0287 -1.3192 -1.7494 0.2805 0 1
6.0330 -1.3060 -1.7498 0.2804 0 1
6.0373 -1.2927 -1.7502 0.2804 0 1
6.0417 -1.2795 -1.7507 0.2803 0 1
6.0459 -1.2662 -1.7511 0.2802 0 1
6.0502 -1.2529 -1.7515 0.2802 0 1
6.0544 -1.2396 -1.7519 0.2801 0 1
6.0586 -1.2264 -1.7523 0.2800 0 1
6.0627 -1.2130 -1.7527 0.2800 0 1
6.0668 -1.1997 -1.7531 0.2799 0 1
6.0709 -1.1864 -1.7535 0.2798 0 1
6.0750 -1.1730 -1.7539 0.2798 0 1
6.0790 -1.1596 -1.7543 0.2797 0 1
6.0830 -1.1463 -1.7548 0.2797 0 1
6.0871 -1.1329 -1.7552 0.2796 0 1
6.0910 -1.1195 -1.7556 0.2795 0 1
6.0949 -1.1061 -1.7560 0.2795 0 1
6.0988 -1.0926 -1.7564 0.2794 0 1
6.1027 -1.0792 -1.7568 0.2793 0 1
6.1066 -1.0657 -1.7572 0.2793 0 1
6.1104 -1.0523 -1.7576 0.2792 0 1
6.1142 -1.0388 -1.7581 0.2791 0 1
6.1179 -1.0253 -1.7585 0.2791 0 1
6.1216 -1.0118 -1.7589 0.2790 0 1
6.1254 -0.9984 -1.7593 0.2789 0 1
6.1290 -0.9848 -1.7597 0.2789 0 1
6.1327 -0.9713 -1.7601 0.2788 0 1
6.1363 -0.9578 -1.7606 0.2787 0 1
6.1399 -0.9442 -1.7610 0.2787 0 1
6.1434 -0.9306 -1.7614 0.2786 0 1
6.1470 -0.9171 -1.7618 0.2785 0 1
6.1505 -0.9035 -1.7622 0.2785 0 1
6.1539 -0.8899 -1.7626 0.2784 0 1
6.1574 -0.8763 -1.7631 0.2783 0 1
6.1608 -0.8627 -1.7635 0.2783 0 1
6.1642 -0.8490 -1.7639 0.2782 0 1
6.1676 -0.8354 -1.7643 0.2781 0 1
6.1709 -0.8218 -1.7648 0.2781 0 1
6.1742 -0.8081 -1.7652 0.2780 0 1
6.1775 -0.7945 -1.7656 0.2779 0 1
6.1807 -0.7808 -1.7660 0.2779 0 1
6.1839 -0.7671 -1.7664 0.2778 0 1
6.1871 -0.7534 -1.7669 0.2777 0 1
6.1903 -0.7397 -1.7673 0.2777 0 1
6.1934 -0.7260 -1.7677 0.2776 0 1
6.1965 -0.7122 -1.7681 0.2775 0 1
6.1996 -0.6985 -1.7686 0.2775 0 1
6.2027 -0.6847 -1.7690 0.2774 0 1
6.2057 -0.6710 -1.7694 0.2773 0 1
6.2086 -0.6572 -1.7698 0.2773 0 1
6.2116 -0.6435 -1.7703 0.2772 0 1
6.2145 -0.6297 -1.7707 0.2771 0 1
6.2174 -0.6159 -1.7711 0.2771 0 1
6.2203 -0.6020 -1.7715 0.2770 0 1
6.2231 -0.5882 -1.7720 0.2769 0 1
6.2259 -0.5744 -1.7724 0.2769 0 1
6.2287 -0.5606 -1.7728 0.2768 0 1
6.2314 -0.5467 -1.7733 0.2767 0 1
6.2342 -0.5329 -1.7737 0.2767 0 1
6.2369 -0.5190 -1.7741 0.2766 0 1
6.2395 -0.5051 -1.7745 0.2765 0 1
6.2421 -0.4912 -1.7750 0.2765 0 1
6.2447 -0.4773 -1.7754 0.2764 0 1
6.2473 -0.4635 -1.7758 0.2763 0 1
6.2498 -0.4495 -1.7763 0.2763 0 1
6.2523 -0.4356 -1.7767 0.2762 0 1
6.2548 -0.4217 -1.7771 0.2761 0 1
6.2573 -0.4077 -1.7776 0.2761 0 1
6.2597 -0.3938 -1.7780 0.2760 0 1
6.2621 -0.3798 -1.7784 0.2759 0 1
6.2645 -0.3659 -1.7789 0.2759 0 1
6.2668 -0.3519 -1.7793 0.2758 0 1
6.2691 -0.3379 -1.7797 0.2757 0 1
6.2714 -0.3240 -1.7802 0.2757 0 1
6.2736 -0.3100 -1.7806 0.2756 0 1
6.2758 -0.2959 -1.7810 0.2755 0 1
6.2780 -0.2819 -1.7815 0.2755 0 1
6.2802 -0.2679 -1.7819 0.2754 0 1
6.2823 -0.2539 -1.7823 0.2753 0 1
6.2844 -0.2398 -1.7828 0.2753 0 1
6.2864 -0.2258 -1.7832 0.2752 0 1
6.2885 -0.2117 -1.7836 0.2751 0 1
6.2905 -0.1977 -1.7841 0.2751 0 1
6.2924 -0.1836 -1.7845 0.2750 0 1
6.2944 -0.1695 -1.7849 0.2749 0 1
6.2963 -0.1554 -1.7854 0.2749 0 1
6.2981 -0.1413 -1.7858 0.2748 0 1
6.3000 -0.1273 -1.7863 0.2747 0 1
6.3018 -0.1131 -1.7867 0.2747 0 1
6.3036 -0.0990 -1.7871 0.2746 0 1
6.3053 -0.0849 -1.7876 0.2745 0 1
6.3071 -0.0707 -1.7880 0.2744 0 1
6.3087 -0.0566 -1.7885 0.2744 0 1
6.3104 -0.0425 -1.7889 0.2743 0 1
6.3121 -0.0283 -1.7893 0.2742 0 1
6.3136 -0.0142 -1.7898 0.2742 0 1
6.3152 0.0000 -1.7902 0.2741 0 1
6.3168 0.0142 -1.7907 0.2740 0 1
6.3182 0.0284 -1.7911 0.2740 0 1
6.3197 0.0425 -1.7915 0.2739 0 1
6.3212 0.0568 -1.7920 0.2738 0 1
6.3226 0.0709 -1.7924 0.2738 0 1
6.3240 0.0851 -1.7929 0.2737 0 1
6.3253 0.0994 -1.7933 0.2736 0 1
6.3266 0.1136 -1.7937 0.2736 0 1
6.3279 0.1278 -1.7942 0.2735 0 1
6.3292 0.1420 -1.7946 0.2734 0 1
6.3304 0.1563 -1.7951 0.2734 0 1
6.3316 0.1705 -1.7955 0.2733 0 1
6.3328 0.1848 -1.7960 0.2732 0 1
6.3339 0.1991 -1.7964 0.2732 0 1
6.3350 0.2133 -1.7968 0.2731 0 1
6.3361 0.2276 -1.7973 0.2730 0 1
6.3371 0.2419 -1.7977 0.2730 0 1
6.3382 0.2561 -1.7982 0.2729 0 1
6.3391 0.2704 -1.7986 0.2728 0 1
6.3401 0.2847 -1.7991 0.2728 0 1
6.3410 0.2990 -1.7995 0.2727 0 1
6.3419 0.3133 -1.8000 0.2726 0 1
6.3427 0.3277 -1.8004 0.2726 0 1
6.3436 0.3420 -1.8009 0.2725 0 1
6.3443 0.3563 -1.8013 0.2724 0 1
6.3451 0.3706 -1.8017 0.2724 0 1
6.3458 0.3850 -1.8022 0.2723 0 1
6.3465 0.3993 -1.8026 0.2722 0 1
6.3472 0.4136 -1.8031 0.2722 0 1
6.3478 0.4280 -1.8035 0.2721 0 1
6.3484 0.4423 -1.8040 0.2720 0 1
6.3490 0.4567 -1.8044 0.2720 0 1
6.3495 0.4711 -1.8049 0.2719 0 1
6.3500 0.4854 -1.8053 0.2718 0 1
6.3505 0.4998 -1.8058 0.2717 0 1
6.3509 0.5142 -1.8062 0.2717 0 1
6.3513 0.5285 -1.8067 0.2716 0 1
6.3517 0.5429 -1.8071 0.2715 0 1
6.3521 0.5573 -1.8076 0.2715 0 1
6.3524 0.5717 -1.8080 0.2714 0 1
6.3527 0.5861 -1.8085 0.2713 0 1
6.3529 0.6005 -1.8089 0.2713 0 1
6.3531 0.6149 -1.8094 0.2712 0 1
6.3533 0.6294 -1.8098 0.2711 0 1
6.3534 0.6438 -1.8103 0.2711 0 1
6.3536 0.6582 -1.8107 0.2710 0 1
6.3536 0.6726 -1.8112 0.2709 0 1
6.3537 0.6870 -1.8116 0.2709 0 1
6.3537 0.7015 -1.8121 0.2708 0 1
6.3537 0.7159 -1.8125 0.2707 0 1
6.3537 0.7303 -1.8130 0.2707 0 1
6.3536 0.7448 -1.8134 0.2706 0 1
6.3535 0.7592 -1.8139 0.2705 0 1
6.3534 0.7737 -1.8143 0.2705 0 1
6.3532 0.7881 -1.8148 0.2704 0 1
6.3530 0.8026 -1.8152 0.2703 0 1
6.3528 0.8171 -1.8157 0.2703 0 1
6.3525 0.8315 -1.8161 0.2702 0 1
6.3522 0.8460 -1.8166 0.2701 0 1
6.3519 0.8604 -1.8170 0.2701 0 1
6.3515 0.8749 -1.8175 0.2700 0 1
6.3511 0.8893 -1.8180 0.2699 0 1
6.3507 0.9038 -1.8184 0.2699 0 1
6.3502 0.9183 -1.8189 0.2698 0 1
6.3497 0.9328 -1.8193 0.2697 0 1
6.3492 0.9473 -1.8198 0.2697 0 1
6.3487 0.9618 -1.8202 0.2696 0 1
6.3480 0.9762 -1.8207 0.2695 0 1
6.3474 0.9907 -1.8211 0.2695 0 1
6.3468 1.0053 -1.8216 0.2694 0 1
6.3461 1.0197 -1.8220 0.2693 0 1
6.3454 1.0342 -1.8225 0.2693 0 1
6.3446 1.0488 -1.8229 0.2692 0 1
6.3438 1.0632 -1.8234 0.2691 0 1
6.3430 1.0777 -1.8239 0.2691 0 1
6.3421 1.0923 -1.8243 0.2690 0 1
6.3412 1.1068 -1.8248 0.2689 0 1
6.3403 1.1213 -1.8252 0.2689 0 1
6.3394 1.1357 -1.8257 0.2688 0 1
6.3384 1.1503 -1.8261 0.2687 0 1
6.3374 1.1648 -1.8266 0.2687 0 1
6.3363 1.1793 -1.8270 0.2686 0 1
6.3352 1.1938 -1.8275 0.2685 0 1
6.3341 1.2083 -1.8279 0.2685 0 1
6.3329 1.2228 -1.8284 0.2684 0 1
6.3318 1.2374 -1.8289 0.2683 0 1
6.3306 1.2519 -1.8293 0.2683 0 1
6.3293 1.2664 -1.8298 0.2682 0 1
6.3280 1.2809 -1.8302 0.2681 0 1
6.3267 1.2954 -1.8307 0.2681 0 1
6.3254 1.3100 -1.8311 0.2680 0 1
6.3240 1.3245 -1.8316 0.2679 0 1
6.3226 1.3389 -1.8321 0.2679 0 1
6.3211 1.3534 -1.8325 0.2678 0 1
6.3196 1.3680 -1.8330 0.2677 0 1
6.3181 1.3825 -1.8334 0.2677 0 1
6.3166 1.3970 -1.8339 0.2676 0 1
6.3150 1.4116 -1.8343 0.2675 0 1
6.3134 1.4261 -1.8348 0.2675 0 1
6.3117 1.4406 -1.8352 0.2674 0 1
6.3101 1.4552 -1.8357 0.2673 0 1
6.3084 1.4697 -1.8362 0.2673 0 1
6.3066 1.4842 -1.8366 0.2672 0 1
6.3048 1.4987 -1.8371 0.2671 0 1
6.3030 1.5132 -1.8375 0.2671 0 1
6.3012 1.5277 -1.8380 0.2670 0 1
6.2993 1.5422 -1.8384 0.2669 0 1
6.2974 1.5568 -1.8389 0.2669 0 1
6.2954 1.5713 -1.8394 0.2668 0 1
6.2934 1.5858 -1.8398 0.2667 0 1
6.2914 1.6003 -1.8403 0.2667 0 1
6.2894 1.6149 -1.8407 0.2666 0 1
6.2873 1.6294 -1.8412 0.2665 0 1
