ply
format ascii 1.0
element vertex 606
property float32 x
property float32 y
property float32 z
property float32 CosAngle
property uint32 ObjIdx
property uint32 ObjTag
end_header
24.954042434692383 11.470019340515137 2.9789154529571533 0.5100620985031128 0 9
24.887128829956055 11.304238319396973 2.9648406505584717 0.5124833583831787 0 9
25.415077209472656 11.40673828125 3.0216064453125 0.6835185289382935 0 9
25.3507022857666 11.241425514221191 3.0079259872436523 0.6866276264190674 0 9
25.28691291809082 11.077577590942383 2.9944238662719727 0.6897233724594116 0 9
25.22361183166504 10.915214538574219 2.981102228164673 0.692805826663971 0 9
25.160879135131836 10.75423812866211 2.9679479598999023 0.6958752870559692 0 9
25.098670959472656 10.594687461853027 2.954974889755249 0.6989311575889587 0 9
25.701757431030273 10.713613510131836 3.0202860832214355 0.45049893856048584 0 9
15.836366653442383 6.517988204956055 1.8575152158737183 0.9724416136741638 0 6
25.353437423706055 10.3023042678833 2.968365430831909 0.45837852358818054 0 9
36.83298873901367 14.774785041809082 4.304581165313721 0.4992561340332031 0 9
37.08587646484375 14.683359146118164 4.326385974884033 0.4967394471168518 0 9
36.69915771484375 14.340058326721191 4.2737226486206055 0.6729227900505066 0 9
36.465389251708984 14.060409545898438 4.239108085632324 0.4158273935317993 0 9
34.911033630371094 13.28140640258789 4.051440715789795 0.7347810864448547 0 9
35.093162536621094 13.170702934265137 4.065677165985107 0.7322083115577698 0 9
35.27661895751953 13.059257507324219 4.080102920532227 0.7296201586723328 0 9
35.461387634277344 12.946991920471191 4.0947160720825195 0.7270167469978333 0 9
36.79323959350586 13.246444702148438 4.241591930389404 0.2765219807624817 0 9
36.29077911376953 12.881855010986328 4.176960468292236 0.28080058097839355 0 9
35.80331802368164 12.52816390991211 4.11433744430542 0.2850742042064667 0 9
37.341758728027344 12.878690719604492 4.284451007843018 0.8865828514099121 0 9
37.46710968017578 12.734062194824219 4.292232036590576 0.8849748373031616 0 9
37.592987060546875 12.588886260986328 4.300138473510742 0.8833485841751099 0 9
37.71935272216797 12.443222045898438 4.3081560134887695 0.8817040324211121 0 9
37.84619140625 12.297011375427246 4.316296100616455 0.8800413608551025 0 9
37.973514556884766 12.15023422241211 4.324557781219482 0.878360390663147 0 9
38.11314392089844 12.006620407104492 4.3342766761779785 0.9521332383155823 0 9
39.84988021850586 12.357421875 4.525428771972656 0.7601541876792908 0 9
40.04847717285156 12.222246170043945 4.5417070388793945 0.7574297785758972 0 9
40.24853515625 12.086112976074219 4.558200359344482 0.7546895146369934 0 9
40.45005798339844 11.949003219604492 4.574904918670654 0.7519339323043823 0 9
40.65310287475586 11.81087875366211 4.591823577880859 0.7491628527641296 0 9
40.595584869384766 11.59683609008789 4.57940673828125 0.7587825059890747 0 9
40.492637634277344 11.371132850646973 4.561983585357666 0.7616795301437378 0 9
40.39043045043945 11.147109031677246 4.544793128967285 0.7645612359046936 0 9
40.28898239135742 10.924765586853027 4.527812480926514 0.7674280405044556 0 9
40.18832015991211 10.704062461853027 4.511054515838623 0.7702792286872864 0 9
40.08835983276367 10.484980583190918 4.494503021240234 0.7731153964996338 0 9
44.06892395019531 11.315019607543945 4.935051918029785 0.573932409286499 0 9
44.28302764892578 11.158378601074219 4.953360080718994 0.5718103051185608 0 9
44.49853515625 11.0005464553833 4.971897602081299 0.5696786046028137 0 9
44.715545654296875 10.841504096984863 4.990655422210693 0.5675370097160339 0 9
44.800018310546875 10.649296760559082 4.994701385498047 0.9966135025024414 0 9
48.29109191894531 -6.983476638793945 5.292450904846191 0.14224447309970856 0 3
46.80659866333008 -6.983417987823486 5.1331377029418945 0.14665909111499786 0 3
45.40888595581055 -6.983359336853027 4.983248710632324 0.15107056498527527 0 3
45.10948944091797 -7.144667625427246 4.95386266708374 0.9818612337112427 0 3
45.10947036743164 -7.35232400894165 4.957429885864258 0.9811535477638245 0 3
45.10947036743164 -7.56033182144165 4.961104393005371 0.980426013469696 0 3
45.10945129394531 -7.768613338470459 4.9648919105529785 0.9796788096427917 0 3
45.10945129394531 -7.977226257324219 4.968782424926758 0.9789119958877563 0 3
45.10945129394531 -8.18619155883789 4.972783088684082 0.9781253337860107 0 3
45.10945129394531 -8.3955078125 4.9768853187561035 0.9773188829421997 0 3
42.77988052368164 -8.160741806030273 4.723862171173096 0.18640241026878357 0 3
42.03533172607422 -8.214394569396973 4.645668983459473 0.42672741413116455 0 3
41.60589599609375 -8.324492454528809 4.602296829223633 0.4311527907848358 0 3
41.45621109008789 -8.488242149353027 4.589907169342041 0.9734203219413757 0 3
41.45683670043945 -8.682402610778809 4.594242572784424 0.9725011587142944 0 3
41.457481384277344 -8.876933097839355 4.598682880401611 0.9715624451637268 0 3
41.45810317993164 -9.071855545043945 4.603216648101807 0.9706040620803833 0 3
41.45874786376953 -9.2671480178833 4.607857704162598 0.969626247882843 0 3
41.459354400634766 -9.462870597839355 4.612604141235352 0.9686288833618164 0 3
41.46005630493164 -9.659003257751465 4.617454528808594 0.9671651124954224 0 3
41.46091842651367 -9.855586051940918 4.6224365234375 0.9661239385604858 0 3
41.46177673339844 -10.052597045898438 4.6275129318237305 0.9650633931159973 0 3
41.46265411376953 -10.250019073486328 4.63269567489624 0.9639833569526672 0 3
41.46351623535156 -10.447929382324219 4.637983798980713 0.9628837704658508 0 3
41.46443176269531 -10.646268844604492 4.643381118774414 0.961764931678772 0 3
41.46527099609375 -10.845097541809082 4.648886680603027 0.9606266617774963 0 3
41.336326599121094 -11.0098237991333 4.639922618865967 0.9605728983879089 0 3
41.09068298339844 -11.142128944396973 4.617911338806152 0.26029354333877563 0 3
40.37269592285156 -11.142207145690918 4.54280424118042 0.2645972967147827 0 3
39.889530181884766 -11.201757431030273 4.494043350219727 0.9570392966270447 0 3
39.252010345458984 -11.213027000427246 4.427844524383545 0.2731882333755493 0 3
38.35240173339844 -11.142440795898438 4.331968307495117 0.27747708559036255 0 3
37.71999740600586 -11.142499923706055 4.266135215759277 0.2817562222480774 0 3
37.43375015258789 -11.24087905883789 4.23942756652832 0.9520581364631653 0 3
34.42216873168945 -10.505194664001465 3.9036521911621094 0.29015257954597473 0 3
33.87675857543945 -10.505155563354492 3.8471128940582275 0.29441705346107483 0 3
33.34687423706055 -10.505136489868164 3.7922539710998535 0.2986760437488556 0 3
32.89722442626953 -10.526015281677246 3.746452569961548 0.9468168020248413 0 3
32.09992218017578 -10.429922103881836 3.660944700241089 0.9454485774040222 0 3
31.84421730041504 -10.505078315734863 3.637117862701416 0.31141573190689087 0 3
31.3702335357666 -10.505078315734863 3.5883336067199707 0.3156498074531555 0 3
30.908748626708984 -10.50503921508789 3.5409061908721924 0.31987762451171875 0 3
30.459394454956055 -10.505000114440918 3.494791269302368 0.32409846782684326 0 3
30.021484375 -10.504980087280273 3.4499266147613525 0.32831352949142456 0 3
29.59468650817871 -10.504980087280273 3.4062633514404297 0.3325219750404358 0 3
29.178592681884766 -10.504961013793945 3.3637614250183105 0.33672329783439636 0 3
28.772714614868164 -10.504961013793945 3.322374105453491 0.3409179151058197 0 3
28.376699447631836 -10.504921913146973 3.2820591926574707 0.3451061248779297 0 3
27.99019432067871 -10.504921913146973 3.2427728176116943 0.3492870628833771 0 3
27.61279296875 -10.504901885986328 3.204481840133667 0.3534609377384186 0 3
27.280057907104492 -10.518691062927246 3.17130970954895 0.9275429844856262 0 3
27.280038833618164 -10.65956974029541 3.1768438816070557 0.9259287118911743 0 3
27.280038833618164 -10.80093765258789 3.18245530128479 0.9242957234382629 0 3
27.280057907104492 -10.942831993103027 3.188150644302368 0.9226440787315369 0 3
27.280057907104492 -11.085214614868164 3.193931818008423 0.9209739565849304 0 3
27.280038833618164 -11.228105545043945 3.1997973918914795 0.919285237789154 0 3
27.280038833618164 -11.371542930603027 3.205754280090332 0.917577862739563 0 3
27.280038833618164 -11.51552677154541 3.211792469024658 0.9158521890640259 0 3
27.280038833618164 -11.660038948059082 3.2179229259490967 0.9141078591346741 0 3
27.280038833618164 -11.805136680603027 3.224137544631958 0.9123453497886658 0 3
27.280019760131836 -11.950780868530273 3.23044490814209 0.9105643033981323 0 3
27.280019760131836 -12.096991539001465 3.236842632293701 0.9087650179862976 0 3
27.280019760131836 -12.243788719177246 3.2433300018310547 0.9069472551345825 0 3
27.280019760131836 -12.3911714553833 3.2499046325683594 0.9051113724708557 0 3
27.279998779296875 -12.539159774780273 3.2565758228302 0.9032573103904724 0 3
27.279998779296875 -12.687772750854492 3.263343334197998 0.9013848900794983 0 3
27.280019760131836 -12.837011337280273 3.27020263671875 0.8994942307472229 0 3
27.280019760131836 -12.9868745803833 3.2771544456481934 0.8975855708122253 0 3
27.280019760131836 -13.13736343383789 3.2842040061950684 0.8956590294837952 0 3
27.279998779296875 -13.288535118103027 3.2913529872894287 0.893714189529419 0 3
27.279998779296875 -13.44033145904541 3.298595428466797 0.8917513489723206 0 3
27.280038833618164 -13.592812538146973 3.305936098098755 0.8897708058357239 0 3
27.280019760131836 -13.74599552154541 3.313380002975464 0.8877721428871155 0 3
27.279998779296875 -13.899863243103027 3.3209245204925537 0.8857554793357849 0 3
27.279998779296875 -14.05443286895752 3.328568696975708 0.8837210536003113 0 3
27.279998779296875 -14.209726333618164 3.3363170623779297 0.8816688060760498 0 3
27.280038833618164 -14.365741729736328 3.344170570373535 0.8795992136001587 0 3
27.280019760131836 -14.522500038146973 3.3521251678466797 0.8775113821029663 0 3
27.280019760131836 -14.679999351501465 3.360189199447632 0.8754058480262756 0 3
27.279998779296875 -14.83828067779541 3.368349552154541 0.8732829689979553 0 3
27.279998779296875 -14.997323989868164 3.3766283988952637 0.8711424469947815 0 3
27.279998779296875 -15.157167434692383 3.385016918182373 0.8689844608306885 0 3
27.279998779296875 -15.317792892456055 3.3935155868530273 0.8668086528778076 0 3
27.279979705810547 -15.479218482971191 3.4021220207214355 0.8646157383918762 0 3
27.279979705810547 -15.641484260559082 3.4108433723449707 0.8624052405357361 0 3
27.279979705810547 -15.80458927154541 3.4196722507476807 0.8601773977279663 0 3
27.279998779296875 -15.968534469604492 3.4286272525787354 0.8579320311546326 0 3
27.233749389648438 -16.106035232543945 3.431864023208618 0.11377934366464615 0 3
27.21011734008789 -16.25732421875 3.4380455017089844 0.8533899188041687 0 3
27.279979705810547 -16.46562385559082 3.456170082092285 0.851093053817749 0 3
27.279998779296875 -16.63312530517578 3.465590715408325 0.848779022693634 0 3
27.279998779296875 -16.801542282104492 3.4751524925231934 0.846447765827179 0 3
27.279998779296875 -16.970897674560547 3.4848077297210693 0.8440995812416077 0 3
4.124863147735596 -2.5918359756469727 0.5283966064453125 0.5326588749885559 489 7
4.084335803985596 -2.5920116901397705 0.5246908664703369 0.5364199280738831 489 7
4.044374942779541 -2.5922069549560547 0.521047055721283 0.5401713252067566 489 7
3.9979100227355957 -2.5877928733825684 0.5165530443191528 0.45279544591903687 489 7
3.9516210556030273 -2.583085775375366 0.5120654106140137 0.4567621648311615 489 7
3.9247655868530273 -2.5907225608825684 0.5100811719894409 0.8296557068824768 489 7
3.924746036529541 -2.616093635559082 0.5116018652915955 0.8271892666816711 489 7
3.924746036529541 -2.6416211128234863 0.5131424069404602 0.8247063159942627 489 7
3.891913890838623 -2.6449413299560547 0.5103896856307983 0.3184604346752167 489 7
3.8484764099121094 -2.640761613845825 0.5062463283538818 0.3210674822330475 489 7
3.8057615756988525 -2.636660099029541 0.5021817088127136 0.3236662447452545 489 7
3.9086718559265137 -2.734023332595825 0.5173760652542114 0.40525102615356445 489 7
3.9218358993530273 -2.7694921493530273 0.5207577347755432 0.48642823100090027 489 7
3.9097654819488525 -2.787343740463257 0.5208092927932739 0.4847031533718109 489 7
3.876718759536743 -2.790117025375366 0.5180697441101074 0.4872661530971527 489 7
3.844003915786743 -2.792851448059082 0.5153664946556091 0.4898231625556946 489 7
3.811601400375366 -2.795527219772339 0.5127004981040955 0.49236932396888733 489 7
27.279979705810547 -20.196659088134766 3.6816442012786865 0.7989718317985535 0 3
33.17878723144531 -24.795135498046875 4.4926981925964355 0.5950995683670044 0 3
32.87710952758789 -24.8004093170166 4.4668731689453125 0.7936280965805054 0 3
32.63115310668945 -24.845409393310547 4.448559284210205 0.6022239923477173 0 3
32.155391693115234 -24.7119140625 4.3987956047058105 0.6057679057121277 0 3
31.96562385559082 -24.79507827758789 4.388000011444092 0.6092997193336487 0 3
31.671092987060547 -24.79507827758789 4.362799167633057 0.6128190755844116 0 3
31.379901885986328 -24.7950382232666 4.337973594665527 0.6163263320922852 0 3
31.091991424560547 -24.79505729675293 4.313514232635498 0.6198211908340454 0 3
4.207460880279541 -3.386347532272339 0.5858141779899597 0.49996092915534973 0 6
4.171718597412109 -3.388554573059082 0.5829482674598694 0.7587921619415283 0 6
4.15164041519165 -3.4032812118530273 0.5822699069976807 0.9900698065757751 0 6
4.139121055603027 -3.424199104309082 0.5826641917228699 0.8630791306495667 0 6
4.138203144073486 -3.454824209213257 0.5847143530845642 0.6336472034454346 0 6
29.483163833618164 -24.839706420898438 4.18162727355957 0.7602537274360657 0 3
29.222597122192383 -24.845272064208984 4.16042947769165 0.6439310908317566 0 3
28.958202362060547 -24.845233917236328 4.1386260986328125 0.6473240852355957 0 3
28.555253982543945 -24.722890853881836 4.096846103668213 0.7515623569488525 0 3
28.38003921508789 -24.794921875 4.087637901306152 0.654071033000946 0 3
28.124296188354492 -24.794921875 4.0667877197265625 0.6574245691299438 0 3
27.871112823486328 -24.79490089416504 4.046229839324951 0.6607651710510254 0 3
27.620468139648438 -24.79490089416504 4.025958061218262 0.6640923023223877 0 3
27.372323989868164 -24.79488182067871 4.005966663360596 0.6674059629440308 0 3
27.260019302368164 -24.916776657104492 4.0058722496032715 0.7337684631347656 0 3
27.260000228881836 -25.14224624633789 4.022402763366699 0.7307509183883667 0 3
27.260038375854492 -25.36960792541504 4.039156436920166 0.7277188301086426 0 3
27.32173728942871 -25.6568546295166 4.065332412719727 0.7246717810630798 0 3
27.32173728942871 -25.888572692871094 4.082574367523193 0.7216104865074158 0 3
27.32173728942871 -26.122264862060547 4.10004997253418 0.718534529209137 0 3
27.32175636291504 -26.358007431030273 4.117758274078369 0.715444028377533 0 3
27.32173728942871 -26.595781326293945 4.135704040527344 0.7123392820358276 0 3
27.190176010131836 -26.70638656616211 4.133889198303223 0.7092201113700867 0 3
27.260038375854492 -27.01642608642578 4.16290283203125 0.7060868144035339 0 3
26.2626953125 26.262636184692383 3.404999256134033 0.4616923928260803 0 9
26.52474594116211 26.287694931030273 3.42364501953125 0.45917797088623047 0 9
26.78415870666504 26.307538986206055 3.4418468475341797 0.7517154216766357 0 9
26.919530868530273 26.204179763793945 3.4441003799438477 0.7512247562408447 0 9
27.055116653442383 26.1007022857666 3.4464287757873535 0.7507179379463196 0 9
27.19089698791504 25.997127532958984 3.4488255977630615 0.7501952052116394 0 9
27.32695198059082 25.893455505371094 3.451312780380249 0.7496559023857117 0 9
27.46320343017578 25.7896671295166 3.4538660049438477 0.7491008639335632 0 9
26.6240234375 24.777713775634766 3.3343091011047363 0.6239773631095886 0 9
26.88103485107422 24.792694091796875 3.352525472640991 0.6205865740776062 0 9
26.713651657104492 24.41732406616211 3.3179545402526855 0.3549365997314453 0 9
27.137147903442383 24.581796646118164 3.3568127155303955 0.35082730650901794 0 9
27.570701599121094 24.75017547607422 3.3966710567474365 0.34671083092689514 0 9
27.93812370300293 24.85447120666504 3.428157329559326 0.6068955063819885 0 9
28.07761573791504 24.75374984741211 3.431612491607666 0.8800954818725586 0 9
24.862245559692383 21.72148323059082 3.0266876220703125 0.9875064492225647 0 9
24.972597122192383 21.620996475219727 3.0282702445983887 0.9869890809059143 0 9
25.0830078125 21.520429611206055 3.029923677444458 0.9864517450332642 0 9
25.193593978881836 21.41972541809082 3.031632661819458 0.9858945608139038 0 9
24.934980392456055 21.00777244567871 2.989136219024658 0.8391233086585999 0 9
23.392812728881836 19.529706954956055 2.7937347888946533 0.4978756606578827 0 9
23.59208869934082 19.516992568969727 2.8070409297943115 0.49551600217819214 0 9
23.793241500854492 19.50423812866211 2.8205337524414062 0.4931454360485077 0 9
23.996444702148438 19.49138641357422 2.8342232704162598 0.49076372385025024 0 9
24.201679229736328 19.47847557067871 2.848109006881714 0.48837074637413025 0 9
24.40898323059082 19.46548843383789 2.8621978759765625 0.4859669506549835 0 9
24.618436813354492 19.452402114868164 2.8764894008636475 0.4835521876811981 0 9
24.83005714416504 19.439237594604492 2.8909928798675537 0.48112642765045166 0 9
25.043886184692383 19.425975799560547 2.9057087898254395 0.4786897301673889 0 9
24.892127990722656 19.129980087280273 2.878112316131592 0.5142186284065247 0 9
25.165565490722656 19.16109275817871 2.8997578620910645 0.5103809237480164 0 9
25.06035041809082 18.903905868530273 2.8778274059295654 0.4046041667461395 0 9
25.401737213134766 18.983123779296875 2.9072189331054688 0.40051406621932983 0 9
25.75015640258789 19.064022064208984 2.9372684955596924 0.3964157998561859 0 9
26.105838775634766 19.146581649780273 2.968013286590576 0.3923099935054779 0 9
26.46908187866211 19.230897903442383 2.999469041824341 0.38819605112075806 0 9
26.840097427368164 19.3170108795166 3.031653881072998 0.38407424092292786 0 9
34.54909896850586 24.630605697631836 3.8898754119873047 0.40514999628067017 0 9
35.81681442260742 25.292694091796875 4.019794940948486 0.9970513582229614 0 9
35.93830108642578 25.13751983642578 4.020720958709717 0.9968206286430359 0 9
25.121191024780273 17.40396499633789 2.8017544746398926 0.4066871106624603 0 9
25.10724639892578 17.228065490722656 2.79154896736145 0.33214259147644043 0 9
28.261152267456055 19.206249237060547 3.1326019763946533 0.4440310299396515 0 9
26.74736213684082 18.002519607543945 2.955819606781006 0.8882453441619873 0 9
26.769550323486328 17.84343719482422 2.9493937492370605 0.8901805877685547 0 9
27.13070297241211 17.9088077545166 2.980300188064575 0.7034661173820496 0 9
27.20261573791504 17.781503677368164 2.9793951511383057 0.6005885601043701 0 9
27.43294906616211 17.756874084472656 2.995868444442749 0.5972867012023926 0 9
27.665800094604492 17.73193359375 3.012578010559082 0.5939737558364868 0 9
27.901308059692383 17.70669937133789 3.0295403003692627 0.5906490683555603 0 9
28.12076187133789 17.66943359375 3.0447235107421875 0.688580334186554 0 9
28.32388687133789 17.62027359008789 3.058122396469116 0.6855630874633789 0 9
28.52878761291504 17.57064437866211 3.0717053413391113 0.682532787322998 0 9
22.877967834472656 13.949101448059082 2.456515073776245 0.6350151300430298 0 9
23.037967681884766 13.905214309692383 2.466965913772583 0.6323240399360657 0 9
23.199275970458984 13.860937118530273 2.4775564670562744 0.6296213865280151 0 9
23.362010955810547 13.816210746765137 2.488286018371582 0.6269068121910095 0 9
23.52605438232422 13.771132469177246 2.499152421951294 0.6241812705993652 0 9
23.69156265258789 13.7255859375 2.5101613998413086 0.6214436888694763 0 9
23.858436584472656 13.679628372192383 2.5213124752044678 0.6186943650245667 0 9
23.800994873046875 13.505136489868164 2.50881028175354 0.5657810568809509 0 9
23.70833969116211 13.31224536895752 2.4927191734313965 0.5694324970245361 0 9
23.616912841796875 13.121874809265137 2.4768898487091064 0.5730722546577454 0 9
23.526601791381836 12.933866500854492 2.4613091945648193 0.5767002105712891 0 9
23.437421798706055 12.748183250427246 2.4459712505340576 0.5803167819976807 0 9
23.349393844604492 12.56484317779541 2.430873394012451 0.5839207768440247 0 9
23.262420654296875 12.383710861206055 2.4160068035125732 0.5875136256217957 0 9
23.176483154296875 12.20482349395752 2.4013705253601074 0.5910945534706116 0 9
23.09164047241211 12.028046607971191 2.3869640827178955 0.594663143157959 0 9
25.102909088134766 12.932753562927246 2.588834762573242 0.7245236039161682 0 9
23.410429000854492 11.928163528442383 2.408742666244507 0.0691557452082634 0 9
29.462440490722656 14.845664024353027 3.0245678424835205 0.7591140270233154 0 9
25.11115264892578 12.512089729309082 2.5720815658569336 0.7706885933876038 0 9
25.260351181030273 12.445273399353027 2.5816152095794678 0.767842173576355 0 9
25.410663604736328 12.377890586853027 2.5912773609161377 0.764979898929596 0 9
25.554471969604492 12.306366920471191 2.600281238555908 0.805772066116333 0 9
25.693748474121094 12.231659889221191 2.608839750289917 0.8031286597251892 0 9
25.833925247192383 12.156503677368164 2.617506742477417 0.8004688620567322 0 9
25.793651580810547 11.996464729309082 2.6079442501068115 0.6704691052436829 0 9
25.726268768310547 11.82494068145752 2.5957391262054443 0.6736226677894592 0 9
25.659433364868164 11.655038833618164 2.5836925506591797 0.6767633557319641 0 9
25.593202590942383 11.486679077148438 2.5718066692352295 0.6798908710479736 0 9
25.527578353881836 11.319863319396973 2.5600810050964355 0.683005154132843 0 9
26.605350494384766 11.65517520904541 2.6628940105438232 0.43259069323539734 0 9
26.4140625 11.430351257324219 2.6385879516601562 0.4365760087966919 0 9
26.226171493530273 11.209569931030273 2.61476731300354 0.44055303931236267 0 9
25.505233764648438 10.766327857971191 2.5380473136901855 0.14808522164821625 0 9
25.860389709472656 10.779746055603027 2.568546772003174 0.44848063588142395 0 9
15.835155487060547 6.517499923706055 1.5698806047439575 0.9738726019859314 0 6
25.507186889648438 10.364765167236328 2.5241246223449707 0.4563734829425812 0 9
25.33511734008789 10.162616729736328 2.502556800842285 0.4603063464164734 0 9
37.607948303222656 14.890058517456055 3.7082042694091797 0.8520990014076233 0 9
36.55646514892578 14.284296989440918 3.598170757293701 0.6766740679740906 0 9
36.22390365600586 13.967304229736328 3.5592308044433594 0.4192963242530823 0 9
36.63191223144531 13.9360933303833 3.5931365489959717 0.41533955931663513 0 9
37.04783248901367 13.904296875 3.6277782917022705 0.41137391328811646 0 9
37.47181701660156 13.871893882751465 3.6631596088409424 0.40740007162094116 0 9
37.619529724121094 13.7349214553833 3.6715409755706787 0.8606089949607849 0 9
37.621307373046875 13.544511795043945 3.6657397747039795 0.8619698882102966 0 9
37.623046875 13.354706764221191 3.660029172897339 0.8633142709732056 0 9
37.62466812133789 13.165488243103027 3.654414653778076 0.864642322063446 0 9
43.83578109741211 15.118358612060547 4.251046180725098 0.9805551767349243 0 9
43.91533279418945 14.925604820251465 4.252223491668701 0.980283796787262 0 9
44.23126983642578 14.811874389648438 4.2763352394104 0.855148434638977 0 9
39.07861328125 12.891640663146973 3.772540807723999 0.5828354358673096 0 9
39.38066482543945 12.795605659484863 3.796114921569824 0.5792155265808105 0 9
39.6865234375 12.698339462280273 3.8200676441192627 0.575583815574646 0 9
39.52865219116211 12.452558517456055 3.7994542121887207 0.7665311694145203 0 9
39.72474670410156 12.318632125854492 3.812953472137451 0.7638179063796997 0 9
39.92228317260742 12.18375015258789 3.8266191482543945 0.7610887289047241 0 9
40.12125015258789 12.0479097366333 3.840471029281616 0.7583440542221069 0 9
40.321678161621094 11.911093711853027 3.8545048236846924 0.7555835843086243 0 9
40.52363204956055 11.773241996765137 3.8687150478363037 0.7528079152107239 0 9
40.6501350402832 11.612441062927246 3.8757781982421875 0.7590259313583374 0 9
40.54681396484375 11.386347770690918 3.861016035079956 0.7619278430938721 0 9
40.444297790527344 11.16195297241211 3.846447706222534 0.7648146152496338 0 9
40.342498779296875 10.939257621765137 3.8320579528808594 0.7676860094070435 0 9
40.24148178100586 10.718222618103027 3.817854642868042 0.7705420255661011 0 9
40.14120864868164 10.498807907104492 3.8038330078125 0.7733826041221619 0 9
44.121620178222656 11.328554153442383 4.176163673400879 0.3564302623271942 0 9
43.77962875366211 11.031542778015137 4.1390604972839355 0.3596251606941223 0 9
43.443729400634766 10.739785194396973 4.1027045249938965 0.3628118932247162 0 9
44.7819709777832 10.85757827758789 4.22444486618042 0.9975990653038025 0 9
44.82366943359375 10.654921531677246 4.223825454711914 0.9977452754974365 0 9
44.86537170410156 10.452343940734863 4.22328519821167 0.9978713989257812 0 9
44.90705108642578 10.249784469604492 4.222842693328857 0.9979775547981262 0 9
44.94873046875 10.047285079956055 4.222476482391357 0.9980636835098267 0 9
48.291015625 -6.983457088470459 4.473250865936279 0.1424815058708191 0 3
47.59767532348633 -7.101445198059082 4.411937713623047 0.14690335094928741 0 3
46.17626953125 -7.101366996765137 4.283088684082031 0.15132246911525726 0 3
45.10784912109375 -7.144433498382568 4.186933517456055 0.9917577505111694 0 3
45.17913818359375 -7.363710880279541 4.19656229019165 0.9827983379364014 0 3
45.17911911010742 -7.572031021118164 4.199678421020508 0.982069730758667 0 3
45.17911911010742 -7.780624866485596 4.202877521514893 0.9813213348388672 0 3
45.17911911010742 -7.989570140838623 4.206174373626709 0.980553150177002 0 3
45.179100036621094 -8.198827743530273 4.209554195404053 0.9797651767730713 0 3
45.10737991333008 -8.395116806030273 4.2063398361206055 0.9644800424575806 0 3
42.77989959716797 -8.160761833190918 3.9926769733428955 0.18671263754367828 0 3
42.03622817993164 -8.214550971984863 3.92667293548584 0.427428662776947 0 3
41.60638427734375 -8.32460880279541 3.8899662494659424 0.43146130442619324 0 3
41.45697021484375 -8.488398551940918 3.879520893096924 0.9750223159790039 0 3
41.45761489868164 -8.682578086853027 3.883195161819458 0.9741016030311584 0 3
41.4582405090332 -8.877089500427246 3.886944532394409 0.9731613397598267 0 3
41.458885192871094 -9.072031021118164 3.890779972076416 0.972201406955719 0 3
41.459529876708984 -9.267324447631836 3.894706964492798 0.971221923828125 0 3
41.4601936340332 -9.463066101074219 3.898716449737549 0.9702228903770447 0 3
41.46080017089844 -9.6591796875 3.9028191566467285 0.969204306602478 0 3
41.46144485473633 -9.855722427368164 3.906996488571167 0.968166172504425 0 3
41.46210861206055 -10.052656173706055 3.911271810531616 0.9671086072921753 0 3
41.46273422241211 -10.2500581741333 3.9156322479248047 0.9660314917564392 0 3
41.46339797973633 -10.44791030883789 3.9200828075408936 0.9649350643157959 0 3
41.46402359008789 -10.646171569824219 3.924624443054199 0.9638190269470215 0 3
41.46476364135742 -10.844980239868164 3.9292571544647217 0.9622373580932617 0 3
41.335838317871094 -11.009706497192383 3.921684503555298 0.96218341588974 0 3
41.09062576293945 -11.142128944396973 3.9031426906585693 0.2607271075248718 0 3
40.37273406982422 -11.142187118530273 3.839646577835083 0.26503753662109375 0 3
39.889060974121094 -11.201621055603027 3.798398971557617 0.9586440324783325 0 3
39.01576232910156 -11.145526885986328 3.719951629638672 0.2712436318397522 0 3
38.35240173339844 -11.142440795898438 3.6614298820495605 0.277939110994339 0 3
37.719940185546875 -11.142518997192383 3.60579776763916 0.2822255492210388 0 3
37.43330001831055 -11.240741729736328 3.5831804275512695 0.9536546468734741 0 3
34.42214584350586 -10.505194664001465 3.299422025680542 0.2906356453895569 0 3
33.87673568725586 -10.505155563354492 3.2516398429870605 0.2949073314666748 0 3
33.34693145751953 -10.505155563354492 3.205265998840332 0.29917287826538086 0 3
32.83195114135742 -10.505136489868164 3.160273313522339 0.30343320965766907 0 3
32.33130645751953 -10.505097389221191 3.1165874004364014 0.3076864182949066 0 3
31.84419822692871 -10.505078315734863 3.0741472244262695 0.31193429231643677 0 3
31.370214462280273 -10.505058288574219 3.032912492752075 0.3161753714084625 0 3
30.908788681030273 -10.50503921508789 2.9928276538848877 0.3204098343849182 0 3
30.459373474121094 -10.505019187927246 2.9538488388061523 0.3246382176876068 0 3
30.021484375 -10.505019187927246 2.915924072265625 0.3288602828979492 0 3
29.59470558166504 -10.504980087280273 2.8790218830108643 0.33307525515556335 0 3
29.178592681884766 -10.504961013793945 2.843097448348999 0.337283730506897 0 3
28.772733688354492 -10.5049409866333 2.8081250190734863 0.34148529171943665 0 3
28.376678466796875 -10.504921913146973 2.7740423679351807 0.345680832862854 0 3
27.990175247192383 -10.504901885986328 2.7408394813537598 0.3498684763908386 0 3
27.612831115722656 -10.504901885986328 2.70847225189209 0.3540489971637726 0 3
27.279706954956055 -10.5185546875 2.6804041862487793 0.9290987253189087 0 3
27.279706954956055 -10.659433364868164 2.6850826740264893 0.9274817109107971 0 3
27.279726028442383 -10.800820350646973 2.6898245811462402 0.9258460402488708 0 3
27.279726028442383 -10.942675590515137 2.6946372985839844 0.9241916537284851 0 3
27.279706954956055 -11.085078239440918 2.699524402618408 0.9225186705589294 0 3
27.279685974121094 -11.227988243103027 2.704484701156616 0.9208270907402039 0 3
27.279685974121094 -11.37142562866211 2.70951771736145 0.9191168546676636 0 3
27.279685974121094 -11.515390396118164 2.7146201133728027 0.9173882603645325 0 3
27.279685974121094 -11.65990161895752 2.719805955886841 0.9156411290168762 0 3
27.279685974121094 -11.804980278015137 2.725057363510132 0.9138755202293396 0 3
27.279666900634766 -11.950624465942383 2.7303881645202637 0.9120915532112122 0 3
27.279666900634766 -12.09683609008789 2.735792398452759 0.9102892875671387 0 3
27.279647827148438 -12.243632316589355 2.741272449493408 0.9084685444831848 0 3
27.279685974121094 -12.39101505279541 2.7468318939208984 0.9066296219825745 0 3
27.279666900634766 -12.539003372192383 2.75247859954834 0.9047724604606628 0 3
27.279666900634766 -12.687597274780273 2.758195161819458 0.9028969407081604 0 3
27.279685974121094 -12.836835861206055 2.7639808654785156 0.9010031819343567 0 3
27.279647827148438 -12.986699104309082 2.7698631286621094 0.899091362953186 0 3
27.279647827148438 -13.13720703125 2.775822877883911 0.8971614241600037 0 3
27.279647827148438 -13.288339614868164 2.781864643096924 0.8952134847640991 0 3
27.279666900634766 -13.440155982971191 2.7879841327667236 0.8932476043701172 0 3
27.279685974121094 -13.592636108398438 2.7941927909851074 0.8912636041641235 0 3
27.279666900634766 -13.745820045471191 2.800482988357544 0.8892614841461182 0 3
27.279647827148438 -13.899686813354492 2.8068575859069824 0.8872416019439697 0 3
27.279647827148438 -14.0542573928833 2.813321352005005 0.8852038979530334 0 3
27.279647827148438 -14.2095308303833 2.819866895675659 0.8831483125686646 0 3
27.279647827148438 -14.36556625366211 2.826507091522217 0.881074845790863 0 3
27.27962875366211 -14.522323608398438 2.833228588104248 0.8789836764335632 0 3
27.27962875366211 -14.679823875427246 2.840043783187866 0.8768746852874756 0 3
27.279647827148438 -14.838066101074219 2.846950054168701 0.8747484087944031 0 3
27.27960968017578 -14.997109413146973 2.8539419174194336 0.8726043105125427 0 3
27.27962875366211 -15.156952857971191 2.8610286712646484 0.8704423904418945 0 3
27.279647827148438 -15.317577362060547 2.868217945098877 0.8682633638381958 0 3
27.27962875366211 -15.479022979736328 2.8754827976226807 0.8660664558410645 0 3
27.27962875366211 -15.641288757324219 2.8828563690185547 0.8638525009155273 0 3
27.27962875366211 -15.804374694824219 2.8903181552886963 0.8616208434104919 0 3
27.27962875366211 -15.968339920043945 2.8978869915008545 0.8593719005584717 0 3
27.279647827148438 -16.13314437866211 2.905545949935913 0.8571056127548218 0 3
27.27960968017578 -16.298828125 2.913306474685669 0.8548221588134766 0 3
27.279647827148438 -16.465410232543945 2.921168088912964 0.8525214791297913 0 3
27.27962875366211 -16.632890701293945 2.9291398525238037 0.8502035737037659 0 3
27.27962875366211 -16.801307678222656 2.9372007846832275 0.8478684425354004 0 3
27.27962875366211 -16.970643997192383 2.94537353515625 0.8455164432525635 0 3
4.124843597412109 -2.5918164253234863 0.4466085731983185 0.5335447192192078 489 7
4.084335803985596 -2.5920116901397705 0.4434759318828583 0.5373145341873169 489 7
4.044394493103027 -2.5921874046325684 0.44039610028266907 0.5410704016685486 489 7
3.997929573059082 -2.5878124237060547 0.4366000294685364 0.4535464942455292 489 7
3.95166015625 -2.5831053256988525 0.43280699849128723 0.4575204849243164 489 7
3.9247069358825684 -2.590703010559082 0.43112242221832275 0.8310481905937195 489 7
3.8949999809265137 -2.596269369125366 0.4291360378265381 0.4066145122051239 489 7
3.9070117473602295 -2.629648447036743 0.4317532181739807 0.9707814455032349 489 7
3.8979687690734863 -2.6490819454193115 0.4320657253265381 0.9302374124526978 489 7
3.8920116424560547 -2.6706249713897705 0.43272703886032104 0.9288173913955688 489 7
3.887460947036743 -2.6932616233825684 0.4335644543170929 0.8083093762397766 489 7
3.8875584602355957 -2.71923828125 0.43493378162384033 0.8057650327682495 489 7
3.8876953125 -2.745371103286743 0.43632078170776367 0.8032045364379883 489 7
3.8926169872283936 -2.7751171588897705 0.43826353549957275 0.6118185520172119 489 7
3.90484356880188 -2.810351610183716 0.441057413816452 0.3208294212818146 489 7
3.910956859588623 -2.841484308242798 0.4431823492050171 0.6815091967582703 489 7
3.879765510559082 -2.845527172088623 0.4410891532897949 0.5811502933502197 489 7
27.27958869934082 -20.196367263793945 3.1117279529571533 0.8003135323524475 0 3
33.17878723144531 -24.795135498046875 3.7972941398620605 0.5960901379585266 0 3
32.87662124633789 -24.800039291381836 3.775439977645874 0.7949608564376831 0 3
32.63115310668945 -24.845409393310547 3.759989023208618 0.6032266020774841 0 3
32.15536880493164 -24.7119140625 3.717912435531616 0.6067764163017273 0 3
31.96562385559082 -24.79507827758789 3.7088024616241455 0.610314130783081 0 3
31.67107391357422 -24.79505729675293 3.687498092651367 0.6138392686843872 0 3
31.379901885986328 -24.79505729675293 3.6665122509002686 0.6173524856567383 0 3
31.091991424560547 -24.79505729675293 3.6458404064178467 0.6208531260490417 0 3
4.206777095794678 -3.38580060005188 0.49506163597106934 0.5008707046508789 0 6
4.171249866485596 -3.3881640434265137 0.49266356229782104 0.7601369619369507 0 6
4.151210784912109 -3.4029295444488525 0.4920980632305145 0.9918069839477539 0 6
4.138632774353027 -3.4237890243530273 0.4924236834049225 0.8646070957183838 0 6
4.137617111206055 -3.454335927963257 0.49413907527923584 0.6347818970680237 0 6
29.48271369934082 -24.83933448791504 3.534282684326172 0.7615310549736023 0 3
29.22261619567871 -24.845272064208984 3.5164592266082764 0.6450030207633972 0 3
28.958202362060547 -24.845252990722656 3.498028516769409 0.64840167760849 0 3
28.55482292175293 -24.72249984741211 3.4626617431640625 0.7528249621391296 0 3
28.38003921508789 -24.794921875 3.454930305480957 0.6551600098609924 0 3
28.124277114868164 -24.794921875 3.4373083114624023 0.6585192084312439 0 3
27.87109375 -24.79488182067871 3.419926643371582 0.661865234375 0 3
27.620468139648438 -24.79490089416504 3.402798891067505 0.6651977896690369 0 3
27.372323989868164 -24.79488182067871 3.385901927947998 0.6685172319412231 0 3
27.25959014892578 -24.916385650634766 3.385758638381958 0.7350015640258789 0 3
27.25959014892578 -25.141855239868164 3.399735689163208 0.7319790124893188 0 3
27.25956916809082 -25.369218826293945 3.41390323638916 0.728941798210144 0 3
27.321308135986328 -25.656463623046875 3.436016082763672 0.7258896827697754 0 3
27.321308135986328 -25.88816261291504 3.450596332550049 0.7228233814239502 0 3
27.321327209472656 -26.12187385559082 3.4653685092926025 0.7197421193122864 0 3
27.321327209472656 -26.35755729675293 3.4803314208984375 0.7166467308998108 0 3
27.321308135986328 -26.5953311920166 3.495506525039673 0.7135366201400757 0 3
27.189725875854492 -26.705955505371094 3.493967294692993 0.710412323474884 0 3
27.25956916809082 -27.015995025634766 3.5184881687164307 0.7072737812995911 0 3
27.32255744934082 27.322538375854492 2.895662546157837 0.8537235260009766 0 9
27.415937423706055 27.1708984375 2.8926076889038086 0.8546261787414551 0 9
27.50908088684082 27.019588470458984 2.88960599899292 0.8555120229721069 0 9
27.601972579956055 26.868515014648438 2.88667631149292 0.8563818335533142 0 9
27.458221435546875 26.489627838134766 2.859177589416504 0.9876903295516968 0 9
27.563886642456055 26.353750228881836 2.857832670211792 0.9881539344787598 0 9
27.669471740722656 26.218008041381836 2.856553792953491 0.9885973930358887 0 9
27.77181625366211 26.07943344116211 2.85500168800354 0.9793251156806946 0 9
26.528398513793945 24.688711166381836 2.715761661529541 0.6270943880081177 0 9
26.78400421142578 24.703163146972656 2.7305495738983154 0.6236985325813293 0 9
27.042343139648438 24.717792510986328 2.7455520629882812 0.6202902793884277 0 9
26.95734405517578 24.41892433166504 2.7257699966430664 0.35365673899650574 0 9
27.38587760925293 24.584257125854492 2.7579140663146973 0.34953439235687256 0 9
27.82466697692871 24.7535343170166 2.7908902168273926 0.34540486335754395 0 9
28.105194091796875 24.778045654296875 2.8078432083129883 0.606529951095581 0 9
28.378515243530273 24.793554306030273 2.824005126953125 0.6030586957931519 0 9
28.633398056030273 24.79050636291504 2.8382678031921387 0.985100269317627 0 9
33.27029037475586 28.544862747192383 3.285161018371582 0.15259584784507751 0 9
24.926483154296875 21.192655563354492 2.4518656730651855 0.8373852372169495 0 9
24.9488468170166 21.01949119567871 2.4447600841522217 0.8398182392120361 0 9
24.971113204956055 20.84730339050293 2.4377431869506836 0.8422347903251648 0 9
24.993221282958984 20.676151275634766 2.4308252334594727 0.8446336984634399 0 9
25.015193939208984 20.505916595458984 2.4239864349365234 0.8470162749290466 0 9
25.03706932067871 20.336679458618164 2.417233467102051 0.8493810892105103 0 9
25.058807373046875 20.168338775634766 2.4105725288391113 0.8517292141914368 0 9
25.080429077148438 20.00093650817871 2.4039926528930664 0.8540604114532471 0 9
25.101913452148438 19.834453582763672 2.3974974155426025 0.8563740253448486 0 9
25.123319625854492 19.668827056884766 2.391087532043457 0.858670711517334 0 9
24.49740219116211 19.00208854675293 2.3233718872070312 0.49004656076431274 0 9
24.705976486206055 18.986913681030273 2.335054636001587 0.48759564757347107 0 9
24.916738510131836 18.971601486206055 2.34689998626709 0.4851340353488922 0 9
25.077577590942383 18.916854858398438 2.3540234565734863 0.40488699078559875 0 9
25.34490203857422 18.940683364868164 2.3711161613464355 0.4801787734031677 0 9
25.768163681030273 19.077342987060547 2.402686357498169 0.39668798446655273 0 9
26.124277114868164 19.16011619567871 2.4278457164764404 0.3925763666629791 0 9
26.487987518310547 19.244609832763672 2.453592538833618 0.3884565830230713 0 9
26.859453201293945 19.330957412719727 2.4799468517303467 0.3843291699886322 0 9
35.714805603027344 25.461679458618164 3.2869818210601807 0.998100757598877 0 9
35.836307525634766 25.30648422241211 3.2876744270324707 0.9978898763656616 0 9
35.95783233642578 25.151229858398438 3.2884361743927 0.9976587891578674 0 9
36.07941436767578 24.995878219604492 3.2892637252807617 0.9974076747894287 0 9
41.02507781982422 28.15056610107422 3.728583335876465 0.9030799269676208 0 9
41.179744720458984 27.985702514648438 3.731191396713257 0.902449369430542 0 9
41.31914138793945 27.8101749420166 3.7324798107147217 0.8957990407943726 0 9
27.149120330810547 18.096445083618164 2.4450972080230713 0.7018701434135437 0 9
27.24720573425293 17.985721588134766 2.44663667678833 0.5986681580543518 0 9
27.478925704956055 17.962127685546875 2.4601759910583496 0.5953731536865234 0 9
27.713163375854492 17.938241958618164 2.4739162921905518 0.5920667052268982 0 9
27.941131591796875 17.90837860107422 2.4870657920837402 0.6900253295898438 0 9
28.14337921142578 17.86031150817871 2.4979095458984375 0.6870306730270386 0 9
28.347362518310547 17.81183624267578 2.5088961124420166 0.6840224862098694 0 9
26.88982391357422 16.728105545043945 2.373224973678589 0.9055699110031128 0 9
26.911367416381836 16.574472427368164 2.3685383796691895 0.907362163066864 0 9
26.932811737060547 16.421424865722656 2.3639180660247803 0.909136176109314 0 9
23.371601104736328 14.10660171508789 2.045769214630127 0.6241609454154968 0 9
23.5367374420166 14.0625581741333 2.0546767711639404 0.6214545965194702 0 9
23.70328140258789 14.018085479736328 2.0637013912200928 0.6187365651130676 0 9
23.871288299560547 13.9732027053833 2.072850227355957 0.6160064935684204 0 9
23.954374313354492 13.877870559692383 2.0746352672576904 0.5600473880767822 0 9
23.85968780517578 13.680351257324219 2.0610945224761963 0.563726544380188 0 9
23.766210556030273 13.4854097366333 2.047769784927368 0.5673943758010864 0 9
23.673925399780273 13.292929649353027 2.0346596240997314 0.5710507035255432 0 9
23.58281135559082 13.102910041809082 2.021759510040283 0.5746952891349792 0 9
23.492910385131836 12.91527271270752 2.0090560913085938 0.5783286094665527 0 9
23.404043197631836 12.7300386428833 1.9965564012527466 0.5819499492645264 0 9
23.316347122192383 12.54703140258789 1.9842458963394165 0.5855592489242554 0 9
23.229705810546875 12.366289138793945 1.9721319675445557 0.589156985282898 0 9
25.642597198486328 13.503437042236328 2.171811580657959 0.6935185194015503 0 9
25.821874618530273 13.450156211853027 2.1818556785583496 0.6903248429298401 0 9
29.664588928222656 15.282909393310547 2.500731945037842 0.7515409588813782 0 9
29.618574142456055 15.091386795043945 2.491119623184204 0.7544412016868591 0 9
29.57291030883789 14.901308059692383 2.481632709503174 0.7573267221450806 0 9
29.527578353881836 14.712695121765137 2.472261667251587 0.7601970434188843 0 9
29.48255729675293 14.5254487991333 2.4630088806152344 0.7630521059036255 0 9
29.437850952148438 14.339648246765137 2.4538769721984863 0.7658923268318176 0 9
29.39351463317871 14.155136108398438 2.4448606967926025 0.7687177062034607 0 9
29.349491119384766 13.971991539001465 2.435953378677368 0.7715273499488831 0 9
29.3057804107666 13.79019546508789 2.42716121673584 0.7743218541145325 0 9
29.542850494384766 13.740156173706055 2.4416656494140625 0.8422302007675171 0 9
37.83066177368164 17.388750076293945 3.120156764984131 0.9032379984855652 0 9
30.0869140625 13.666093826293945 2.476396083831787 0.4541459083557129 0 9
30.409862518310547 13.6484956741333 2.4979138374328613 0.45023417472839355 0 9
36.74476623535156 16.294042587280273 3.0122270584106445 0.2680163085460663 0 9
36.87714767456055 16.155038833618164 3.017106771469116 0.26758313179016113 0 9
37.01011657714844 16.015722274780273 3.022073268890381 0.2671433091163635 0 9
37.14371109008789 15.875995635986328 3.027134418487549 0.26669666171073914 0 9
37.27796936035156 15.735918045043945 3.032289981842041 0.26624324917793274 0 9
37.96105194091797 15.823885917663574 3.082041025161743 0.8391990065574646 0 9
15.833690643310547 6.516913890838623 1.283144235610962 0.9753108024597168 0 6
37.96853256225586 15.428495407104492 3.0712852478027344 0.975727379322052 0 9
38.00521469116211 15.244999885559082 3.068682909011841 0.9765535593032837 0 9
38.04185485839844 15.061835289001465 3.066152811050415 0.97735995054245 0 9
36.4152717590332 14.22916030883789 2.929880380630493 0.6802388429641724 0 9
36.64859390258789 14.13101577758789 2.943516254425049 0.6770872473716736 0 9
36.38941192626953 13.843828201293945 2.9176769256591797 0.41868695616722107 0 9
36.800193786621094 13.81136703491211 2.94561767578125 0.41471606492996216 0 9
37.21894454956055 13.778281211853027 2.97415828704834 0.41073641180992126 0 9
37.60408020019531 13.729296684265137 2.9999780654907227 0.6643433570861816 0 9
37.84878921508789 13.626444816589355 3.0145909786224365 0.6611229777336121 0 9
38.09589767456055 13.522578239440918 3.029417037963867 0.6578893661499023 0 9
38.34546661376953 13.41771411895752 3.044440746307373 0.6546421051025391 0 9
42.42130661010742 14.630546569824219 3.3627898693084717 0.4550561010837555 0 9
42.634159088134766 14.490156173706055 3.374473810195923 0.5498089790344238 0 9
44.70683670043945 14.971113204956055 3.533173084259033 0.1259520947933197 0 9
43.97332000732422 14.506327629089355 3.4700212478637695 0.12824437022209167 0 9
45.76132583618164 14.868788719177246 3.605818510055542 0.8545016646385193 0 9
45.89177703857422 14.683808326721191 3.610870838165283 0.8533064126968384 0 9
46.02265548706055 14.498300552368164 3.6160082817077637 0.8520933389663696 0 9
41.42900466918945 12.847089767456055 3.2505180835723877 0.09135516732931137 0 9
41.54288864135742 12.678319931030273 3.2549591064453125 0.9298279881477356 0 9
41.65113067626953 12.507304191589355 3.259009838104248 0.9286726713180542 0 9
41.759647369384766 12.335820198059082 3.263134002685547 0.9274983406066895 0 9
41.007850646972656 11.913925170898438 3.200183629989624 0.15036362409591675 0 9
41.9775390625 11.99160099029541 3.271616220474243 0.9250928163528442 0 9
42.08693313598633 11.81884765625 3.275979518890381 0.9238617420196533 0 9
42.196659088134766 11.645605087280273 3.280418634414673 0.9226117134094238 0 9
42.306678771972656 11.471875190734863 3.28493332862854 0.921342670917511 0 9
42.417030334472656 11.29769515991211 3.289537191390991 0.9200548529624939 0 9
42.52769470214844 11.122987747192383 3.2942075729370117 0.9187482595443726 0 9
42.63869094848633 10.9478120803833 3.2989702224731445 0.9174230694770813 0 9
42.75007629394531 10.772109031677246 3.303811550140381 0.9160786867141724 0 9
44.76382827758789 11.066132545471191 3.455568790435791 0.998288631439209 0 9
44.80558395385742 10.863320350646973 3.454988956451416 0.9984549283981323 0 9
44.84730529785156 10.66054630279541 3.454484701156616 0.9986013770103455 0 9
44.88902282714844 10.45785140991211 3.4540491104125977 0.9987276792526245 0 9
48.291072845458984 -6.983457088470459 3.6565191745758057 0.14267876744270325 0 3
47.59773254394531 -7.101425647735596 3.606438636779785 0.14710670709609985 0 3
46.17640686035156 -7.101366996765137 3.5011229515075684 0.15153168141841888 0 3
45.107303619384766 -7.144335746765137 3.422461986541748 0.9931435585021973 0 3
45.178611755371094 -7.363632678985596 3.4303410053253174 0.9841716885566711 0 3
45.178592681884766 -7.571933269500732 3.432886838912964 0.9834420680999756 0 3
45.178592681884766 -7.78054666519165 3.435502767562866 0.9826925992965698 0 3
45.178592681884766 -7.989491939544678 3.4382011890411377 0.9819234013557434 0 3
45.17857360839844 -8.198769569396973 3.4409642219543457 0.981134295463562 0 3
43.20331954956055 -8.040741920471191 3.2932353019714355 0.18257330358028412 0 3
42.2014045715332 -8.050390243530273 3.219583749771118 0.3950030207633972 0 3
41.73113250732422 -8.15494155883789 3.1864709854125977 0.3991076946258545 0 3
41.356346130371094 -8.274609565734863 3.160661458969116 0.992465615272522 0 3
41.334999084472656 -8.463418006896973 3.161895751953125 0.9768609404563904 0 3
41.335018157958984 -8.656913757324219 3.16483998298645 0.9759528636932373 0 3
41.33503723144531 -8.850722312927246 3.1678478717803955 0.9750251173973083 0 3
41.33507537841797 -9.044940948486328 3.1709277629852295 0.9740777015686035 0 3
41.33509826660156 -9.239531517028809 3.1740808486938477 0.9731107354164124 0 3
41.33513641357422 -9.434511184692383 3.1773009300231934 0.9721241593360901 0 3
41.335174560546875 -9.629901885986328 3.180598020553589 0.9711179137229919 0 3
41.335174560546875 -9.825702667236328 3.1839616298675537 0.970092236995697 0 3
41.33521270751953 -10.021894454956055 3.1873912811279297 0.9690470099449158 0 3
41.33523178100586 -10.218534469604492 3.1908977031707764 0.9679822325706482 0 3
