ply
format ascii 1.0
element vertex 606
property float32 x
property float32 y
property float32 z
property float32 CosAngle
property uint32 ObjIdx
property uint32 ObjTag
end_header
15.26508617401123 -14.206493377685547 7.622337341308594 0.3039844334125519 0 9
15.22319507598877 -14.424696922302246 7.66576623916626 0.4251273274421692 0 9
15.101215362548828 -14.568544387817383 7.669880390167236 0.42489925026893616 0 9
14.97674560546875 -14.710311889648438 7.673418998718262 0.20544198155403137 0 9
14.759922981262207 2.2021288871765137 5.315798282623291 0.8501824736595154 0 6
14.900137901306152 2.0865232944488525 5.359335899353027 0.5101709365844727 0 6
17.774398803710938 -5.511816501617432 6.628810882568359 0.2084008902311325 0 9
17.368194580078125 -5.557207107543945 6.495660305023193 0.21267282962799072 0 9
16.75404930114746 -5.526972770690918 6.284274578094482 0.11851692199707031 0 9
16.97378158569336 -5.939404010772705 6.405663967132568 0.04406613111495972 0 9
16.0753173828125 -5.950995922088623 6.105928897857666 0.41178297996520996 0 9
16.007043838500977 -6.089638710021973 6.100514888763428 0.4121484160423279 0 9
15.939637184143066 -6.228349685668945 6.09588623046875 0.41246145963668823 0 9
15.87307357788086 -6.367148399353027 6.092038631439209 0.41272181272506714 0 9
15.807342529296875 -6.506113052368164 6.088983058929443 0.41292914748191833 0 9
15.742402076721191 -6.645205020904541 6.086696624755859 0.4130840301513672 0 9
15.678244590759277 -6.784589767456055 6.08519172668457 0.4131861925125122 0 9
15.607145309448242 -6.920781135559082 6.081464767456055 0.35497215390205383 0 9
15.514982223510742 -7.047226428985596 6.069955825805664 0.3556451201438904 0 9
15.424039840698242 -7.173623085021973 6.059323787689209 0.35626912117004395 0 9
15.334290504455566 -7.300009727478027 6.049561500549316 0.3568439185619354 0 9
15.245694160461426 -7.426425457000732 6.040665149688721 0.3573695123195648 0 9
15.158225059509277 -7.552880764007568 6.032628059387207 0.357845664024353 0 9
15.071845054626465 -7.679462909698486 6.025443077087402 0.35827240347862244 0 9
14.9865140914917 -7.806220531463623 6.019096374511719 0.3586500883102417 0 9
14.902219772338867 -7.933164119720459 6.013602256774902 0.35897794365882874 0 9
14.81889533996582 -8.060370445251465 6.008928298950195 0.3592569828033447 0 9
14.736547470092773 -8.187822341918945 6.005099773406982 0.35948601365089417 0 9
14.932260513305664 -8.472870826721191 6.1156005859375 0.12885993719100952 0 9
15.36672592163086 -8.902666091918945 6.326010704040527 0.12457388639450073 0 9
15.748632431030273 -9.313691139221191 6.517386436462402 0.21860092878341675 0 9
15.968851089477539 -9.638446807861328 6.64405632019043 0.21443314850330353 0 9
16.199321746826172 -9.977021217346191 6.776933670043945 0.2102285623550415 0 9
16.44078254699707 -10.330429077148438 6.916462421417236 0.20598755776882172 0 9
16.694026947021484 -10.699746131896973 7.063119888305664 0.2017105668783188 0 9
26.652660369873047 -19.182157516479492 11.697066307067871 0.3864898979663849 0 9
26.31832504272461 -19.302480697631836 11.625910758972168 0.3888553977012634 0 9
25.86102294921875 -19.326435089111328 11.500062942504883 0.28364086151123047 0 9
25.371822357177734 -19.31820297241211 11.35918140411377 0.2871585786342621 0 9
25.252838134765625 -19.588134765625 11.384174346923828 0.31901293992996216 0 9
24.864349365234375 -19.646757125854492 11.288082122802734 0.3217284381389618 0 9
24.777334213256836 -19.941864013671875 11.329394340515137 0.27763596177101135 0 9
24.79690933227539 -20.32706069946289 11.421307563781738 0.2754015326499939 0 9
24.71900177001953 -20.636913299560547 11.470284461975098 0.39547643065452576 0 9
16.38057518005371 -13.926894187927246 7.658730506896973 0.1546008586883545 0 9
16.03131103515625 -13.879765510559082 7.553369998931885 0.1567571759223938 0 9
15.693760871887207 -13.835947036743164 7.452550888061523 0.15887805819511414 0 9
16.855018615722656 -15.130722045898438 8.068169593811035 0.17448247969150543 0 9
16.240201950073242 -14.84422779083252 7.837333679199219 0.1796213686466217 0 9
15.813779830932617 -14.717138290405273 7.694994926452637 0.3327236473560333 0 9
15.369172096252441 -14.563007354736328 7.541954040527344 0.2829411029815674 0 9
14.382316589355469 -13.87498950958252 7.118513107299805 0.11631700396537781 0 9
14.219305992126465 -13.966337203979492 7.099594593048096 0.11662694811820984 0 9
14.617541313171387 2.3152050971984863 5.134675025939941 0.9483445882797241 0 6
14.75972843170166 2.2021093368530273 5.177469253540039 0.8527022004127502 0 6
17.65745735168457 -5.302294731140137 6.396371841430664 0.2109675109386444 0 9
17.17666244506836 -5.326464653015137 6.239277362823486 0.11660464107990265 0 9
15.833964347839355 -5.861640453338623 5.857825756072998 0.419273316860199 0 9
15.766928672790527 -5.998291015625 5.85270881652832 0.4196399450302124 0 9
15.70071029663086 -6.134970664978027 5.848333835601807 0.41995373368263245 0 9
15.635297775268555 -6.27175760269165 5.844704627990723 0.4202146828174591 0 9
15.570658683776855 -6.408681392669678 5.84181022644043 0.4204227924346924 0 9
15.505084037780762 -6.545029163360596 5.839013576507568 0.36114081740379333 0 9
15.412700653076172 -6.669658184051514 5.82653284072876 0.3619143068790436 0 9
15.321552276611328 -6.794140338897705 5.81489372253418 0.36263859272003174 0 9
15.231599807739258 -6.918505668640137 5.80409049987793 0.36331361532211304 0 9
15.14281177520752 -7.042831897735596 5.79411506652832 0.3639393150806427 0 9
15.055137634277344 -7.16710901260376 5.784951210021973 0.3645157217979431 0 9
14.968558311462402 -7.291415691375732 5.776598930358887 0.36504271626472473 0 9
14.883036613464355 -7.415771484375 5.769049167633057 0.3655204176902771 0 9
14.742229461669922 -7.511513710021973 5.740378379821777 0.1369527280330658 0 9
14.558513641357422 -7.583291053771973 5.695116996765137 0.13804128766059875 0 9
14.380072593688965 -7.655214786529541 5.651965141296387 0.13909518718719482 0 9
14.206652641296387 -7.727334022521973 5.610838413238525 0.14011463522911072 0 9
14.038070678710938 -7.799716472625732 5.571685791015625 0.141099214553833 0 9
13.874089241027832 -7.872402191162109 5.534426212310791 0.1420491635799408 0 9
13.714475631713867 -7.945409774780273 5.498982906341553 0.14296472072601318 0 9
13.55910873413086 -8.018817901611328 5.465328216552734 0.14384517073631287 0 9
13.407771110534668 -8.092636108398438 5.433389663696289 0.14469072222709656 0 9
15.728402137756348 -9.686982154846191 6.408786296844482 0.21715177595615387 0 9
15.953295707702637 -10.024121284484863 6.536822319030762 0.2128983587026596 0 9
16.188840866088867 -10.375956535339355 6.671226501464844 0.20860905945301056 0 9
16.43584442138672 -10.743613243103027 6.812480449676514 0.20428356528282166 0 9
26.592058181762695 -18.778514862060547 11.294411659240723 0.2782466411590576 0 9
26.152450561523438 -18.82217788696289 11.179012298583984 0.28111904859542847 0 9
25.723493576049805 -18.866201400756836 11.067597389221191 0.2839488685131073 0 9
25.302324295043945 -18.908926010131836 10.958971977233887 0.29074543714523315 0 9
24.87577247619629 -18.940458297729492 10.847424507141113 0.07966893911361694 0 9
25.431747436523438 -19.7269229888916 11.166630744934082 0.3968132436275482 0 9
25.152191162109375 -19.87422752380371 11.121761322021484 0.39841407537460327 0 9
24.87604522705078 -20.02130889892578 11.078669548034668 0.39996376633644104 0 9
16.161081314086914 -13.24789047241211 7.2500901222229 0.06406992673873901 0 9
15.563202857971191 -12.993095397949219 7.033905982971191 0.06603911519050598 0 9
23.99116325378418 -20.397470474243164 10.925297737121582 0.035625994205474854 0 9
24.2560977935791 -21.000751495361328 11.13134479522705 0.27602487802505493 0 9
16.832857131958008 -14.840155601501465 7.785568714141846 0.11544403433799744 0 9
16.107397079467773 -14.45961856842041 7.509757041931152 0.11968410015106201 0 9
15.5831880569458 -14.243691444396973 7.324665546417236 0.2953997552394867 0 9
15.45235538482666 -14.380790710449219 7.323552131652832 0.2954447567462921 0 9
15.322665214538574 -14.518935203552246 7.323563098907471 0.29544439911842346 0 9
14.999113082885742 -14.4700288772583 7.230706691741943 0.288278728723526 0 9
14.988245964050293 -14.721571922302246 7.288877964019775 0.28597819805145264 0 9
14.759535789489746 2.2020702362060547 5.0399298667907715 0.8551238179206848 0 6
17.547136306762695 -5.097939491271973 6.171249866485596 0.2134590446949005 0 9
16.844194412231445 -5.389550685882568 5.972911357879639 0.045064687728881836 0 9
18.124269485473633 -6.70950174331665 6.52709436416626 0.548795223236084 0 9
15.535223007202148 -5.910146236419678 5.613582611083984 0.4271026849746704 0 9
15.47014331817627 -6.044892311096191 5.609443187713623 0.42741769552230835 0 9
15.405829429626465 -6.17971658706665 5.60601282119751 0.42767924070358276 0 9
15.318229675292969 -6.304775238037109 5.594502925872803 0.36795347929000854 0 9
15.226884841918945 -6.42760705947876 5.581987380981445 0.3687784671783447 0 9
15.13674259185791 -6.550234317779541 5.570271015167236 0.36955416202545166 0 9
15.047762870788574 -6.672743797302246 5.559346675872803 0.370280385017395 0 9
14.876632690429688 -6.757285118103027 5.518311500549316 0.1390732228755951 0 9
14.682077407836914 -6.828554630279541 5.468658447265625 0.1403360664844513 0 9
14.493309020996094 -6.899658203125 5.421198844909668 0.14156463742256165 0 9
14.310043334960938 -6.970644474029541 5.37583589553833 0.14275911450386047 0 9
14.132064819335938 -7.041572093963623 5.332504749298096 0.1439192295074463 0 9
13.959101676940918 -7.112509727478027 5.29111909866333 0.14504492282867432 0 9
13.701199531555176 -7.136738300323486 5.217433929443359 0.049766600131988525 0 9
13.4130859375 -7.140459060668945 5.131922721862793 0.050595879554748535 0 9
13.14035415649414 -7.147363185882568 5.051916599273682 0.051397085189819336 0 9
12.881895065307617 -7.157362937927246 4.977049350738525 0.05217030644416809 0 9
12.636605262756348 -7.170244216918945 4.906946182250977 0.05291557312011719 0 9
32.519615173339844 -18.840116500854492 12.692914009094238 0.424757182598114 0 9
40.109134674072266 -23.720478057861328 15.737693786621094 0.2941344976425171 0 9
40.2928466796875 -24.319881439208984 15.894786834716797 0.24586455523967743 0 9
15.097244262695312 -9.298291206359863 5.988275051116943 0.12548954784870148 0 9
15.496427536010742 -9.737060546875 6.18102502822876 0.21979445219039917 0 9
15.715995788574219 -10.07291030883789 6.304417610168457 0.21549266576766968 0 9
15.945902824401855 -10.423349380493164 6.433910846710205 0.2111554741859436 0 9
16.186954498291016 -10.789541244506836 6.56998872756958 0.2067820280790329 0 9
25.695507049560547 -17.462675094604492 10.492527961730957 0.0381430983543396 0 9
28.222684860229492 -19.9300479888916 11.668709754943848 0.12922871112823486 0 9
25.824275970458984 -18.585966110229492 10.745627403259277 0.32227760553359985 0 9
25.79319953918457 -18.917343139648438 10.802921295166016 0.3656236529350281 0 9
25.55304718017578 -19.0963077545166 10.773700714111328 0.366615355014801 0 9
25.31452178955078 -19.274560928344727 10.745644569396973 0.4025450050830841 0 9
25.037477493286133 -19.42107391357422 10.701605796813965 0.4042013883590698 0 9
24.763822555541992 -19.56731414794922 10.659290313720703 0.4058063328266144 0 9
24.493383407592773 -19.713319778442383 10.61861801147461 0.4073604941368103 0 9
24.226070404052734 -19.859121322631836 10.579582214355469 0.4088634252548218 0 9
34.593536376953125 -29.411699295043945 15.335209846496582 0.29015323519706726 0 9
16.61281967163086 -14.383232116699219 7.421348571777344 0.11822739243507385 0 9
32.63123321533203 -28.768301010131836 14.691917419433594 0.2287428081035614 0 9
16.814661026000977 -15.094501495361328 7.63134765625 0.21166914701461792 0 9
16.225860595703125 -14.831122398376465 7.424246788024902 0.21757376194000244 0 9
15.840638160705566 -14.742148399353027 7.308237075805664 0.51845782995224 0 9
14.88032341003418 -14.09976577758789 6.923296928405762 0.08224943280220032 0 9
14.841720581054688 -14.318212509155273 6.96485710144043 0.30326664447784424 0 9
14.717001914978027 -14.455175399780273 6.966934680938721 0.3031761944293976 0 9
18.311344146728516 -6.040722370147705 6.335486888885498 0.5515698194503784 0 9
18.219999313354492 -6.192470550537109 6.322863578796387 0.5526711344718933 0 9
18.129526138305664 -6.343798637390137 6.310971736907959 0.5537124872207642 0 9
18.039875030517578 -6.494765281677246 6.299802303314209 0.5546941161155701 0 9
17.95103645324707 -6.64538049697876 6.289356708526611 0.5556154251098633 0 9
15.311454772949219 -5.825029373168945 5.382652282714844 0.43453648686408997 0 9
15.230974197387695 -5.951416015625 5.372920036315918 0.3737614154815674 0 9
15.073613166809082 -6.046454906463623 5.336341381072998 0.14029958844184875 0 9
14.815431594848633 -6.097831726074219 5.264105319976807 0.04811939597129822 0 9
14.428024291992188 -6.090380668640137 5.145673751831055 0.0492270290851593 0 9
14.064131736755371 -6.086083889007568 5.035176753997803 0.05030721426010132 0 9
13.721721649169922 -6.084726333618164 4.931944847106934 0.05136016011238098 0 9
13.398945808410645 -6.086093425750732 4.835368633270264 0.052386075258255005 0 9
13.094313621520996 -6.090087890625 4.744968891143799 0.05338418483734131 0 9
12.806323051452637 -6.096523284912109 4.660253524780273 0.05435448884963989 0 9
12.53363037109375 -6.105302810668945 4.580775737762451 0.05529746413230896 0 9
12.275172233581543 -6.11632776260376 4.506200313568115 0.05621269345283508 0 9
12.029903411865234 -6.129550457000732 4.43618631362915 0.05709990859031677 0 9
16.78373908996582 -8.742372512817383 6.217909812927246 0.34865763783454895 0 9
17.47599983215332 -9.30331039428711 6.505044937133789 0.32607775926589966 0 9
17.65724754333496 -9.604208946228027 6.604331970214844 0.3211755156517029 0 9
17.84499740600586 -9.91494083404541 6.70757532119751 0.31623196601867676 0 9
32.0711555480957 -18.197792053222656 12.115814208984375 0.21621310710906982 0 9
31.886083602905273 -18.473085403442383 12.108046531677246 0.21635174751281738 0 9
32.47893142700195 -19.207988739013672 12.39814567565918 0.3752264082431793 0 9
40.05576705932617 -24.176795959472656 15.372668266296387 0.5545603632926941 0 9
39.62455368041992 -24.40443229675293 15.290620803833008 0.5575356483459473 0 9
14.7578706741333 -9.272968292236328 5.726769924163818 0.12801170349121094 0 9
15.205424308776855 -9.745654106140137 5.934154033660889 0.1235380470752716 0 9
15.486824989318848 -10.123281478881836 6.079190731048584 0.2180127054452896 0 9
15.7113676071167 -10.472529411315918 6.203986644744873 0.21362736821174622 0 9
15.946696281433105 -10.837363243103027 6.335063457489014 0.20920714735984802 0 9
28.13007926940918 -19.488622665405273 11.24413776397705 0.1308295875787735 0 9
26.92514991760254 -19.013769149780273 10.830288887023926 0.13582873344421387 0 9
25.574865341186523 -18.406435012817383 10.353195190429688 0.37217867374420166 0 9
25.337553024291992 -18.58318328857422 10.324240684509277 0.37322235107421875 0 9
25.102861404418945 -18.75983428955078 10.29680061340332 0.37421679496765137 0 9
24.870643615722656 -18.93661117553711 10.270865440368652 0.3751619756221771 0 9
24.640825271606445 -19.1133975982666 10.246394157409668 0.3760579228401184 0 9
24.3892822265625 -19.27139663696289 10.2133150100708 0.41317158937454224 0 9
24.124345779418945 -19.416297912597656 10.174942016601562 0.4147297739982605 0 9
23.862396240234375 -19.560976028442383 10.138106346130371 0.4162365794181824 0 9
34.722373962402344 -28.988309860229492 14.861988067626953 0.2920723259449005 0 9
33.80563735961914 -29.26860237121582 14.692166328430176 0.3121456801891327 0 9
16.407455444335938 -14.465116500854492 7.186933517456055 0.5219758749008179 0 9
16.20901107788086 -14.550829887390137 7.156935691833496 0.5241637825965881 0 9
15.74672794342041 -14.393144607543945 7.009578704833984 0.34589678049087524 0 9
15.571887016296387 -14.492060661315918 6.989377498626709 0.34689658880233765 0 9
15.395234107971191 -14.587685585021973 6.968578815460205 0.39189282059669495 0 9
15.047276496887207 -14.51650333404541 6.869782447814941 0.21062511205673218 0 9
15.008062362670898 -14.741073608398438 6.912011623382568 0.3950998783111572 0 9
14.899638175964355 2.0864453315734863 4.806264400482178 0.8391545414924622 0 6
18.1856689453125 -5.818789005279541 6.09971284866333 0.4389253854751587 0 9
18.10650062561035 -5.97314453125 6.09089469909668 0.4395607113838196 0 9
18.02827262878418 -6.127295017242432 6.082835674285889 0.44014298915863037 0 9
17.950971603393555 -6.281308650970459 6.075534343719482 0.44067203998565674 0 9
17.869720458984375 -6.433505535125732 6.06733512878418 0.5614739656448364 0 9
17.781991958618164 -6.582812309265137 6.057369232177734 0.5623977780342102 0 9
17.69502067565918 -6.731796741485596 6.048078536987305 0.5632615685462952 0 9
16.329404830932617 -6.380624771118164 5.600667476654053 0.18823188543319702 0 9
16.39508056640625 -6.57653284072876 5.643215179443359 0.18681275844573975 0 9
16.46364402770996 -6.776230335235596 5.687522888183594 0.18535739183425903 0 9
16.49365234375 -6.962333679199219 5.719244480133057 0.3302578330039978 0 9
16.51555824279785 -7.146914005279541 5.748854637145996 0.3285568356513977 0 9
16.53864860534668 -7.333837509155273 5.779576301574707 0.326810359954834 0 9
16.562973022460938 -7.523252010345459 5.811440467834473 0.3250185251235962 0 9
16.588544845581055 -7.715224266052246 5.84447717666626 0.32318127155303955 0 9
16.615398406982422 -7.909862995147705 5.878716945648193 0.3212990462779999 0 9
16.60370635986328 -8.087929725646973 5.900025367736816 0.35820895433425903 0 9
16.556943893432617 -8.24984359741211 5.90948486328125 0.35763564705848694 0 9
16.51091194152832 -8.412714958190918 5.919771671295166 0.35701435804367065 0 9
16.465595245361328 -8.57666015625 5.930887222290039 0.35634517669677734 0 9
16.42098045349121 -8.741708755493164 5.942840576171875 0.3556283414363861 0 9
16.37706756591797 -8.907899856567383 5.955646991729736 0.354863703250885 0 9
16.333845138549805 -9.075292587280273 5.969311237335205 0.3540513813495636 0 9
16.29129409790039 -9.243993759155273 5.983845233917236 0.3531915545463562 0 9
32.982177734375 -19.108104705810547 12.176960945129395 0.45684605836868286 0 9
39.71529006958008 -23.48752784729004 14.740059852600098 0.3052749037742615 0 9
39.64175796508789 -23.92691421508789 14.791888236999512 0.3042053282260895 0 9
39.17975616455078 -24.130496978759766 14.699726104736328 0.4315277636051178 0 9
39.34307861328125 -24.72087860107422 14.843663215637207 0.36560481786727905 0 9
14.866743087768555 -9.71792984008789 5.673957347869873 0.12595653533935547 0 9
15.265264511108398 -10.17520523071289 5.860674858093262 0.220458522439003 0 9
15.48464298248291 -10.52334976196289 5.980924129486084 0.216026172041893 0 9
25.06739616394043 -17.36674690246582 9.742070198059082 0.1783156394958496 0 9
24.90877342224121 -17.589862823486328 9.7413911819458 0.17832812666893005 0 9
24.753164291381836 -17.81507682800293 9.742676734924316 0.17830458283424377 0 9
24.60049819946289 -18.042577743530273 9.745942115783691 0.17824482917785645 0 9
24.450700759887695 -18.272499084472656 9.751187324523926 0.17814901471138 0 9
24.303653717041016 -18.5048828125 9.758390426635742 0.17801743745803833 0 9
24.15934944152832 -18.739971160888672 9.767600059509277 0.1778496503829956 0 9
23.99582862854004 -18.96049690246582 9.769901275634766 0.38448774814605713 0 9
23.768157958984375 -19.129648208618164 9.746726036071777 0.42207083106040955 0 9
16.944440841674805 -13.890068054199219 6.999331951141357 0.11921784281730652 0 9
25.21163558959961 -21.048173904418945 10.491922378540039 0.5668415427207947 0 9
16.6217098236084 -14.1318941116333 6.969705581665039 0.41775423288345337 0 9
16.42920684814453 -14.22426700592041 6.942243576049805 0.419406920671463 0 9
16.238866806030273 -14.316484451293945 6.91583251953125 0.42100828886032104 0 9
15.619215965270996 -14.021347045898438 6.705270767211914 0.35250818729400635 0 9
15.446717262268066 -14.118935585021973 6.685357570648193 0.35355812311172485 0 9
15.276054382324219 -14.21670913696289 6.66645622253418 0.3545605540275574 0 9
15.054423332214355 -14.264775276184082 6.62534761428833 0.21290776133537292 0 9
14.93993854522705 -14.412968635559082 6.631638050079346 0.3564223051071167 0 9
14.771157264709473 -14.5083589553833 6.614253997802734 0.40251079201698303 0 9
17.932010650634766 -5.737636566162109 5.843991756439209 0.44629162549972534 0 9
17.85430145263672 -5.889941215515137 5.835654258728027 0.44692879915237427 0 9
17.77749252319336 -6.042060375213623 5.828044414520264 0.4475124478340149 0 9
17.70155906677246 -6.194033145904541 5.821142673492432 0.44804298877716064 0 9
17.626468658447266 -6.345917701721191 5.814944744110107 0.44852039217948914 0 9
17.55221176147461 -6.497744083404541 5.809454441070557 0.4489443302154541 0 9
17.478750228881836 -6.64953088760376 5.804663181304932 0.4493149518966675 0 9
17.40608024597168 -6.801337718963623 5.800574779510498 0.449631929397583 0 9
17.334156036376953 -6.953203201293945 5.797163963317871 0.4498961567878723 0 9
15.82589340209961 -6.513730525970459 5.312090873718262 0.1933283507823944 0 9
15.889677047729492 -6.70739221572876 5.353492259979248 0.19183319807052612 0 9
15.956210136413574 -6.904863357543945 5.3965744972229 0.19030174612998962 0 9
16.025583267211914 -7.106328010559082 5.441390037536621 0.18873441219329834 0 9
16.097898483276367 -7.311982154846191 5.488009929656982 0.18713116645812988 0 9
16.17327880859375 -7.522069931030273 5.536503791809082 0.18549206852912903 0 9
16.2518310546875 -7.736796855926514 5.58694314956665 0.18381750583648682 0 9
16.298004150390625 -7.938984394073486 5.62708854675293 0.36587685346603394 0 9
16.251615524291992 -8.097675323486328 5.635937213897705 0.3653022050857544 0 9
16.20591926574707 -8.257294654846191 5.645569801330566 0.36467909812927246 0 9
16.160871505737305 -8.417920112609863 5.655970096588135 0.36400842666625977 0 9
16.116483688354492 -8.579569816589355 5.667159080505371 0.3632897138595581 0 9
16.072736740112305 -8.742353439331055 5.679142951965332 0.36252307891845703 0 9
16.02770233154297 -8.90517520904541 5.691243648529053 0.22102782130241394 0 9
15.983038902282715 -9.069052696228027 5.704064846038818 0.22053119540214539 0 9
15.93964958190918 -9.234550476074219 5.717930793762207 0.21999627351760864 0 9
15.897541046142578 -9.40176773071289 5.732867240905762 0.2194231152534485 0 9
15.856712341308594 -9.570771217346191 5.748893737792969 0.21881142258644104 0 9
15.817136764526367 -9.741650581359863 5.766014099121094 0.21816161274909973 0 9
39.993194580078125 -25.129384994506836 14.66084098815918 0.6075253486633301 0 9
38.204856872558594 -24.973388671875 14.167363166809082 0.013147354125976562 0 9
27.982316970825195 -18.651845932006836 10.438237190246582 0.13383805751800537 0 9
12.025297164916992 -8.172382354736328 4.512978553771973 0.9479905962944031 0 9
11.923209190368652 -8.260438919067383 4.502309322357178 0.9502364993095398 0 9
26.152902603149414 -18.822490692138672 10.00156307220459 0.4438502788543701 0 9
26.03428077697754 -19.09415054321289 10.021342277526855 0.4429744482040405 0 9
25.33582305908203 -18.93392562866211 9.817508697509766 0.4130975604057312 0 9
25.286266326904297 -19.2530460357666 9.86488151550293 0.4111139178276062 0 9
25.23727798461914 -19.57606315612793 9.91391372680664 0.4090803265571594 0 9
25.188871383666992 -19.9031925201416 9.964681625366211 0.40699630975723267 0 9
25.14102554321289 -20.234560012817383 10.017196655273438 0.40486252307891846 0 9
25.09111213684082 -20.56820297241211 10.070474624633789 0.538287878036499 0 9
24.887113571166992 -20.77725601196289 10.063039779663086 0.44362717866897583 0 9
16.378713607788086 -13.925302505493164 6.672963619232178 0.42505472898483276 0 9
16.18994903564453 -14.017128944396973 6.647051811218262 0.4267116189002991 0 9
16.003265380859375 -14.108769416809082 6.622134685516357 0.428317129611969 0 9
14.338876724243164 -12.872011184692383 5.980985164642334 0.04612618684768677 0 9
14.144039154052734 -12.92822265625 5.947879314422607 0.046382904052734375 0 9
15.064985275268555 -14.020282745361328 6.387820720672607 0.2151174545288086 0 9
15.275922775268555 -14.474637985229492 6.53209114074707 0.4342212677001953 0 9
15.098578453063965 -14.56600570678711 6.511904239654541 0.43556728959083557 0 9
14.903008460998535 -14.637870788574219 6.483967304229736 0.2947860360145569 0 9
15.049880027770996 1.9698925018310547 4.574397087097168 0.8396487236022949 0 6
17.610265731811523 -5.80944299697876 5.588680267333984 0.4542664885520935 0 9
17.53482437133789 -5.959579944610596 5.581490516662598 0.45485156774520874 0 9
17.4601993560791 -6.109589576721191 5.574969291687012 0.4553835391998291 0 9
17.386396408081055 -6.259482383728027 5.56912088394165 0.4558619260787964 0 9
17.313371658325195 -6.409345626831055 5.563935279846191 0.4562869071960449 0 9
17.241098403930664 -6.559121131896973 5.559401512145996 0.4566585421562195 0 9
17.169574737548828 -6.708935260772705 5.555534362792969 0.4569767117500305 0 9
16.030662536621094 -6.430361270904541 5.205484390258789 0.18535077571868896 0 9
16.034709930419922 -6.599677562713623 5.225825309753418 0.18462932109832764 0 9
16.040590286254883 -6.771103382110596 5.247342586517334 0.18387237191200256 0 9
15.355046272277832 -6.644716739654541 5.042386054992676 0.19825173914432526 0 9
15.416972160339355 -6.836435317993164 5.082667350769043 0.19668048620224 0 9
15.481502532958984 -7.032021522521973 5.124544620513916 0.1950731873512268 0 9
15.54873275756836 -7.231611251831055 5.16807746887207 0.19343005120754242 0 9
15.618757247924805 -7.435429573059082 5.213327407836914 0.19175110757350922 0 9
15.69168758392334 -7.64367151260376 5.260361194610596 0.19003669917583466 0 9
15.74511432647705 -7.845312118530273 5.301663875579834 0.23095852136611938 0 9
15.69476318359375 -7.996865272521973 5.308665752410889 0.23065391182899475 0 9
15.645647048950195 -8.149550437927246 5.316583156585693 0.23031048476696014 0 9
15.597735404968262 -8.303427696228027 5.325413703918457 0.22992850840091705 0 9
15.551017761230469 -8.458574295043945 5.335169792175293 0.22950802743434906 0 9
15.505489349365234 -8.615057945251465 5.345866680145264 0.22904883325099945 0 9
15.46114444732666 -8.77294921875 5.357513427734375 0.22855089604854584 0 9
15.417938232421875 -8.932324409484863 5.37010383605957 0.22801493108272552 0 9
15.375904083251953 -9.093271255493164 5.383678913116455 0.2274399846792221 0 9
17.721017837524414 -10.696015357971191 6.238160133361816 0.31432709097862244 0 9
17.919843673706055 -11.036649703979492 6.342765808105469 0.3091432452201843 0 9
39.19915008544922 -24.630468368530273 13.952309608459473 0.20030532777309418 0 9
39.520751953125 -25.330175399780273 14.147143363952637 0.5120314955711365 0 9
12.07446002960205 -8.205780982971191 4.399787902832031 0.9465152025222778 0 9
11.97183609008789 -8.29410171508789 4.38934326171875 0.9487671256065369 0 9
11.869555473327637 -8.381942749023438 4.3792524337768555 0.95095294713974 0 9
11.767619132995605 -8.469247817993164 4.369514465332031 0.9530724883079529 0 9
11.665990829467773 -8.556083679199219 4.360118389129639 0.9551257491111755 0 9
11.564667701721191 -8.642499923706055 4.351070880889893 0.9571126103401184 0 9
24.910818099975586 -18.96717643737793 9.436079025268555 0.41836392879486084 0 9
24.860729217529297 -19.283964157104492 9.482288360595703 0.4163251221179962 0 9
24.811141967773438 -19.604717254638672 9.530108451843262 0.41423600912094116 0 9
24.762060165405273 -19.92957878112793 9.579586029052734 0.4120965301990509 0 9
24.71346664428711 -20.258623123168945 9.630746841430664 0.40990740060806274 0 9
24.544921875 -20.4915714263916 9.636359214782715 0.45094770193099976 0 9
16.143884658813477 -13.72567367553711 6.386219501495361 0.4323263168334961 0 9
15.95872974395752 -13.816913604736328 6.361778259277344 0.4339873194694519 0 9
15.77556324005127 -13.9080171585083 6.338266372680664 0.435596764087677 0 9
15.533329963684082 -13.944257736206055 6.290981292724609 0.21261879801750183 0 9
15.078805923461914 -13.782636642456055 6.156754016876221 0.21725428104400635 0 9
15.237349510192871 -14.180692672729492 6.273218631744385 0.44011402130126953 0 9
15.03956127166748 -14.250663757324219 6.244194030761719 0.3681577146053314 0 9
14.833476066589355 -14.310263633728027 6.211719989776611 0.37008267641067505 0 9
14.630193710327148 -14.369940757751465 6.18035364151001 0.3719606399536133 0 9
22.27739715576172 4.979599475860596 6.67478609085083 0.926861047744751 0 3
22.268213272094727 4.768105506896973 6.658938884735107 0.9290664196014404 0 3
22.25906753540039 4.557568073272705 6.64370584487915 0.9311969876289368 0 3
22.24996566772461 4.347998142242432 6.629073143005371 0.9332526326179504 0 3
22.240901947021484 4.139316082000732 6.615035057067871 0.9352328777313232 0 3
22.231876373291016 3.931513547897339 6.601586818695068 0.9371379017829895 0 3
22.4478702545166 3.143437385559082 6.62792444229126 0.944003164768219 0 3
22.438905715942383 2.937060594558716 6.617231369018555 0.9455292820930481 0 3
22.429969787597656 2.7313573360443115 6.60709810256958 0.9469791650772095 0 3
22.42106056213379 2.526259660720825 6.597526550292969 0.9483527541160583 0 3
22.41217803955078 2.321718692779541 6.588516712188721 0.9496500492095947 0 3
22.4033145904541 2.117734432220459 6.580056190490723 0.95087069272995 0 3
22.394474029541016 1.9142577648162842 6.572150707244873 0.9520147442817688 0 3
22.385656356811523 1.7112401723861694 6.564789772033691 0.953082263469696 0 3
22.376855850219727 1.5086718797683716 6.557971000671387 0.9540729522705078 0 3
22.368070602416992 1.3065136671066284 6.551694393157959 0.9549867510795593 0 3
22.35930633544922 1.1047167778015137 6.545961856842041 0.955823540687561 0 3
22.350555419921875 0.9032714366912842 6.54075813293457 0.9565834403038025 0 3
22.34181022644043 0.7021386623382568 6.536093711853027 0.9572662115097046 0 3
22.333080291748047 0.5012401938438416 6.531960487365723 0.9578719735145569 0 3
22.324359893798828 0.3005761504173279 6.528360366821289 0.9584004282951355 0 3
22.315650939941406 0.10013671964406967 6.525284290313721 0.9588518738746643 0 3
22.306947708129883 -0.1001269519329071 6.522740364074707 0.9592258930206299 0 3
22.29825210571289 -0.30025389790534973 6.520724773406982 0.9595227241516113 0 3
22.289560317993164 -0.5002636313438416 6.519231796264648 0.9597422480583191 0 3
22.28087043762207 -0.7002148032188416 6.518267631530762 0.9598844647407532 0 3
22.27218246459961 -0.9000976085662842 6.517825603485107 0.9599493741989136 0 3
22.26349639892578 -1.0999902486801147 6.517908573150635 0.9599369764328003 0 3
22.254806518554688 -1.299892544746399 6.518520355224609 0.9598472118377686 0 3
22.24611473083496 -1.4998828172683716 6.519656658172607 0.9596800804138184 0 3
22.23741912841797 -1.699951171875 6.521315574645996 0.9594356417655945 0 3
22.228715896606445 -1.9001171588897705 6.523504257202148 0.9591139554977417 0 3
22.220006942749023 -2.1004393100738525 6.5262131690979 0.9587150812149048 0 3
22.211294174194336 -2.3009276390075684 6.529458045959473 0.9582388401031494 0 3
22.202566146850586 -2.5016307830810547 6.533233642578125 0.9576854705810547 0 3
22.193830490112305 -2.7026171684265137 6.537539005279541 0.9570549726486206 0 3
22.185083389282227 -2.90386700630188 6.542372703552246 0.9563473463058472 0 3
22.17631721496582 -3.105419874191284 6.547746658325195 0.9555627107620239 0 3
22.16754150390625 -3.307304620742798 6.553657054901123 0.9547010660171509 0 3
22.15874481201172 -3.509599447250366 6.560104846954346 0.9537625312805176 0 3
22.149930953979492 -3.7123045921325684 6.567099571228027 0.9527471661567688 0 3
22.141096115112305 -3.915468692779541 6.574637413024902 0.9516550302505493 0 3
22.132240295410156 -4.119121074676514 6.582716941833496 0.9504862427711487 0 3
22.123363494873047 -4.32327127456665 6.591358661651611 0.9492408633232117 0 3
22.114459991455078 -4.527978420257568 6.600545406341553 0.9479191303253174 0 3
22.105531692504883 -4.733271598815918 6.610292911529541 0.9465210437774658 0 3
22.096576690673828 -4.939198970794678 6.620606422424316 0.945046603679657 0 3
22.08759307861328 -5.145771503448486 6.631494045257568 0.9434958100318909 0 3
22.07857894897461 -5.353036880493164 6.6429443359375 0.94186931848526 0 3
22.069530487060547 -5.56106424331665 6.654971599578857 0.9401669502258301 0 3
22.06045150756836 -5.769843578338623 6.667577743530273 0.9383888840675354 0 3
17.373979568481445 -5.731464862823486 5.349543571472168 0.4615730047225952 0 9
17.299842834472656 -5.879726409912109 5.342753887176514 0.4621597230434418 0 9
17.226499557495117 -6.02783203125 5.336598873138428 0.46269285678863525 0 9
17.153915405273438 -6.17578125 5.33106803894043 0.4631726145744324 0 9
17.082073211669922 -6.323691368103027 5.326164245605469 0.46359890699386597 0 9
15.401365280151367 -5.859218597412109 4.818330764770508 0.19475841522216797 0 9
15.399702072143555 -6.017343521118164 4.834512710571289 0.19410644471645355 0 9
15.399628639221191 -6.177216529846191 4.851701736450195 0.19341883063316345 0 9
15.40114974975586 -6.338906288146973 4.869913578033447 0.19269554316997528 0 9
15.404279708862305 -6.50247049331665 4.889161586761475 0.19193688035011292 0 9
15.409040451049805 -6.668066024780273 4.909469127655029 0.19114293158054352 0 9
15.415472984313965 -6.835781097412109 4.93087100982666 0.19031333923339844 0 9
15.42358112335205 -7.005702972412109 4.953378677368164 0.1894485056400299 0 9
14.973390579223633 -6.964033126831055 4.828677654266357 0.2013547718524933 0 9
15.035956382751465 -7.15798807144165 4.86937952041626 0.199671670794487 0 9
15.101079940795898 -7.355947017669678 4.911655426025391 0.19795307517051697 0 9
15.168863296508789 -7.558173656463623 4.955569744110107 0.19619892537593842 0 9
15.205244064331055 -7.747460842132568 4.9899725914001465 0.23866309225559235 0 9
15.156944274902344 -7.894989967346191 4.997176170349121 0.23831899464130402 0 9
15.109745979309082 -8.043652534484863 5.005218029022217 0.2379361391067505 0 9
15.06363582611084 -8.193486213684082 5.014104843139648 0.2375144362449646 0 9
15.018582344055176 -8.344511985778809 5.023834228515625 0.23705428838729858 0 9
14.97459888458252 -8.496865272521973 5.034433841705322 0.2365552932024002 0 9
14.931669235229492 -8.650614738464355 5.045907020568848 0.23601751029491425 0 9
17.182254791259766 -10.161542892456055 5.837037086486816 0.26689380407333374 0 9
17.366680145263672 -10.482138633728027 5.931416988372803 0.2626471519470215 0 9
17.558286666870117 -10.813993453979492 6.029770374298096 0.2583630681037903 0 9
17.757497787475586 -11.1577730178833 6.132328987121582 0.25404199957847595 0 9
37.38164138793945 -23.9591007232666 12.983013153076172 0.10024571418762207 0 9
36.70109176635742 -23.990419387817383 12.820940971374512 0.10151305794715881 0 9
12.12377643585205 -8.2393159866333 4.286231994628906 0.9449754357337952 0 9
12.020617485046387 -8.327890396118164 4.276017665863037 0.9472329616546631 0 9
11.917814254760742 -8.416006088256836 4.266149997711182 0.9494240283966064 0 9
11.815346717834473 -8.503613471984863 4.256622314453125 0.9515489339828491 0 9
11.713208198547363 -8.59072208404541 4.247434139251709 0.9536072015762329 0 9
11.61137866973877 -8.677382469177246 4.238583564758301 0.9555988311767578 0 9
11.50983715057373 -8.763603210449219 4.230060577392578 0.9575235247612 0 9
11.408581733703613 -8.849404335021973 4.221871376037598 0.9593813419342041 0 9
11.30759048461914 -8.934775352478027 4.214008808135986 0.9611718654632568 0 9
11.206846237182617 -9.019736289978027 4.206463813781738 0.9628951549530029 0 9
24.34634780883789 -19.957714080810547 9.205219268798828 0.4171081483364105 0 9
24.26702308654785 -20.259578704833984 9.243614196777344 0.3907347023487091 0 9
15.916814804077148 -13.532597541809082 6.108937740325928 0.4395686388015747 0 9
15.735116004943848 -13.623330116271973 6.085886001586914 0.44123363494873047 0 9
15.548528671264648 -13.707870483398438 6.061069011688232 0.2146386355161667 0 9
15.377373695373535 -13.8042573928833 6.042410850524902 0.44440850615501404 0 9
15.189315795898438 -13.883662223815918 6.017243385314941 0.371578186750412 0 9
14.982458114624023 -13.94344711303711 5.984634876251221 0.37360259890556335 0 9
14.778474807739258 -14.003271102905273 5.953122615814209 0.3755800724029541 0 9
14.577287673950195 -14.063095092773438 5.922695159912109 0.37750980257987976 0 9
9.872004508972168 -9.696356773376465 4.046156883239746 0.8198765516281128 0 9
22.37211799621582 7.158281326293945 6.65869140625 0.9028698205947876 0 3
22.362403869628906 6.934550762176514 6.637004375457764 0.905819833278656 0 3
22.352750778198242 6.712216854095459 6.615992069244385 0.9086968898773193 0 3
22.343158721923828 6.491279125213623 6.595639705657959 0.9115008115768433 0 3
22.333620071411133 6.271689414978027 6.575944900512695 0.9142311215400696 0 3
22.324140548706055 6.053369045257568 6.556887149810791 0.9168880581855774 0 3
22.31471061706543 5.836318016052246 6.538467884063721 0.9194708466529846 0 3
21.759811401367188 5.482997894287109 6.361198425292969 0.9553709030151367 0 3
21.757488250732422 5.275185585021973 6.346419334411621 0.9575948715209961 0 3
21.754974365234375 5.068271160125732 6.332165241241455 0.9597516655921936 0 3
21.752286911010742 4.862226486206055 6.318421363830566 0.9618390798568726 0 3
21.74941062927246 4.65701150894165 6.305190086364746 0.9638574719429016 0 3
21.746347427368164 4.452597618103027 6.29246187210083 0.9658070206642151 0 3
21.751110076904297 4.25051736831665 6.282546043395996 0.33988991379737854 0 3
22.24100685119629 4.139345645904541 6.413060188293457 0.9374515414237976 0 3
22.231979370117188 3.931533098220825 6.400020599365234 0.9393611550331116 0 3
23.043378829956055 3.862060546875 6.623356819152832 0.19887085258960724 0 3
21.933197021484375 3.473876953125 6.2950439453125 0.9740250110626221 0 3
21.9293155670166 3.2717771530151367 6.2852463722229 0.9760470986366272 0 3
21.924955368041992 3.070185422897339 6.275846004486084 0.9775092601776123 0 3
21.92041778564453 2.869189500808716 6.26692008972168 0.9789010882377625 0 3
21.91569709777832 2.6687207221984863 6.258473873138428 0.9802230596542358 0 3
21.910797119140625 2.4687695503234863 6.250489234924316 0.9814741611480713 0 3
21.905719757080078 2.2692577838897705 6.242978572845459 0.982654869556427 0 3
21.900455474853516 2.0702147483825684 6.235932350158691 0.983765184879303 0 3
21.89501953125 1.8715918064117432 6.229345798492432 0.9848051071166992 0 3
21.889394760131836 1.6733105182647705 6.223222732543945 0.9857741594314575 0 3
21.883590698242188 1.4754101037979126 6.217559814453125 0.9866723418235779 0 3
21.877607345581055 1.2778613567352295 6.212349891662598 0.9874997138977051 0 3
21.871442794799805 1.0806347131729126 6.20759391784668 0.9882560968399048 0 3
21.865097045898438 0.8836718797683716 6.203291893005371 0.9889413714408875 0 3
21.858566284179688 0.6869433522224426 6.199441909790039 0.9895564317703247 0 3
21.851850509643555 0.49043944478034973 6.196038722991943 0.9900996088981628 0 3
21.844955444335938 0.2941210865974426 6.193087100982666 0.9905717968940735 0 3
21.837881088256836 0.09801757335662842 6.190577030181885 0.9909726977348328 0 3
21.830612182617188 -0.09797850996255875 6.188522815704346 0.9913025498390198 0 3
21.823162078857422 -0.29383787512779236 6.186909198760986 0.9915608167648315 0 3
21.815526962280273 -0.48963865637779236 6.185738563537598 0.9917478561401367 0 3
21.80770492553711 -0.6853320002555847 6.185014724731445 0.9918638467788696 0 3
21.799692153930664 -0.88099604845047 6.18474006652832 0.9919086694717407 0 3
21.791488647460938 -1.0766797065734863 6.184902191162109 0.9918820261955261 0 3
21.78309440612793 -1.272363305091858 6.185511112213135 0.9917842149734497 0 3
21.774511337280273 -1.468105435371399 6.18657112121582 0.9916149973869324 0 3
21.765737533569336 -1.6638671159744263 6.188069820404053 0.9913746118545532 0 3
21.75676155090332 -1.8597460985183716 6.19001579284668 0.991063117980957 0 3
21.74759292602539 -2.0557615756988525 6.192405700683594 0.9906805157661438 0 3
21.73822784423828 -2.2519140243530273 6.19524621963501 0.9902263879776001 0 3
21.728662490844727 -2.4482617378234863 6.198531150817871 0.9897012114524841 0 3
21.718902587890625 -2.644765615463257 6.202268123626709 0.9891048073768616 0 3
21.708934783935547 -2.8415136337280273 6.206458568572998 0.9884375333786011 0 3
21.69876480102539 -3.0385351181030273 6.211101055145264 0.9876984357833862 0 3
21.68838882446289 -3.2358593940734863 6.216193675994873 0.9868898391723633 0 3
21.677806854248047 -3.4334568977355957 6.221741676330566 0.9860084056854248 0 3
21.667011260986328 -3.6313769817352295 6.227750301361084 0.9850568175315857 0 3
21.656009674072266 -3.8296873569488525 6.234213829040527 0.9840350151062012 0 3
21.64478874206543 -4.028388500213623 6.241143703460693 0.9829438328742981 0 3
21.633358001708984 -4.227489948272705 6.248536109924316 0.9817809462547302 0 3
21.621700286865234 -4.427089691162109 6.256398677825928 0.9805474281311035 0 3
21.609830856323242 -4.627119064331055 6.264726638793945 0.9792439341545105 0 3
21.597736358642578 -4.827695369720459 6.273532390594482 0.9778696894645691 0 3
21.58540916442871 -5.028789043426514 6.282812595367432 0.9764255285263062 0 3
21.572860717773438 -5.230439186096191 6.2925705909729 0.9749111533164978 0 3
21.56087875366211 -5.43289041519165 6.303044319152832 0.9717273712158203 0 3
22.060556411743164 -5.769863128662109 6.463998794555664 0.9406150579452515 0 3
17.145030975341797 -5.655956745147705 5.1178388595581055 0.46884840726852417 0 9
17.072160720825195 -5.802333831787109 5.111429691314697 0.4694364666938782 0 9
17.000038146972656 -5.948564529418945 5.105617046356201 0.4699709415435791 0 9
16.92864418029785 -6.094687461853027 5.100399494171143 0.4704517722129822 0 9
16.85795021057129 -6.240712642669678 5.095774173736572 0.4708787202835083 0 9
16.787946701049805 -6.386738300323486 5.091736793518066 0.4712522625923157 0 9
16.718603134155273 -6.532724380493164 5.088282585144043 0.4715718626976013 0 9
16.649913787841797 -6.678750038146973 5.085421562194824 0.47183746099472046 0 9
16.581844329833984 -6.824872970581055 5.083136558532715 0.4720495343208313 0 9
16.514385223388672 -6.971093654632568 5.081433296203613 0.4722076952457428 0 9
14.821486473083496 -6.413837909698486 4.57806396484375 0.19919252395629883 0 9
14.825204849243164 -6.574023246765137 4.597252368927002 0.19836106896400452 0 9
14.830414772033691 -6.736289024353027 4.617434978485107 0.19749408960342407 0 9
14.837129592895508 -6.900654315948486 4.638620853424072 0.19659200310707092 0 9
14.845390319824219 -7.067235946655273 4.660848140716553 0.19565449655056 0 9
14.555851936340332 -7.090380668640137 4.589742183685303 0.20585615932941437 0 9
14.616469383239746 -7.282948970794678 4.629284858703613 0.20409779250621796 0 9
14.679530143737793 -7.479579925537109 4.6703338623046875 0.20230399072170258 0 9
14.699983596801758 -7.656972408294678 4.69851541519165 0.2463114857673645 0 9
14.6535005569458 -7.80078125 4.705849647521973 0.24592764675617218 0 9
14.608007431030273 -7.945634365081787 4.713958263397217 0.24550478160381317 0 9
14.563467979431152 -8.091659545898438 4.722832202911377 0.24504342675209045 0 9
12.462321281433105 -7.071367263793945 4.061861038208008 0.2575751841068268 0 9
14.938288688659668 -8.654414176940918 4.893983364105225 0.18939991295337677 0 9
14.95336627960205 -8.843398094177246 4.924733638763428 0.1882173717021942 0 9
14.970172882080078 -9.035674095153809 4.956778049468994 0.18700049817562103 0 9
14.988787651062012 -9.231454849243164 4.99017858505249 0.18574891984462738 0 9
15.009230613708496 -9.430908203125 5.024965286254883 0.1844630241394043 0 9
17.53081703186035 -11.236063957214355 5.902699947357178 0.25647348165512085 0 9
12.035962104797363 -8.022656440734863 4.100395679473877 0.7862000465393066 0 9
11.922713279724121 -8.10269546508789 4.086426734924316 0.7888873815536499 0 9
11.809980392456055 -8.181991577148438 4.072798728942871 0.7915273904800415 0 9
11.966221809387207 -8.450185775756836 4.1526713371276855 0.9478307366371155 0 9
11.863238334655762 -8.538076400756836 4.143362045288086 0.9499605894088745 0 9
11.382665634155273 -8.34829044342041 4.00152587890625 0.17171362042427063 0 9
11.65823745727539 -8.712411880493164 4.125730037689209 0.954020082950592 0 9
11.55620288848877 -8.798895835876465 4.117404937744141 0.9559493064880371 0 9
11.45444107055664 -8.884970664978027 4.109398365020752 0.9578115344047546 0 9
11.352954864501953 -8.970624923706055 4.101712703704834 0.9596064686775208 0 9
11.251727104187012 -9.055878639221191 4.09434175491333 0.9613338708877563 0 9
11.150734901428223 -9.140703201293945 4.087284564971924 0.9629936814308167 0 9
11.049976348876953 -9.225175857543945 4.080537796020508 0.9645856022834778 0 9
15.697113990783691 -13.345820426940918 5.840639591217041 0.44678056240081787 0 9
10.117984771728516 -8.760058403015137 3.7938411235809326 0.2903738021850586 0 9
15.3411865234375 -13.525087356567383 5.797618389129639 0.3747658133506775 0 9
15.133416175842285 -13.585244178771973 5.764951229095459 0.37688934803009033 0 9
14.928620338439941 -13.645370483398438 5.733362674713135 0.37896567583084106 0 9
14.644975662231445 -13.629413604736328 5.671191215515137 0.14070115983486176 0 9
14.300765991210938 -13.550604820251465 5.584776401519775 0.14287839829921722 0 9
10.064420700073242 -9.709403991699219 3.9642629623413086 0.8131873607635498 0 9
9.924126625061035 -9.74755859375 3.9433083534240723 0.8175088167190552 0 9
22.45246696472168 9.006327629089355 6.642696380615234 0.8786876201629639 0 3
22.44217300415039 8.769169807434082 6.616099834442139 0.882220447063446 0 3
22.431955337524414 8.533905982971191 6.590236663818359 0.8856822848320007 0 3
22.421817779541016 8.300410270690918 6.56510591506958 0.8890727758407593 0 3
22.41175651550293 8.068710327148438 6.540688514709473 0.892391562461853 0 3
21.851552963256836 7.646191120147705 6.356912612915039 0.9281749129295349 0 3
21.85089874267578 7.426474571228027 6.337077617645264 0.9310805797576904 0 3
21.85005760192871 7.208076000213623 6.317811012268066 0.9339195489883423 0 3
21.849016189575195 6.990927696228027 6.299112319946289 0.9366917014122009 0 3
21.847789764404297 6.774950981140137 6.2809739112854 0.9393972754478455 0 3
21.84638214111328 6.560155868530273 6.263388633728027 0.942032516002655 0 3
21.844778060913086 6.346494197845459 6.246344089508057 0.9446037411689758 0 3
21.842998504638672 6.133925437927246 6.22983980178833 0.9471077919006348 0 3
21.84103012084961 5.92239236831665 6.213865756988525 0.9495415687561035 0 3
21.838878631591797 5.711864948272705 6.198417663574219 0.9519081115722656 0 3
21.836549758911133 5.502333641052246 6.183488845825195 0.9542062282562256 0 3
21.83403778076172 5.293720722198486 6.169075965881348 0.9564352035522461 0 3
21.831350326538086 5.086054801940918 6.155168533325195 0.9585961103439331 0 3
21.828481674194336 4.879238128662109 6.141761302947998 0.9606894254684448 0 3
21.8254337310791 4.673261642456055 6.128854751586914 0.9627124667167664 0 3
21.82221221923828 4.468105316162109 6.116442680358887 0.9646664261817932 0 3
21.97698974609375 4.294648170471191 6.1487717628479 0.3371712863445282 0 3
22.241113662719727 4.139365196228027 6.21202278137207 0.9396065473556519 0 3
22.232084274291992 3.9315526485443115 6.199398040771484 0.9415203928947449 0 3
23.038965225219727 3.861318349838257 6.414466381072998 0.19936716556549072 0 3
22.46609878540039 3.558281183242798 6.245827674865723 0.945122480392456 0 3
22.00501251220703 3.283076047897339 6.109203815460205 0.9749301671981812 0 3
22.000526428222656 3.0807909965515137 6.100035190582275 0.9763956665992737 0 3
21.995859146118164 2.879081964492798 6.091328144073486 0.9777907133102417 0 3
21.991024017333984 2.677910089492798 6.083088397979736 0.9791154861450195 0 3
21.98600959777832 2.477236270904541 6.075301170349121 0.9803697466850281 0 3
21.980819702148438 2.277050733566284 6.067980766296387 0.9815531373023987 0 3
