ply
format ascii 1.0
element vertex 614
property float32 x
property float32 y
property float32 z
property float32 CosAngle
property uint32 ObjIdx
property uint32 ObjTag
end_header
10.847949028015137 -6.027285099029541 7.164866924285889 0.54613196849823 0 3
10.761465072631836 -6.042558670043945 7.125565528869629 0.5491442680358887 0 3
10.675878524780273 -6.057695388793945 7.08683967590332 0.5521451234817505 0 3
10.681991577148438 -6.124706745147705 7.109070777893066 0.6669908165931702 0 3
10.641406059265137 -6.1650390625 7.100405216217041 0.5581144094467163 0 3
10.557499885559082 -6.179882526397705 7.0628485679626465 0.5610819458961487 0 3
10.474472045898438 -6.194570064544678 7.025825500488281 0.5640384554862976 0 3
10.392285346984863 -6.20910120010376 6.989333152770996 0.5669835209846497 0 3
10.310976028442383 -6.223456859588623 6.95335578918457 0.5699171423912048 0 3
10.230487823486328 -6.237695217132568 6.917888164520264 0.5728393197059631 0 3
10.150819778442383 -6.251796722412109 6.88291597366333 0.5757496953010559 0 3
9.942070007324219 -6.184960842132568 6.7601318359375 0.5858040452003479 0 3
9.866015434265137 -6.19921875 6.727254867553711 0.5886662602424622 0 3
9.790663719177246 -6.213339805603027 6.694833278656006 0.5915170907974243 0 3
9.728476524353027 -6.235292911529541 6.671378135681152 0.6388025283813477 0 3
9.740663528442383 -6.304941177368164 6.699067115783691 0.6361621618270874 0 3
9.702773094177246 -6.342382907867432 6.692525863647461 0.5929678678512573 0 3
9.628300666809082 -6.355566501617432 6.660752296447754 0.5957959890365601 0 3
9.554491996765137 -6.368613243103027 6.629417419433594 0.5986121296882629 0 3
9.481406211853027 -6.381542682647705 6.598507404327393 0.601416289806366 0 3
9.408984184265137 -6.394335746765137 6.568009376525879 0.6042090058326721 0 3
9.33724594116211 -6.40701150894165 6.537934303283691 0.606988251209259 0 3
9.2661714553833 -6.419569969177246 6.508261680603027 0.6097559928894043 0 3
9.195663452148438 -6.432031154632568 6.478978157043457 0.6125118136405945 0 3
9.125859260559082 -6.444394588470459 6.450095176696777 0.6152546405792236 0 3
9.056640625 -6.456621170043945 6.421594619750977 0.6179856061935425 0 3
8.862090110778809 -6.378124713897705 6.303884983062744 0.6208827495574951 0 3
8.794921875 -6.389882564544678 6.27644157409668 0.6188651919364929 0 3
8.727812767028809 -6.40115213394165 6.248990535736084 0.6215835213661194 0 3
8.661269187927246 -6.412363052368164 6.22189998626709 0.6242904663085938 0 3
8.647675514221191 -6.46251916885376 6.232870578765869 0.5950528979301453 0 3
8.641542434692383 -6.518593788146973 6.249480247497559 0.6341061592102051 0 3
8.576464653015137 -6.530097484588623 6.22354793548584 0.6367487907409668 0 3
8.511894226074219 -6.54150390625 6.1979522705078125 0.6393783688545227 0 3
8.447890281677246 -6.552831649780273 6.1726861000061035 0.6419953107833862 0 3
8.384394645690918 -6.564043045043945 6.1477556228637695 0.6445991396903992 0 3
8.321406364440918 -6.5751953125 6.123140811920166 0.6471900343894958 0 3
8.258886337280273 -6.586230278015137 6.098847389221191 0.6497681140899658 0 3
8.196913719177246 -6.597207069396973 6.074869632720947 0.6523327231407166 0 3
8.13541030883789 -6.608085632324219 6.051198482513428 0.6548842787742615 0 3
8.07437515258789 -6.618847370147705 6.027835369110107 0.657422661781311 0 3
8.013769149780273 -6.629570007324219 6.004769325256348 0.6599485278129578 0 3
7.953691005706787 -6.640195369720459 5.98199987411499 0.6624601483345032 0 3
7.894023418426514 -6.650742053985596 5.9595232009887695 0.664958655834198 0 3
7.834824085235596 -6.661211013793945 5.937331199645996 0.6674444079399109 0 3
7.776034832000732 -6.671581745147705 5.915423393249512 0.6699159145355225 0 3
7.717695236206055 -6.68191385269165 5.893796443939209 0.672374427318573 0 3
7.659765243530273 -6.692148208618164 5.872439861297607 0.67481929063797 0 3
7.602265357971191 -6.702304363250732 5.851363182067871 0.6772502064704895 0 3
7.449589729309082 -6.627363204956055 5.756669998168945 0.6858000755310059 0 3
7.39415979385376 -6.637734413146973 5.736806392669678 0.6881746649742126 0 3
7.338632583618164 -6.647597312927246 5.7168169021606445 0.684622049331665 0 3
7.283456802368164 -6.657362937927246 5.697045803070068 0.6869984269142151 0 3
7.22863245010376 -6.667050838470459 5.677515506744385 0.6893614530563354 0 3
7.220546722412109 -6.719804763793945 5.694773197174072 0.5237700343132019 0 3
7.221132755279541 -6.781054496765137 5.719181537628174 0.6938855648040771 0 3
7.16662073135376 -6.790702819824219 5.700118064880371 0.6962062120437622 0 3
7.112538814544678 -6.800253868103027 5.6812944412231445 0.698512613773346 0 3
7.058769226074219 -6.809765338897705 5.66270637512207 0.7008057236671448 0 3
7.00537109375 -6.819199085235596 5.644359588623047 0.703083872795105 0 3
6.952284812927246 -6.828574180603027 5.626236915588379 0.7053483128547668 0 3
6.899550437927246 -6.837890625 5.608346462249756 0.7075984477996826 0 3
14.893437385559082 -7.672948837280273 9.304972648620605 0.979709267616272 0 3
11.113632202148438 -5.980488300323486 7.00941801071167 0.5421668887138367 0 3
11.024198532104492 -5.996288776397705 6.96990442276001 0.5452408194541931 0 3
10.935722351074219 -6.011972427368164 6.930971145629883 0.5483036637306213 0 3
10.848261833190918 -6.027421951293945 6.89260196685791 0.5513553619384766 0 3
10.76171875 -6.042734146118164 6.854796409606934 0.5543963313102722 0 3
10.676152229309082 -6.057870864868164 6.81754207611084 0.5574259757995605 0 3
10.683222770690918 -6.125410079956055 6.839526653289795 0.673222005367279 0 3
10.641679763793945 -6.165194988250732 6.830574989318848 0.5633794665336609 0 3
10.557753562927246 -6.180038928985596 6.794442653656006 0.566375195980072 0 3
10.474706649780273 -6.194726467132568 6.758826732635498 0.5693597197532654 0 3
10.392518997192383 -6.209238052368164 6.72371768951416 0.5723327994346619 0 3
10.311230659484863 -6.223613262176514 6.689112186431885 0.5752935409545898 0 3
10.230722427368164 -6.237851619720459 6.6549882888793945 0.5782434940338135 0 3
10.151015281677246 -6.251953125 6.621342182159424 0.5811820030212402 0 3
9.943007469177246 -6.185507774353027 6.503669738769531 0.5912898778915405 0 3
9.866913795471191 -6.199785232543945 6.472044467926025 0.5941795706748962 0 3
9.7915620803833 -6.213925838470459 6.440852642059326 0.5970569252967834 0 3
9.729609489440918 -6.236034870147705 6.418451309204102 0.6447679400444031 0 3
9.741816520690918 -6.305703163146973 6.445092678070068 0.6421024203300476 0 3
9.702987670898438 -6.342538833618164 6.438179969787598 0.5985627770423889 0 3
9.628496170043945 -6.355702877044678 6.407615661621094 0.6014177799224854 0 3
9.554726600646973 -6.368750095367432 6.377471923828125 0.6042606234550476 0 3
9.481620788574219 -6.381679534912109 6.347735404968262 0.6070914268493652 0 3
9.409198760986328 -6.394453048706055 6.3184027671813965 0.6099096536636353 0 3
9.337441444396973 -6.407148361206055 6.289459228515625 0.6127160787582397 0 3
9.266347885131836 -6.419726371765137 6.2609124183654785 0.6155098080635071 0 3
9.195878982543945 -6.432187557220459 6.232745170593262 0.6182916760444641 0 3
9.126073837280273 -6.444530963897705 6.204962253570557 0.6210603713989258 0 3
9.056836128234863 -6.456757545471191 6.177540302276611 0.623816728591919 0 3
8.862421989440918 -6.378300666809082 6.064370155334473 0.6267350912094116 0 3
8.795331954956055 -6.390156269073486 6.038060665130615 0.6294666528701782 0 3
8.728554725646973 -6.401679515838623 6.011863708496094 0.6274112462997437 0 3
8.66201114654541 -6.41287088394165 5.985798358917236 0.6301430463790894 0 3
8.64876937866211 -6.463339805603027 5.996628761291504 0.6006017923355103 0 3
8.641718864440918 -6.518749713897705 6.011967658996582 0.6400905251502991 0 3
8.576621055603027 -6.530253887176514 5.987017631530762 0.6427577137947083 0 3
8.51210880279541 -6.541640281677246 5.9623942375183105 0.645412266254425 0 3
8.448065757751465 -6.552968502044678 5.938089847564697 0.648053765296936 0 3
8.384570121765137 -6.564198970794678 5.914104461669922 0.6506821513175964 0 3
8.321581840515137 -6.57531213760376 5.890427112579346 0.6532979011535645 0 3
8.259081840515137 -6.586367130279541 5.867054462432861 0.6559000611305237 0 3
8.197089195251465 -6.597323894500732 5.843987464904785 0.658489465713501 0 3
8.135546684265137 -6.608222484588623 5.821217060089111 0.6610650420188904 0 3
8.074511528015137 -6.619003772735596 5.798738479614258 0.6636276245117188 0 3
8.013945579528809 -6.629706859588623 5.776550769805908 0.6661767959594727 0 3
7.953847408294678 -6.640351295471191 5.75464391708374 0.6687124371528625 0 3
7.894179344177246 -6.65087890625 5.733023643493652 0.671234667301178 0 3
7.834980487823486 -6.661347389221191 5.711673259735107 0.6737433671951294 0 3
7.776210784912109 -6.671738147735596 5.69059944152832 0.6762386560440063 0 3
7.717851161956787 -6.682050704956055 5.669792175292969 0.6787199378013611 0 3
7.659921646118164 -6.692285060882568 5.649250507354736 0.6811879873275757 0 3
7.602421760559082 -6.702441215515137 5.628971576690674 0.6836423873901367 0 3
7.450136661529541 -6.627851486206055 5.538197040557861 0.692233145236969 0 3
7.394433498382568 -6.637988090515137 5.518860340118408 0.6886644959449768 0 3
7.3388671875 -6.647812366485596 5.499589920043945 0.6910771727561951 0 3
7.283671855926514 -6.657558441162109 5.480569839477539 0.6934759616851807 0 3
7.228867053985596 -6.667245864868164 5.461784362792969 0.6958608031272888 0 3
7.221581935882568 -6.720761775970459 5.479025840759277 0.5286461114883423 0 3
7.221269607543945 -6.781191349029541 5.50181245803833 0.7004348039627075 0 3
7.16677713394165 -6.790820121765137 5.483475208282471 0.7027774453163147 0 3
7.112636566162109 -6.800390243530273 5.465367317199707 0.7051060795783997 0 3
6.882656097412109 -6.639882564544678 5.311485290527344 0.7074084877967834 0 3
6.830585956573486 -6.649081707000732 5.294270038604736 0.7097086906433105 0 3
6.778847694396973 -6.658222675323486 5.277273654937744 0.7119941115379333 0 3
6.731855392456055 -6.67165994644165 5.26392936706543 0.8592932224273682 0 3
25.370370864868164 11.523710250854492 14.87547779083252 0.375553160905838 0 9
25.62138557434082 11.499277114868164 14.992267608642578 0.37262773513793945 0 9
25.87662124633789 11.474589347839355 15.11131763458252 0.3696920871734619 0 9
25.93244171142578 11.3603515625 15.113996505737305 0.9330763816833496 0 9
25.95310401916504 11.230839729309082 15.096503257751465 0.9341577291488647 0 9
25.973533630371094 11.101542472839355 15.079252243041992 0.935226321220398 0 9
25.993749618530273 10.972479820251465 15.06224536895752 0.9362821578979492 0 9
15.667011260986328 -7.458378791809082 9.263116836547852 0.5131924748420715 0 3
15.535937309265137 -7.481679439544678 9.205367088317871 0.5164118409156799 0 3
15.406444549560547 -7.504706859588623 9.148519515991211 0.519620954990387 0 3
15.278573989868164 -7.527441024780273 9.092548370361328 0.5228193402290344 0 3
15.15224552154541 -7.549882411956787 9.03743839263916 0.5260075926780701 0 3
15.085859298706055 -7.601523399353027 9.018107414245605 0.9701882600784302 0 3
15.03392505645752 -7.66015625 9.007521629333496 0.5901855230331421 0 3
14.785195350646973 -7.6171875 8.878883361816406 0.5663918256759644 0 3
14.669589042663574 -7.641132831573486 8.829964637756348 0.5695295333862305 0 3
14.555214881896973 -7.664804458618164 8.781745910644531 0.5726565718650818 0 3
14.442109107971191 -7.688202857971191 8.734213829040527 0.5757730007171631 0 3
11.113965034484863 -5.980683326721191 6.737612724304199 0.5470808744430542 0 3
11.024531364440918 -5.996503829956055 6.699629306793213 0.550182580947876 0 3
10.936074256896973 -6.012128829956055 6.662206172943115 0.55327308177948 0 3
10.848573684692383 -6.027597427368164 6.6253204345703125 0.5563530325889587 0 3
10.762030601501465 -6.042910099029541 6.5889811515808105 0.559421718120575 0 3
10.676484107971191 -6.058027267456055 6.553173065185547 0.5624783635139465 0 3
10.684432983398438 -6.126074314117432 6.574851036071777 0.6792675256729126 0 3
10.64193344116211 -6.165331840515137 6.5656585693359375 0.5684889554977417 0 3
10.557988166809082 -6.180195331573486 6.530930519104004 0.5715120434761047 0 3
10.474960327148438 -6.194863319396973 6.496694564819336 0.5745236277580261 0 3
10.392792701721191 -6.209394454956055 6.462953567504883 0.5775232315063477 0 3
10.311484336853027 -6.223769187927246 6.429680824279785 0.5805115699768066 0 3
10.23095703125 -6.237987995147705 6.396883964538574 0.5834883451461792 0 3
10.15126895904541 -6.252089500427246 6.364539623260498 0.5864531993865967 0 3
9.9439058303833 -6.186093807220459 6.251863479614258 0.5966122150421143 0 3
9.867793083190918 -6.200351238250732 6.221456050872803 0.5995283722877502 0 3
9.791972160339355 -6.214159965515137 6.191170692443848 0.5950274467468262 0 3
9.730761528015137 -6.236738204956055 6.170100688934326 0.6505544185638428 0 3
9.742948532104492 -6.30642557144165 6.195720672607422 0.6478646397590637 0 3
9.703222274780273 -6.342675685882568 6.188481330871582 0.6039923429489136 0 3
9.628710746765137 -6.355839729309082 6.159102439880371 0.6068733334541321 0 3
9.554960250854492 -6.368886470794678 6.130123138427734 0.6097414493560791 0 3
9.48183536529541 -6.381796836853027 6.101538181304932 0.612598717212677 0 3
9.409414291381836 -6.394609451293945 6.073342323303223 0.6154422760009766 0 3
9.337656021118164 -6.407304763793945 6.045527935028076 0.6182739734649658 0 3
9.266542434692383 -6.419863224029541 6.0180840492248535 0.6210936903953552 0 3
9.196074485778809 -6.432323932647705 5.99100923538208 0.623900294303894 0 3
9.126250267028809 -6.444667816162109 5.964297294616699 0.62669438123703 0 3
9.057050704956055 -6.456894397735596 5.937942981719971 0.6294763684272766 0 3
8.86263656616211 -6.37853479385376 5.829219818115234 0.6324144005775452 0 3
8.795624732971191 -6.390370845794678 5.803925037384033 0.6351709961891174 0 3
8.72916030883789 -6.402109146118164 5.778965950012207 0.6379140615463257 0 3
8.662675857543945 -6.413398265838623 5.753977298736572 0.635822057723999 0 3
8.649882316589355 -6.464159965515137 5.764647483825684 0.6059877276420593 0 3
8.641894340515137 -6.518886566162109 5.778791427612305 0.6458974480628967 0 3
8.57681655883789 -6.53039026260376 5.754806995391846 0.6485889554023743 0 3
8.512285232543945 -6.541796684265137 5.731136798858643 0.6512675881385803 0 3
8.4482421875 -6.553105354309082 5.707775592803955 0.6539332866668701 0 3
8.384726524353027 -6.564335823059082 5.684718608856201 0.6565855741500854 0 3
8.321757316589355 -6.575429439544678 5.661959648132324 0.6592252254486084 0 3
8.259238243103027 -6.586503982543945 5.639496326446533 0.6618509888648987 0 3
8.197245597839355 -6.597480297088623 5.6173224449157715 0.6644633412361145 0 3
8.135722160339355 -6.608359336853027 5.595431327819824 0.6670630574226379 0 3
8.074687004089355 -6.619140625 5.573826789855957 0.6696484088897705 0 3
8.014121055603027 -6.629824161529541 5.552497863769531 0.6722208857536316 0 3
7.954003810882568 -6.640468597412109 5.531439781188965 0.6747801303863525 0 3
7.894355297088623 -6.65099573135376 5.510657787322998 0.6773247718811035 0 3
7.835116863250732 -6.661484241485596 5.490134239196777 0.6798568964004517 0 3
7.7763671875 -6.671855449676514 5.469875335693359 0.6823745965957642 0 3
7.717988014221191 -6.682168006896973 5.449881076812744 0.6848787665367126 0 3
7.521230220794678 -6.571113109588623 5.3317108154296875 0.6873694658279419 0 3
7.464785099029541 -6.581074237823486 5.3125715255737305 0.6898455023765564 0 3
7.400449275970459 -6.583652019500732 5.287764072418213 0.5882012844085693 0 3
7.334120750427246 -6.583827972412109 5.261423110961914 0.5911460518836975 0 3
7.279238224029541 -6.593789100646973 5.243237018585205 0.8367476463317871 0 3
7.233222484588623 -6.61144495010376 5.231404781341553 0.8386396169662476 0 3
7.187324047088623 -6.628964900970459 5.219692230224609 0.8405219912528992 0 3
7.155429363250732 -6.659218788146973 5.218157768249512 0.46829691529273987 0 3
7.12527322769165 -6.691093444824219 5.21803617477417 0.4683188498020172 0 3
7.095038890838623 -6.722851276397705 5.2179131507873535 0.4683294892311096 0 3
7.064609050750732 -6.754472732543945 5.217789173126221 0.4683404564857483 0 3
7.034062385559082 -6.785937309265137 5.21766471862793 0.4683517515659332 0 3
6.994999885559082 -6.809140682220459 5.211305618286133 0.6818990707397461 0 3
6.941015243530273 -6.81749963760376 5.193819522857666 0.6841946244239807 0 3
6.887362957000732 -6.825819969177246 5.176558494567871 0.6864756345748901 0 3
27.38103485107422 15.863046646118164 16.223060607910156 0.376094251871109 0 9
27.596229553222656 15.822733879089355 16.308319091796875 0.37412798404693604 0 9
27.814062118530273 15.782187461853027 16.395036697387695 0.3721492886543274 0 9
28.034589767456055 15.741405487060547 16.48320770263672 0.37015849351882935 0 9
28.257890701293945 15.700389862060547 16.572893142700195 0.36815476417541504 0 9
28.483983993530273 15.659159660339355 16.664113998413086 0.36613938212394714 0 9
25.863710403442383 13.917792320251465 15.057465553283691 0.9072895050048828 0 9
25.8882999420166 13.781561851501465 15.035629272460938 0.9086068272590637 0 9
25.912694931030273 13.645625114440918 15.014060020446777 0.9099119901657104 0 9
25.93685531616211 13.510038375854492 14.992765426635742 0.9112046957015991 0 9
25.960721969604492 13.374687194824219 14.971735954284668 0.912484884262085 0 9
25.984394073486328 13.239628791809082 14.950956344604492 0.9137526750564575 0 9
26.0078125 13.10488224029541 14.930453300476074 0.915008008480072 0 9
26.030975341796875 12.970390319824219 14.910197257995605 0.9162508249282837 0 9
26.053945541381836 12.836210250854492 14.890207290649414 0.9174809455871582 0 9
26.076717376708984 12.702284812927246 14.870468139648438 0.9186986088752747 0 9
26.0992374420166 12.568652153015137 14.850983619689941 0.9199037551879883 0 9
24.96953010559082 11.88687515258789 14.177656173706055 0.10748152434825897 0 9
25.77519416809082 12.128828048706055 14.604079246520996 0.7210640907287598 0 9
25.91843605041504 12.05443286895752 14.654433250427246 0.7185866832733154 0 9
26.06245994567871 11.979453086853027 14.705305099487305 0.7161009907722473 0 9
24.941503524780273 11.328906059265137 14.0440034866333 0.35987231135368347 0 9
25.199609756469727 11.309999465942383 14.160612106323242 0.35690879821777344 0 9
25.462265014648438 11.290839195251465 14.27959156036377 0.35393500328063965 0 9
25.719276428222656 11.266972541809082 14.395234107971191 0.37594547867774963 0 9
25.975683212280273 11.24062442779541 14.510354042053223 0.37296292185783386 0 9
26.236385345458984 11.2139253616333 14.627724647521973 0.36997008323669434 0 9
26.33216667175293 11.115351676940918 14.653165817260742 0.9323225617408752 0 9
26.35205078125 10.984647750854492 14.636645317077637 0.9333747625350952 0 9
26.391971588134766 10.862539291381836 14.631608963012695 0.3083295226097107 0 9
26.192596435546875 10.643261909484863 14.49443531036377 0.3112471401691437 0 9
25.99720573425293 10.428183555603027 14.360260963439941 0.31415554881095886 0 9
25.805702209472656 10.217167854309082 14.229015350341797 0.3170531392097473 0 9
25.617929458618164 10.010038375854492 14.10054874420166 0.3199416697025299 0 9
16.497011184692383 -7.315351486206055 9.251747131347656 0.5319646596908569 0 3
16.362539291381836 -7.343808650970459 9.194732666015625 0.5352635383605957 0 3
16.229686737060547 -7.37185525894165 9.138592720031738 0.538551926612854 0 3
16.09847640991211 -7.399569988250732 9.083296775817871 0.5418303608894348 0 3
15.9644136428833 -7.42492151260376 9.026362419128418 0.519833505153656 0 3
15.829394340515137 -7.448710918426514 8.968835830688477 0.5231678485870361 0 3
15.705820083618164 -7.476855278015137 8.91774845123291 0.6633062362670898 0 3
15.600351333618164 -7.512714862823486 8.876931190490723 0.4940364360809326 0 3
15.462656021118164 -7.532070159912109 8.817712783813477 0.4973544478416443 0 3
15.336210250854492 -7.555839538574219 8.764861106872559 0.5588998794555664 0 3
15.176308631896973 -7.561874866485596 8.692774772644043 0.5604392886161804 0 3
15.056307792663574 -7.586620807647705 8.643465995788574 0.5636227130889893 0 3
14.937655448913574 -7.611093521118164 8.594860076904297 0.5668098330497742 0 3
14.820292472839355 -7.63525390625 8.546966552734375 0.5699862241744995 0 3
14.704023361206055 -7.659062385559082 8.499659538269043 0.5220140218734741 0 3
14.58128833770752 -7.678515434265137 8.448540687561035 0.5251724123954773 0 3
14.469218254089355 -7.702695369720459 8.403584480285645 0.49814581871032715 0 3
11.114276885986328 -5.980859279632568 6.4705729484558105 0.5518435835838318 0 3
11.024824142456055 -5.996660232543945 6.434091091156006 0.5549726486206055 0 3
10.936386108398438 -6.012304782867432 6.3981451988220215 0.5580902695655823 0 3
10.848886489868164 -6.027773380279541 6.362730503082275 0.5611967444419861 0 3
10.76236343383789 -6.04308557510376 6.327830791473389 0.5642918944358826 0 3
10.676776885986328 -6.058203220367432 6.2934393882751465 0.567375659942627 0 3
10.685585975646973 -6.126777172088623 6.3147759437561035 0.6851251721382141 0 3
10.6421480178833 -6.165507793426514 6.305395603179932 0.573441743850708 0 3
10.558241844177246 -6.180331707000732 6.272045135498047 0.576491117477417 0 3
10.475214958190918 -6.194999694824219 6.239168167114258 0.5795286893844604 0 3
10.393027305603027 -6.209531307220459 6.206757545471191 0.5825549364089966 0 3
10.311659812927246 -6.223925590515137 6.174803733825684 0.5855695009231567 0 3
10.231171607971191 -6.238144397735596 6.143306732177734 0.5885719060897827 0 3
10.151503562927246 -6.25222635269165 6.112246036529541 0.5915626287460327 0 3
9.944804191589355 -6.18664026260376 6.0044379234313965 0.6017698049545288 0 3
9.868671417236328 -6.200917720794678 5.9752326011657715 0.6047113537788391 0 3
9.792304039001465 -6.214375019073486 5.945809364318848 0.6002056002616882 0 3
9.731894493103027 -6.237460613250732 5.926060676574707 0.6561620235443115 0 3
9.744081497192383 -6.307168006896973 5.950663089752197 0.6534488201141357 0 3
9.703417778015137 -6.342812538146973 5.943159103393555 0.6092548370361328 0 3
9.628925323486328 -6.355996131896973 5.914947509765625 0.6121609807014465 0 3
9.555136680603027 -6.369023323059082 5.887117862701416 0.615054726600647 0 3
9.482050895690918 -6.38195276260376 5.859663486480713 0.6179360151290894 0 3
9.409628868103027 -6.394745826721191 5.832586765289307 0.6208049058914185 0 3
9.337831497192383 -6.407441139221191 5.805873394012451 0.6236615180969238 0 3
9.266737937927246 -6.419980525970459 5.779517650604248 0.6265053749084473 0 3
9.1962890625 -6.432441234588623 5.753515720367432 0.6293365359306335 0 3
9.126425743103027 -6.444785118103027 5.727861404418945 0.6321556568145752 0 3
9.057226181030273 -6.457050800323486 5.702551364898682 0.6349613666534424 0 3
8.862910270690918 -6.378710746765137 5.598194599151611 0.6379188299179077 0 3
8.795917510986328 -6.390566349029541 5.573901176452637 0.640699028968811 0 3
8.72939395904541 -6.40234375 5.549929618835449 0.643466591835022 0 3
8.663378715515137 -6.413886547088623 5.52619743347168 0.6413253545761108 0 3
8.650918006896973 -6.464980125427246 5.536691665649414 0.611205518245697 0 3
8.642050743103027 -6.519003868103027 5.549703121185303 0.6515262722969055 0 3
8.57699203491211 -6.530488014221191 5.526671409606934 0.6542412638664246 0 3
8.512421607971191 -6.541913986206055 5.503937244415283 0.6569436192512512 0 3
8.44839859008789 -6.55322265625 5.481503009796143 0.6596324443817139 0 3
8.38492202758789 -6.564453125 5.459358215332031 0.6623079180717468 0 3
8.171073913574219 -6.456406116485596 5.338950157165527 0.664969801902771 0 3
8.109725952148438 -6.467246055603027 5.317763328552246 0.6676188111305237 0 3
8.048828125 -6.47802734375 5.296855926513672 0.6702545285224915 0 3
7.988417625427246 -6.488710880279541 5.276215553283691 0.6728764772415161 0 3
7.92849588394165 -6.49929666519165 5.255842208862305 0.6754842400550842 0 3
7.869042873382568 -6.509804725646973 5.235729694366455 0.6780792474746704 0 3
7.817441463470459 -6.526464462280273 5.220848083496094 0.45296069979667664 0 3
7.78787088394165 -6.561347484588623 5.22073221206665 0.45342880487442017 0 3
7.758183479309082 -6.596054553985596 5.220611572265625 0.45344915986061096 0 3
7.728339672088623 -6.630663871765137 5.220491409301758 0.453459233045578 0 3
7.698300838470459 -6.665136337280273 5.220367431640625 0.4534701108932495 0 3
7.65896463394165 -6.691464900970459 5.214019775390625 0.6600390672683716 0 3
7.600175380706787 -6.700448989868164 5.194389343261719 0.6625332236289978 0 3
7.54177713394165 -6.709374904632568 5.175018787384033 0.66501384973526 0 3
7.483867168426514 -6.718222618103027 5.1559014320373535 0.6674794554710388 0 3
7.42638635635376 -6.727070331573486 5.137060642242432 0.6704046130180359 0 3
7.369355201721191 -6.735859394073486 5.118465423583984 0.6728400588035583 0 3
7.312734127044678 -6.744609355926514 5.1001129150390625 0.6752613186836243 0 3
7.256542682647705 -6.753300666809082 5.0820136070251465 0.6773793697357178 0 3
7.200780868530273 -6.761952877044678 5.064159870147705 0.6797667741775513 0 3
7.145410060882568 -6.770586013793945 5.04653787612915 0.6821406483650208 0 3
7.090429306030273 -6.779140472412109 5.029147148132324 0.684499979019165 0 3
7.035839557647705 -6.787617206573486 5.011978626251221 0.6868448257446289 0 3
6.981620788574219 -6.796073913574219 4.995028972625732 0.6891749501228333 0 3
6.927773475646973 -6.80447244644165 4.978299617767334 0.6914910078048706 0 3
6.874277114868164 -6.812812328338623 4.961785793304443 0.6937924027442932 0 3
27.10205078125 15.378183364868164 15.326701164245605 0.3851279616355896 0 9
27.2584171295166 15.305585861206055 15.376127243041992 0.3380838632583618 0 9
27.495330810546875 15.276718139648438 15.47094440460205 0.3360118865966797 0 9
27.735586166381836 15.247694969177246 15.567450523376465 0.333928644657135 0 9
27.962186813354492 15.209257125854492 15.65617847442627 0.3770231604576111 0 9
28.183944702148438 15.166366577148438 15.742053031921387 0.37496626377105713 0 9
28.408475875854492 15.123164176940918 15.829411506652832 0.3728964328765869 0 9
26.257030487060547 13.826972007751465 14.595881462097168 0.9055068492889404 0 9
26.280996322631836 13.68929672241211 14.574896812438965 0.9068102240562439 0 9
25.27421760559082 13.02099609375 13.98400592803955 0.8234007358551025 0 9
25.351581573486328 12.917186737060547 13.994604110717773 0.8227773904800415 0 9
25.429121017456055 12.813281059265137 14.005499839782715 0.8221368789672852 0 9
25.46011734008789 12.685976028442383 13.991090774536133 0.728149950504303 0 9
25.56070327758789 12.593202590942383 14.015177726745605 0.6929675936698914 0 9
25.433359146118164 12.38890552520752 13.914709091186523 0.10594689846038818 0 9
25.740779876708984 12.396035194396973 14.05233097076416 0.8193971514701843 0 9
25.81913948059082 12.291327476501465 14.064841270446777 0.8186682462692261 0 9
25.897655487060547 12.186445236206055 14.077682495117188 0.81792151927948 0 9
25.976346969604492 12.081366539001465 14.090851783752441 0.8171571493148804 0 9
26.055273056030273 11.976152420043945 14.104345321655273 0.8163753151893616 0 9
26.134315490722656 11.870722770690918 14.118173599243164 0.815575897693634 0 9
25.96175765991211 11.652070045471191 13.996562004089355 0.3271752893924713 0 9
25.72818374633789 11.408769607543945 13.842880249023438 0.33080774545669556 0 9
26.37271499633789 11.553241729736328 14.16164493560791 0.8130724430084229 0 9
25.538652420043945 11.051504135131836 13.68698501586914 0.35723650455474854 0 9
25.806854248046875 11.030312538146973 13.80404281616211 0.3542071282863617 0 9
26.07988166809082 11.0088472366333 13.923527717590332 0.3511675000190735 0 9
25.965429306030273 10.823495864868164 13.836349487304688 0.3154348134994507 0 9
25.772499084472656 10.607558250427246 13.708024978637695 0.3183876872062683 0 9
25.583417892456055 10.395722389221191 13.582499504089355 0.32133013010025024 0 9
26.930448532104492 10.802518844604492 14.2717866897583 0.7696567177772522 0 9
27.000839233398438 10.69033145904541 14.283527374267578 0.7690240740776062 0 9
27.725467681884766 10.8335542678833 14.640978813171387 0.35760051012039185 0 9
17.39124870300293 -7.15798807144165 9.250155448913574 0.5147328972816467 0 3
17.245487213134766 -7.188691139221191 9.189712524414062 0.5181183815002441 0 3
17.101640701293945 -7.218984127044678 9.13022232055664 0.5214945077896118 0 3
16.9595890045166 -7.248867034912109 9.071669578552246 0.5248605608940125 0 3
16.819355010986328 -7.278359413146973 9.01402473449707 0.5282168984413147 0 3
16.680858612060547 -7.307480335235596 8.957283020019531 0.531562864780426 0 3
16.567617416381836 -7.3466796875 8.914095878601074 0.6542524099349976 0 3
16.44402313232422 -7.380331993103027 8.865316390991211 0.5044217705726624 0 3
16.30318260192871 -7.405234336853027 8.807231903076172 0.5077486634254456 0 3
16.16419792175293 -7.429823875427246 8.75008487701416 0.5110651254653931 0 3
16.02523422241211 -7.453202724456787 8.692865371704102 0.48807135224342346 0 3
15.881776809692383 -7.473378658294678 8.633162498474121 0.4914466142654419 0 3
15.7490816116333 -7.497460842132568 8.579236030578613 0.5524014234542847 0 3
15.622909545898438 -7.52355432510376 8.528814315795898 0.5556671023368835 0 3
15.493593215942383 -7.54714822769165 8.476618766784668 0.5082240700721741 0 3
15.361328125 -7.568222522735596 8.422746658325195 0.5112313628196716 0 3
15.230683326721191 -7.588964462280273 8.369705200195312 0.5143380165100098 0 3
15.101679801940918 -7.609472274780273 8.317496299743652 0.5175642371177673 0 3
14.974257469177246 -7.629726409912109 8.26609992980957 0.5207822918891907 0 3
14.848417282104492 -7.649765491485596 8.215508460998535 0.5239893794059753 0 3
14.72412109375 -7.669530868530273 8.165695190429688 0.5271857976913452 0 3
14.601327896118164 -7.68908166885376 8.116654396057129 0.5303709506988525 0 3
14.4800386428833 -7.708417892456055 8.068370819091797 0.5335448384284973 0 3
11.114608764648438 -5.981015682220459 6.20803165435791 0.5564535856246948 0 3
11.025116920471191 -5.996835708618164 6.173030376434326 0.559609055519104 0 3
10.93667984008789 -6.01248025894165 6.138543128967285 0.5627526044845581 0 3
10.8491792678833 -6.02794885635376 6.104565143585205 0.5658853650093079 0 3
10.762675285339355 -6.04324197769165 6.071080207824707 0.5690063238143921 0 3
10.67708969116211 -6.05837869644165 6.038078308105469 0.5721162557601929 0 3
10.686758041381836 -6.127421855926514 6.0590338706970215 0.690794050693512 0 3
10.642401695251465 -6.165625095367432 6.049520969390869 0.5782358646392822 0 3
10.558476448059082 -6.180468559265137 6.017521381378174 0.5813109278678894 0 3
10.475448608398438 -6.195156097412109 5.985978126525879 0.584373950958252 0 3
10.393261909484863 -6.209667682647705 5.9548845291137695 0.5874252319335938 0 3
10.31191349029541 -6.224062442779541 5.924229145050049 0.5904650092124939 0 3
10.231406211853027 -6.23828125 5.8940043449401855 0.593492865562439 0 3
10.151738166809082 -6.252343654632568 5.864206314086914 0.5965085029602051 0 3
9.945663452148438 -6.187187194824219 5.7611517906188965 0.6067611575126648 0 3
9.869003295898438 -6.201113224029541 5.732819080352783 0.6022363901138306 0 3
9.792597770690918 -6.214570045471191 5.7045769691467285 0.6052178144454956 0 3
9.732988357543945 -6.238203048706055 5.686079502105713 0.6615878343582153 0 3
9.745195388793945 -6.307870864868164 5.709697723388672 0.6588515639305115 0 3
9.70361328125 -6.342948913574219 5.701973915100098 0.6143494844436646 0 3
9.629140853881836 -6.356112957000732 5.674907684326172 0.6172794103622437 0 3
9.55533218383789 -6.369160175323486 5.64820671081543 0.6201975345611572 0 3
9.482226371765137 -6.382089614868164 5.621867656707764 0.6231033802032471 0 3
9.409804344177246 -6.394882678985596 5.595888614654541 0.6259961128234863 0 3
9.33804702758789 -6.407558441162109 5.570258140563965 0.6288765668869019 0 3
9.26693344116211 -6.420136451721191 5.544970989227295 0.631744384765625 0 3
9.196464538574219 -6.432578086853027 5.520025730133057 0.6345992088317871 0 3
9.126640319824219 -6.444921493530273 5.495411396026611 0.6374415755271912 0 3
9.057402610778809 -6.457167625427246 5.471124649047852 0.6402714848518372 0 3
8.784218788146973 -6.32205057144165 5.323188304901123 0.7371973395347595 0 3
8.728612899780273 -6.341699123382568 5.3066864013671875 0.7395007610321045 0 3
8.673358917236328 -6.361191272735596 5.290390491485596 0.7417784333229065 0 3
8.615057945251465 -6.378105163574219 5.272236347198486 0.6514591574668884 0 3
8.550058364868164 -6.389589786529541 5.249959468841553 0.6542233228683472 0 3
8.485605239868164 -6.400976181030273 5.227973937988281 0.6569749712944031 0 3
8.449414253234863 -6.43337869644165 5.223417282104492 0.4379975199699402 0 3
8.420292854309082 -6.471093654632568 5.223305702209473 0.4384585916996002 0 3
8.390975952148438 -6.508691310882568 5.223186492919922 0.4384685754776001 0 3
8.36148452758789 -6.546113014221191 5.223066329956055 0.43847864866256714 0 3
8.3212890625 -6.575097560882568 5.216341018676758 0.6382645964622498 0 3
8.257186889648438 -6.584863185882568 5.194639682769775 0.6409311890602112 0 3
8.193633079528809 -6.594589710235596 5.173225402832031 0.6435840725898743 0 3
8.130644798278809 -6.604198932647705 5.152096271514893 0.6462233066558838 0 3
8.068124771118164 -6.613749980926514 5.131245136260986 0.6488494873046875 0 3
8.006133079528809 -6.623241901397705 5.1106696128845215 0.6514614224433899 0 3
7.944648265838623 -6.632636547088623 5.090366840362549 0.654059886932373 0 3
7.883632659912109 -6.641972541809082 5.070332050323486 0.6566448211669922 0 3
7.823105335235596 -6.651230335235596 5.0505571365356445 0.6592153906822205 0 3
7.763046741485596 -6.660468578338623 5.031044006347656 0.6617722511291504 0 3
7.703495979309082 -6.669609069824219 5.011782646179199 0.6643158197402954 0 3
7.644394397735596 -6.678691387176514 4.992775917053223 0.6668445467948914 0 3
7.58572244644165 -6.687714576721191 4.974016189575195 0.6693599820137024 0 3
7.527519226074219 -6.696660041809082 4.955499649047852 0.6718605756759644 0 3
7.4697265625 -6.70556640625 4.937233924865723 0.6748268008232117 0 3
7.412441253662109 -6.714452743530273 4.919229030609131 0.6772965788841248 0 3
7.355566024780273 -6.723280906677246 4.901456832885742 0.6797522306442261 0 3
7.299081802368164 -6.73205041885376 4.883917808532715 0.6821938157081604 0 3
7.243066310882568 -6.740742206573486 4.866601467132568 0.6846205592155457 0 3
7.187402248382568 -6.749394416809082 4.849513530731201 0.6870330572128296 0 3
7.132128715515137 -6.758007526397705 4.832645893096924 0.6894313097000122 0 3
7.07726526260376 -6.766542911529541 4.8159942626953125 0.6918150186538696 0 3
7.022792816162109 -6.775038719177246 4.799558639526367 0.6941841244697571 0 3
6.968652248382568 -6.78347635269165 4.783334255218506 0.6965385675430298 0 3
6.914921760559082 -6.791874885559082 4.767317771911621 0.6988785266876221 0 3
6.861503601074219 -6.800214767456055 4.751509666442871 0.7012039422988892 0 3
28.2705078125 16.209354400634766 15.36113452911377 0.5625755190849304 0 9
28.292381286621094 16.053613662719727 15.333715438842773 0.5635815858840942 0 9
28.314393997192383 15.898534774780273 15.306811332702637 0.5645723342895508 0 9
27.931913375854492 15.519296646118164 15.06221866607666 0.21338693797588348 0 9
27.520761489868164 15.129589080810547 14.803751945495605 0.2171124368906021 0 9
27.123104095458984 14.752851486206055 14.554086685180664 0.22083698213100433 0 9
28.403671264648438 15.284589767456055 15.204262733459473 0.5683799982070923 0 9
27.688339233398438 14.7398042678833 14.785805702209473 0.38567060232162476 0 9
27.853261947631836 14.6675386428833 14.838571548461914 0.3384442925453186 0 9
26.628612518310547 13.87035083770752 14.152838706970215 0.9021655321121216 0 9
26.65214729309082 13.730917930603027 14.132455825805664 0.9034669399261475 0 9
25.279863357543945 12.880663871765137 13.37399673461914 0.8317437171936035 0 9
25.35708999633789 12.776991844177246 13.384391784667969 0.8310978412628174 0 9
25.434511184692383 12.67318344116211 13.395087242126465 0.8304343223571777 0 9
25.51205062866211 12.569218635559082 13.406098365783691 0.8297525644302368 0 9
25.589765548706055 12.465097427368164 13.417397499084473 0.8290533423423767 0 9
25.66765594482422 12.360819816589355 13.4290132522583 0.828336238861084 0 9
25.74574089050293 12.256366729736328 13.440939903259277 0.8276011943817139 0 9
25.823965072631836 12.151738166809082 13.45317554473877 0.8268487453460693 0 9
25.90234375 12.046953201293945 13.46572208404541 0.8260781764984131 0 9
25.98095703125 11.941972732543945 13.478578567504883 0.8252901434898376 0 9
26.05972671508789 11.836835861206055 13.4917573928833 0.8244842290878296 0 9
26.138710021972656 11.731464385986328 13.505241394042969 0.8236607313156128 0 9
26.217870712280273 11.625917434692383 13.519047737121582 0.8228195905685425 0 9
26.066503524780273 11.419081687927246 13.414438247680664 0.32978999614715576 0 9
25.83121109008789 11.178085327148438 13.267399787902832 0.3334452509880066 0 9
25.60072135925293 10.942206382751465 13.123663902282715 0.3370969891548157 0 9
25.374902725219727 10.71126937866211 12.983139038085938 0.3407457768917084 0 9
25.37398338317871 10.576952934265137 12.95824146270752 0.3253818154335022 0 9
26.652870178222656 10.969922065734863 13.586095809936523 0.7810677886009216 0 9
26.44564437866211 10.746073722839355 13.455719947814941 0.35104644298553467 0 9
26.72882843017578 10.721659660339355 13.57519245147705 0.3725886940956116 0 9
26.862167358398438 10.635429382324219 13.61852741241455 0.779207706451416 0 9
26.93226432800293 10.523612976074219 13.629980087280273 0.7785525918006897 0 9
27.0025577545166 10.41162109375 13.64177417755127 0.7778799533843994 0 9
27.84978485107422 10.594980239868164 14.04562759399414 0.360109806060791 0 9
18.362987518310547 -6.985918045043945 9.261106491088867 0.4966793656349182 0 3
18.20427703857422 -7.019179344177246 9.196852684020996 0.5001493096351624 0 3
18.047714233398438 -7.052050590515137 9.133646965026855 0.5036103129386902 0 3
17.893260955810547 -7.084433555603027 9.071489334106445 0.507061243057251 0 3
17.74085807800293 -7.116366863250732 9.010329246520996 0.5105029344558716 0 3
17.59050750732422 -7.147851467132568 8.950156211853027 0.5139350295066833 0 3
17.480663299560547 -7.194785118103027 8.910621643066406 0.6322994232177734 0 3
17.330175399780273 -7.223964691162109 8.850340843200684 0.4881208837032318 0 3
17.177440643310547 -7.250957012176514 8.788877487182617 0.49153438210487366 0 3
17.026796340942383 -7.277597427368164 8.72843074798584 0.4949382543563843 0 3
16.87826156616211 -7.303847312927246 8.668988227844238 0.49833205342292786 0 3
16.731679916381836 -7.329745769500732 8.610523223876953 0.5017250776290894 0 3
16.58708953857422 -7.355312347412109 8.55301284790039 0.5050985813140869 0 3
16.44365119934082 -7.380214691162109 8.496039390563965 0.4896133542060852 0 3
16.298847198486328 -7.403281211853027 8.43830394744873 0.4929182827472687 0 3
16.155996322631836 -7.426015377044678 8.38151741027832 0.4961860775947571 0 3
16.015039443969727 -7.448476314544678 8.325652122497559 0.4995153546333313 0 3
15.8759765625 -7.470644474029541 8.270709991455078 0.5028336048126221 0 3
15.738730430603027 -7.492538928985596 8.216643333435059 0.5061419606208801 0 3
15.603320121765137 -7.514121055603027 8.163463592529297 0.5094388723373413 0 3
15.469589233398438 -7.535468578338623 8.111129760742188 0.5127262473106384 0 3
15.33763599395752 -7.556523323059082 8.0596284866333 0.5160024166107178 0 3
15.207324028015137 -7.577323913574219 8.008944511413574 0.5192676782608032 0 3
15.078652381896973 -7.597870826721191 7.959059238433838 0.5225203633308411 0 3
14.95156192779541 -7.618183612823486 7.909945487976074 0.525764524936676 0 3
14.82607364654541 -7.638242244720459 7.861603260040283 0.5289974212646484 0 3
14.702089309692383 -7.658066272735596 7.8140153884887695 0.5322191715240479 0 3
14.546854972839355 -7.660390377044678 7.749699115753174 0.6170971393585205 0 3
14.438398361206055 -7.686230182647705 7.710218906402588 0.6202569007873535 0 3
11.114941596984863 -5.981191158294678 5.949733734130859 0.5609101057052612 0 3
11.025468826293945 -5.997011661529541 5.916189670562744 0.5640905499458313 0 3
10.936972618103027 -6.012636661529541 5.88313627243042 0.5672597885131836 0 3
10.849492073059082 -6.028124809265137 5.850566864013672 0.5704174041748047 0 3
10.762948989868164 -6.043417930603027 5.818473815917969 0.573563814163208 0 3
10.677382469177246 -6.058535099029541 5.786846160888672 0.5766986012458801 0 3
10.68789005279541 -6.128085613250732 5.807392597198486 0.6962719559669495 0 3
10.6426362991333 -6.165781021118164 5.7977824211120605 0.5828701257705688 0 3
10.558711051940918 -6.180605411529541 5.767114639282227 0.5859699249267578 0 3
10.475683212280273 -6.195292949676514 5.736884117126465 0.5890575051307678 0 3
10.393495559692383 -6.209824085235596 5.7070817947387695 0.5921335220336914 0 3
10.312129020690918 -6.224179744720459 5.677700519561768 0.5951977968215942 0 3
10.231640815734863 -6.238417625427246 5.648735046386719 0.5982494354248047 0 3
10.151952743530273 -6.252500057220459 5.620179176330566 0.6012898683547974 0 3
9.946503639221191 -6.187695026397705 5.521757125854492 0.6040401458740234 0 3
9.869316101074219 -6.201308250427246 5.4943060874938965 0.6070571541786194 0 3
9.792909622192383 -6.214765548706055 5.4672441482543945 0.6100627779960632 0 3
9.734062194824219 -6.238867282867432 5.449965476989746 0.6668305397033691 0 3
9.746289253234863 -6.30859375 5.472591876983643 0.66407310962677 0 3
9.461562156677246 -6.184726238250732 5.328266620635986 0.6192646026611328 0 3
9.388925552368164 -6.197558403015137 5.302971839904785 0.6222184300422668 0 3
9.318671226501465 -6.211406230926514 5.27897310256958 0.7523433566093445 0 3
9.262557983398438 -6.234238147735596 5.262992858886719 0.7546281814575195 0 3
9.20669937133789 -6.256875038146973 5.247157096862793 0.7569373250007629 0 3
9.151132583618164 -6.279296875 5.231484889984131 0.7592053413391113 0 3
9.113456726074219 -6.313847541809082 5.226112365722656 0.42290276288986206 0 3
9.08486270904541 -6.354550838470459 5.226009368896484 0.42336198687553406 0 3
9.056074142456055 -6.395097732543945 5.225892066955566 0.42337119579315186 0 3
9.027050971984863 -6.435546875 5.22577428817749 0.4233808219432831 0 3
8.975194931030273 -6.459511756896973 5.212484836578369 0.6166347861289978 0 3
8.90542984008789 -6.470156192779541 5.188772678375244 0.6194530129432678 0 3
8.836288452148438 -6.480722427368164 5.165379524230957 0.6222577095031738 0 3
8.767773628234863 -6.491171836853027 5.142304420471191 0.6250506639480591 0 3
8.69986343383789 -6.501562118530273 5.119545936584473 0.6278292536735535 0 3
8.632558822631836 -6.511855125427246 5.097090244293213 0.6305949687957764 0 3
8.565858840942383 -6.522050857543945 5.074940204620361 0.6333475112915039 0 3
8.499746322631836 -6.532187461853027 5.053088188171387 0.6360865831375122 0 3
8.434218406677246 -6.542226314544678 5.031528949737549 0.6388120651245117 0 3
8.369237899780273 -6.552206993103027 5.010260105133057 0.6415239572525024 0 3
8.304823875427246 -6.562089920043945 4.989269256591797 0.644222617149353 0 3
8.240937232971191 -6.57189416885376 4.968562602996826 0.6469075679779053 0 3
8.177597045898438 -6.58165979385376 4.948127269744873 0.6495793461799622 0 3
8.114785194396973 -6.591328144073486 4.927963733673096 0.6522365808486938 0 3
8.052460670471191 -6.600917816162109 4.908069133758545 0.6548810601234436 0 3
7.990644454956055 -6.610448837280273 4.888436317443848 0.6575111746788025 0 3
7.929355144500732 -6.619882583618164 4.869062423706055 0.660127580165863 0 3
7.868535041809082 -6.629277229309082 4.849940776824951 0.6627298593521118 0 3
7.808241844177246 -6.638593673706055 4.831068992614746 0.6653185486793518 0 3
7.748359203338623 -6.647851467132568 4.812448501586914 0.6678932309150696 0 3
7.68896484375 -6.657050609588623 4.794070720672607 0.6704533100128174 0 3
7.630058288574219 -6.666152000427246 4.7759294509887695 0.6729996204376221 0 3
7.571542739868164 -6.675234317779541 4.758028030395508 0.6755322217941284 0 3
7.513495922088623 -6.68419885635376 4.740350246429443 0.678522527217865 0 3
7.456191062927246 -6.693398475646973 4.7230987548828125 0.7412431836128235 0 3
7.401230335235596 -6.704277038574219 4.707282066345215 0.7437335848808289 0 3
7.346601486206055 -6.715058326721191 4.691661834716797 0.7462098598480225 0 3
7.292304515838623 -6.725800514221191 4.67623233795166 0.74867182970047 0 3
7.23839807510376 -6.736425399780273 4.660994052886963 0.7511193156242371 0 3
7.184823989868164 -6.746992111206055 4.645946502685547 0.7535525560379028 0 3
7.131601333618164 -6.757480144500732 4.631082057952881 0.7559704184532166 0 3
7.078671932220459 -6.767890453338623 4.616405010223389 0.7583740949630737 0 3
7.026113033294678 -6.778222560882568 4.601907730102539 0.7607631683349609 0 3
6.973847389221191 -6.788496017456055 4.587592124938965 0.7631377577781677 0 3
6.921894550323486 -6.798710823059082 4.57344913482666 0.7654974460601807 0 3
6.870273113250732 -6.80886697769165 4.559483051300049 0.767842710018158 0 3
27.690624237060547 17.054393768310547 14.674089431762695 0.5680683851242065 0 9
27.712167739868164 16.896581649780273 14.645160675048828 0.5691903233528137 0 9
27.733808517456055 16.739471435546875 14.616743087768555 0.5702968835830688 0 9
27.75552749633789 16.5831241607666 14.588834762573242 0.5713878870010376 0 9
27.777381896972656 16.427459716796875 14.56142520904541 0.5724636316299438 0 9
27.799354553222656 16.272480010986328 14.534494400024414 0.5735241174697876 0 9
27.815664291381836 16.114843368530273 14.50505542755127 0.2613733410835266 0 9
27.514862060546875 15.77611255645752 14.311152458190918 0.26491475105285645 0 9
27.222206115722656 15.446367263793945 14.122729301452637 0.2684488892555237 0 9
27.888280868530273 15.6592378616333 14.431681632995605 0.5776099562644958 0 9
27.904491424560547 15.504042625427246 14.403910636901855 0.5065854787826538 0 9
27.917421340942383 15.347675323486328 14.374887466430664 0.5076082348823547 0 9
27.930545806884766 15.192049980163574 14.346393585205078 0.5086163878440857 0 9
27.62173843383789 14.8638277053833 14.15335464477539 0.21905088424682617 0 9
27.22199249267578 14.491561889648438 13.915087699890137 0.22280150651931763 0 9
27.971054077148438 14.729589462280273 14.264044761657715 0.5115524530410767 0 9
27.98499870300293 14.576874732971191 14.23763370513916 0.5125016570091248 0 9
26.612186431884766 13.710311889648438 13.507762908935547 0.7928613424301147 0 9
26.626054763793945 13.566581726074219 13.483774185180664 0.7942719459533691 0 9
26.63996124267578 13.423418045043945 13.460161209106445 0.7956655025482178 0 9
25.363710403442383 12.637909889221191 12.786547660827637 0.8391604423522949 0 9
25.441015243530273 12.534218788146973 12.79702091217041 0.8384737968444824 0 9
25.518457412719727 12.430351257324219 12.807780265808105 0.8377691507339478 0 9
25.596073150634766 12.326347351074219 12.81883716583252 0.8370463252067566 0 9
25.673828125 12.222147941589355 12.830192565917969 0.8363058567047119 0 9
25.75179672241211 12.117812156677246 12.841835975646973 0.8355474472045898 0 9
25.82992172241211 12.013261795043945 12.853776931762695 0.8347712159156799 0 9
25.9039249420166 11.90658187866211 12.863898277282715 0.7957157492637634 0 9
25.971736907958984 11.796854972839355 12.871142387390137 0.7952683568000793 0 9
26.039648056030273 11.68701171875 12.878664016723633 0.7948035001754761 0 9
26.107675552368164 11.577070236206055 12.886491775512695 0.7943207025527954 0 9
26.066932678222656 11.41927719116211 12.840959548950195 0.2294168323278427 0 9
26.244218826293945 11.356855392456055 12.903051376342773 0.7933017015457153 0 9
26.161151885986328 11.181737899780273 12.837404251098633 0.3324146270751953 0 9
25.924354553222656 10.94320297241211 12.696979522705078 0.33609122037887573 0 9
25.692420959472656 10.709707260131836 12.559704780578613 0.33976447582244873 0 9
