ply
format ascii 1.0
element vertex 606
property float32 x
property float32 y
property float32 z
property float32 CosAngle
property uint32 ObjIdx
property uint32 ObjTag
end_header
8.89838981628418 -5.262470722198486 0.4691635072231293 0.46841558814048767 0 9
8.788299560546875 -5.304413795471191 0.4658483862876892 0.4717467427253723 0 9
8.679798126220703 -5.345790863037109 0.4626225233078003 0.4750366806983948 0 9
8.572830200195312 -5.386650085449219 0.4594813287258148 0.4782857596874237 0 9
8.467347145080566 -5.426982402801514 0.4564196765422821 0.4814933240413666 0 9
8.36330509185791 -5.466816425323486 0.45343825221061707 0.4846590757369995 0 9
8.260647773742676 -5.506171703338623 0.4505331218242645 0.48778340220451355 0 9
8.05579948425293 -5.474687576293945 0.44202375411987305 0.610853910446167 0 9
7.988505840301514 -5.534423828125 0.44104018807411194 0.4008272588253021 0 9
8.008353233337402 -5.655224323272705 0.44491925835609436 0.6664283871650696 0 9
7.8871750831604 -5.676425457000732 0.4409991502761841 0.6723511219024658 0 9
8.20979118347168 -6.021220684051514 0.4620423913002014 0.5843872427940369 0 9
8.24838924407959 -6.164169788360596 0.46731048822402954 0.9164225459098816 0 9
7.79426383972168 -5.934540748596191 0.4445820450782776 0.9851478934288025 0 9
7.713857173919678 -5.983447074890137 0.4430401623249054 0.11307340860366821 0 9
7.683206558227539 -6.07091760635376 0.4443916082382202 0.9855667352676392 0 9
7.140364646911621 -5.74685525894165 0.41596221923828125 0.3555256426334381 0 9
7.206140995025635 -5.907138347625732 0.42286545038223267 0.349721223115921 0 9
7.274200439453125 -6.072909832000732 0.4300404191017151 0.34388604760169983 0 9
7.125866413116455 -6.058437347412109 0.4244694411754608 0.4065490663051605 0 9
6.931983470916748 -6.001640319824219 0.4161125123500824 0.41471388936042786 0 9
7.35693359375 -6.486015319824219 0.44509825110435486 0.3600413501262665 0 9
7.145966529846191 -6.414921760559082 0.435801237821579 0.36772170662879944 0 9
6.943655967712402 -6.346777439117432 0.4269194006919861 0.3753718435764313 0 9
6.749423503875732 -6.281376838684082 0.4184269607067108 0.38299015164375305 0 9
7.277462005615234 -6.895712852478027 0.4549827575683594 0.8100384473800659 0 9
7.196921348571777 -6.943046569824219 0.45382535457611084 0.8121044635772705 0 9
7.393474102020264 -7.261923789978027 0.47031188011169434 0.7080048322677612 0 9
17.353862762451172 17.3538761138916 0.9110596776008606 0.39067786931991577 0 9
17.427701950073242 17.117656707763672 0.9068315029144287 0.39249885082244873 0 9
17.499597549438477 16.882362365722656 0.9026524424552917 0.4205355644226074 0 9
17.527204513549805 16.607851028442383 0.8963517546653748 0.337934672832489 0 9
18.716257095336914 17.418338775634766 0.9491267204284668 0.31018590927124023 0 9
18.698383331298828 17.09113311767578 0.9404023289680481 0.31306344270706177 0 9
18.68099021911621 16.769969940185547 0.9319181442260742 0.3159131109714508 0 9
18.660287857055664 16.45130729675293 0.9234858751296997 0.27243006229400635 0 9
17.214603424072266 14.90428638458252 0.845281183719635 0.4771966338157654 0 9
16.89495086669922 14.364218711853027 0.8232203722000122 0.08697223663330078 0 9
16.261167526245117 13.575810432434082 0.7863685488700867 0.09104803204536438 0 9
23.508329391479492 19.270721435546875 1.1284269094467163 0.13392454385757446 0 9
16.67084312438965 13.41739273071289 0.794404149055481 0.9369841814041138 0 9
16.735721588134766 13.223837852478027 0.7918089032173157 0.9400571584701538 0 9
16.855018615722656 13.074081420898438 0.7918684482574463 0.756820797920227 0 9
17.10466766357422 13.023515701293945 0.79807448387146 0.7509371042251587 0 9
25.086166381835938 18.747343063354492 1.1625715494155884 0.2677616477012634 0 9
25.34877586364746 18.591346740722656 1.1669642925262451 0.26675453782081604 0 9
40.77532958984375 28.249237060546875 1.8414487838745117 0.8209396004676819 0 3
40.48164749145508 27.511337280273438 1.8169629573822021 0.8260221481323242 0 3
40.48009490966797 26.982322692871094 1.8059394359588623 0.8310427665710449 0 3
40.77273178100586 26.65194320678711 1.80825936794281 0.8359917402267456 0 3
40.77222442626953 26.132333755493164 1.7977662086486816 0.8408734202384949 0 3
40.81084060668945 25.64322280883789 1.7892524003982544 0.9800829887390137 0 3
40.88795471191406 25.182607650756836 1.7826420068740845 0.8504336476325989 0 3
40.88745880126953 24.678836822509766 1.7728898525238037 0.8551111221313477 0 3
40.77024841308594 24.111513137817383 1.7583472728729248 0.859719455242157 0 3
40.7697639465332 23.619863510131836 1.749122142791748 0.864258885383606 0 3
40.769287109375 23.133329391479492 1.7401307821273804 0.868728518486023 0 3
40.885536193847656 22.71660041809082 1.73629891872406 0.8731281161308289 0 3
40.88506317138672 22.238428115844727 1.727747917175293 0.8774574398994446 0 3
40.81827926635742 21.7296085357666 1.71660315990448 0.655616283416748 0 3
40.76742172241211 21.235116958618164 1.7063862085342407 0.8859037756919861 0 3
40.7669677734375 20.771806716918945 1.6984870433807373 0.890019953250885 0 3
40.76651382446289 20.312753677368164 1.6908128261566162 0.8940644264221191 0 3
40.88277816772461 19.91463851928711 1.688158392906189 0.8980369567871094 0 3
40.88233184814453 19.46236228942871 1.6808515787124634 0.9019371271133423 0 3
40.81550598144531 18.98304557800293 1.6710233688354492 0.6952706575393677 0 3
40.764739990234375 18.51620101928711 1.6620832681655884 0.9095190763473511 0 3
40.764305114746094 18.076416015625 1.6553776264190674 0.9132002592086792 0 3
40.47079086303711 17.51325225830078 1.6370054483413696 0.9168081283569336 0 3
41.361576080322266 17.459657669067383 1.6666291952133179 0.3895711302757263 0 3
42.417724609375 17.458593368530273 1.7028043270111084 0.3812952935695648 0 3
43.52084732055664 17.45745086669922 1.7407245635986328 0.3729885220527649 0 3
44.67422866821289 17.456268310546875 1.7805182933807373 0.364652544260025 0 3
45.88176727294922 17.455028533935547 1.8223289251327515 0.3562864661216736 0 3
39.409584045410156 14.589247703552246 1.560006856918335 0.9368901252746582 0 3
39.409183502197266 14.188202857971191 1.5548810958862305 0.9399751424789429 0 3
39.701839447021484 13.892304420471191 1.5614506006240845 0.942984402179718 0 3
39.70143508911133 13.493427276611328 1.5566092729568481 0.945917546749115 0 3
39.74435806274414 13.111259460449219 1.553602695465088 0.9983683824539185 0 3
39.80476379394531 12.73617172241211 1.5514384508132935 0.9515554904937744 0 3
39.80437088012695 12.343300819396973 1.5470463037490845 0.95425945520401 0 3
39.73698425292969 11.932499885559082 1.5402039289474487 0.7908491492271423 0 3
39.69945526123047 11.533798217773438 1.5346837043762207 0.9594365954399109 0 3
39.699066162109375 11.148261070251465 1.5307352542877197 0.9619094133377075 0 3
39.69868087768555 10.764687538146973 1.5269248485565186 0.964304506778717 0 3
39.728538513183594 10.390869140625 1.5244297981262207 0.993549644947052 0 3
39.751304626464844 10.016484260559082 1.5217890739440918 0.892658531665802 0 3
39.749595642089844 9.637470245361328 1.518350601196289 0.8946799039840698 0 3
39.74793243408203 9.260116577148438 1.5150480270385742 0.8966283202171326 0 3
39.69676208496094 8.873300552368164 1.5100053548812866 0.9751119613647461 0 3
39.696380615234375 8.49984359741211 1.5070295333862305 0.9770385026931763 0 3
39.69599914550781 8.127802848815918 1.50418221950531 0.9788863062858582 0 3
39.69562530517578 7.757206916809082 1.5014708042144775 0.9806550741195679 0 3
39.74044418334961 7.39626932144165 1.5005946159362793 0.9052676558494568 0 3
39.73910140991211 7.027568340301514 1.4980970621109009 0.9067742228507996 0 3
39.73780822753906 6.660078048706055 1.495734691619873 0.908206582069397 0 3
39.69411849975586 6.286972522735596 1.4919105768203735 0.9869396090507507 0 3
39.693748474121094 5.922197341918945 1.4898359775543213 0.9883121848106384 0 3
39.69337463378906 5.558408260345459 1.4878877401351929 0.9896051287651062 0 3
39.4000129699707 5.157177448272705 1.4750968217849731 0.990818440914154 0 3
40.55471420288086 4.938496112823486 1.5166096687316895 0.12182369083166122 0 3
39.64931106567383 4.467451095581055 1.48119056224823 0.9930065870285034 0 3
39.941932678222656 4.13772439956665 1.4906738996505737 0.9939798712730408 0 3
39.94156265258789 3.775624990463257 1.489336371421814 0.9948732852935791 0 3
39.94118881225586 3.4141600131988525 1.4881168603897095 0.9956865310668945 0 3
40.0003547668457 3.0578222274780273 1.4892417192459106 0.9184314608573914 0 3
39.99959945678711 2.696855306625366 1.4882557392120361 0.91904217004776 0 3
39.99888229370117 2.336357355117798 1.4873842000961304 0.9195777177810669 0 3
39.93971633911133 1.9733593463897705 1.4844621419906616 0.9981368184089661 0 3
39.93935012817383 1.6141210794448853 1.4838532209396362 0.9985486268997192 0 3
39.93898010253906 1.255165934562683 1.4833598136901855 0.9988797903060913 0 3
39.93861389160156 0.8963964581489563 1.4829826354980469 0.9991304278373718 0 3
39.98075866699219 0.5383593440055847 1.4843144416809082 0.9386048913002014 0 3
39.99557876586914 0.1795312464237213 1.4847428798675537 0.9212120771408081 0 3
39.99519348144531 -0.17948241531848907 1.484736442565918 0.9212208986282349 0 3
39.99485397338867 -0.5385156273841858 1.4848383665084839 0.9211546182632446 0 3
31.14401626586914 -0.6989843845367432 1.1564310789108276 0.20041623711585999 0 9
31.152631759643555 -0.97900390625 1.157028079032898 0.20031240582466125 0 9
39.86210250854492 -1.610937476158142 1.4809833765029907 0.42546799778938293 0 9
39.59998321533203 -1.9565623998641968 1.4718323945999146 0.42811164259910583 0 9
39.34132385253906 -2.2979393005371094 1.4629359245300293 0.4307178556919098 0 9
38.991092681884766 -2.628847599029541 1.4507325887680054 0.2940891981124878 0 9
38.570457458496094 -2.948486328125 1.4360023736953735 0.29710447788238525 0 9
38.15861129760742 -3.2617480754852295 1.4217005968093872 0.300092875957489 0 9
37.66065216064453 -3.5599608421325684 1.4042848348617554 0.29709261655807495 0 9
37.07953643798828 -3.841132640838623 1.3838422298431396 0.8889210224151611 0 9
36.10783767700195 -4.068368911743164 1.3488883972167969 0.7512951493263245 0 9
34.44975662231445 -4.195009708404541 1.2883000373840332 0.3051810562610626 0 9
33.87950134277344 -4.434521198272705 1.2684153318405151 0.30996620655059814 0 9
33.24695587158203 -4.655634880065918 1.2462458610534668 0.22328853607177734 0 9
34.998653411865234 -5.221650123596191 1.313610315322876 0.7276736497879028 0 9
34.96884536743164 -5.538515567779541 1.3143073320388794 0.48847028613090515 0 9
34.312957763671875 -5.750810623168945 1.2915427684783936 0.4471500515937805 0 9
30.399335861206055 -5.375849723815918 1.1460038423538208 0.8623316884040833 0 9
29.496322631835938 -5.489628791809082 1.1137751340866089 0.730880856513977 0 9
29.2767276763916 -5.721122741699219 1.1073795557022095 0.649233877658844 0 9
29.330883026123047 -6.005517482757568 1.11142098903656 0.8781005144119263 0 9
29.3474178314209 -6.283876895904541 1.1141411066055298 0.280914843082428 0 9
28.946868896484375 -6.470380783081055 1.101091742515564 0.5935351848602295 0 9
28.55052375793457 -6.651406288146973 1.088247537612915 0.335172176361084 0 9
28.0601806640625 -6.803271293640137 1.0718375444412231 0.7009354829788208 0 9
12.99022388458252 -3.2732324600219727 0.49730056524276733 0.9883426427841187 0 6
27.965646743774414 -7.314296722412109 1.0730735063552856 0.4024079740047455 0 9
27.954023361206055 -7.579980373382568 1.0751938819885254 0.9813052415847778 0 9
27.878419876098633 -7.828769207000732 1.0749448537826538 0.9815318584442139 0 9
27.80282211303711 -8.077470779418945 1.074781894683838 0.9816802144050598 0 9
27.90357780456543 -8.379072189331055 1.0815385580062866 0.8265280723571777 0 9
27.78604507446289 -8.616406440734863 1.079939365386963 0.8277540802955627 0 9
27.88401222229004 -8.921914100646973 1.086811900138855 0.8610077500343323 0 9
27.76997947692871 -9.161005973815918 1.0855330228805542 0.8491424918174744 0 9
27.533681869506836 -9.35791015625 1.0795344114303589 0.8613787889480591 0 9
17.593931198120117 -6.15636682510376 0.6919587850570679 0.5092906951904297 0 9
17.415884017944336 -6.270087718963623 0.687143087387085 0.5128607749938965 0 9
10.00013256072998 -3.701972484588623 0.39584991335868835 0.5124775171279907 0 9
10.037130355834961 -3.8184568881988525 0.39865508675575256 0.644843339920044 0 9
10.078600883483887 -3.9381542205810547 0.401689738035202 0.6399712562561035 0 9
10.120684623718262 -4.059687614440918 0.40480223298072815 0.6350488066673279 0 9
10.163400650024414 -4.18310546875 0.4079960584640503 0.6300778985023499 0 9
6.360595703125 -2.6849217414855957 0.2562956213951111 0.8447950482368469 0 6
6.326938152313232 -2.737870931625366 0.25591903924942017 0.9719018340110779 0 6
10.13838005065918 -4.495722770690918 0.4117039442062378 0.08145236223936081 0 9
10.341055870056152 -4.697119235992432 0.4216296374797821 0.6097053289413452 0 9
9.180045127868652 -4.26956033706665 0.3758404552936554 0.6305265426635742 0 9
9.234245300292969 -4.396015644073486 0.3796592652797699 0.7678182125091553 0 9
9.254438400268555 -4.507958889007568 0.38213682174682617 0.7628381848335266 0 9
9.274885177612305 -4.621386528015137 0.3846791088581085 0.7577973008155823 0 9
9.26854133605957 -4.722538948059082 0.38615843653678894 0.21888932585716248 0 9
9.316576957702637 -4.852831840515137 0.3899601697921753 0.7475372552871704 0 9
9.337839126586914 -4.97097635269165 0.3927001953125 0.7423179745674133 0 9
8.926679611206055 -4.855419635772705 0.37722671031951904 0.3815139830112457 0 9
8.916360855102539 -4.954032897949219 0.3786570727825165 0.24788565933704376 0 9
9.173300743103027 -5.205087661743164 0.39153534173965454 0.23973149061203003 0 9
8.887358665466309 -5.148847579956055 0.3812881410121918 0.4716280996799469 0 9
8.7780122756958 -5.191279411315918 0.3785804808139801 0.47500067949295044 0 9
8.670239448547363 -5.233154296875 0.375943124294281 0.4783328175544739 0 9
8.563990592956543 -5.274482250213623 0.3733738660812378 0.48162421584129333 0 9
8.459217071533203 -5.315273284912109 0.3708721697330475 0.48487427830696106 0 9
8.355871200561523 -5.355546951293945 0.3684345781803131 0.4880829155445099 0 9
8.253910064697266 -5.395322322845459 0.36605942249298096 0.49125000834465027 0 9
8.259490966796875 -5.505410194396973 0.36848312616348267 0.3500517010688782 0 9
8.024810791015625 -5.45364236831665 0.36018186807632446 0.6134212613105774 0 9
7.925398826599121 -5.490712642669678 0.357919305562973 0.40415650606155396 0 9
7.977807521820068 -5.633671760559082 0.36255431175231934 0.6692081093788147 0 9
7.85735559463501 -5.654980182647705 0.35937270522117615 0.6751328706741333 0 9
7.738990306854248 -5.675937175750732 0.35627472400665283 0.6810027360916138 0 9
8.216997146606445 -6.140693187713623 0.3808036744594574 0.5802049040794373 0 9
7.808202743530273 -5.945156097412109 0.36431625485420227 0.9837234020233154 0 9
7.7525634765625 -6.013486385345459 0.3642234802246094 0.9839723706245422 0 9
7.556603908538818 -5.970888614654541 0.35752013325691223 0.11465711891651154 0 9
7.641331672668457 -6.150068283081055 0.3641284108161926 0.9842342138290405 0 9
7.548510551452637 -6.187822341918945 0.36233657598495483 0.38971447944641113 0 9
7.160960674285889 -5.978378772735596 0.34629547595977783 0.34944307804107666 0 9
7.135337829589844 -6.066504001617432 0.34767547249794006 0.40614768862724304 0 9
6.941011905670166 -6.009452819824219 0.3408222794532776 0.4143156111240387 0 9
7.298555850982666 -6.434550762176514 0.36119964718818665 0.36304453015327454 0 9
7.090441703796387 -6.365087985992432 0.3537135124206543 0.370728075504303 0 9
6.890797138214111 -6.298466682434082 0.3465592861175537 0.3783802390098572 0 9
7.452567100524902 -6.935761451721191 0.37792935967445374 0.7209569215774536 0 9
7.444488525390625 -7.053994178771973 0.380715012550354 0.7156811952590942 0 9
7.436276912689209 -7.173974514007568 0.38357284665107727 0.7103492021560669 0 9
7.427924633026123 -7.29577112197876 0.38650405406951904 0.7049610614776611 0 9
18.289506912231445 18.289531707763672 0.7466712594032288 0.400040864944458 0 9
18.31942367553711 17.993467330932617 0.7412644624710083 0.4029567241668701 0 9
18.315542221069336 17.66950225830078 0.7346622943878174 0.31171050667762756 0 9
18.301177978515625 17.341190338134766 0.7278135418891907 0.314643919467926 0 9
18.287199020385742 17.019081115722656 0.7211536765098572 0.31754985451698303 0 9
18.27358627319336 16.702871322631836 0.7146751284599304 0.32042810320854187 0 9
18.26033592224121 16.392333984375 0.7083753943443298 0.3232787251472473 0 9
18.19831657409668 16.044023513793945 0.7003535032272339 0.27942168712615967 0 9
18.079607009887695 15.653182983398438 0.6903520226478577 0.28347086906433105 0 9
22.18021011352539 18.1820011138916 0.8279252648353577 0.14198234677314758 0 9
16.66973876953125 13.41649341583252 0.617717444896698 0.9373012781143188 0 9
16.7346134185791 13.222968101501465 0.6156968474388123 0.940375030040741 0 9
16.85325813293457 13.072724342346191 0.6157221794128418 0.7571057677268982 0 9
17.102872848510742 13.022138595581055 0.6205458045005798 0.7512202858924866 0 9
24.238752365112305 18.114072799682617 0.873522162437439 0.13457158207893372 0 9
24.627946853637695 18.062685012817383 0.8816694617271423 0.27463677525520325 0 9
24.882532119750977 17.908172607421875 0.8849915862083435 0.2736052870750427 0 9
40.79948043823242 28.8113956451416 1.4418601989746094 0.7526505589485168 0 3
40.77640914916992 28.250009536743164 1.4320261478424072 0.8211410641670227 0 3
40.48270797729492 27.5120792388916 1.4129753112792969 0.8262250423431396 0 3
40.48115158081055 26.983036041259766 1.4044032096862793 0.8312471508979797 0 3
40.77378845214844 26.652616500854492 1.406206727027893 0.8361977934837341 0 3
40.773277282714844 26.132997512817383 1.3980439901351929 0.8410806655883789 0 3
40.79478454589844 25.63314437866211 1.390831708908081 0.7806140780448914 0 3
40.79125213623047 25.123056411743164 1.3829669952392578 0.7850532531738281 0 3
40.78780746459961 24.618709564208984 1.3752988576889038 0.7894284129142761 0 3
40.77127456665039 24.11212921142578 1.3673762083053589 0.8599316477775574 0 3
40.77078628540039 23.620458602905273 1.3602104187011719 0.8644723296165466 0 3
40.77030563354492 23.13392448425293 1.3532130718231201 0.8689430356025696 0 3
40.77481460571289 22.65507698059082 1.3465561866760254 0.8062806129455566 0 3
40.77175521850586 22.17680549621582 1.3398338556289673 0.810329794883728 0 3
40.76845932006836 21.70308494567871 1.333267331123352 0.5231367349624634 0 3
40.75956344604492 21.231035232543945 1.3266847133636475 0.5257300734519958 0 3
40.76795959472656 20.772314071655273 1.3208380937576294 0.890240490436554 0 3
40.742462158203125 20.300771713256836 1.3140549659729004 0.5307838916778564 0 3
40.73423767089844 19.84228515625 1.3079887628555298 0.5332440733909607 0 3
40.72623062133789 19.3880558013916 1.3020957708358765 0.5356593728065491 0 3
40.71843338012695 18.937910079956055 1.2963602542877197 0.538029670715332 0 3
40.710838317871094 18.491737365722656 1.2907798290252686 0.5403549671173096 0 3
40.7652702331543 18.076845169067383 1.287314534187317 0.9134272336959839 0 3
40.47174835205078 17.513690948486328 1.2730213403701782 0.9170357584953308 0 3
41.36149215698242 17.459638595581055 1.2960309982299805 0.38967788219451904 0 3
42.41761779785156 17.458555221557617 1.3241617679595947 0.3813999593257904 0 3
43.52071762084961 17.45741081237793 1.3536466360092163 0.37309110164642334 0 3
44.67409896850586 17.45623016357422 1.3845933675765991 0.3647528290748596 0 3
45.88164138793945 17.45499038696289 1.4171009063720703 0.35638436675071716 0 3
39.410499572753906 14.589579582214355 1.2131431102752686 0.9371225237846375 0 3
39.410091400146484 14.1885347366333 1.2091624736785889 0.9402090311050415 0 3
39.70275115966797 13.8926362991333 1.2142630815505981 0.9432191252708435 0 3
39.70234680175781 13.4937105178833 1.210501790046692 0.9461534023284912 0 3
39.701942443847656 13.09725570678711 1.2068521976470947 0.9490112662315369 0 3
39.701541900634766 12.703134536743164 1.2033274173736572 0.9517926573753357 0 3
39.70114517211914 12.311288833618164 1.1999164819717407 0.9544973373413086 0 3
39.700748443603516 11.921630859375 1.1966273784637451 0.9571251273155212 0 3
39.700355529785156 11.534062385559082 1.1934394836425781 0.9596757888793945 0 3
39.69995880126953 11.14852523803711 1.1903748512268066 0.9621493220329285 0 3
39.6995735168457 10.764911651611328 1.1874171495437622 0.9645453691482544 0 3
39.69918441772461 10.383193016052246 1.1845680475234985 0.9668635129928589 0 3
39.698795318603516 10.003271102905273 1.1818381547927856 0.9691036939620972 0 3
39.69841384887695 9.6250581741333 1.1792014837265015 0.9712660908699036 0 3
39.69802474975586 9.248476028442383 1.1766777038574219 0.9733499884605408 0 3
39.69763946533203 8.873496055603027 1.174256443977356 0.9753556251525879 0 3
39.69725799560547 8.500019073486328 1.1719441413879395 0.9772826433181763 0 3
39.69688034057617 8.1279878616333 1.1697337627410889 0.9791309237480164 0 3
39.696502685546875 7.757363319396973 1.1676234006881714 0.9809004068374634 0 3
39.69612121582031 7.388017177581787 1.1656090021133423 0.9825907945632935 0 3
39.69574737548828 7.01989221572876 1.163699746131897 0.9842019081115723 0 3
39.695369720458984 6.652958869934082 1.1618925333023071 0.9857339262962341 0 3
39.69499206542969 6.287118911743164 1.1601850986480713 0.9871864318847656 0 3
39.69461441040039 5.922343730926514 1.1585768461227417 0.9885594248771667 0 3
39.69424057006836 5.558515548706055 1.1570615768432617 0.9898528456687927 0 3
39.40087127685547 5.157294750213623 1.1471110582351685 0.9910664558410645 0 3
40.5545654296875 4.938457012176514 1.1793638467788696 0.12185728549957275 0 3
39.65017318725586 4.46755838394165 1.1518497467041016 0.9932549595832825 0 3
39.94280242919922 4.137783050537109 1.1592289209365845 0.9942287802696228 0 3
39.94243240356445 3.775702953338623 1.1581840515136719 0.9951222538948059 0 3
39.94205856323242 3.4142284393310547 1.1572401523590088 0.9959357976913452 0 3
39.94169235229492 3.0533299446105957 1.1563911437988281 0.9966690540313721 0 3
39.941322326660156 2.692929744720459 1.15562903881073 0.9973220229148865 0 3
39.94095230102539 2.3329784870147705 1.1549665927886963 0.9978946447372437 0 3
39.94058609008789 1.9733984470367432 1.154397964477539 0.9983867406845093 0 3
39.940216064453125 1.6141600608825684 1.15392005443573 0.9987985491752625 0 3
39.93984603881836 1.2551854848861694 1.1535367965698242 0.9991298317909241 0 3
39.93947982788086 0.8964160084724426 1.1532517671585083 0.9993806481361389 0 3
39.939109802246094 0.537792980670929 1.1530516147613525 0.999550998210907 0 3
39.938743591308594 0.17926757037639618 1.1529502868652344 0.9996407628059387 0 3
39.93837356567383 -0.17923827469348907 1.152938723564148 0.9996499419212341 0 3
39.93800354003906 -0.5377538800239563 1.1530197858810425 0.9995787739753723 0 3
39.74259567260742 -0.89198237657547 1.1475684642791748 0.42710447311401367 0 9
39.481773376464844 -1.24072265625 1.1403099298477173 0.42982199788093567 0 9
39.22438049316406 -1.5851757526397705 1.1332396268844604 0.4325030446052551 0 9
38.87705612182617 -1.9208202362060547 1.1236567497253418 0.2953416109085083 0 9
38.45869827270508 -2.2463574409484863 1.1121031045913696 0.29840993881225586 0 9
38.049076080322266 -2.565312385559082 1.10088050365448 0.3014521896839142 0 9
37.64786148071289 -2.8779296875 1.089972972869873 0.3044680655002594 0 9
37.254730224609375 -3.1844921112060547 1.0793790817260742 0.30745744705200195 0 9
36.797367095947266 -3.4783689975738525 1.0669889450073242 0.3041451573371887 0 9
36.07289123535156 -3.7368457317352295 1.0469130277633667 0.15109126269817352 0 9
36.36122131347656 -4.096933364868164 1.0563029050827026 0.7462629079818726 0 9
33.74208450317383 -4.108828067779541 0.981251060962677 0.3116663992404938 0 9
33.094268798828125 -4.331737995147705 0.9634974598884583 0.22465279698371887 0 9
35.71266174316406 -5.000927448272705 1.0409992933273315 0.555904746055603 0 9
35.129676818847656 -5.2412109375 1.0253371000289917 0.3015225827693939 0 9
34.82650375366211 -5.515966892242432 1.017890453338623 0.730460524559021 0 9
34.876861572265625 -5.845322132110596 1.0208534002304077 0.9720423221588135 0 9
34.60210418701172 -6.119071960449219 1.014374852180481 0.11033708602190018 0 9
30.4545955657959 -5.667978286743164 0.8942481875419617 0.844177782535553 0 9
29.47735595703125 -5.760312557220459 0.8670377731323242 0.6449905633926392 0 9
29.42868423461914 -6.025537014007568 0.8671616911888123 0.8754203915596008 0 9
28.7559757232666 -6.157246112823486 0.848933219909668 0.4998035430908203 0 9
29.118810653686523 -6.508828163146973 0.861339271068573 0.4926072955131531 0 9
29.3726806640625 -6.842939376831055 0.8706294298171997 0.5838924050331116 0 9
29.209535598754883 -7.081962585449219 0.8676393032073975 0.5996557474136353 0 9
12.989655494689941 -3.2730956077575684 0.38670241832733154 0.9886547923088074 0 6
28.083120346069336 -7.345058441162109 0.8379648923873901 0.9793986082077026 0 9
27.876821517944336 -7.559072017669678 0.8337989449501038 0.8983361721038818 0 9
27.69902992248535 -7.778417587280273 0.830534815788269 0.9018654823303223 0 9
27.708120346069336 -8.049970626831055 0.8329405188560486 0.575888454914093 0 9
27.74822425842285 -8.332441329956055 0.836361825466156 0.5735334753990173 0 9
27.644420623779297 -8.572519302368164 0.8355177044868469 0.8322209119796753 0 9
28.639421463012695 -9.163622856140137 0.8680442571640015 0.9312642216682434 0 9
28.135622024536133 -9.28165054321289 0.8552619814872742 0.7415767312049866 0 9
27.91942596435547 -9.489032745361328 0.8512467741966248 0.7450763583183289 0 9
17.538768768310547 -6.137070178985596 0.5364055037498474 0.7290788292884827 0 9
17.34897232055664 -6.245995998382568 0.5322933793067932 0.7347103953361511 0 9
17.16080093383789 -6.352822303771973 0.5282487273216248 0.7253889441490173 0 9
10.110082626342773 -3.846201181411743 0.3122608959674835 0.6403645277023315 0 9
10.152417182922363 -3.966982364654541 0.31465575098991394 0.6354909539222717 0 9
10.195388793945312 -4.089638710021973 0.31711167097091675 0.6305676102638245 0 9
10.239017486572266 -4.214218616485596 0.319631963968277 0.625594973564148 0 9
6.360396385192871 -2.6848535537719727 0.19929824769496918 0.8450512290000916 0 6
6.32682466506958 -2.737841844558716 0.19900894165039062 0.9721839427947998 0 6
10.374085426330566 -4.600234508514404 0.3275984227657318 0.6103833317756653 0 9
10.420581817626953 -4.733232498168945 0.33039426803588867 0.6052165627479553 0 9
9.183868408203125 -4.271327972412109 0.29238706827163696 0.6304353475570679 0 9
9.247679710388184 -4.402402400970459 0.2956657409667969 0.6234462261199951 0 9
9.289977073669434 -4.525263786315918 0.29830488562583923 0.7601263523101807 0 9
9.31074047088623 -4.639238357543945 0.3002970814704895 0.7550848722457886 0 9
9.331775665283203 -4.754755973815918 0.30233871936798096 0.7499827146530151 0 9
9.3530855178833 -4.871845722198486 0.30443525314331055 0.7448216080665588 0 9
9.374690055847168 -4.990585803985596 0.3065837025642395 0.739600658416748 0 9
9.01114559173584 -4.901357173919678 0.29612043499946594 0.3780408799648285 0 9
9.020392417907715 -5.011826038360596 0.2978920042514801 0.24509350955486298 0 9
9.273836135864258 -5.262138366699219 0.3078092932701111 0.0957474410533905 0 9
8.76796817779541 -5.079668045043945 0.2925207316875458 0.47818005084991455 0 9
8.660914421081543 -5.122031211853027 0.29046982526779175 0.4815538823604584 0 9
8.555379867553711 -5.163827896118164 0.28847455978393555 0.4848867356777191 0 9
8.451300621032715 -5.205068111419678 0.2865287661552429 0.4881788194179535 0 9
8.34864330291748 -5.245780944824219 0.28463315963745117 0.49142980575561523 0 9
8.580056190490723 -5.499228477478027 0.29419371485710144 0.6414960622787476 0 9
8.383394241333008 -5.479950904846191 0.28912612795829773 0.3470221161842346 0 9
7.958585262298584 -5.304833889007568 0.27610641717910767 0.622442901134491 0 9
7.994080543518066 -5.432744026184082 0.2790184020996094 0.6159473061561584 0 9
7.863312721252441 -5.447695255279541 0.27615004777908325 0.4074583947658539 0 9
7.947508335113525 -5.612265586853027 0.280864417552948 0.6719417572021484 0 9
7.827770709991455 -5.633681297302246 0.2784089744091034 0.6778683066368103 0 9
8.144074440002441 -5.97301721572876 0.291552871465683 0.5894643068313599 0 9
8.18373966217041 -6.115829944610596 0.29492735862731934 0.5827218294143677 0 9
8.22434139251709 -6.262031078338623 0.2984029948711395 0.5759312510490417 0 9
7.766442775726318 -6.024248123168945 0.2837405204772949 0.9824812412261963 0 9
7.710721492767334 -6.092656135559082 0.2836917042732239 0.9826515316963196 0 9
7.403168678283691 -5.958349704742432 0.2743328809738159 0.1162300556898117 0 9
7.558965682983398 -6.196386814117432 0.2821556031703949 0.38928112387657166 0 9
7.347611904144287 -6.134218692779541 0.2763093411922455 0.397516131401062 0 9
7.115779876708984 -6.049863338470459 0.2696240246295929 0.3491072356700897 0 9
6.950056076049805 -6.017265319824219 0.2653816044330597 0.41388869285583496 0 9
7.24113655090332 -6.383915901184082 0.2786715626716614 0.36602330207824707 0 9
7.035804271697998 -6.31603479385376 0.2729402184486389 0.37370872497558594 0 9
6.838748455047607 -6.250898361206055 0.2674618363380432 0.38136357069015503 0 9
7.486657619476318 -6.967480182647705 0.2952360510826111 0.7178690433502197 0 9
7.478791236877441 -7.086484432220459 0.2974226176738739 0.7125921845436096 0 9
7.470801830291748 -7.207275390625 0.2996652126312256 0.7072588801383972 0 9
7.45458984375 -7.321952819824219 0.3016390800476074 0.8466357588768005 0 9
17.919069290161133 17.91910171508789 0.5224639773368835 0.3131023347377777 0 9
17.90827751159668 17.589658737182617 0.5175230503082275 0.31609058380126953 0 9
17.897768020629883 17.26644515991211 0.5127190947532654 0.3190517723560333 0 9
17.88753890991211 16.949296951293945 0.5080480575561523 0.32198554277420044 0 9
17.87757110595703 16.637861251831055 0.5035027861595154 0.3248922526836395 0 9
17.867862701416016 16.332012176513672 0.49908310174942017 0.32777103781700134 0 9
17.85839080810547 16.031503677368164 0.49477508664131165 0.33062219619750977 0 9
17.758878707885742 15.656600952148438 0.4881059229373932 0.2863943874835968 0 9
16.668638229370117 13.415595054626465 0.44113555550575256 0.9375547170639038 0 9
16.73350715637207 13.222089767456055 0.43969467282295227 0.9406291246414185 0 9
16.851503372192383 13.071356773376465 0.43969467282295227 0.7573390007019043 0 9
17.10107421875 13.020771026611328 0.4431382715702057 0.7514525651931763 0 9
40.77803421020508 28.796239852905273 1.0292106866836548 0.816135823726654 0 3
40.77748489379883 28.250761032104492 1.0227558612823486 0.8212869167327881 0 3
40.48377227783203 27.51278305053711 1.0091581344604492 0.8263735175132751 0 3
40.48220443725586 26.983749389648438 1.0030335187911987 0.8313935995101929 0 3
40.774845123291016 26.653329849243164 1.0043210983276367 0.8363465070724487 0 3
40.77432632446289 26.1336612701416 0.998483419418335 0.8412306308746338 0 3
40.77381134033203 25.61994171142578 0.9928053021430969 0.846047043800354 0 3
40.7733039855957 25.11199188232422 0.987261176109314 0.8507952094078064 0 3
40.77280044555664 24.609647750854492 0.9818552732467651 0.8554747104644775 0 3
40.77230453491211 24.112733840942383 0.9765955805778503 0.8600854277610779 0 3
40.771812438964844 23.62105369567871 0.9714710712432861 0.8646270632743835 0 3
40.771324157714844 23.134511947631836 0.966474711894989 0.8690986037254333 0 3
40.77083969116211 22.652870178222656 0.9616023302078247 0.8735005855560303 0 3
40.77035903930664 22.176034927368164 0.9568525552749634 0.8778319358825684 0 3
40.7698860168457 21.703847885131836 0.9522337317466736 0.8820925951004028 0 3
40.76941680908203 21.23615264892578 0.9477335810661316 0.8862823247909546 0 3
40.76894760131836 20.772830963134766 0.9433488249778748 0.8904003500938416 0 3
40.768489837646484 20.313730239868164 0.9390809535980225 0.894446849822998 0 3
40.76803207397461 19.858749389648438 0.934925377368927 0.8984212279319763 0 3
40.767578125 19.407724380493164 0.930884838104248 0.9023232460021973 0 3
40.767127990722656 18.9605655670166 0.9269483685493469 0.9061524868011475 0 3
40.76668167114258 18.517099380493164 0.9231175184249878 0.9099089503288269 0 3
40.766239166259766 18.077274322509766 0.9194034934043884 0.9135919213294983 0 3
40.47270584106445 17.51412010192871 0.9091984629631042 0.9172011613845825 0 3
41.36143112182617 17.459598541259766 0.9256095886230469 0.38975802063941956 0 3
42.41751480102539 17.458515167236328 0.9456931948661804 0.3814786672592163 0 3
43.52058410644531 17.457372665405273 0.9667576551437378 0.37316828966140747 0 3
44.674007415771484 17.45619010925293 0.9888584613800049 0.3648280203342438 0 3
45.881492614746094 17.4549503326416 1.01207435131073 0.3564581274986267 0 3
39.41141128540039 14.589911460876465 0.8664283752441406 0.9372919201850891 0 3
39.4109992980957 14.18886661529541 0.8635902404785156 0.9403783082962036 0 3
39.41059494018555 13.790380477905273 0.8608314394950867 0.9433908462524414 0 3
39.41018295288086 13.39443302154541 0.8581657409667969 0.9463245272636414 0 3
39.40978240966797 13.000868797302246 0.8555769324302673 0.9491830468177795 0 3
39.409385681152344 12.609667778015137 0.8530741930007935 0.9519649744033813 0 3
39.40898895263672 12.22069263458252 0.8506605625152588 0.954670250415802 0 3
39.408592224121094 11.83389663696289 0.848320722579956 0.9572986960411072 0 3
39.40819549560547 11.449179649353027 0.8460688591003418 0.9598499536514282 0 3
39.407806396484375 11.066473960876465 0.8438966274261475 0.9623238444328308 0 3
39.40741729736328 10.68570327758789 0.841795802116394 0.9647203087806702 0 3
39.40702438354492 10.306767463684082 0.8397840857505798 0.9670389890670776 0 3
39.406639099121094 9.929638862609863 0.837840735912323 0.9692797660827637 0 3
39.40625762939453 9.554179191589355 0.8359754681587219 0.9714425206184387 0 3
39.4058723449707 9.180410385131836 0.8341816663742065 0.9735267758369446 0 3
39.40549087524414 8.80819320678711 0.8324686884880066 0.9755328893661499 0 3
39.405113220214844 8.437470436096191 0.8308311104774475 0.9774601459503174 0 3
39.40473175048828 8.068163871765137 0.8292536735534668 0.97930908203125 0 3
39.40435028076172 7.700253963470459 0.827764093875885 0.9810787439346313 0 3
39.40397644042969 7.333632469177246 0.8263392448425293 0.9827694296836853 0 3
39.40359878540039 6.968222618103027 0.8249852061271667 0.9843810200691223 0 3
39.403221130371094 6.603993892669678 0.8237028121948242 0.9859132170677185 0 3
39.40285110473633 6.24083948135376 0.8224928379058838 0.9873660206794739 0 3
39.40247344970703 5.878740310668945 0.8213502168655396 0.9887389540672302 0 3
39.402103424072266 5.517617225646973 0.8202812075614929 0.9900324940681458 0 3
39.4017333984375 5.157392501831055 0.8192667961120605 0.9912471771240234 0 3
40.55419921875 4.938417911529541 0.8422761559486389 0.12188325822353363 0 3
39.65104293823242 4.467636585235596 0.8226560950279236 0.9934355020523071 0 3
39.650672912597656 4.107539176940918 0.8218504190444946 0.9944100379943848 0 3
39.650306701660156 3.7480762004852295 0.821113109588623 0.9953036308288574 0 3
39.64993667602539 3.3892576694488525 0.8204389810562134 0.9961171746253967 0 3
39.64957046508789 3.031005859375 0.8198384046554565 0.9968506097793579 0 3
39.649208068847656 2.6732420921325684 0.8192967176437378 0.9975036978721619 0 3
39.64883804321289 2.315908193588257 0.8188316226005554 0.9980764985084534 0 3
39.64847183227539 1.9589550495147705 0.818429708480835 0.9985687136650085 0 3
39.64810562133789 1.6023534536361694 0.8180848360061646 0.9989805221557617 0 3
39.647735595703125 1.245996117591858 0.8178175091743469 0.9993119239807129 0 3
39.64737319946289 0.8898437023162842 0.8176121115684509 0.9995627999305725 0 3
39.64700698852539 0.5338574051856995 0.8174741864204407 0.9997332096099854 0 3
39.64664077758789 0.1779492199420929 0.817398190498352 0.9998229146003723 0 3
39.64627456665039 -0.17793944478034973 0.817393958568573 0.9998321533203125 0 3
39.64590835571289 -0.5338183641433716 0.8174470067024231 0.9997607469558716 0 3
39.10930633544922 -0.8777636289596558 0.8065128922462463 0.43410900235176086 0 9
38.76545715332031 -1.2182226181030273 0.7996174693107605 0.2964673340320587 0 9
38.34932327270508 -1.5498046875 0.7912916541099548 0.299587607383728 0 9
37.9418830871582 -1.8746289014816284 0.7831950187683105 0.3026827871799469 0 9
37.54288864135742 -2.192861318588257 0.7753382921218872 0.3057515621185303 0 9
37.15194320678711 -2.504833936691284 0.767699122428894 0.3087945282459259 0 9
36.76878356933594 -2.810732364654541 0.7602699398994446 0.31181100010871887 0 9
36.39308547973633 -3.110830068588257 0.753046989440918 0.3148011267185211 0 9
39.6425895690918 -3.747314453125 0.8209483027458191 0.995497465133667 0 3
39.642215728759766 -4.106611251831055 0.82167649269104 0.9946221113204956 0 3
37.63591766357422 -4.240537166595459 0.7808457612991333 0.7038992047309875 0 9
36.23950958251953 -4.412968635559082 0.7526679635047913 0.8984553217887878 0 9
35.662723541259766 -4.667939186096191 0.7415241599082947 0.646311342716217 0 9
35.89723587036133 -5.026757717132568 0.7473087906837463 0.5531593561172485 0 9
35.959144592285156 -5.364960670471191 0.7495753169059753 0.7716609835624695 0 9
35.6661262512207 -5.648945331573486 0.7444923520088196 0.7769272923469543 0 9
34.549556732177734 -5.790468692779541 0.7222397923469543 0.386190801858902 0 9
30.65854835510254 -5.421699047088623 0.6418922543525696 0.6580488681793213 0 9
34.505741119384766 -6.421953201293945 0.7236183285713196 0.8617912530899048 0 9
29.473915100097656 -5.759667873382568 0.6191538572311401 0.8758267164230347 0 9
29.527090072631836 -6.045693397521973 0.6213880777359009 0.8726809024810791 0 9
28.921371459960938 -6.19265604019165 0.6097853183746338 0.4970465898513794 0 9
29.28875160217285 -6.546806335449219 0.6187434196472168 0.48984891176223755 0 9
29.163217544555664 -6.794169902801514 0.6173564195632935 0.816786527633667 0 9
28.934837341308594 -7.015380859375 0.6138325333595276 0.8214787840843201 0 9
12.98908519744873 -3.272939443588257 0.2761650085449219 0.9888997673988342 0 6
27.630094528198242 -7.226552486419678 0.5888082981109619 0.33129096031188965 0 9
27.749534606933594 -7.524550437927246 0.5927055478096008 0.021586304530501366 0 9
27.753129959106445 -7.793603420257568 0.5943171381950378 0.9002910256385803 0 9
27.576148986816406 -8.01162052154541 0.5920434594154358 0.9037488698959351 0 9
27.44894790649414 -8.242558479309082 0.5908750891685486 0.5799049735069275 0 9
27.504310607910156 -8.529052734375 0.5936930775642395 0.8366310596466064 0 9
28.140636444091797 -9.004033088684082 0.6091488599777222 0.3359667658805847 0 9
28.162763595581055 -9.290595054626465 0.6114044189453125 0.5828388333320618 0 9
17.70372772216797 -6.016982078552246 0.3854987919330597 0.5644357800483704 0 9
17.49050521850586 -6.120185375213623 0.3820396363735199 0.731239914894104 0 9
17.301538467407227 -6.228925704956055 0.3791193962097168 0.7219973802566528 0 9
17.13478660583496 -6.343193054199219 0.3766937255859375 0.9120475053787231 0 9
10.105433464050293 -3.8444530963897705 0.2229110598564148 0.5056719779968262 0 9
10.227251052856445 -3.9962401390075684 0.22637923061847687 0.4979225695133209 0 9
10.27116584777832 -4.120038986206055 0.2281610071659088 0.626043438911438 0 9
10.315730094909668 -4.245810508728027 0.2299874871969223 0.6210691928863525 0 9
6.360203742980957 -2.684765577316284 0.14233215153217316 0.8452498316764832 0 6
6.326708793640137 -2.737783193588257 0.1421273797750473 0.9724001884460449 0 6
10.453758239746094 -4.635546684265137 0.23576277494430542 0.6058549880981445 0 9
10.501296043395996 -4.769882678985596 0.23779235780239105 0.6006870269775391 0 9
10.549653053283691 -4.906552791595459 0.23987562954425812 0.595471978187561 0 9
10.214893341064453 -4.862861156463623 0.23324722051620483 0.18639728426933289 0 9
9.790633201599121 -4.769150257110596 0.2245272845029831 0.2091778963804245 0 9
9.783883094787598 -4.875009536743164 0.22536620497703552 0.25774312019348145 0 9
9.36074161529541 -4.769521236419678 0.21659697592258453 0.2636074125766754 0 9
9.608036041259766 -5.004658222198486 0.2233499139547348 0.2556375563144684 0 9
15.778854370117188 -8.399863243103027 0.36853423714637756 0.47228875756263733 0 9
9.097176551818848 -4.948163986206055 0.2135046273469925 0.37454208731651306 0 9
9.126821517944336 -5.070966720581055 0.21526046097278595 0.2422848492860794 0 9
9.236251831054688 -5.240820407867432 0.218941792845726 0.736688494682312 0 9
8.651801109313965 -5.012382507324219 0.20614607632160187 0.48469963669776917 0 9
8.546961784362793 -5.054648399353027 0.20472076535224915 0.48807379603385925 0 9
8.953207969665527 -5.403954982757568 0.2156042456626892 0.625273585319519 0 9
8.814784049987793 -5.428935527801514 0.21343688666820526 0.6316264271736145 0 9
8.679106712341309 -5.453437328338623 0.2113276571035385 0.6379283666610718 0 9
8.509623527526855 -5.454091548919678 0.20838454365730286 0.34393683075904846 0 9
8.287789344787598 -5.417470455169678 0.20413467288017273 0.351096510887146 0 9
7.928552150726318 -5.284823894500732 0.19644729793071747 0.62492835521698 0 9
7.963595867156982 -5.412031173706055 0.19851088523864746 0.6184312701225281 0 9
7.802221298217773 -5.405371189117432 0.19569091498851776 0.41073286533355713 0 9
7.895438194274902 -5.575507640838623 0.1992761194705963 0.40334269404411316 0 9
7.992153167724609 -5.752001762390137 0.2030111700296402 0.395920068025589 0 9
8.092589378356934 -5.935273170471191 0.2069091796875 0.38846489787101746 0 9
8.150762557983398 -6.091191291809082 0.20978377759456635 0.5851988196372986 0 9
8.190817832946777 -6.236513614654541 0.2122468501329422 0.5784071683883667 0 9
7.780365943908691 -6.035048484802246 0.20300643146038055 0.9809232354164124 0 9
7.724540710449219 -6.103583812713623 0.20297133922576904 0.9810936450958252 0 9
7.749233245849609 -6.236914157867432 0.20508360862731934 0.5310468673706055 0 9
7.569447994232178 -6.204989910125732 0.2017916887998581 0.3888213038444519 0 9
7.357591152191162 -6.142568111419678 0.1976061910390854 0.39705753326416016 0 9
7.154336929321289 -6.082655906677246 0.19360610842704773 0.40526172518730164 0 9
6.959124565124512 -6.025126934051514 0.18977904319763184 0.41343367099761963 0 9
7.136672019958496 -6.291835784912109 0.19615264236927032 0.3427863121032715 0 9
6.982027530670166 -6.267773151397705 0.19344115257263184 0.3766643702983856 0 9
6.787519454956055 -6.204082012176514 0.18958725035190582 0.3843204975128174 0 9
7.521046161651611 -6.999492168426514 0.21182158589363098 0.7147329449653625 0 9
7.513399600982666 -7.119296550750732 0.21339797973632812 0.7094544768333435 0 9
7.488864421844482 -7.224706649780273 0.2145349085330963 0.8503300547599792 0 9
7.418213844299316 -7.286230087280273 0.21437545120716095 0.8509606719017029 0 9
17.51216697692871 17.512197494506836 0.30633237957954407 0.32042086124420166 0 9
17.505373001098633 17.19391632080078 0.3034977614879608 0.32340970635414124 0 9
17.498762130737305 16.88155174255371 0.30074554681777954 0.3263711929321289 0 9
17.492313385009766 16.574785232543945 0.2980667054653168 0.329305499792099 0 9
17.48601722717285 16.273466110229492 0.2954556345939636 0.3322124183177948 0 9
17.479883193969727 15.977362632751465 0.29291900992393494 0.335091769695282 0 9
17.444713592529297 15.66014575958252 0.28996506333351135 0.2892725169658661 0 9
16.667530059814453 13.414735794067383 0.2646397352218628 0.9377442598342896 0 9
16.732404708862305 13.221230506896973 0.2637753188610077 0.9408192038536072 0 9
16.849750518798828 13.070009231567383 0.2637653946876526 0.7575209140777588 0 9
17.09926414489746 13.019423484802246 0.2658303678035736 0.7516338229179382 0 9
40.48649215698242 29.13847541809082 0.6169947385787964 0.8110074400901794 0 3
40.485931396484375 28.589969635009766 0.6130503416061401 0.8162250518798828 0 3
40.48537826538086 28.048368453979492 0.6092014908790588 0.8213757872581482 0 3
40.484832763671875 27.51351547241211 0.6054497957229614 0.8264642357826233 0 3
40.48325729370117 26.984432220458984 0.6017857193946838 0.8314851522445679 0 3
40.48273468017578 26.46238136291504 0.5982192754745483 0.8364399075508118 0 3
40.48221206665039 25.94644546508789 0.594745934009552 0.8413233160972595 0 3
40.48169708251953 25.4363956451416 0.5913604497909546 0.8461403250694275 0 3
40.48118591308594 24.932079315185547 0.5880588889122009 0.850889265537262 0 3
40.48067855834961 24.43332862854004 0.5848464965820312 0.8555694222450256 0 3
40.48017883300781 23.939970016479492 0.5817043781280518 0.8601807355880737 0 3
40.47968673706055 23.45183563232422 0.5786532759666443 0.8647226691246033 0 3
40.47919464111328 22.96875 0.575674295425415 0.8691951632499695 0 3
40.47871017456055 22.490556716918945 0.5727763175964355 0.8735976815223694 0 3
40.478233337402344 22.01713752746582 0.5699450373649597 0.8779295682907104 0 3
40.477752685546875 21.548330307006836 0.5671945214271545 0.8821908831596375 0 3
40.4772834777832 21.084003448486328 0.5645133852958679 0.8863810300827026 0 3
40.47681427001953 20.623992919921875 0.5618970990180969 0.8904996514320374 0 3
40.476356506347656 20.16817283630371 0.5593515038490295 0.8945468068122864 0 3
40.475894927978516 19.71644401550293 0.5568844676017761 0.8985216021537781 0 3
40.475440979003906 19.26864242553711 0.5544711351394653 0.9024243354797363 0 3
40.47499084472656 18.824687957763672 0.5521336197853088 0.9062540531158447 0 3
40.47454071044922 18.38441276550293 0.5498504638671875 0.9100098609924316 0 3
40.47410202026367 17.94771385192871 0.547636866569519 0.9136945605278015 0 3
40.47365951538086 17.5145206451416 0.5454821586608887 0.9173042178153992 0 3
41.36133575439453 17.45956039428711 0.5553097128868103 0.3898118734359741 0 3
42.41742706298828 17.458477020263672 0.5673629641532898 0.38153135776519775 0 3
43.52050018310547 17.457334518432617 0.5799956917762756 0.3732198476791382 0 3
44.67394256591797 17.456151962280273 0.5932560563087463 0.36487817764282227 0 3
45.69321060180664 17.383329391479492 0.6046966314315796 0.9342389106750488 0 2
39.41231918334961 14.590272903442383 0.5198211669921875 0.9373977184295654 0 3
39.41190719604492 14.189188957214355 0.5181161165237427 0.9404856562614441 0 3
39.4114990234375 13.790721893310547 0.5164602398872375 0.9434965252876282 0 3
39.41108703613281 13.394745826721191 0.5148626565933228 0.9464316964149475 0 3
39.410682678222656 13.001181602478027 0.5133057832717896 0.9492905139923096 0 3
39.410282135009766 12.609960556030273 0.5118041634559631 0.9520728588104248 0 3
39.40987777709961 12.220975875854492 0.5103617906570435 0.9547785520553589 0 3
39.409481048583984 11.834169387817383 0.5089561343193054 0.9574072957038879 0 3
39.40908432006836 11.44945240020752 0.5076065063476562 0.9599588513374329 0 3
39.40869140625 11.066728591918945 0.5063003301620483 0.9624332189559937 0 3
39.40829849243164 10.685956954956055 0.5050434470176697 0.9648298621177673 0 3
39.40790939331055 10.30703067779541 0.5038375854492188 0.9671489000320435 0 3
39.40752029418945 9.929862976074219 0.5026670694351196 0.9693899154663086 0 3
39.40713119506836 9.554404258728027 0.5015468001365662 0.9715529084205627 0 3
39.40674591064453 9.180604934692383 0.5004754662513733 0.973637580871582 0 3
39.40636444091797 8.808379173278809 0.49944791197776794 0.9756439328193665 0 3
39.405982971191406 8.43764591217041 0.49846145510673523 0.9775715470314026 0 3
39.405601501464844 8.068329811096191 0.4975222647190094 0.9794206023216248 0 3
39.40522003173828 7.700439453125 0.49662521481513977 0.9811906218528748 0 3
39.404842376708984 7.333788871765137 0.49576354026794434 0.9828814268112183 0 3
39.40446853637695 6.968369007110596 0.49495771527290344 0.9844932556152344 0 3
39.40408706665039 6.60412073135376 0.49418318271636963 0.9860257506370544 0 3
39.40371322631836 6.240976333618164 0.4934583902359009 0.9874786734580994 0 3
