ply
format ascii 1.0
element vertex 1374
property float32 x
property float32 y
property float32 z
property float32 CosAngle
property uint32 ObjIdx
property uint32 ObjTag
end_header
27.3606 -5.8585 -1.7326 0.0607 0 2
27.3742 -5.7972 -1.7326 0.0607 0 2
27.3876 -5.7358 -1.7327 0.0607 0 2
27.4009 -5.6745 -1.7327 0.0607 0 2
27.4140 -5.6131 -1.7327 0.0607 0 2
27.4270 -5.5516 -1.7328 0.0607 0 2
27.4398 -5.4901 -1.7328 0.0607 0 2
27.4526 -5.4286 -1.7328 0.0607 0 2
27.4651 -5.3671 -1.7328 0.0607 0 2
27.4776 -5.3056 -1.7329 0.0607 0 2
27.4899 -5.2440 -1.7329 0.0607 0 2
27.5021 -5.1824 -1.7329 0.0607 0 2
27.5141 -5.1207 -1.7330 0.0607 0 2
27.5259 -5.0590 -1.7330 0.0607 0 2
27.5377 -4.9974 -1.7330 0.0607 0 2
27.5493 -4.9356 -1.7330 0.0607 0 2
27.5607 -4.8739 -1.7331 0.0607 0 2
27.5720 -4.8121 -1.7331 0.0607 0 2
27.5832 -4.7503 -1.7331 0.0607 0 2
27.5943 -4.6885 -1.7332 0.0607 0 2
27.6051 -4.6266 -1.7332 0.0607 0 2
27.6159 -4.5647 -1.7332 0.0607 0 2
27.6265 -4.5028 -1.7332 0.0607 0 2
27.6370 -4.4409 -1.7333 0.0607 0 2
27.6472 -4.3789 -1.7333 0.0607 0 2
27.6575 -4.3169 -1.7333 0.0607 0 2
27.6675 -4.2549 -1.7333 0.0607 0 2
27.6774 -4.1929 -1.7334 0.0607 0 2
27.6872 -4.1309 -1.7334 0.0607 0 2
27.6967 -4.0687 -1.7334 0.0607 0 2
27.7063 -4.0067 -1.7335 0.0606 0 2
24.4112 -3.4742 -1.5268 0.8977 0 6
24.4193 -3.4195 -1.5268 0.9744 0 6
24.4160 -3.3632 -1.5261 0.9570 0 6
24.4072 -3.3062 -1.5251 0.9576 0 6
24.3769 -3.2464 -1.5228 0.8856 0 6
24.3853 -3.1919 -1.5229 0.9372 0 6
24.5705 -3.1600 -1.5340 0.2836 0 6
27.7769 -3.5091 -1.7337 0.0606 0 2
27.7851 -3.4468 -1.7337 0.0606 0 2
27.7932 -3.3845 -1.7337 0.0606 0 2
27.8011 -3.3221 -1.7337 0.0606 0 2
27.8089 -3.2598 -1.7338 0.0606 0 2
27.8165 -3.1974 -1.7338 0.0606 0 2
27.8240 -3.1350 -1.7338 0.0606 0 2
27.8313 -3.0726 -1.7338 0.0606 0 2
27.8386 -3.0102 -1.7338 0.0606 0 2
27.8456 -2.9477 -1.7339 0.0606 0 2
27.8525 -2.8853 -1.7339 0.0606 0 2
27.8593 -2.8229 -1.7339 0.0606 0 2
27.8659 -2.7604 -1.7339 0.0606 0 2
27.8724 -2.6979 -1.7340 0.0606 0 2
27.8787 -2.6353 -1.7340 0.0606 0 2
27.8849 -2.5728 -1.7340 0.0606 0 2
27.8910 -2.5103 -1.7340 0.0606 0 2
27.8968 -2.4477 -1.7340 0.0606 0 2
27.9026 -2.3851 -1.7341 0.0606 0 2
27.9083 -2.3225 -1.7341 0.0606 0 2
27.9137 -2.2599 -1.7341 0.0606 0 2
27.9190 -2.1973 -1.7341 0.0606 0 2
27.9242 -2.1347 -1.7341 0.0606 0 2
27.9292 -2.0720 -1.7342 0.0606 0 2
28.0819 -2.0200 -1.7434 0.2160 0 2
28.3468 -1.9751 -1.7595 0.2140 0 2
28.8434 -1.9447 -1.7901 0.0824 0 2
29.6417 -1.9317 -1.8394 0.0606 0 1
29.6463 -1.8652 -1.8394 0.0606 0 1
29.6507 -1.7987 -1.8394 0.0606 0 1
29.6549 -1.7322 -1.8394 0.0606 0 1
29.6590 -1.6656 -1.8394 0.0606 0 1
29.6630 -1.5991 -1.8394 0.0606 0 1
29.6668 -1.5325 -1.8395 0.0606 0 1
29.6704 -1.4660 -1.8395 0.0606 0 1
29.6740 -1.3994 -1.8395 0.0606 0 1
29.6773 -1.3329 -1.8395 0.0606 0 1
29.6805 -1.2663 -1.8395 0.0606 0 1
29.6835 -1.1996 -1.8395 0.0606 0 1
29.6864 -1.1330 -1.8396 0.0606 0 1
29.6891 -1.0664 -1.8396 0.0606 0 1
29.6917 -0.9998 -1.8396 0.0606 0 1
29.6941 -0.9332 -1.8396 0.0606 0 1
29.6964 -0.8666 -1.8396 0.0606 0 1
29.6985 -0.7999 -1.8396 0.0606 0 1
29.7004 -0.7333 -1.8397 0.0606 0 1
29.7022 -0.6667 -1.8397 0.0606 0 1
29.7039 -0.6000 -1.8397 0.0606 0 1
29.7055 -0.5333 -1.8397 0.0606 0 1
29.7068 -0.4667 -1.8397 0.0606 0 1
29.7080 -0.4000 -1.8397 0.0606 0 1
29.7090 -0.3334 -1.8397 0.0606 0 1
29.7099 -0.2667 -1.8398 0.0606 0 1
29.7107 -0.2000 -1.8398 0.0606 0 1
29.7113 -0.1334 -1.8398 0.0606 0 1
29.7117 -0.0667 -1.8398 0.0606 0 1
29.7119 0.0000 -1.8398 0.0606 0 1
29.7122 0.0667 -1.8398 0.0606 0 1
29.7121 0.1333 -1.8398 0.0606 0 1
29.7119 0.2000 -1.8398 0.0606 0 1
29.7116 0.2667 -1.8399 0.0606 0 1
29.7112 0.3334 -1.8399 0.0606 0 1
29.7105 0.4000 -1.8399 0.0606 0 1
29.7097 0.4667 -1.8399 0.0606 0 1
29.7088 0.5334 -1.8399 0.0606 0 1
29.7077 0.6000 -1.8399 0.0606 0 1
29.7065 0.6667 -1.8399 0.0606 0 1
29.7051 0.7334 -1.8399 0.0606 0 1
29.7035 0.8000 -1.8399 0.0606 0 1
29.7018 0.8667 -1.8400 0.0606 0 1
29.7000 0.9334 -1.8400 0.0606 0 1
29.6980 1.0000 -1.8400 0.0606 0 1
29.6958 1.0666 -1.8400 0.0606 0 1
29.6935 1.1333 -1.8400 0.0606 0 1
29.6911 1.1999 -1.8400 0.0606 0 1
29.6885 1.2666 -1.8400 0.0606 0 1
29.6857 1.3332 -1.8400 0.0606 0 1
29.6828 1.3998 -1.8400 0.0606 0 1
29.6797 1.4664 -1.8400 0.0606 0 1
29.6765 1.5330 -1.8401 0.0606 0 1
29.6731 1.5996 -1.8401 0.0606 0 1
29.6696 1.6662 -1.8401 0.0606 0 1
29.6659 1.7328 -1.8401 0.0606 0 1
29.6620 1.7993 -1.8401 0.0606 0 1
29.6580 1.8659 -1.8401 0.0606 0 1
29.6540 1.9325 -1.8401 0.0606 0 1
29.6496 1.9990 -1.8401 0.0606 0 1
29.6452 2.0655 -1.8401 0.0606 0 1
29.6406 2.1321 -1.8401 0.0606 0 1
29.6359 2.1986 -1.8401 0.0606 0 1
29.6310 2.2651 -1.8401 0.0606 0 1
29.6259 2.3316 -1.8401 0.0606 0 1
29.6208 2.3981 -1.8402 0.0606 0 1
29.6153 2.4645 -1.8402 0.0606 0 1
29.6098 2.5310 -1.8402 0.0606 0 1
29.6042 2.5975 -1.8402 0.0606 0 1
29.5984 2.6639 -1.8402 0.0606 0 1
29.5924 2.7303 -1.8402 0.0606 0 1
29.5863 2.7967 -1.8402 0.0606 0 1
29.5800 2.8631 -1.8402 0.0606 0 1
29.5736 2.9295 -1.8402 0.0606 0 1
29.5671 2.9958 -1.8402 0.0606 0 1
29.5603 3.0622 -1.8402 0.0606 0 1
26.3589 2.7903 -1.6413 0.9852 426 14
25.5755 2.7655 -1.5929 0.4763 426 14
25.4894 2.8141 -1.5879 0.6755 426 14
25.4541 2.8680 -1.5861 0.9447 426 14
25.4292 2.9230 -1.5850 0.9453 426 14
25.4044 2.9779 -1.5838 0.9475 426 14
25.3855 3.0334 -1.5831 0.9648 426 14
15.4921 1.8865 -0.9664 0.6258 412 13
15.3974 1.9101 -0.9607 0.5362 412 13
15.3563 1.9400 -0.9584 0.7358 412 13
15.3317 1.9718 -0.9572 0.8559 412 13
15.3170 2.0049 -0.9565 0.9168 412 13
15.3102 2.0389 -0.9564 0.9302 412 13
15.3110 2.0740 -0.9567 0.8983 412 13
15.3201 2.1103 -0.9576 0.8159 412 13
15.3409 2.1482 -0.9592 0.6648 412 13
15.3821 2.1892 -0.9621 0.4610 412 13
15.4705 2.2372 -0.9679 0.5628 412 13
15.7181 2.3090 -0.9837 0.0454 412 13
25.2238 3.7633 -1.5792 0.9688 426 14
25.2154 3.8199 -1.5792 0.9688 426 14
25.2118 3.8773 -1.5795 0.9720 426 14
25.2107 3.9350 -1.5800 0.9717 426 14
25.2095 3.9928 -1.5805 0.9714 426 14
25.2084 4.0506 -1.5810 0.9711 426 14
25.2079 4.1086 -1.5815 0.9711 426 14
25.2091 4.1669 -1.5822 0.9680 426 14
25.2104 4.2252 -1.5828 0.9676 426 14
25.2149 4.2842 -1.5837 0.9503 426 14
25.2224 4.3437 -1.5848 0.9496 426 14
25.2299 4.4033 -1.5859 0.9490 426 14
25.2663 4.4681 -1.5888 0.6859 426 14
25.3503 4.5416 -1.5947 0.4888 426 14
29.2417 5.3065 -1.8403 0.0606 0 1
29.2296 5.3722 -1.8403 0.0606 0 1
29.2175 5.4377 -1.8403 0.0606 0 1
29.2052 5.5033 -1.8402 0.0606 0 1
29.1927 5.5688 -1.8402 0.0606 0 1
29.1801 5.6343 -1.8402 0.0606 0 1
29.1674 5.6997 -1.8402 0.0606 0 1
29.1544 5.7652 -1.8402 0.0606 0 1
29.1414 5.8306 -1.8402 0.0606 0 1
29.1282 5.8959 -1.8402 0.0606 0 1
29.1148 5.9612 -1.8402 0.0606 0 1
29.1013 6.0266 -1.8402 0.0606 0 1
29.0876 6.0919 -1.8402 0.0606 0 1
29.0738 6.1571 -1.8402 0.0606 0 1
29.0598 6.2223 -1.8402 0.0606 0 1
29.0458 6.2875 -1.8402 0.0606 0 1
29.0315 6.3526 -1.8402 0.0606 0 1
29.0171 6.4177 -1.8402 0.0606 0 1
29.0025 6.4828 -1.8402 0.0606 0 1
27.3287 6.1731 -1.7349 0.0606 0 2
27.3147 6.2344 -1.7349 0.0606 0 2
27.3005 6.2956 -1.7349 0.0606 0 2
27.2862 6.3569 -1.7348 0.0606 0 2
27.2718 6.4180 -1.7348 0.0606 0 2
27.2573 6.4792 -1.7348 0.0606 0 2
27.2425 6.5404 -1.7348 0.0606 0 2
27.2277 6.6014 -1.7348 0.0606 0 2
27.2128 6.6625 -1.7348 0.0606 0 2
24.6770 6.1004 -1.5740 0.8750 302 6
24.6669 6.1567 -1.5743 0.7772 302 6
27.1669 6.8455 -1.7348 0.0606 0 2
27.1514 6.9064 -1.7348 0.0606 0 2
27.1358 6.9672 -1.7348 0.0606 0 2
27.1199 7.0281 -1.7348 0.0606 0 2
27.1039 7.0889 -1.7348 0.0606 0 2
27.0879 7.1497 -1.7348 0.0606 0 2
27.0717 7.2104 -1.7348 0.0606 0 2
27.0553 7.2711 -1.7347 0.0606 0 2
27.0387 7.3318 -1.7347 0.0606 0 2
27.0221 7.3924 -1.7347 0.0606 0 2
27.0053 7.4530 -1.7347 0.0606 0 2
26.9883 7.5135 -1.7347 0.0606 0 2
26.9713 7.5740 -1.7347 0.0606 0 2
26.9541 7.6345 -1.7347 0.0606 0 2
26.9367 7.6949 -1.7347 0.0606 0 2
26.9192 7.7553 -1.7347 0.0606 0 2
26.9017 7.8156 -1.7347 0.0606 0 2
26.8839 7.8759 -1.7347 0.0606 0 2
26.8660 7.9362 -1.7346 0.0606 0 2
26.8479 7.9964 -1.7346 0.0606 0 2
26.8297 8.0566 -1.7346 0.0606 0 2
26.8115 8.1167 -1.7346 0.0606 0 2
26.7930 8.1769 -1.7346 0.0606 0 2
26.7744 8.2369 -1.7346 0.0606 0 2
26.7556 8.2969 -1.7346 0.0606 0 2
26.7369 8.3569 -1.7346 0.0606 0 2
26.7178 8.4168 -1.7346 0.0606 0 2
26.6987 8.4767 -1.7345 0.0606 0 2
26.6795 8.5365 -1.7345 0.0606 0 2
26.6600 8.5962 -1.7345 0.0606 0 2
26.6405 8.6560 -1.7345 0.0606 0 2
26.6208 8.7157 -1.7345 0.0606 0 2
26.6011 8.7754 -1.7345 0.0606 0 2
26.5810 8.8350 -1.7345 0.0606 0 2
26.5609 8.8945 -1.7345 0.0606 0 2
26.5407 8.9541 -1.7344 0.0606 0 2
26.5204 9.0135 -1.7344 0.0606 0 2
26.4999 9.0729 -1.7344 0.0606 0 2
26.4793 9.1323 -1.7344 0.0606 0 2
26.4585 9.1916 -1.7344 0.0606 0 2
26.4376 9.2509 -1.7344 0.0606 0 2
26.4165 9.3101 -1.7344 0.0606 0 2
26.3954 9.3693 -1.7343 0.0606 0 2
26.3741 9.4285 -1.7343 0.0606 0 2
26.3526 9.4875 -1.7343 0.0606 0 2
26.3310 9.5466 -1.7343 0.0606 0 2
26.3093 9.6055 -1.7343 0.0606 0 2
26.2875 9.6645 -1.7343 0.0606 0 2
26.2655 9.7233 -1.7343 0.0606 0 2
26.2434 9.7821 -1.7342 0.0606 0 2
26.2212 9.8410 -1.7342 0.0606 0 2
26.1987 9.8997 -1.7342 0.0606 0 2
25.5077 9.7040 -1.6899 0.4797 0 5
25.4872 9.7618 -1.6900 0.7041 0 5
26.1808 10.0948 -1.7375 0.0606 0 25
26.1578 10.1534 -1.7375 0.0606 0 25
26.1347 10.2120 -1.7374 0.0606 0 25
26.1114 10.2705 -1.7374 0.0606 0 25
26.0881 10.3290 -1.7374 0.0606 0 25
26.0645 10.3874 -1.7374 0.0606 0 25
26.0409 10.4458 -1.7374 0.0606 0 25
26.0172 10.5041 -1.7374 0.0606 0 25
22.9732 9.3351 -1.5355 0.0697 0 5
22.6741 9.2729 -1.5169 0.2285 0 5
22.4406 9.2363 -1.5026 0.2307 0 5
22.2179 9.2030 -1.4891 0.2449 0 5
22.0029 9.1718 -1.4761 0.2470 0 5
21.8171 9.1519 -1.4650 0.1789 0 5
21.6596 9.1430 -1.4558 0.1801 0 5
21.5042 9.1343 -1.4467 0.1812 0 5
25.7973 11.0263 -1.7372 0.0606 0 25
25.7722 11.0840 -1.7372 0.0606 0 25
25.7469 11.1417 -1.7372 0.0606 0 25
25.7215 11.1993 -1.7371 0.0606 0 25
25.6961 11.2569 -1.7371 0.0606 0 25
25.6705 11.3144 -1.7371 0.0606 0 25
19.9525 8.8477 -1.3515 0.6044 0 5
19.9003 8.8780 -1.3493 0.9894 0 5
19.8950 8.9292 -1.3503 0.7795 0 5
25.5667 11.5438 -1.7370 0.0606 0 25
25.5404 11.6010 -1.7370 0.0606 0 25
7.5980 3.4718 -0.5173 0.4436 0 6
7.5724 3.4806 -0.5161 0.7725 0 6
7.5573 3.4942 -0.5156 0.9463 0 6
7.5477 3.5104 -0.5154 0.9927 0 6
7.5432 3.5289 -0.5157 0.8922 0 6
7.5440 3.5499 -0.5163 0.6234 0 6
7.5645 3.5803 -0.5182 0.2871 0 6
25.3256 12.0564 -1.7368 0.0606 0 25
25.2981 12.1130 -1.7368 0.0606 0 25
25.2706 12.1697 -1.7368 0.0606 0 25
25.2428 12.2262 -1.7368 0.0606 0 25
25.2150 12.2826 -1.7367 0.0606 0 25
25.1870 12.3390 -1.7367 0.0606 0 25
17.1196 8.4345 -1.1817 0.6361 0 5
17.0957 8.4705 -1.1814 0.9939 0 5
17.1032 8.5220 -1.1832 0.7537 0 5
25.0739 12.5639 -1.7366 0.0606 0 25
25.0453 12.6200 -1.7366 0.0606 0 25
25.0166 12.6760 -1.7366 0.0606 0 25
24.9878 12.7319 -1.7365 0.0606 0 25
24.9588 12.7877 -1.7365 0.0606 0 25
24.9297 12.8436 -1.7365 0.0606 0 25
24.9004 12.8993 -1.7365 0.0606 0 25
24.8711 12.9549 -1.7364 0.0606 0 25
24.8416 13.0105 -1.7364 0.0606 0 25
24.8120 13.0661 -1.7364 0.0606 0 25
24.7822 13.1215 -1.7364 0.0606 0 25
24.7523 13.1769 -1.7363 0.0606 0 25
24.7223 13.2322 -1.7363 0.0607 0 25
24.6922 13.2875 -1.7363 0.0607 0 25
24.6620 13.3426 -1.7363 0.0607 0 25
24.6316 13.3977 -1.7362 0.0607 0 25
24.6011 13.4528 -1.7362 0.0607 0 25
24.5705 13.5078 -1.7362 0.0607 0 25
24.5398 13.5626 -1.7362 0.0607 0 25
24.5089 13.6174 -1.7361 0.0607 0 25
14.3388 8.0090 -1.0170 0.6748 0 5
14.3088 8.0344 -1.0161 0.9973 0 5
14.3003 8.0719 -1.0168 0.7189 0 5
24.3841 13.8360 -1.7360 0.0607 0 25
24.3526 13.8904 -1.7360 0.0607 0 25
24.3210 13.9449 -1.7360 0.0607 0 25
24.2893 13.9992 -1.7359 0.0607 0 25
24.2574 14.0534 -1.7359 0.0607 0 25
24.2254 14.1076 -1.7359 0.0607 0 25
24.1933 14.1617 -1.7359 0.0607 0 25
24.1610 14.2157 -1.7358 0.0607 0 25
24.1287 14.2697 -1.7358 0.0607 0 25
24.0962 14.3236 -1.7358 0.0607 0 25
24.0636 14.3773 -1.7357 0.0607 0 25
24.0309 14.4310 -1.7357 0.0607 0 25
23.9980 14.4847 -1.7357 0.0607 0 25
12.1681 7.3817 -0.8813 0.3794 0 3
12.0856 7.3688 -0.8765 0.3815 0 3
12.0040 7.3560 -0.8718 0.3836 0 3
11.9232 7.3433 -0.8671 0.3856 0 3
11.8433 7.3308 -0.8625 0.3877 0 3
11.7642 7.3184 -0.8579 0.3898 0 3
11.6859 7.3062 -0.8534 0.3918 0 3
11.6085 7.2941 -0.8489 0.3939 0 3
11.5319 7.2821 -0.8445 0.3960 0 3
11.4561 7.2702 -0.8402 0.3980 0 3
11.3811 7.2585 -0.8359 0.4001 0 3
11.3068 7.2468 -0.8316 0.4021 0 3
11.2332 7.2353 -0.8274 0.4042 0 3
11.1604 7.2239 -0.8232 0.4062 0 3
11.0884 7.2126 -0.8191 0.4083 0 3
11.0171 7.2014 -0.8150 0.4103 0 3
10.9464 7.1904 -0.8110 0.4123 0 3
10.8765 7.1795 -0.8070 0.4144 0 3
10.8072 7.1686 -0.8030 0.4164 0 3
10.7387 7.1579 -0.7991 0.4184 0 3
10.6707 7.1473 -0.7953 0.4205 0 3
10.6035 7.1367 -0.7914 0.4225 0 3
10.5369 7.1263 -0.7877 0.4245 0 3
10.4709 7.1160 -0.7839 0.4266 0 3
10.4055 7.1057 -0.7802 0.4286 0 3
10.3407 7.0956 -0.7766 0.4306 0 3
10.2766 7.0855 -0.7729 0.4326 0 3
10.2131 7.0756 -0.7694 0.4346 0 3
10.1501 7.0657 -0.7658 0.4367 0 3
10.0877 7.0560 -0.7623 0.4387 0 3
10.0259 7.0462 -0.7588 0.4407 0 3
9.9647 7.0367 -0.7554 0.4427 0 3
9.9040 7.0272 -0.7520 0.4447 0 3
9.8438 7.0178 -0.7486 0.4467 0 3
9.7842 7.0085 -0.7452 0.4487 0 3
9.7251 6.9992 -0.7419 0.4507 0 3
9.6665 6.9900 -0.7387 0.4527 0 3
9.6085 6.9809 -0.7354 0.4547 0 3
9.5509 6.9719 -0.7322 0.4567 0 3
9.4939 6.9630 -0.7290 0.4587 0 3
9.4373 6.9541 -0.7259 0.4607 0 3
9.3812 6.9453 -0.7228 0.4626 0 3
9.3256 6.9366 -0.7197 0.4646 0 3
9.2705 6.9280 -0.7166 0.4666 0 3
9.2159 6.9194 -0.7136 0.4686 0 3
9.1617 6.9110 -0.7106 0.4706 0 3
9.1080 6.9026 -0.7076 0.4725 0 3
9.0547 6.8942 -0.7047 0.4745 0 3
9.0018 6.8859 -0.7018 0.4765 0 3
8.9494 6.8777 -0.6989 0.4785 0 3
8.8974 6.8696 -0.6961 0.4804 0 3
8.8459 6.8615 -0.6932 0.4824 0 3
8.7947 6.8535 -0.6904 0.4843 0 3
8.7440 6.8456 -0.6876 0.4863 0 3
8.6937 6.8377 -0.6849 0.4882 0 3
8.6437 6.8299 -0.6822 0.4902 0 3
8.5942 6.8221 -0.6795 0.4922 0 3
8.5451 6.8144 -0.6768 0.4941 0 3
8.4963 6.8068 -0.6741 0.4960 0 3
8.4479 6.7992 -0.6715 0.4980 0 3
8.3999 6.7917 -0.6689 0.4999 0 3
8.3523 6.7842 -0.6663 0.5019 0 3
8.3051 6.7769 -0.6637 0.5038 0 3
8.2581 6.7695 -0.6612 0.5057 0 3
8.2116 6.7622 -0.6587 0.5077 0 3
8.1654 6.7550 -0.6562 0.5096 0 3
8.1196 6.7478 -0.6537 0.5115 0 3
8.0741 6.7407 -0.6513 0.5134 0 3
8.0289 6.7336 -0.6489 0.5154 0 3
7.9841 6.7266 -0.6465 0.5173 0 3
7.9396 6.7196 -0.6441 0.5192 0 3
7.8954 6.7127 -0.6417 0.5211 0 3
7.8515 6.7058 -0.6394 0.5230 0 3
7.8080 6.6990 -0.6370 0.5249 0 3
7.7648 6.6922 -0.6347 0.5268 0 3
7.7219 6.6855 -0.6325 0.5287 0 3
7.6793 6.6789 -0.6302 0.5306 0 3
7.6370 6.6722 -0.6280 0.5325 0 3
7.5951 6.6657 -0.6257 0.5344 0 3
7.5534 6.6591 -0.6235 0.5363 0 3
7.5406 6.6781 -0.6237 0.8406 0 3
7.5365 6.7046 -0.6246 0.8394 0 3
7.5323 6.7313 -0.6255 0.8382 0 3
7.5281 6.7580 -0.6264 0.8370 0 3
7.5240 6.7848 -0.6273 0.8358 0 3
7.5197 6.8116 -0.6283 0.8345 0 3
7.5155 6.8386 -0.6292 0.8333 0 3
7.5113 6.8656 -0.6301 0.8321 0 3
7.5070 6.8927 -0.6311 0.8308 0 3
7.5028 6.9198 -0.6320 0.8296 0 3
7.4985 6.9471 -0.6330 0.8283 0 3
7.4942 6.9745 -0.6339 0.8271 0 3
7.4899 7.0019 -0.6349 0.8258 0 3
7.4856 7.0294 -0.6359 0.8246 0 3
7.4813 7.0570 -0.6368 0.8233 0 3
7.4770 7.0847 -0.6378 0.8220 0 3
7.4726 7.1125 -0.6388 0.8208 0 3
7.4683 7.1404 -0.6398 0.8195 0 3
7.4639 7.1683 -0.6408 0.8182 0 3
7.4595 7.1963 -0.6418 0.8169 0 3
7.4551 7.2244 -0.6428 0.8156 0 3
7.4507 7.2527 -0.6438 0.8144 0 3
7.4462 7.2810 -0.6449 0.8131 0 3
7.4418 7.3094 -0.6459 0.8118 0 3
7.4373 7.3378 -0.6469 0.8104 0 3
7.4328 7.3664 -0.6480 0.8091 0 3
7.4283 7.3951 -0.6490 0.8078 0 3
9.3847 -9.3847 -0.9317 0.8956 0 20
9.4024 -9.3603 -0.9314 0.8959 0 20
9.4200 -9.3358 -0.9311 0.8962 0 20
9.4377 -9.3114 -0.9307 0.8965 0 20
9.4553 -9.2871 -0.9304 0.8968 0 20
9.4729 -9.2627 -0.9301 0.8971 0 20
9.4905 -9.2383 -0.9298 0.8974 0 20
9.5081 -9.2140 -0.9295 0.8977 0 20
9.5256 -9.1897 -0.9292 0.8980 0 20
9.5480 -9.1699 -0.9294 0.8373 0 20
9.5776 -9.1571 -0.9302 0.8365 0 20
9.6073 -9.1443 -0.9311 0.8357 0 20
9.6370 -9.1315 -0.9320 0.8349 0 20
9.6668 -9.1187 -0.9329 0.8341 0 20
9.6967 -9.1058 -0.9338 0.8333 0 20
9.7266 -9.0929 -0.9347 0.8325 0 20
9.7566 -9.0800 -0.9357 0.8317 0 20
9.7866 -9.0671 -0.9366 0.8309 0 20
9.8167 -9.0541 -0.9375 0.8300 0 20
9.8469 -9.0411 -0.9385 0.8292 0 20
9.8972 -9.0464 -0.9413 0.5270 0 20
9.9493 -9.0532 -0.9444 0.5253 0 20
10.0017 -9.0599 -0.9474 0.5236 0 20
10.0545 -9.0667 -0.9505 0.5220 0 20
10.1076 -9.0736 -0.9536 0.5203 0 20
10.1611 -9.0805 -0.9567 0.5186 0 20
10.3834 -9.2374 -0.9757 0.0653 0 20
14.0180 -12.4145 -1.3145 0.7689 0 3
14.0719 -12.4061 -1.3170 0.7675 0 3
14.1261 -12.3976 -1.3195 0.7661 0 3
14.1804 -12.3891 -1.3219 0.7646 0 3
14.2350 -12.3805 -1.3244 0.7632 0 3
14.2898 -12.3719 -1.3269 0.7617 0 3
14.3448 -12.3634 -1.3295 0.7603 0 3
14.3999 -12.3547 -1.3320 0.7589 0 3
14.4554 -12.3460 -1.3346 0.7574 0 3
14.5110 -12.3373 -1.3371 0.7559 0 3
14.5668 -12.3286 -1.3397 0.7545 0 3
14.6229 -12.3198 -1.3423 0.7530 0 3
14.6791 -12.3110 -1.3450 0.7515 0 3
14.7356 -12.3021 -1.3476 0.7501 0 3
14.7923 -12.2932 -1.3503 0.7486 0 3
14.8493 -12.2844 -1.3529 0.7471 0 3
14.9064 -12.2754 -1.3556 0.7456 0 3
14.9638 -12.2664 -1.3583 0.7441 0 3
15.0214 -12.2574 -1.3611 0.7426 0 3
15.0793 -12.2483 -1.3638 0.7411 0 3
15.1374 -12.2393 -1.3666 0.7396 0 3
15.1957 -12.2301 -1.3694 0.7381 0 3
15.2543 -12.2210 -1.3722 0.7366 0 3
15.3130 -12.2117 -1.3750 0.7351 0 3
15.3721 -12.2025 -1.3778 0.7336 0 3
15.4314 -12.1932 -1.3807 0.7321 0 3
15.4909 -12.1839 -1.3836 0.7306 0 3
15.5507 -12.1745 -1.3865 0.7290 0 3
15.6107 -12.1651 -1.3894 0.7275 0 3
15.6711 -12.1557 -1.3923 0.7260 0 3
15.7316 -12.1462 -1.3953 0.7244 0 3
15.7924 -12.1367 -1.3983 0.7229 0 3
15.8534 -12.1271 -1.4012 0.7214 0 3
15.9147 -12.1176 -1.4043 0.7198 0 3
15.9763 -12.1079 -1.4073 0.7183 0 3
16.0382 -12.0982 -1.4103 0.7167 0 3
16.1003 -12.0884 -1.4134 0.7151 0 3
16.1627 -12.0787 -1.4165 0.7136 0 3
16.2254 -12.0689 -1.4196 0.7120 0 3
16.2884 -12.0590 -1.4228 0.7104 0 3
16.3516 -12.0491 -1.4259 0.7089 0 3
16.4151 -12.0392 -1.4291 0.7073 0 3
16.4789 -12.0292 -1.4323 0.7057 0 3
16.5430 -12.0192 -1.4355 0.7041 0 3
16.6073 -12.0090 -1.4388 0.7025 0 3
16.6720 -11.9989 -1.4420 0.7009 0 3
16.7370 -11.9888 -1.4453 0.6994 0 3
16.8022 -11.9786 -1.4486 0.6978 0 3
16.8678 -11.9683 -1.4520 0.6962 0 3
16.9337 -11.9580 -1.4553 0.6945 0 3
16.9998 -11.9476 -1.4587 0.6929 0 3
17.0662 -11.9372 -1.4621 0.6913 0 3
17.1330 -11.9268 -1.4655 0.6897 0 3
17.2001 -11.9163 -1.4690 0.6881 0 3
17.2675 -11.9057 -1.4724 0.6865 0 3
17.3353 -11.8951 -1.4759 0.6848 0 3
17.4033 -11.8844 -1.4795 0.6832 0 3
17.4717 -11.8737 -1.4830 0.6816 0 3
17.5362 -11.8602 -1.4862 0.7012 0 3
17.5529 -11.8141 -1.4854 0.6783 0 3
17.6804 -11.8424 -1.4939 0.6783 0 3
17.7500 -11.8313 -1.4976 0.6767 0 3
17.8199 -11.8203 -1.5012 0.6751 0 3
17.8902 -11.8092 -1.5049 0.6735 0 3
15.8258 -10.3956 -1.3293 0.7392 0 3
15.8169 -10.3390 -1.3266 0.7407 0 3
15.8081 -10.2828 -1.3239 0.7422 0 3
15.7993 -10.2267 -1.3212 0.7437 0 3
15.7906 -10.1708 -1.3186 0.7451 0 3
15.7819 -10.1151 -1.3160 0.7466 0 3
15.7732 -10.0597 -1.3134 0.7481 0 3
15.8069 -10.0313 -1.3143 0.6584 0 3
15.8699 -10.0214 -1.3177 0.6567 0 3
15.9333 -10.0115 -1.3210 0.6550 0 3
15.9970 -10.0016 -1.3245 0.6533 0 3
18.5876 -11.5633 -1.5368 0.0691 0 3
18.6140 -11.5219 -1.5368 0.0691 0 3
18.6403 -11.4804 -1.5369 0.0691 0 3
18.6665 -11.4388 -1.5369 0.0691 0 3
18.6926 -11.3972 -1.5370 0.0691 0 3
18.7186 -11.3555 -1.5370 0.0691 0 3
18.7445 -11.3138 -1.5370 0.0691 0 3
18.7703 -11.2719 -1.5371 0.0691 0 3
18.7960 -11.2301 -1.5371 0.0691 0 3
18.8216 -11.1882 -1.5372 0.0691 0 3
18.8472 -11.1462 -1.5372 0.0691 0 3
18.8726 -11.1041 -1.5372 0.0691 0 3
18.8979 -11.0621 -1.5373 0.0691 0 3
18.9232 -11.0199 -1.5373 0.0691 0 3
18.9484 -10.9777 -1.5373 0.0691 0 3
18.9735 -10.9354 -1.5374 0.0691 0 3
18.9983 -10.8930 -1.5374 0.0691 0 3
19.0232 -10.8506 -1.5375 0.0691 0 3
19.0480 -10.8082 -1.5375 0.0691 0 3
19.0727 -10.7657 -1.5375 0.0691 0 3
19.0973 -10.7231 -1.5376 0.0691 0 3
19.1217 -10.6805 -1.5376 0.0691 0 3
19.1462 -10.6378 -1.5377 0.0691 0 3
19.1704 -10.5951 -1.5377 0.0691 0 3
19.1946 -10.5523 -1.5377 0.0691 0 3
19.2187 -10.5095 -1.5378 0.0691 0 3
19.2427 -10.4666 -1.5378 0.0691 0 3
19.2666 -10.4237 -1.5378 0.0691 0 3
19.2904 -10.3806 -1.5379 0.0691 0 3
19.3142 -10.3376 -1.5379 0.0691 0 3
19.3378 -10.2944 -1.5379 0.0691 0 3
19.3612 -10.2513 -1.5380 0.0691 0 3
19.3847 -10.2080 -1.5380 0.0691 0 3
19.4080 -10.1647 -1.5381 0.0691 0 3
19.4312 -10.1214 -1.5381 0.0691 0 3
19.4543 -10.0780 -1.5381 0.0690 0 3
19.4774 -10.0346 -1.5382 0.0690 0 3
19.5003 -9.9911 -1.5382 0.0690 0 3
19.5231 -9.9475 -1.5382 0.0690 0 3
19.4049 -9.8325 -1.5272 0.8092 0 3
19.3956 -9.7731 -1.5247 0.8105 0 3
19.3863 -9.7140 -1.5223 0.8118 0 3
19.3771 -9.6551 -1.5198 0.8131 0 3
19.3679 -9.5962 -1.5174 0.8144 0 3
19.3587 -9.5377 -1.5150 0.8157 0 3
19.3496 -9.4793 -1.5126 0.8169 0 3
19.4290 -9.4642 -1.5172 0.5703 0 3
19.5131 -9.4510 -1.5221 0.5685 0 3
19.5977 -9.4378 -1.5270 0.5666 0 3
19.7677 -9.4650 -1.5386 0.0690 0 3
22.1773 -10.5577 -1.7243 0.0886 0 0
22.2097 -10.5121 -1.7250 0.0886 0 0
22.2441 -10.4673 -1.7259 0.0821 0 0
22.2798 -10.4231 -1.7268 0.0821 0 0
22.3154 -10.3788 -1.7278 0.0820 0 0
22.3509 -10.3344 -1.7287 0.0820 0 0
22.3864 -10.2898 -1.7297 0.0819 0 0
22.4218 -10.2452 -1.7306 0.0819 0 0
22.4572 -10.2005 -1.7316 0.0818 0 0
22.4925 -10.1557 -1.7325 0.0818 0 0
22.5277 -10.1109 -1.7335 0.0817 0 0
22.5629 -10.0659 -1.7345 0.0817 0 0
22.5980 -10.0208 -1.7354 0.0817 0 0
22.6331 -9.9756 -1.7364 0.0816 0 0
22.6681 -9.9304 -1.7374 0.0816 0 0
22.7031 -9.8850 -1.7383 0.0815 0 0
22.7379 -9.8396 -1.7393 0.0815 0 0
22.7629 -9.7898 -1.7395 0.0690 0 0
22.7853 -9.7389 -1.7396 0.0690 0 0
22.8075 -9.6879 -1.7396 0.0690 0 0
22.8297 -9.6369 -1.7397 0.0690 0 0
22.8517 -9.5858 -1.7397 0.0690 0 0
22.8737 -9.5348 -1.7397 0.0690 0 0
22.8955 -9.4836 -1.7398 0.0690 0 0
22.9172 -9.4324 -1.7398 0.0690 0 0
22.9388 -9.3811 -1.7398 0.0690 0 0
22.9602 -9.3298 -1.7399 0.0690 0 0
22.9816 -9.2785 -1.7399 0.0690 0 0
23.0028 -9.2271 -1.7399 0.0690 0 0
23.0239 -9.1756 -1.7400 0.0690 0 0
23.0449 -9.1241 -1.7400 0.0690 0 0
23.0658 -9.0726 -1.7400 0.0690 0 0
23.0866 -9.0210 -1.7401 0.0690 0 0
23.1072 -8.9693 -1.7401 0.0690 0 0
23.1278 -8.9176 -1.7402 0.0690 0 0
23.1482 -8.8659 -1.7402 0.0690 0 0
23.1685 -8.8141 -1.7402 0.0690 0 0
23.1887 -8.7622 -1.7403 0.0690 0 0
23.2087 -8.7104 -1.7403 0.0690 0 0
23.2287 -8.6584 -1.7403 0.0690 0 0
23.2485 -8.6064 -1.7404 0.0690 0 0
23.2682 -8.5544 -1.7404 0.0690 0 0
23.2878 -8.5024 -1.7404 0.0690 0 0
23.3072 -8.4502 -1.7405 0.0690 0 0
23.3266 -8.3980 -1.7405 0.0690 0 0
23.3458 -8.3459 -1.7405 0.0690 0 0
23.3649 -8.2936 -1.7406 0.0690 0 0
23.3839 -8.2413 -1.7406 0.0690 0 0
23.4028 -8.1889 -1.7406 0.0690 0 0
23.4216 -8.1366 -1.7407 0.0690 0 0
23.4402 -8.0841 -1.7407 0.0690 0 0
23.4587 -8.0317 -1.7407 0.0690 0 0
23.4771 -7.9792 -1.7408 0.0690 0 0
23.4954 -7.9266 -1.7408 0.0690 0 0
23.5135 -7.8740 -1.7408 0.0689 0 0
23.5316 -7.8214 -1.7408 0.0689 0 0
23.5495 -7.7687 -1.7409 0.0689 0 0
23.5673 -7.7160 -1.7409 0.0689 0 0
23.5850 -7.6632 -1.7409 0.0689 0 0
23.6025 -7.6104 -1.7410 0.0689 0 0
23.6200 -7.5576 -1.7410 0.0689 0 0
23.6373 -7.5046 -1.7410 0.0689 0 0
23.6545 -7.4517 -1.7411 0.0689 0 0
23.6717 -7.3988 -1.7411 0.0689 0 0
23.6886 -7.3457 -1.7411 0.0689 0 0
23.7054 -7.2927 -1.7412 0.0689 0 0
23.7221 -7.2396 -1.7412 0.0689 0 0
23.7387 -7.1865 -1.7412 0.0689 0 0
23.7552 -7.1334 -1.7412 0.0689 0 0
23.7715 -7.0801 -1.7413 0.0689 0 0
23.7878 -7.0269 -1.7413 0.0689 0 0
23.8039 -6.9736 -1.7413 0.0689 0 0
23.8199 -6.9203 -1.7414 0.0689 0 0
23.8358 -6.8670 -1.7414 0.0689 0 0
23.8515 -6.8136 -1.7414 0.0689 0 0
23.6826 -6.7079 -1.7280 0.0689 0 2
23.6980 -6.6548 -1.7280 0.0689 0 2
23.7134 -6.6018 -1.7281 0.0689 0 2
23.7284 -6.5486 -1.7281 0.0689 0 2
23.7435 -6.4955 -1.7281 0.0689 0 2
23.7584 -6.4423 -1.7281 0.0689 0 2
23.7733 -6.3891 -1.7282 0.0689 0 2
23.7880 -6.3358 -1.7282 0.0689 0 2
23.8025 -6.2826 -1.7282 0.0689 0 2
23.8170 -6.2292 -1.7283 0.0689 0 2
23.8313 -6.1759 -1.7283 0.0689 0 2
23.8456 -6.1225 -1.7283 0.0689 0 2
23.8596 -6.0690 -1.7284 0.0689 0 2
23.8736 -6.0156 -1.7284 0.0689 0 2
23.8874 -5.9621 -1.7284 0.0689 0 2
23.9011 -5.9086 -1.7284 0.0689 0 2
23.9148 -5.8551 -1.7285 0.0689 0 2
23.9282 -5.8015 -1.7285 0.0689 0 2
23.9416 -5.7479 -1.7285 0.0689 0 2
23.9548 -5.6942 -1.7286 0.0689 0 2
23.9679 -5.6406 -1.7286 0.0689 0 2
23.9809 -5.5869 -1.7286 0.0689 0 2
23.9937 -5.5331 -1.7286 0.0689 0 2
24.0065 -5.4793 -1.7287 0.0689 0 2
24.0192 -5.4255 -1.7287 0.0689 0 2
24.0317 -5.3717 -1.7287 0.0689 0 2
24.0440 -5.3178 -1.7288 0.0689 0 2
24.0563 -5.2640 -1.7288 0.0689 0 2
24.0684 -5.2100 -1.7288 0.0689 0 2
24.0804 -5.1561 -1.7288 0.0689 0 2
24.0922 -5.1021 -1.7289 0.0689 0 2
24.1040 -5.0482 -1.7289 0.0689 0 2
24.1156 -4.9941 -1.7289 0.0689 0 2
24.1272 -4.9401 -1.7289 0.0689 0 2
24.1386 -4.8860 -1.7290 0.0689 0 2
24.1498 -4.8319 -1.7290 0.0689 0 2
24.1610 -4.7777 -1.7290 0.0689 0 2
24.1721 -4.7236 -1.7290 0.0689 0 2
24.1829 -4.6694 -1.7291 0.0689 0 2
24.1937 -4.6152 -1.7291 0.0689 0 2
24.2043 -4.5610 -1.7291 0.0689 0 2
24.2149 -4.5067 -1.7291 0.0689 0 2
24.2253 -4.4524 -1.7292 0.0689 0 2
24.2356 -4.3981 -1.7292 0.0689 0 2
24.2457 -4.3438 -1.7292 0.0689 0 2
24.2558 -4.2894 -1.7292 0.0689 0 2
24.2656 -4.2350 -1.7293 0.0689 0 2
24.2754 -4.1806 -1.7293 0.0689 0 2
24.2851 -4.1262 -1.7293 0.0689 0 2
24.2946 -4.0717 -1.7293 0.0689 0 2
24.3040 -4.0173 -1.7294 0.0689 0 2
24.3133 -3.9628 -1.7294 0.0689 0 2
24.3225 -3.9083 -1.7294 0.0689 0 2
24.3316 -3.8538 -1.7294 0.0689 0 2
24.3404 -3.7992 -1.7295 0.0689 0 2
24.3493 -3.7446 -1.7295 0.0689 0 2
24.3579 -3.6900 -1.7295 0.0689 0 2
24.3665 -3.6354 -1.7295 0.0689 0 2
24.3749 -3.5808 -1.7296 0.0689 0 2
24.3832 -3.5261 -1.7296 0.0689 0 2
24.3892 -3.4711 -1.7294 0.9944 0 6
24.3994 -3.4167 -1.7296 0.0689 0 2
24.3939 -3.3602 -1.7287 0.9573 0 6
24.3851 -3.3032 -1.7275 0.9580 0 6
24.3539 -3.2433 -1.7248 0.8860 0 6
24.3539 -3.1877 -1.7243 0.9379 0 6
24.4378 -3.1430 -1.7297 0.0689 0 2
24.4451 -3.0881 -1.7298 0.0689 0 2
24.4522 -3.0333 -1.7298 0.0689 0 2
24.4592 -2.9785 -1.7298 0.0689 0 2
24.4662 -2.9236 -1.7298 0.0689 0 2
24.4729 -2.8687 -1.7298 0.0689 0 2
24.4796 -2.8138 -1.7299 0.0689 0 2
24.4862 -2.7589 -1.7299 0.0689 0 2
24.4926 -2.7040 -1.7299 0.0689 0 2
24.4988 -2.6491 -1.7299 0.0689 0 2
24.5050 -2.5941 -1.7299 0.0689 0 2
24.5237 -2.5405 -1.7308 0.2629 0 2
24.7277 -2.5055 -1.7448 0.2608 0 2
24.9351 -2.4700 -1.7591 0.2587 0 2
25.1459 -2.4339 -1.7736 0.2566 0 2
25.3662 -2.3978 -1.7887 0.2470 0 2
25.5964 -2.3617 -1.8046 0.2448 0 2
25.8307 -2.3248 -1.8207 0.2426 0 2
26.0376 -2.2845 -1.8349 0.0688 0 1
26.0428 -2.2261 -1.8350 0.0688 0 1
26.0480 -2.1677 -1.8350 0.0688 0 1
26.0531 -2.1093 -1.8350 0.0688 0 1
26.0579 -2.0508 -1.8350 0.0688 0 1
26.0627 -1.9924 -1.8350 0.0688 0 1
26.0674 -1.9339 -1.8350 0.0688 0 1
26.0719 -1.8754 -1.8351 0.0688 0 1
26.0763 -1.8169 -1.8351 0.0688 0 1
26.0804 -1.7584 -1.8351 0.0688 0 1
26.0846 -1.6999 -1.8351 0.0688 0 1
26.0886 -1.6414 -1.8351 0.0688 0 1
26.0925 -1.5829 -1.8351 0.0688 0 1
26.0962 -1.5243 -1.8352 0.0688 0 1
26.0997 -1.4658 -1.8352 0.0688 0 1
26.1031 -1.4072 -1.8352 0.0688 0 1
26.1065 -1.3486 -1.8352 0.0688 0 1
26.1096 -1.2900 -1.8352 0.0688 0 1
26.1127 -1.2314 -1.8352 0.0688 0 1
26.1156 -1.1729 -1.8352 0.0688 0 1
26.1184 -1.1142 -1.8353 0.0688 0 1
26.1210 -1.0557 -1.8353 0.0688 0 1
26.1236 -0.9971 -1.8353 0.0688 0 1
26.1259 -0.9384 -1.8353 0.0688 0 1
26.1281 -0.8798 -1.8353 0.0688 0 1
26.1303 -0.8212 -1.8353 0.0688 0 1
26.1322 -0.7625 -1.8353 0.0688 0 1
26.1340 -0.7039 -1.8354 0.0688 0 1
26.1357 -0.6453 -1.8354 0.0688 0 1
26.1373 -0.5866 -1.8354 0.0688 0 1
26.1388 -0.5280 -1.8354 0.0688 0 1
26.1401 -0.4693 -1.8354 0.0688 0 1
26.1412 -0.4107 -1.8354 0.0688 0 1
26.1423 -0.3520 -1.8354 0.0688 0 1
26.1432 -0.2933 -1.8354 0.0688 0 1
26.1439 -0.2347 -1.8355 0.0688 0 1
26.1446 -0.1760 -1.8355 0.0688 0 1
26.1451 -0.1174 -1.8355 0.0688 0 1
26.1454 -0.0587 -1.8355 0.0688 0 1
26.1456 -0.0000 -1.8355 0.0688 0 1
26.1458 0.0587 -1.8355 0.0688 0 1
26.1457 0.1173 -1.8355 0.0688 0 1
26.1455 0.1760 -1.8355 0.0688 0 1
26.1453 0.2347 -1.8355 0.0688 0 1
26.1448 0.2934 -1.8356 0.0688 0 1
26.1442 0.3520 -1.8356 0.0688 0 1
26.1435 0.4107 -1.8356 0.0688 0 1
26.1427 0.4693 -1.8356 0.0688 0 1
26.1417 0.5280 -1.8356 0.0688 0 1
26.1406 0.5867 -1.8356 0.0688 0 1
26.1394 0.6453 -1.8356 0.0688 0 1
26.1379 0.7040 -1.8356 0.0688 0 1
26.1364 0.7627 -1.8356 0.0688 0 1
26.1348 0.8213 -1.8356 0.0688 0 1
26.1330 0.8799 -1.8357 0.0688 0 1
26.1311 0.9386 -1.8357 0.0688 0 1
26.1290 0.9972 -1.8357 0.0688 0 1
26.1269 1.0559 -1.8357 0.0688 0 1
26.1245 1.1145 -1.8357 0.0688 0 1
26.1222 1.1731 -1.8357 0.0688 0 1
26.1196 1.2318 -1.8357 0.0688 0 1
26.1169 1.2904 -1.8357 0.0688 0 1
26.1140 1.3490 -1.8357 0.0688 0 1
26.1110 1.4076 -1.8357 0.0688 0 1
26.1079 1.4662 -1.8357 0.0688 0 1
26.1046 1.5248 -1.8357 0.0688 0 1
26.1013 1.5833 -1.8358 0.0688 0 1
26.0977 1.6419 -1.8358 0.0688 0 1
26.0941 1.7005 -1.8358 0.0688 0 1
26.0902 1.7590 -1.8358 0.0688 0 1
26.0863 1.8176 -1.8358 0.0688 0 1
26.0823 1.8761 -1.8358 0.0688 0 1
26.0781 1.9347 -1.8358 0.0688 0 1
26.0738 1.9932 -1.8358 0.0688 0 1
26.0694 2.0517 -1.8358 0.0688 0 1
26.0647 2.1102 -1.8358 0.0688 0 1
26.0600 2.1687 -1.8358 0.0688 0 1
26.0552 2.2271 -1.8358 0.0688 0 1
26.0502 2.2856 -1.8358 0.0688 0 1
26.0451 2.3441 -1.8358 0.0688 0 1
26.0398 2.4025 -1.8358 0.0688 0 1
26.0344 2.4610 -1.8358 0.0688 0 1
26.0289 2.5194 -1.8358 0.0688 0 1
26.0232 2.5778 -1.8358 0.0688 0 1
26.0174 2.6362 -1.8359 0.0688 0 1
26.0115 2.6946 -1.8359 0.0688 0 1
26.0055 2.7529 -1.8359 0.0688 0 1
25.9251 2.8033 -1.8306 0.1299 426 14
25.9158 2.8611 -1.8304 0.1299 426 14
25.9054 2.9188 -1.8301 0.1246 426 14
25.8946 2.9765 -1.8298 0.1246 426 14
15.7787 1.8496 -1.1153 0.2168 412 13
15.6523 1.8704 -1.1067 0.2164 412 13
15.4081 1.8763 -1.0897 0.1004 412 18
15.1467 1.8789 -1.0715 0.8326 412 18
15.1412 1.9128 -1.0714 0.8327 412 18
15.1358 1.9466 -1.0713 0.8327 412 18
15.1303 1.9804 -1.0713 0.8328 412 18
15.1249 2.0143 -1.0712 0.8328 412 18
15.1195 2.0480 -1.0711 0.8329 412 18
15.1141 2.0819 -1.0711 0.8329 412 18
15.1086 2.1157 -1.0710 0.8330 412 18
15.2172 2.1657 -1.0791 0.0522 412 18
15.6490 2.2630 -1.1100 0.1381 412 13
15.7646 2.3159 -1.1186 0.1566 412 13
15.8363 2.3627 -1.1241 0.5403 412 13
25.8563 3.9170 -1.8359 0.0688 0 1
25.8475 3.9750 -1.8359 0.0688 0 1
25.8385 4.0330 -1.8359 0.0688 0 1
25.8294 4.0910 -1.8359 0.0688 0 1
25.8202 4.1489 -1.8359 0.0688 0 1
25.8108 4.2069 -1.8359 0.0688 0 1
25.8013 4.2647 -1.8359 0.0688 0 1
25.7916 4.3226 -1.8359 0.0688 0 1
25.7819 4.3805 -1.8359 0.0688 0 1
25.6681 4.4204 -1.8285 0.1247 426 14
25.6607 4.4785 -1.8287 0.1247 426 14
25.6529 4.5365 -1.8289 0.1300 426 14
25.6441 4.5943 -1.8290 0.1300 426 14
25.7310 4.6695 -1.8359 0.0688 0 1
25.7204 4.7272 -1.8359 0.0688 0 1
25.7098 4.7849 -1.8359 0.0688 0 1
25.6989 4.8426 -1.8359 0.0688 0 1
25.6880 4.9002 -1.8359 0.0688 0 1
25.6769 4.9579 -1.8359 0.0688 0 1
25.6656 5.0155 -1.8359 0.0688 0 1
25.6543 5.0730 -1.8359 0.0688 0 1
25.6428 5.1305 -1.8359 0.0688 0 1
25.6312 5.1881 -1.8359 0.0688 0 1
25.6195 5.2456 -1.8359 0.0688 0 1
25.6075 5.3031 -1.8359 0.0688 0 1
25.5955 5.3605 -1.8359 0.0688 0 1
25.5834 5.4179 -1.8359 0.0688 0 1
25.5711 5.4753 -1.8359 0.0688 0 1
25.5587 5.5326 -1.8359 0.0688 0 1
25.5462 5.5900 -1.8359 0.0688 0 1
25.5335 5.6473 -1.8358 0.0688 0 1
25.5207 5.7045 -1.8358 0.0688 0 1
25.5077 5.7618 -1.8358 0.0688 0 1
24.8121 5.6632 -1.7867 0.0713 0 2
24.1633 5.5722 -1.7409 0.0860 0 2
24.0105 5.5937 -1.7307 0.0688 0 2
23.9979 5.6476 -1.7307 0.0688 0 2
23.9850 5.7014 -1.7307 0.0688 0 2
23.9721 5.7552 -1.7307 0.0688 0 2
23.9590 5.8089 -1.7307 0.0688 0 2
23.9459 5.8627 -1.7307 0.0688 0 2
23.9326 5.9164 -1.7307 0.0688 0 2
23.9191 5.9701 -1.7307 0.0688 0 2
23.9056 6.0237 -1.7307 0.0688 0 2
23.8919 6.0773 -1.7307 0.0688 0 2
23.8782 6.1309 -1.7307 0.0688 0 2
23.8642 6.1844 -1.7307 0.0688 0 2
23.8502 6.2379 -1.7307 0.0688 0 2
23.8360 6.2914 -1.7307 0.0688 0 2
23.8218 6.3448 -1.7307 0.0688 0 2
23.8074 6.3983 -1.7307 0.0688 0 2
23.7929 6.4516 -1.7306 0.0688 0 2
23.7782 6.5050 -1.7306 0.0688 0 2
23.7635 6.5583 -1.7306 0.0688 0 2
23.7486 6.6115 -1.7306 0.0688 0 2
23.7336 6.6648 -1.7306 0.0688 0 2
23.7184 6.7180 -1.7306 0.0688 0 2
23.7032 6.7712 -1.7306 0.0688 0 2
23.6879 6.8243 -1.7306 0.0688 0 2
23.6724 6.8774 -1.7306 0.0688 0 2
23.6568 6.9305 -1.7306 0.0688 0 2
23.6410 6.9836 -1.7306 0.0688 0 2
23.6252 7.0365 -1.7306 0.0688 0 2
23.6092 7.0895 -1.7306 0.0688 0 2
23.5931 7.1424 -1.7305 0.0688 0 2
23.5769 7.1953 -1.7305 0.0688 0 2
23.5605 7.2481 -1.7305 0.0688 0 2
23.5441 7.3010 -1.7305 0.0688 0 2
23.5276 7.3538 -1.7305 0.0688 0 2
23.5108 7.4065 -1.7305 0.0688 0 2
23.4940 7.4592 -1.7305 0.0688 0 2
23.4771 7.5118 -1.7305 0.0688 0 2
23.4600 7.5644 -1.7305 0.0688 0 2
23.4428 7.6170 -1.7305 0.0688 0 2
23.4255 7.6696 -1.7304 0.0688 0 2
23.4081 7.7221 -1.7304 0.0688 0 2
23.3906 7.7745 -1.7304 0.0688 0 2
23.3729 7.8269 -1.7304 0.0688 0 2
23.3552 7.8793 -1.7304 0.0688 0 2
23.3372 7.9316 -1.7304 0.0688 0 2
23.3192 7.9839 -1.7304 0.0688 0 2
23.3011 8.0362 -1.7304 0.0688 0 2
23.2828 8.0884 -1.7303 0.0688 0 2
23.2645 8.1406 -1.7303 0.0688 0 2
23.2460 8.1927 -1.7303 0.0688 0 2
23.2274 8.2448 -1.7303 0.0688 0 2
23.2086 8.2968 -1.7303 0.0688 0 2
23.1898 8.3488 -1.7303 0.0688 0 2
23.1708 8.4008 -1.7303 0.0688 0 2
23.1517 8.4527 -1.7303 0.0688 0 2
23.1325 8.5046 -1.7302 0.0688 0 2
23.1132 8.5564 -1.7302 0.0688 0 2
23.0938 8.6082 -1.7302 0.0688 0 2
23.0742 8.6599 -1.7302 0.0688 0 2
23.0546 8.7116 -1.7302 0.0688 0 2
23.0347 8.7632 -1.7302 0.0688 0 2
23.0148 8.8148 -1.7302 0.0688 0 2
22.9948 8.8664 -1.7301 0.0688 0 2
22.9747 8.9179 -1.7301 0.0688 0 2
22.9544 8.9693 -1.7301 0.0688 0 2
22.9340 9.0207 -1.7301 0.0688 0 2
22.9135 9.0721 -1.7301 0.0688 0 2
22.8929 9.1234 -1.7301 0.0688 0 2
22.8722 9.1747 -1.7301 0.0688 0 2
22.8513 9.2259 -1.7300 0.0688 0 2
22.8303 9.2771 -1.7300 0.0688 0 2
22.7305 9.2960 -1.7240 0.4941 0 5
22.7125 9.3482 -1.7243 0.6871 0 5
22.8103 9.4483 -1.7333 0.0688 0 25
22.7888 9.4994 -1.7333 0.0688 0 25
22.7672 9.5504 -1.7333 0.0688 0 25
22.7455 9.6014 -1.7332 0.0688 0 25
22.7237 9.6523 -1.7332 0.0688 0 25
22.7018 9.7032 -1.7332 0.0688 0 25
22.6797 9.7540 -1.7332 0.0688 0 25
22.6576 9.8048 -1.7332 0.0688 0 25
22.6353 9.8555 -1.7332 0.0689 0 25
22.6128 9.9062 -1.7331 0.0689 0 25
22.5903 9.9568 -1.7331 0.0689 0 25
19.9524 8.8476 -1.5323 0.6041 0 5
19.8418 8.8519 -1.5253 0.0796 0 5
19.6398 8.8147 -1.5113 0.2599 0 5
19.4593 8.7862 -1.4989 0.2621 0 5
19.2864 8.7603 -1.4871 0.2778 0 5
7.5973 3.4714 -0.5864 0.4434 0 6
7.5720 3.4804 -0.5851 0.7722 0 6
7.5570 3.4941 -0.5845 0.9458 0 6
7.5473 3.5102 -0.5843 0.9922 0 6
7.5428 3.5287 -0.5846 0.8917 0 6
7.5434 3.5496 -0.5853 0.6232 0 6
7.5633 3.5797 -0.5874 0.2870 0 6
22.2872 10.6100 -1.7329 0.0689 0 25
22.2631 10.6599 -1.7329 0.0689 0 25
22.2389 10.7097 -1.7328 0.0689 0 25
22.2146 10.7594 -1.7328 0.0689 0 25
22.1901 10.8091 -1.7328 0.0689 0 25
22.1655 10.8587 -1.7328 0.0689 0 25
17.1196 8.4344 -1.3398 0.6357 0 5
17.0956 8.4704 -1.3394 0.9934 0 5
17.1030 8.5219 -1.3415 0.7533 0 5
22.0662 11.0568 -1.7327 0.0689 0 25
22.0410 11.1061 -1.7327 0.0689 0 25
22.0158 11.1554 -1.7327 0.0689 0 25
21.9904 11.2046 -1.7326 0.0689 0 25
21.9649 11.2538 -1.7326 0.0689 0 25
21.9394 11.3029 -1.7326 0.0689 0 25
21.9137 11.3520 -1.7326 0.0689 0 25
21.8879 11.4010 -1.7326 0.0689 0 25
21.8619 11.4499 -1.7325 0.0689 0 25
21.8360 11.4989 -1.7325 0.0689 0 25
21.8098 11.5477 -1.7325 0.0689 0 25
21.7835 11.5964 -1.7325 0.0689 0 25
21.7571 11.6451 -1.7324 0.0689 0 25
21.7307 11.6937 -1.7324 0.0689 0 25
21.7041 11.7423 -1.7324 0.0689 0 25
21.6774 11.7909 -1.7324 0.0689 0 25
21.6506 11.8393 -1.7323 0.0689 0 25
21.6237 11.8877 -1.7323 0.0689 0 25
21.5967 11.9361 -1.7323 0.0689 0 25
21.5696 11.9843 -1.7323 0.0689 0 25
14.3387 8.0089 -1.1530 0.6745 0 5
14.3086 8.0343 -1.1521 0.9968 0 5
14.3001 8.0718 -1.1528 0.7185 0 5
21.4600 12.1768 -1.7322 0.0689 0 25
21.4322 12.2247 -1.7322 0.0689 0 25
21.4045 12.2726 -1.7321 0.0689 0 25
21.3766 12.3204 -1.7321 0.0689 0 25
21.3486 12.3682 -1.7321 0.0689 0 25
21.3204 12.4159 -1.7321 0.0689 0 25
21.2923 12.4635 -1.7320 0.0689 0 25
21.2639 12.5111 -1.7320 0.0689 0 25
21.2354 12.5586 -1.7320 0.0689 0 25
21.2069 12.6060 -1.7320 0.0689 0 25
21.1783 12.6534 -1.7319 0.0689 0 25
21.1495 12.7007 -1.7319 0.0689 0 25
21.1206 12.7479 -1.7319 0.0689 0 25
12.1681 7.3817 -0.9991 0.3792 0 3
12.0856 7.3688 -0.9937 0.3813 0 3
12.0040 7.3560 -0.9884 0.3834 0 3
11.9232 7.3433 -0.9831 0.3854 0 3
11.8433 7.3308 -0.9778 0.3875 0 3
11.7642 7.3185 -0.9727 0.3896 0 3
11.6859 7.3062 -0.9675 0.3916 0 3
11.6085 7.2941 -0.9625 0.3937 0 3
11.5319 7.2821 -0.9575 0.3957 0 3
11.4561 7.2702 -0.9525 0.3978 0 3
11.3810 7.2585 -0.9476 0.3998 0 3
11.3067 7.2468 -0.9428 0.4019 0 3
11.2332 7.2353 -0.9380 0.4039 0 3
11.1604 7.2239 -0.9333 0.4060 0 3
11.0884 7.2126 -0.9286 0.4080 0 3
11.0170 7.2015 -0.9240 0.4101 0 3
10.9464 7.1904 -0.9194 0.4121 0 3
10.8765 7.1795 -0.9149 0.4141 0 3
10.8072 7.1687 -0.9104 0.4162 0 3
10.7387 7.1579 -0.9060 0.4182 0 3
10.6707 7.1472 -0.9016 0.4202 0 3
10.6035 7.1367 -0.8973 0.4223 0 3
10.5369 7.1263 -0.8930 0.4243 0 3
10.4708 7.1159 -0.8888 0.4263 0 3
10.4055 7.1057 -0.8846 0.4283 0 3
10.3408 7.0956 -0.8804 0.4304 0 3
10.2766 7.0856 -0.8763 0.4324 0 3
10.2131 7.0756 -0.8722 0.4344 0 3
10.1501 7.0658 -0.8682 0.4364 0 3
10.0877 7.0559 -0.8642 0.4384 0 3
10.0259 7.0463 -0.8603 0.4404 0 3
9.9646 7.0367 -0.8564 0.4424 0 3
9.9040 7.0272 -0.8525 0.4445 0 3
9.8438 7.0178 -0.8487 0.4465 0 3
9.7842 7.0085 -0.8449 0.4485 0 3
9.7251 6.9992 -0.8412 0.4505 0 3
9.6665 6.9900 -0.8375 0.4525 0 3
9.6085 6.9809 -0.8338 0.4544 0 3
9.5509 6.9719 -0.8301 0.4564 0 3
9.4939 6.9630 -0.8265 0.4584 0 3
9.4373 6.9541 -0.8230 0.4604 0 3
9.3812 6.9454 -0.8194 0.4624 0 3
9.3257 6.9366 -0.8159 0.4644 0 3
9.2706 6.9280 -0.8125 0.4664 0 3
9.2159 6.9194 -0.8090 0.4683 0 3
9.1617 6.9110 -0.8057 0.4703 0 3
9.1080 6.9025 -0.8023 0.4723 0 3
9.0546 6.8942 -0.7990 0.4743 0 3
9.0018 6.8860 -0.7957 0.4762 0 3
8.9494 6.8778 -0.7924 0.4782 0 3
8.8975 6.8696 -0.7891 0.4802 0 3
8.8459 6.8615 -0.7859 0.4821 0 3
8.7947 6.8535 -0.7828 0.4841 0 3
8.7440 6.8456 -0.7796 0.4860 0 3
8.6937 6.8377 -0.7765 0.4880 0 3
8.6437 6.8299 -0.7734 0.4899 0 3
8.5942 6.8221 -0.7703 0.4919 0 3
8.5451 6.8144 -0.7673 0.4938 0 3
8.4963 6.8068 -0.7643 0.4958 0 3
8.4479 6.7992 -0.7613 0.4977 0 3
8.3999 6.7917 -0.7583 0.4997 0 3
8.3523 6.7842 -0.7554 0.5016 0 3
8.3050 6.7769 -0.7525 0.5035 0 3
8.2581 6.7695 -0.7496 0.5055 0 3
8.2116 6.7622 -0.7468 0.5074 0 3
8.1654 6.7550 -0.7440 0.5093 0 3
8.1196 6.7478 -0.7412 0.5112 0 3
8.0740 6.7407 -0.7384 0.5132 0 3
8.0289 6.7336 -0.7356 0.5151 0 3
7.9841 6.7266 -0.7329 0.5170 0 3
7.9396 6.7196 -0.7302 0.5189 0 3
7.8954 6.7127 -0.7275 0.5208 0 3
7.8516 6.7058 -0.7249 0.5227 0 3
7.8080 6.6990 -0.7222 0.5246 0 3
7.7648 6.6923 -0.7196 0.5265 0 3
7.7219 6.6855 -0.7171 0.5284 0 3
7.6793 6.6788 -0.7145 0.5303 0 3
7.6370 6.6722 -0.7119 0.5322 0 3
7.5951 6.6657 -0.7094 0.5341 0 3
7.5534 6.6592 -0.7069 0.5360 0 3
7.5406 6.6780 -0.7071 0.8402 0 3
7.5364 6.7046 -0.7081 0.8390 0 3
7.5323 6.7312 -0.7092 0.8378 0 3
7.5281 6.7579 -0.7102 0.8365 0 3
7.5239 6.7847 -0.7112 0.8353 0 3
7.5196 6.8115 -0.7123 0.8341 0 3
7.5154 6.8385 -0.7133 0.8329 0 3
7.5112 6.8655 -0.7144 0.8316 0 3
7.5069 6.8926 -0.7155 0.8304 0 3
7.5027 6.9198 -0.7165 0.8292 0 3
7.4984 6.9471 -0.7176 0.8279 0 3
7.4941 6.9744 -0.7187 0.8267 0 3
7.4898 7.0018 -0.7198 0.8254 0 3
7.4855 7.0294 -0.7209 0.8241 0 3
7.4812 7.0569 -0.7220 0.8229 0 3
7.4769 7.0846 -0.7231 0.8216 0 3
7.4725 7.1124 -0.7242 0.8203 0 3
7.4681 7.1403 -0.7254 0.8191 0 3
7.4638 7.1682 -0.7265 0.8178 0 3
7.4594 7.1962 -0.7276 0.8165 0 3
7.4549 7.2243 -0.7288 0.8152 0 3
7.4506 7.2525 -0.7300 0.8139 0 3
7.4461 7.2809 -0.7311 0.8126 0 3
7.4417 7.3093 -0.7323 0.8113 0 3
7.4372 7.3377 -0.7335 0.8100 0 3
7.4327 7.3663 -0.7347 0.8087 0 3
7.4283 7.3950 -0.7358 0.8074 0 3
9.4262 -9.4262 -1.0464 0.7856 0 20
9.4438 -9.4015 -1.0460 0.7858 0 20
9.4615 -9.3769 -1.0456 0.7861 0 20
9.4791 -9.3523 -1.0452 0.7864 0 20
9.4968 -9.3277 -1.0449 0.7867 0 20
9.5144 -9.3032 -1.0445 0.7870 0 20
9.5319 -9.2786 -1.0442 0.7872 0 20
9.5495 -9.2541 -1.0438 0.7875 0 20
9.5671 -9.2296 -1.0435 0.7878 0 20
9.5926 -9.2128 -1.0440 0.7332 0 20
9.6227 -9.2002 -1.0450 0.7325 0 20
9.6527 -9.1875 -1.0460 0.7318 0 20
9.6828 -9.1749 -1.0471 0.7310 0 20
9.7130 -9.1623 -1.0481 0.7303 0 20
9.7433 -9.1496 -1.0491 0.7296 0 20
9.7736 -9.1368 -1.0502 0.7289 0 20
9.8040 -9.1241 -1.0513 0.7281 0 20
9.8344 -9.1113 -1.0523 0.7274 0 20
9.8698 -9.1030 -1.0539 0.4572 0 20
9.9229 -9.1110 -1.0574 0.4557 0 20
9.9765 -9.1189 -1.0609 0.4542 0 20
10.0303 -9.1269 -1.0645 0.4526 0 20
10.0846 -9.1350 -1.0681 0.4511 0 20
10.1392 -9.1432 -1.0717 0.4496 0 20
13.8573 -12.4397 -1.4617 0.7727 0 3
13.9106 -12.4313 -1.4644 0.7713 0 3
13.9642 -12.4229 -1.4671 0.7699 0 3
14.0180 -12.4145 -1.4698 0.7685 0 3
14.0719 -12.4061 -1.4725 0.7670 0 3
14.1261 -12.3976 -1.4753 0.7656 0 3
14.1804 -12.3891 -1.4781 0.7642 0 3
14.2350 -12.3805 -1.4808 0.7627 0 3
14.2898 -12.3720 -1.4837 0.7613 0 3
14.3448 -12.3633 -1.4865 0.7598 0 3
14.3999 -12.3547 -1.4893 0.7584 0 3
14.4554 -12.3460 -1.4922 0.7569 0 3
14.5110 -12.3373 -1.4951 0.7555 0 3
14.5668 -12.3286 -1.4980 0.7540 0 3
14.6229 -12.3198 -1.5009 0.7525 0 3
14.6791 -12.3110 -1.5038 0.7511 0 3
14.7356 -12.3021 -1.5068 0.7496 0 3
14.7923 -12.2933 -1.5097 0.7481 0 3
14.8492 -12.2844 -1.5127 0.7466 0 3
14.9064 -12.2754 -1.5157 0.7452 0 3
14.9638 -12.2664 -1.5188 0.7437 0 3
15.0214 -12.2574 -1.5218 0.7422 0 3
15.0793 -12.2483 -1.5249 0.7407 0 3
15.1374 -12.2393 -1.5280 0.7392 0 3
15.1957 -12.2301 -1.5311 0.7377 0 3
15.2543 -12.2210 -1.5342 0.7362 0 3
15.3130 -12.2117 -1.5374 0.7347 0 3
15.3721 -12.2025 -1.5406 0.7332 0 3
15.4314 -12.1932 -1.5438 0.7316 0 3
15.4909 -12.1839 -1.5470 0.7301 0 3
15.5507 -12.1745 -1.5502 0.7286 0 3
15.6107 -12.1651 -1.5535 0.7271 0 3
15.6710 -12.1557 -1.5568 0.7255 0 3
15.7316 -12.1462 -1.5601 0.7240 0 3
15.7785 -12.1260 -1.5620 0.6871 0 3
15.7685 -12.0621 -1.5583 0.6887 0 3
15.7585 -11.9986 -1.5547 0.6903 0 3
15.7486 -11.9353 -1.5511 0.6919 0 3
15.7387 -11.8723 -1.5475 0.6935 0 3
15.7290 -11.8096 -1.5439 0.6951 0 3
15.7192 -11.7472 -1.5403 0.6967 0 3
15.7094 -11.6851 -1.5368 0.6983 0 3
15.6996 -11.6231 -1.5333 0.0774 0 3
15.7260 -11.5882 -1.5333 0.0774 0 3
15.7524 -11.5532 -1.5334 0.0774 0 3
15.7787 -11.5181 -1.5334 0.0774 0 3
15.8049 -11.4829 -1.5335 0.0774 0 3
15.8310 -11.4477 -1.5335 0.0774 0 3
15.8571 -11.4124 -1.5335 0.0774 0 3
15.8830 -11.3771 -1.5336 0.0774 0 3
15.9089 -11.3417 -1.5336 0.0774 0 3
15.9347 -11.3063 -1.5336 0.0774 0 3
15.9604 -11.2707 -1.5337 0.0774 0 3
15.9861 -11.2352 -1.5337 0.0774 0 3
16.0116 -11.1996 -1.5338 0.0774 0 3
16.0371 -11.1639 -1.5338 0.0774 0 3
16.0626 -11.1281 -1.5338 0.0774 0 3
16.0879 -11.0923 -1.5339 0.0774 0 3
16.1131 -11.0565 -1.5339 0.0774 0 3
16.1383 -11.0205 -1.5339 0.0774 0 3
16.1634 -10.9846 -1.5340 0.0774 0 3
16.1884 -10.9486 -1.5340 0.0774 0 3
16.2133 -10.9125 -1.5341 0.0774 0 3
16.2381 -10.8763 -1.5341 0.0774 0 3
16.2629 -10.8401 -1.5341 0.0774 0 3
16.2875 -10.8039 -1.5342 0.0774 0 3
16.3121 -10.7676 -1.5342 0.0774 0 3
15.8254 -10.3953 -1.4862 0.7387 0 3
15.8165 -10.3388 -1.4832 0.7402 0 3
15.8077 -10.2825 -1.4802 0.7417 0 3
15.7989 -10.2263 -1.4772 0.7432 0 3
15.7902 -10.1705 -1.4743 0.7447 0 3
15.7815 -10.1149 -1.4714 0.7462 0 3
15.7728 -10.0595 -1.4684 0.7477 0 3
15.8069 -10.0313 -1.4695 0.6580 0 3
15.8699 -10.0215 -1.4733 0.6563 0 3
15.9333 -10.0115 -1.4771 0.6546 0 3
15.9970 -10.0016 -1.4809 0.6529 0 3
16.6008 -10.3273 -1.5346 0.0773 0 3
16.6243 -10.2903 -1.5347 0.0773 0 3
16.6478 -10.2532 -1.5347 0.0773 0 3
16.6711 -10.2161 -1.5347 0.0773 0 3
16.6944 -10.1789 -1.5348 0.0773 0 3
16.7176 -10.1416 -1.5348 0.0773 0 3
16.7406 -10.1043 -1.5348 0.0773 0 3
16.7637 -10.0669 -1.5349 0.0773 0 3
16.7866 -10.0295 -1.5349 0.0773 0 3
16.8094 -9.9920 -1.5350 0.0773 0 3
16.8322 -9.9545 -1.5350 0.0773 0 3
16.8549 -9.9169 -1.5350 0.0773 0 3
16.8775 -9.8793 -1.5351 0.0773 0 3
16.8999 -9.8417 -1.5351 0.0773 0 3
16.9224 -9.8039 -1.5351 0.0773 0 3
16.9491 -9.7687 -1.5356 0.6254 0 3
17.0184 -9.7578 -1.5398 0.6237 0 3
17.0881 -9.7469 -1.5442 0.6220 0 3
17.1582 -9.7359 -1.5485 0.6202 0 3
17.2287 -9.7249 -1.5529 0.6184 0 3
17.2997 -9.7138 -1.5573 0.6167 0 3
17.3710 -9.7026 -1.5618 0.6149 0 3
17.4427 -9.6914 -1.5663 0.6132 0 3
17.5148 -9.6801 -1.5708 0.6114 0 3
17.5874 -9.6687 -1.5754 0.6096 0 3
17.6603 -9.6573 -1.5800 0.6079 0 3
17.7337 -9.6458 -1.5846 0.6061 0 3
17.8076 -9.6342 -1.5892 0.6043 0 3
17.8818 -9.6226 -1.5939 0.6025 0 3
17.9565 -9.6109 -1.5987 0.6007 0 3
18.0317 -9.5991 -1.6034 0.5990 0 3
18.1073 -9.5873 -1.6083 0.5972 0 3
18.1833 -9.5754 -1.6131 0.5954 0 3
18.2599 -9.5634 -1.6180 0.5936 0 3
18.3369 -9.5514 -1.6229 0.5918 0 3
18.4143 -9.5393 -1.6279 0.5900 0 3
18.4922 -9.5270 -1.6328 0.5882 0 3
18.5706 -9.5148 -1.6379 0.5864 0 3
18.6495 -9.5024 -1.6430 0.5846 0 3
18.7289 -9.4900 -1.6481 0.5827 0 3
18.8088 -9.4775 -1.6532 0.5809 0 3
18.8892 -9.4649 -1.6584 0.5791 0 3
18.9701 -9.4522 -1.6636 0.5773 0 3
19.0515 -9.4395 -1.6689 0.5755 0 3
19.1334 -9.4267 -1.6742 0.5736 0 3
19.2159 -9.4137 -1.6796 0.5718 0 3
19.2988 -9.4008 -1.6850 0.5700 0 3
19.3823 -9.3877 -1.6905 0.5681 0 3
19.4664 -9.3745 -1.6960 0.5663 0 3
19.5510 -9.3613 -1.7015 0.5644 0 3
19.6361 -9.3479 -1.7071 0.5626 0 3
19.7219 -9.3345 -1.7127 0.5608 0 3
20.0149 -9.4183 -1.7363 0.0772 0 0
20.0363 -9.3735 -1.7363 0.0772 0 0
20.0577 -9.3287 -1.7364 0.0772 0 0
20.0790 -9.2839 -1.7364 0.0772 0 0
20.1002 -9.2390 -1.7364 0.0772 0 0
20.1213 -9.1940 -1.7365 0.0772 0 0
20.1422 -9.1490 -1.7365 0.0772 0 0
20.1631 -9.1040 -1.7365 0.0772 0 0
20.1839 -9.0589 -1.7366 0.0772 0 0
20.2045 -9.0137 -1.7366 0.0772 0 0
20.2251 -8.9686 -1.7366 0.0772 0 0
20.2456 -8.9233 -1.7367 0.0772 0 0
20.2659 -8.8780 -1.7367 0.0772 0 0
20.2862 -8.8327 -1.7367 0.0772 0 0
20.3063 -8.7873 -1.7368 0.0772 0 0
20.3264 -8.7419 -1.7368 0.0772 0 0
20.3463 -8.6964 -1.7368 0.0772 0 0
20.3662 -8.6509 -1.7369 0.0772 0 0
20.3859 -8.6054 -1.7369 0.0772 0 0
20.4056 -8.5597 -1.7369 0.0772 0 0
20.4251 -8.5141 -1.7370 0.0772 0 0
20.4445 -8.4684 -1.7370 0.0772 0 0
20.4639 -8.4227 -1.7370 0.0772 0 0
20.4831 -8.3769 -1.7371 0.0772 0 0
20.5022 -8.3311 -1.7371 0.0772 0 0
20.5212 -8.2851 -1.7371 0.0772 0 0
20.5401 -8.2392 -1.7372 0.0772 0 0
20.5590 -8.1933 -1.7372 0.0772 0 0
20.5777 -8.1473 -1.7372 0.0772 0 0
20.5963 -8.1012 -1.7373 0.0772 0 0
20.6148 -8.0551 -1.7373 0.0772 0 0
20.6331 -8.0089 -1.7373 0.0772 0 0
20.6515 -7.9628 -1.7373 0.0772 0 0
20.6696 -7.9166 -1.7374 0.0772 0 0
20.6877 -7.8703 -1.7374 0.0772 0 0
20.7056 -7.8240 -1.7374 0.0772 0 0
20.7235 -7.7777 -1.7375 0.0772 0 0
20.7413 -7.7313 -1.7375 0.0772 0 0
20.7590 -7.6849 -1.7375 0.0772 0 0
20.7765 -7.6384 -1.7376 0.0772 0 0
20.7940 -7.5919 -1.7376 0.0772 0 0
20.8113 -7.5453 -1.7376 0.0772 0 0
20.8285 -7.4987 -1.7376 0.0772 0 0
20.8457 -7.4521 -1.7377 0.0772 0 0
20.8627 -7.4054 -1.7377 0.0772 0 0
20.8796 -7.3587 -1.7377 0.0772 0 0
20.8965 -7.3120 -1.7378 0.0772 0 0
20.9131 -7.2651 -1.7378 0.0772 0 0
20.7679 -7.1626 -1.7244 0.0772 0 2
20.7843 -7.1161 -1.7244 0.0772 0 2
20.8006 -7.0695 -1.7245 0.0772 0 2
20.8167 -7.0230 -1.7245 0.0772 0 2
20.8328 -6.9763 -1.7245 0.0772 0 2
20.8488 -6.9297 -1.7245 0.0772 0 2
20.8646 -6.8830 -1.7246 0.0772 0 2
20.8804 -6.8363 -1.7246 0.0772 0 2
20.8960 -6.7896 -1.7246 0.0772 0 2
20.9116 -6.7427 -1.7247 0.0772 0 2
20.9270 -6.6959 -1.7247 0.0772 0 2
20.9424 -6.6490 -1.7247 0.0772 0 2
20.9576 -6.6021 -1.7247 0.0772 0 2
20.9727 -6.5552 -1.7248 0.0772 0 2
20.9877 -6.5082 -1.7248 0.0772 0 2
21.0026 -6.4612 -1.7248 0.0772 0 2
21.0174 -6.4142 -1.7249 0.0772 0 2
21.0321 -6.3671 -1.7249 0.0772 0 2
21.0467 -6.3200 -1.7249 0.0772 0 2
21.0612 -6.2729 -1.7249 0.0772 0 2
21.0755 -6.2257 -1.7250 0.0772 0 2
21.0898 -6.1785 -1.7250 0.0772 0 2
21.1040 -6.1312 -1.7250 0.0772 0 2
21.1180 -6.0840 -1.7251 0.0772 0 2
21.1319 -6.0367 -1.7251 0.0772 0 2
21.1458 -5.9893 -1.7251 0.0772 0 2
21.1595 -5.9420 -1.7251 0.0772 0 2
21.1731 -5.8946 -1.7252 0.0772 0 2
