ply
format ascii 1.0
element vertex 606
property float32 x
property float32 y
property float32 z
property float32 CosAngle
property uint32 ObjIdx
property uint32 ObjTag
end_header
21.928213119506836 14.333807945251465 2.7097856998443604 0.7537975907325745 0 3
21.887691497802734 14.02855396270752 2.68911075592041 0.7595933675765991 0 3
21.847774505615234 13.72787094116211 2.6689586639404297 0.7653285264968872 0 3
21.808448791503906 13.431640625 2.6493186950683594 0.7710021734237671 0 3
21.769695281982422 13.139726638793945 2.630175828933716 0.7766133546829224 0 3
21.731496810913086 12.851972579956055 2.611518383026123 0.7821617722511292 0 3
21.693830490112305 12.568242073059082 2.5933282375335693 0.7876473069190979 0 3
21.65668487548828 12.288436889648438 2.575601816177368 0.7930694818496704 0 3
21.620038986206055 12.012402534484863 2.558316707611084 0.7984277009963989 0 3
21.583879470825195 11.740018844604492 2.5414652824401855 0.80372154712677 0 3
21.548185348510742 11.471152305603027 2.525038480758667 0.8089508414268494 0 3
21.35621452331543 11.124101638793945 2.4907402992248535 0.09004346281290054 0 3
21.076457977294922 10.738984107971191 2.446773052215576 0.09048925340175629 0 3
20.83736801147461 10.38265609741211 2.408099889755249 0.09194251149892807 0 3
20.616424560546875 10.042616844177246 2.3720531463623047 0.11773288995027542 0 3
20.463903427124023 9.741991996765137 2.3443517684936523 0.11912421137094498 0 3
20.395631790161133 9.4858980178833 2.326678514480591 0.5334604382514954 0 3
21.02306365966797 9.549139976501465 2.3883819580078125 0.5259103178977966 0 3
21.27791976928711 9.435429573059082 2.4076151847839355 0.8484041690826416 0 3
21.339380264282227 9.234375 2.4051005840301514 0.9642919898033142 0 3
21.470476150512695 9.063163757324219 2.4106035232543945 0.9620883464813232 0 3
21.690914154052734 8.927714347839355 2.4262871742248535 0.49528974294662476 0 3
22.171939849853516 8.893828392028809 2.471031427383423 0.4875338673591614 0 3
22.612470626831055 8.835741996765137 2.5111889839172363 0.4797378182411194 0 3
23.06757354736328 8.77572250366211 2.55287766456604 0.47190338373184204 0 3
23.538097381591797 8.713690757751465 2.5961906909942627 0.4640306830406189 0 3
24.02492332458496 8.649511337280273 2.641216993331909 0.45612019300460815 0 3
24.528955459594727 8.583046913146973 2.688054084777832 0.44817331433296204 0 3
25.30869483947754 8.601698875427246 2.7649261951446533 0.8915509581565857 0 3
25.273611068725586 8.337480545043945 2.7528088092803955 0.8954762816429138 0 3
25.238834381103516 8.075546264648438 2.7410125732421875 0.8993291258811951 0 3
25.204345703125 7.815820217132568 2.7295379638671875 0.9031098484992981 0 3
25.170148849487305 7.558241844177246 2.7183806896209717 0.9068174362182617 0 3
25.13622283935547 7.302734375 2.707526206970215 0.9104525446891785 0 3
25.102567672729492 7.049257755279541 2.696974515914917 0.914013683795929 0 3
25.069164276123047 6.797695159912109 2.6867222785949707 0.9175016283988953 0 3
25.036014556884766 6.548066139221191 2.676764488220215 0.9209153056144714 0 3
25.00310516357422 6.300214767456055 2.6670923233032227 0.9242551922798157 0 3
24.970436096191406 6.054160118103027 2.657702684402466 0.9275203347206116 0 3
24.937990188598633 5.809804439544678 2.6485917568206787 0.9307107925415039 0 3
24.917455673217773 5.569706916809082 2.6409943103790283 0.9933382868766785 0 3
25.24521827697754 5.405507564544678 2.6704888343811035 0.4688110947608948 0 3
25.725543975830078 5.267323970794678 2.716184139251709 0.4609237015247345 0 3
26.230926513671875 5.125937461853027 2.764573812484741 0.31654298305511475 0 3
26.99856185913086 5.024785041809082 2.840611457824707 0.30806994438171387 0 3
34.74656677246094 6.144629001617432 3.649855375289917 0.7361796498298645 0 3
36.194576263427734 6.06619119644165 3.7960808277130127 0.2910502254962921 0 3
37.34405517578125 5.914726257324219 3.9109086990356445 0.28250449895858765 0 3
37.79734420776367 5.639238357543945 3.9529240131378174 0.8847771883010864 0 3
43.00344467163086 -13.335311889648438 4.657113552093506 0.3193880021572113 0 3
42.48725509643555 -13.594432830810547 4.614241123199463 0.8173921704292297 0 3
39.34965896606445 -12.9810152053833 4.285971164703369 0.6091738343238831 0 3
38.85013198852539 -13.204081535339355 4.244304180145264 0.827457845211029 0 3
38.53404998779297 -13.483652114868164 4.222818374633789 0.9601313471794128 0 3
38.32024383544922 -13.796152114868164 4.212799072265625 0.9933974146842957 0 3
32.46015548706055 -12.0166015625 3.5802807807922363 0.9928428530693054 0 3
31.507299423217773 -11.986503601074219 3.4868998527526855 0.6438777446746826 0 3
31.100265502929688 -12.152304649353027 3.453787088394165 0.5149709582328796 0 3
28.72425079345703 -11.52212905883789 3.2012786865234375 0.9907315969467163 0 3
27.85456085205078 -11.46458911895752 3.1156980991363525 0.6640771627426147 0 3
10.89299201965332 -4.598183631896973 1.2230132818222046 0.7648676037788391 0 6
27.301517486572266 -11.814433097839355 3.0770695209503174 0.9311178922653198 0 3
27.10354995727539 -12.018730163574219 3.0667877197265625 0.9342381954193115 0 3
26.82358741760254 -12.183847427368164 3.0473711490631104 0.9797546863555908 0 3
26.770355224609375 -12.4507417678833 3.0538878440856934 0.9843878746032715 0 3
26.693817138671875 -12.707812309265137 3.05804443359375 0.9830492734909058 0 3
25.88191032409668 -12.6074800491333 2.9778826236724854 0.31513017416000366 0 3
20.61861801147461 -10.273633003234863 2.3828155994415283 0.9467175602912903 0 3
20.344430923461914 -10.365995407104492 2.3617894649505615 0.4747108519077301 0 3
20.001625061035156 -10.418535232543945 2.332756996154785 0.7278600931167603 0 3
19.742788314819336 -10.510058403015137 2.313477039337158 0.733924388885498 0 3
19.54705810546875 -10.632128715515137 2.3016350269317627 0.9093586802482605 0 3
19.374176025390625 -10.76455020904541 2.2925615310668945 0.9129571914672852 0 3
16.923044204711914 -9.602479934692383 2.0126354694366455 0.9253607392311096 0 3
17.30889129638672 -10.027851104736328 2.0691466331481934 0.23357020318508148 0 3
16.818763732910156 -9.946600914001465 2.0211474895477295 0.5286977291107178 0 3
16.498661041259766 -9.958242416381836 1.99333918094635 0.7690454721450806 0 3
16.289108276367188 -10.032304763793945 1.9788225889205933 0.774687647819519 0 3
16.082565307617188 -10.105351448059082 1.964671015739441 0.780267596244812 0 3
15.934389114379883 -10.212870597839355 1.957692265510559 0.9360841512680054 0 3
15.791438102722168 -10.322382926940918 1.9514293670654297 0.9390862584114075 0 3
15.664765357971191 -10.4414644241333 1.947284460067749 0.9951558113098145 0 3
15.56890869140625 -10.580605506896973 1.9470934867858887 0.9952525496482849 0 3
15.473051071166992 -10.719745635986328 1.9470592737197876 0.9952690601348877 0 3
15.402777671813965 -10.876972198486328 1.9504259824752808 0.9426522254943848 0 3
15.35168170928955 -11.048710823059082 1.9564330577850342 0.9397566318511963 0 3
15.285700798034668 -11.210859298706055 1.9607751369476318 0.4785982370376587 0 3
14.94057559967041 -11.165350914001465 1.9292761087417603 0.48641061782836914 0 3
14.6063232421875 -11.121269226074219 1.898938536643982 0.4941841959953308 0 3
14.282402038574219 -11.078554153442383 1.8696746826171875 0.501917839050293 0 3
13.91213321685791 -10.992753982543945 1.834044098854065 0.5015373229980469 0 3
13.605670928955078 -10.950429916381836 1.806527018547058 0.5091762542724609 0 3
13.308262825012207 -10.90933609008789 1.7799712419509888 0.5167736411094666 0 3
13.080031394958496 -10.920000076293945 1.7624852657318115 0.5324428677558899 0 3
12.800556182861328 -10.88314437866211 1.737923502922058 0.539968729019165 0 3
12.53176498413086 -10.849902153015137 1.7145800590515137 0.832444429397583 0 3
12.340075492858887 -10.879218101501465 1.701646089553833 0.5548899173736572 0 3
12.080949783325195 -10.84505844116211 1.679268717765808 0.5622832179069519 0 3
11.828536987304688 -10.811758041381836 1.6576086282730103 0.5696312189102173 0 3
9.671460151672363 -9.000761985778809 1.366589903831482 0.44291794300079346 0 3
9.545103073120117 -9.044394493103027 1.360152006149292 0.8874194025993347 0 3
9.406425476074219 -9.07460880279541 1.3519439697265625 0.5913980603218079 0 3
9.181778907775879 -9.018417358398438 1.3312335014343262 0.5985602140426636 0 3
20.291833877563477 20.29183578491211 2.729370594024658 0.6060850620269775 0 3
20.197250366210938 19.837909698486328 2.6925926208496094 0.6122888922691345 0 3
20.14350128173828 19.432968139648438 2.6620702743530273 0.6193104386329651 0 3
20.09095001220703 19.03706932067871 2.6324377059936523 0.6262821555137634 0 3
20.039546966552734 18.64986228942871 2.603656530380249 0.633203387260437 0 3
19.9892578125 18.27099609375 2.575714588165283 0.6400737762451172 0 3
19.94002914428711 17.900156021118164 2.548564910888672 0.6468924283981323 0 3
19.930831909179688 17.571386337280273 2.5271356105804443 0.6528210043907166 0 3
12.97634220123291 11.234785079956055 1.6324816942214966 0.9867390394210815 0 6
19.916358947753906 16.933008193969727 2.486346960067749 0.9935332536697388 0 3
20.059099197387695 16.746522903442383 2.485321044921875 0.9939512610435486 0 3
20.293170928955078 16.635116577148438 2.4956986904144287 0.7259438633918762 0 3
20.61583137512207 16.592479705810547 2.5169591903686523 0.7198107838630676 0 3
20.944076538085938 16.54911994934082 2.538799285888672 0.7136194109916687 0 3
21.278095245361328 16.5049991607666 2.5612261295318604 0.7073706984519958 0 3
21.61812400817871 16.4600772857666 2.58426570892334 0.7010642886161804 0 3
21.920228958129883 16.381366729736328 2.6027050018310547 0.9947766065597534 0 3
22.069547653198242 16.186288833618164 2.603069305419922 0.9946335554122925 0 3
22.14102554321289 15.935077667236328 2.5945286750793457 0.7244992852210999 0 3
22.097118377685547 15.60433578491211 2.572866678237915 0.7305989861488342 0 3
22.053930282592773 15.279003143310547 2.5517632961273193 0.7366403937339783 0 3
22.011444091796875 14.958984375 2.5312089920043945 0.742621898651123 0 3
21.969633102416992 14.644022941589355 2.5111851692199707 0.7485437989234924 0 3
21.92847442626953 14.333984375 2.491668701171875 0.754405677318573 0 3
21.887941360473633 14.028691291809082 2.4726617336273193 0.760206937789917 0 3
21.577281951904297 13.557909965515137 2.4237170219421387 0.10357949882745743 0 3
21.41221809387207 13.187617301940918 2.391782760620117 0.10496248304843903 0 3
21.225093841552734 12.810976028442383 2.3579399585723877 0.08640998601913452 0 3
20.95757293701172 12.394257545471191 2.315765380859375 0.08798357844352722 0 3
20.70117950439453 11.993144035339355 2.275452136993408 0.08954253792762756 0 3
20.455141067504883 11.606640815734863 2.236865282058716 0.09108711034059525 0 3
20.21891975402832 11.233905792236328 2.199916362762451 0.09261687099933624 0 3
20.01555824279785 10.886953353881836 2.1670689582824707 0.11859195679426193 0 3
19.864774703979492 10.574999809265137 2.140381336212158 0.12007071077823639 0 3
19.718852996826172 10.271230697631836 2.114640951156616 0.12153233587741852 0 3
19.577526092529297 9.97525405883789 2.089799165725708 0.12297703325748444 0 3
19.44063377380371 9.686718940734863 2.0658209323883057 0.12440439313650131 0 3
19.66689682006836 9.580078125 2.0806403160095215 0.5489685535430908 0 3
20.2646484375 9.647148132324219 2.1346306800842285 0.5414987206459045 0 3
20.63677215576172 9.598066329956055 2.164668560028076 0.5339857339859009 0 3
21.297088623046875 9.673612594604492 2.2247302532196045 0.5264289379119873 0 3
21.278141021728516 9.435526847839355 2.2138171195983887 0.8490901589393616 0 3
21.338138580322266 9.233866691589355 2.211357355117798 0.9651379585266113 0 3
21.469223022460938 9.062636375427246 2.216417074203491 0.9629324674606323 0 3
21.68703842163086 8.926093101501465 2.230537176132202 0.4957839250564575 0 3
22.167932510375977 8.892207145690918 2.2716968059539795 0.4880213141441345 0 3
22.608312606811523 8.834101676940918 2.308608293533325 0.4802189767360687 0 3
23.063268661499023 8.774101257324219 2.346926212310791 0.4723780155181885 0 3
23.53363800048828 8.712031364440918 2.3867383003234863 0.46449872851371765 0 3
24.020265579223633 8.647831916809082 2.42812180519104 0.456582248210907 0 3
24.524120330810547 8.581366539001465 2.471170663833618 0.4486287534236908 0 3
25.308944702148438 8.601777076721191 2.5423669815063477 0.8922722935676575 0 3
25.27385902404785 8.337538719177246 2.53122615814209 0.8962005972862244 0 3
25.239086151123047 8.075624465942383 2.520378351211548 0.9000567197799683 0 3
25.204599380493164 7.815898418426514 2.509830951690674 0.9038403630256653 0 3
25.170394897460938 7.558320045471191 2.4995672702789307 0.9075513482093811 0 3
25.1364688873291 7.302812099456787 2.48958683013916 0.9111889600753784 0 3
25.102807998657227 7.04931640625 2.479884624481201 0.9147534370422363 0 3
25.069408416748047 6.797773361206055 2.470457077026367 0.9182440042495728 0 3
25.036258697509766 6.54812479019165 2.461301803588867 0.9216606020927429 0 3
25.00334930419922 6.300273418426514 2.452404737472534 0.9250030517578125 0 3
24.970672607421875 6.05419921875 2.443774461746216 0.9282709956169128 0 3
24.9382266998291 5.809863090515137 2.4353959560394287 0.931463897228241 0 3
24.917011260986328 5.569628715515137 2.4283459186553955 0.9941697120666504 0 3
25.240596771240234 5.404511451721191 2.4550535678863525 0.4692809283733368 0 3
25.72074317932129 5.266366958618164 2.497056245803833 0.4613876938819885 0 3
26.22360610961914 5.12451171875 2.541311502456665 0.3168906569480896 0 3
26.99083137512207 5.023359298706055 2.6111865043640137 0.30841052532196045 0 3
28.387062072753906 5.02001953125 2.7417943477630615 0.08688084781169891 0 3
36.18362808227539 6.064355373382568 3.489435911178589 0.2913767695426941 0 3
37.3324089050293 5.912890434265137 3.594957113265991 0.28282400965690613 0 3
37.990745544433594 5.668066501617432 3.653306245803833 0.8809937238693237 0 3
43.28372573852539 -13.422225952148438 4.310117244720459 0.31955450773239136 0 3
42.49082946777344 -13.595585823059082 4.243144512176514 0.817992627620697 0 3
39.35503005981445 -12.982792854309082 3.9414756298065186 0.6095914840698242 0 3
38.89383316040039 -13.21890640258789 3.9070372581481934 0.5531207323074341 0 3
38.65523910522461 -13.526073455810547 3.895092725753784 0.9081429243087769 0 3
38.32111358642578 -13.796464920043945 3.873744487762451 0.9941884875297546 0 3
32.46089553833008 -12.016855239868164 3.2921178340911865 0.9936332702636719 0 3
31.511329650878906 -11.98802661895752 3.206606388092041 0.644322395324707 0 3
31.09686851501465 -12.150957107543945 3.175401449203491 0.5154491662979126 0 3
28.724905014038086 -11.522401809692383 2.943634510040283 0.9915202260017395 0 3
27.85801887512207 -11.465995788574219 2.865232467651367 0.6645381450653076 0 3
10.893533706665039 -4.598398208618164 1.124613642692566 0.7654556632041931 0 6
27.330080032348633 -11.826796531677246 2.832314968109131 0.9351666569709778 0 3
27.13456153869629 -12.032480239868164 2.823134183883667 0.9382084012031555 0 3
26.82490348815918 -12.184453010559082 2.802175760269165 0.9805090427398682 0 3
26.770973205566406 -12.45101547241211 2.808105945587158 0.985171377658844 0 3
26.69443130493164 -12.708086013793945 2.8119335174560547 0.9838316440582275 0 3
20.542715072631836 -10.00667953491211 2.173297643661499 0.946052610874176 0 3
20.513456344604492 -10.221230506896973 2.179821014404297 0.9432213306427002 0 3
20.348224639892578 -10.367948532104492 2.172065496444702 0.47500985860824585 0 3
20.0039005279541 -10.419706344604492 2.145209312438965 0.7283735871315002 0 3
19.745019912719727 -10.511249542236328 2.12747859954834 0.734443724155426 0 3
19.59667205810547 -10.659120559692383 2.1217150688171387 0.9100391864776611 0 3
19.423357009887695 -10.791874885559082 2.113354444503784 0.9136399626731873 0 3
17.003034591674805 -9.64785099029541 1.859363317489624 0.9214643836021423 0 3
17.362287521362305 -10.058769226074219 1.9084410667419434 0.23365116119384766 0 3
16.821584701538086 -9.948261260986328 1.8587499856948853 0.5290420055389404 0 3
16.500446319580078 -9.959296226501465 1.8330682516098022 0.7695921659469604 0 3
16.29084587097168 -10.033398628234863 1.8197143077850342 0.7752392888069153 0 3
16.032691955566406 -10.074003219604492 1.8009033203125 0.9337112307548523 0 3
15.88922119140625 -10.18392562866211 1.794985294342041 0.9367842674255371 0 3
15.746657371520996 -10.29312515258789 1.789247989654541 0.9397838711738586 0 3
15.622441291809082 -10.41324234008789 1.785681128501892 0.995922863483429 0 3
15.526843070983887 -10.552011489868164 1.7855089902877808 0.996019721031189 0 3
15.43123722076416 -10.690780639648438 1.7854790687561035 0.9960362315177917 0 3
15.403148651123047 -10.877225875854492 1.7934539318084717 0.9434013962745667 0 3
15.352052688598633 -11.04898452758789 1.7989801168441772 0.9405035376548767 0 3
15.288508415222168 -11.212929725646973 1.80325186252594 0.47890207171440125 0 3
14.943278312683105 -11.167363166809082 1.774288296699524 0.48672083020210266 0 3
14.608930587768555 -11.12328052520752 1.746374487876892 0.4945005476474762 0 3
14.246625900268555 -11.0508394241333 1.7148394584655762 0.8729948997497559 0 3
14.0570650100708 -11.107304573059082 1.7039672136306763 0.5099399089813232 0 3
13.750292778015137 -11.066816329956055 1.6787573099136353 0.517597496509552 0 3
13.452428817749023 -11.02750015258789 1.6544079780578613 0.5252141356468201 0 3
13.082225799560547 -10.921815872192383 1.6208715438842773 0.5327898859977722 0 3
12.802664756774902 -10.88492202758789 1.5982757806777954 0.5403220653533936 0 3
12.531930923461914 -10.850058555603027 1.5765728950500488 0.8331153392791748 0 3
12.34203052520752 -10.880956649780273 1.5649017095565796 0.5552562475204468 0 3
12.101241111755371 -10.863261222839355 1.546677827835083 0.5626572966575623 0 3
11.83037281036377 -10.813437461853027 1.5244042873382568 0.57000732421875 0 3
9.673328399658203 -9.002519607543945 1.256815791130066 0.44319504499435425 0 3
9.545347213745117 -9.044609069824219 1.250690221786499 0.8881235718727112 0 3
9.407835006713867 -9.075976371765137 1.2432940006256104 0.5917949676513672 0 3
9.183141708374023 -9.019745826721191 1.2242431640625 0.5989617109298706 0 3
20.292131423950195 20.29214859008789 2.490825653076172 0.606531023979187 0 3
20.19754409790039 19.83818244934082 2.457263708114624 0.6127393245697021 0 3
20.14378547668457 19.43324089050293 2.429400682449341 0.6197662353515625 0 3
20.091232299804688 19.037343978881836 2.402358293533325 0.6267431974411011 0 3
20.039831161499023 18.650115966796875 2.3761017322540283 0.6336696743965149 0 3
19.989530563354492 18.271249771118164 2.350593090057373 0.6405453085899353 0 3
19.940298080444336 17.900371551513672 2.325822591781616 0.6473692059516907 0 3
19.93110466003418 17.57162094116211 2.306262254714966 0.653302013874054 0 3
12.974936485290527 11.233573913574219 1.4896185398101807 0.9875833988189697 0 6
19.915231704711914 16.932069778442383 2.268878698348999 0.9943346977233887 0 3
20.057973861694336 16.745586395263672 2.2679295539855957 0.9947531223297119 0 3
20.290714263916016 16.63310432434082 2.277264356613159 0.7265765070915222 0 3
20.61330795288086 16.5904483795166 2.2966625690460205 0.7204390168190002 0 3
20.94148063659668 16.547069549560547 2.316585063934326 0.7142432928085327 0 3
21.27543830871582 16.5029296875 2.3370490074157715 0.7079896926879883 0 3
21.61540985107422 16.4580078125 2.358067512512207 0.701678454875946 0 3
21.49614715576172 16.064434051513672 2.3292322158813477 0.10076891630887985 0 3
21.29059600830078 15.614999771118164 2.291682720184326 0.10004635155200958 0 3
21.111906051635742 15.1943941116333 2.2576744556427 0.10155325382947922 0 3
20.939838409423828 14.787089347839355 2.2249913215637207 0.1030450314283371 0 3
20.774005889892578 14.392284393310547 2.1935558319091797 0.10452182590961456 0 3
20.614057540893555 14.009296417236328 2.1632983684539795 0.10598359256982803 0 3
20.459758758544922 13.63759708404541 2.134172201156616 0.10742998123168945 0 3
20.310827255249023 13.276581764221191 2.1061253547668457 0.10886075347661972 0 3
20.12620735168457 12.899550437927246 2.074890613555908 0.08968113362789154 0 3
19.8825626373291 12.493026733398438 2.0381267070770264 0.09129872173070908 0 3
19.64885711669922 12.1015625 2.0029563903808594 0.09290198236703873 0 3
19.453237533569336 11.74154281616211 1.9721899032592773 0.11900876462459564 0 3
19.304279327392578 11.416522979736328 1.9466222524642944 0.12057194113731384 0 3
19.160152435302734 11.100370407104492 1.9219616651535034 0.12211883813142776 0 3
19.020687103271484 10.792695045471191 1.898181676864624 0.1236489936709404 0 3
18.885616302490234 10.493085861206055 1.875226378440857 0.12516257166862488 0 3
18.75474739074707 10.201171875 1.8530651330947876 0.12665940821170807 0 3
18.62789535522461 9.916543006896973 1.831661343574524 0.1281394064426422 0 3
18.646800994873047 9.712812423706055 1.824878454208374 0.5716254115104675 0 3
19.204437255859375 9.785175323486328 1.8707787990570068 0.5642856955528259 0 3
19.547353744506836 9.739882469177246 1.895587682723999 0.5568996667861938 0 3
20.20073890686035 9.840097427368164 1.9503045082092285 0.5494681596755981 0 3
20.568056106567383 9.791601181030273 1.9772039651870728 0.5419932007789612 0 3
20.945695877075195 9.741718292236328 2.0050201416015625 0.5344741344451904 0 3
21.29352569580078 9.671992301940918 2.0299201011657715 0.5269121527671814 0 3
21.278366088867188 9.435644149780273 2.0203185081481934 0.8497180342674255 0 3
21.33690071105957 9.23330020904541 2.0179173946380615 0.9659218788146973 0 3
21.467975616455078 9.062148094177246 2.0225579738616943 0.9637110233306885 0 3
21.737518310546875 8.946894645690918 2.040294647216797 0.4962444603443146 0 3
22.1085205078125 8.868359565734863 2.0675652027130127 0.488475501537323 0 3
22.54766273498535 8.81039047241211 2.1011505126953125 0.4806671738624573 0 3
23.00132942199707 8.750507354736328 2.1360223293304443 0.4728202819824219 0 3
23.529151916503906 8.710371017456055 2.177690267562866 0.4649357795715332 0 3
24.015644073486328 8.64615249633789 2.215442419052124 0.45701277256011963 0 3
24.51931381225586 8.579687118530273 2.254711866378784 0.44905340671539307 0 3
25.30919647216797 8.601855278015137 2.32015323638916 0.8929328918457031 0 3
25.27411651611328 8.337636947631836 2.3099827766418457 0.8968639373779297 0 3
25.23933219909668 8.075702667236328 2.300083637237549 0.9007230401039124 0 3
25.204843521118164 7.815976619720459 2.290456533432007 0.9045096039772034 0 3
25.170644760131836 7.558398246765137 2.2810912132263184 0.9082231521606445 0 3
25.1367130279541 7.302890300750732 2.2719855308532715 0.9118636846542358 0 3
25.103055953979492 7.049394607543945 2.263132333755493 0.9154306054115295 0 3
25.069652557373047 6.7978515625 2.254530668258667 0.9189239740371704 0 3
25.036502838134766 6.548202991485596 2.2461681365966797 0.9223429560661316 0 3
25.00358772277832 6.300351619720459 2.2380523681640625 0.9256880879402161 0 3
24.970916748046875 6.054277420043945 2.230175733566284 0.9289582967758179 0 3
24.93846321105957 5.809921741485596 2.2225341796875 0.9321539402008057 0 3
24.91655731201172 5.569511413574219 2.216031551361084 0.994933545589447 0 3
25.235958099365234 5.403554439544678 2.240032196044922 0.46971940994262695 0 3
25.715953826904297 5.265370845794678 2.278355121612549 0.4618195593357086 0 3
26.21632957458496 5.123066425323486 2.3185198307037354 0.3172164261341095 0 3
26.983121871948242 5.021894454956055 2.382249116897583 0.3087301254272461 0 3
28.35834503173828 5.01492166519165 2.499591112136841 0.08703343570232391 0 3
36.07407760620117 6.045976638793945 3.1747636795043945 0.2916834354400635 0 3
37.32072830200195 5.911054611206055 3.279675245285034 0.28312480449676514 0 3
38.18583679199219 5.697187423706055 3.3510844707489014 0.8771504163742065 0 3
43.74557876586914 -13.565409660339355 3.975332498550415 0.99642014503479 0 3
42.43434524536133 -13.577499389648438 3.867084264755249 0.8185302019119263 0 3
39.3603515625 -12.984550476074219 3.5974230766296387 0.6099663376808167 0 3
38.8898811340332 -13.217557907104492 3.565112829208374 0.5535961389541626 0 3
38.657752990722656 -13.526952743530273 3.554837465286255 0.9087651968002319 0 3
38.31071472167969 -13.79271411895752 3.534229040145874 0.25309261679649353 0 3
32.46163558959961 -12.017128944396973 3.0044169425964355 0.9943563342094421 0 3
31.5153751373291 -11.989569664001465 2.9266815185546875 0.6447230577468872 0 3
31.093496322631836 -12.14964771270752 2.8975138664245605 0.5158916115760803 0 3
28.397382736206055 -11.39101505279541 2.655693292617798 0.0927296131849289 0 3
27.732738494873047 -11.41445255279541 2.6030097007751465 0.6649357676506042 0 3
10.894071578979492 -4.598652362823486 1.0263580083847046 0.7659924626350403 0 6
27.13514518737793 -11.742441177368164 2.5662951469421387 0.8706409931182861 0 3
26.94060707092285 -11.946484565734863 2.557936429977417 0.9795805215835571 0 3
26.788192749023438 -12.167753219604492 2.5537309646606445 0.9811935424804688 0 3
26.68088150024414 -12.409140586853027 2.55401611328125 0.9903391003608704 0 3
26.569833755493164 -12.648788452148438 2.554152250289917 0.3055359721183777 0 3
20.574079513549805 -10.021952629089355 1.9863457679748535 0.9453194737434387 0 3
24.951873779296875 -12.43277359008789 2.419684410095215 0.32251548767089844 0 3
20.469417572021484 -10.4296875 1.9940019845962524 0.4752805531024933 0 3
20.082372665405273 -10.460585594177246 1.9653674364089966 0.7288188338279724 0 3
19.822444915771484 -10.552460670471191 1.9491198062896729 0.7348936796188354 0 3
19.610408782958984 -10.6665620803833 1.9376074075698853 0.91066575050354 0 3
19.43697166442871 -10.799433708190918 1.9299688339233398 0.9142690896987915 0 3
19.288419723510742 -10.944628715515137 1.9248968362808228 0.9929606318473816 0 3
17.27312469482422 -10.007128715515137 1.7326732873916626 0.08140923827886581 0 3
17.055850982666016 -10.086796760559082 1.719891905784607 0.39069923758506775 0 3
16.50221824645996 -9.960371017456055 1.6730120182037354 0.7700854539871216 0 3
16.292579650878906 -10.034472465515137 1.6608257293701172 0.7757381796836853 0 3
16.033876419067383 -10.0747652053833 1.6436114311218262 0.9343429207801819 0 3
16.006908416748047 -10.259355545043945 1.6502124071121216 0.9788586497306824 0 3
15.887357711791992 -10.385077476501465 1.6474322080612183 0.9805105924606323 0 3
15.768205642700195 -10.510390281677246 1.6447924375534058 0.982083797454834 0 3
15.649420738220215 -10.635332107543945 1.6422985792160034 0.9835779666900635 0 3
15.431979179382324 -10.69130802154541 1.6294841766357422 0.9967355132102966 0 3
15.403514862060547 -10.877480506896973 1.6367199420928955 0.944086492061615 0 3
15.352418899536133 -11.049257278442383 1.6417639255523682 0.9411866068840027 0 3
15.291349411010742 -11.21500015258789 1.6459258794784546 0.47917255759239197 0 3
14.946001052856445 -11.169413566589355 1.6194812059402466 0.48699742555618286 0 3
14.611533164978027 -11.125253677368164 1.5940051078796387 0.4947833716869354 0 3
14.247087478637695 -11.05117130279541 1.5650194883346558 0.8736215829849243 0 3
14.059496879577637 -11.109237670898438 1.555286169052124 0.5102335810661316 0 3
13.773573875427246 -11.085546493530273 1.5346038341522217 0.5178955793380737 0 3
13.454699516296387 -11.029375076293945 1.5100408792495728 0.5255196690559387 0 3
13.084378242492676 -10.923632621765137 1.4794280529022217 0.5331016182899475 0 3
12.804754257202148 -10.886698722839355 1.458803653717041 0.5406392216682434 0 3
12.532092094421387 -10.8501558303833 1.4387768507003784 0.8337326645851135 0 3
12.343997955322266 -10.882695198059082 1.428341031074524 0.5555766820907593 0 3
12.103131294250488 -10.864980697631836 1.4116979837417603 0.5629913806915283 0 3
11.85021686553955 -10.831582069396973 1.3934801816940308 0.5703509449958801 0 3
9.675207138061523 -9.004257202148438 1.1471776962280273 0.44344156980514526 0 3
9.545585632324219 -9.044862747192383 1.1413854360580444 0.8887680768966675 0 3
9.409239768981934 -9.077343940734863 1.1347826719284058 0.5921505093574524 0 3
9.184494018554688 -9.021074295043945 1.1174126863479614 0.5993227362632751 0 3
20.29242706298828 20.29244041442871 2.2526166439056396 0.6069356799125671 0 3
20.19783592224121 19.838476181030273 2.2222611904144287 0.6131484508514404 0 3
20.14407730102539 19.433534622192383 2.1970579624176025 0.6201798319816589 0 3
20.09151840209961 19.037616729736328 2.1726062297821045 0.6271615624427795 0 3
20.040109634399414 18.650390625 2.148857355117798 0.6340928077697754 0 3
19.989810943603516 18.271503448486328 2.1257879734039307 0.6409728527069092 0 3
19.94057273864746 17.900625228881836 2.103384256362915 0.6478015184402466 0 3
19.931379318237305 17.571874618530273 2.085709810256958 0.6537380814552307 0 3
12.97360610961914 11.232401847839355 1.347062349319458 0.968327522277832 0 6
19.914113998413086 16.93111228942871 2.0517351627349854 0.9950686693191528 0 3
20.056840896606445 16.744647979736328 2.050896644592285 0.9954873323440552 0 3
20.288249969482422 16.631093978881836 2.059194326400757 0.7271600961685181 0 3
20.610788345336914 16.588438034057617 2.076735258102417 0.7210182547569275 0 3
20.511842727661133 16.207616806030273 2.0520246028900146 0.10351170599460602 0 3
20.307153701782227 15.75185489654541 2.0173192024230957 0.10529252141714096 0 3
20.110397338867188 15.312108993530273 1.984039306640625 0.10705860704183578 0 3
19.921144485473633 14.887401580810547 1.9521081447601318 0.10881002247333527 0 3
19.738920211791992 14.47695255279541 1.9214348793029785 0.11054672300815582 0 3
19.56890869140625 14.083906173706055 1.892505407333374 0.1096353828907013 0 3
19.42996597290039 13.72085952758789 1.8670830726623535 0.11112818866968155 0 3
19.295753479003906 13.368144035339355 1.8425829410552979 0.11260595172643661 0 3
19.117294311523438 12.992109298706055 1.8143279552459717 0.09281370788812637 0 3
18.921369552612305 12.612167358398438 1.7849218845367432 0.11899851262569427 0 3
17.997350692749023 11.76431655883789 1.6877233982086182 0.7554687261581421 0 3
17.964086532592773 11.513769149780273 1.6748430728912354 0.761277973651886 0 3
17.931320190429688 11.266972541809082 1.6622936725616455 0.7670261859893799 0 3
17.89904022216797 11.023847579956055 1.6500622034072876 0.7727123498916626 0 3
17.867231369018555 10.784276962280273 1.6381384134292603 0.7783359289169312 0 3
17.877418518066406 10.572675704956055 1.6303069591522217 0.08397354930639267 0 3
17.973003387451172 10.41259765625 1.6304364204406738 0.7893948554992676 0 3
17.94222068786621 10.180781364440918 1.6192889213562012 0.794829249382019 0 3
17.897472381591797 9.944082260131836 1.607127070426941 0.9857493042945862 0 3
18.22444725036621 9.912734031677246 1.6284338235855103 0.5866557359695435 0 3
18.541915893554688 9.870780944824219 1.6488195657730103 0.5794031023979187 0 3
18.867448806762695 9.827773094177246 1.6698553562164307 0.5721040964126587 0 3
19.492094039916992 9.931718826293945 1.7171783447265625 0.5647580027580261 0 3
19.84010124206543 9.8857421875 1.7399487495422363 0.5573670864105225 0 3
20.197492599487305 9.83853530883789 1.7634764909744263 0.5499311089515686 0 3
20.564722061157227 9.789999961853027 1.7877941131591797 0.5424507260322571 0 3
20.942237854003906 9.740117073059082 1.812940001487732 0.5349267721176147 0 3
21.289974212646484 9.670371055603027 1.8354607820510864 0.5273593068122864 0 3
21.278589248657227 9.435722351074219 1.8270971775054932 0.8502882719039917 0 3
21.335662841796875 9.23275375366211 1.8247991800308228 0.9666364789009094 0 3
21.466720581054688 9.061601638793945 1.8289971351623535 0.9644240140914917 0 3
21.733659744262695 8.9453125 1.8448138236999512 0.4966709613800049 0 3
22.15993881225586 8.88900375366211 1.874151587486267 0.48889675736427307 0 3
22.600013732910156 8.830859184265137 1.904587984085083 0.4810834228992462 0 3
23.05466651916504 8.770800590515137 1.9361926317214966 0.4732311964035034 0 3
23.524702072143555 8.708730697631836 1.96902334690094 0.465340793132782 0 3
24.011003494262695 8.644492149353027 2.0031511783599854 0.4574127197265625 0 3
24.514490127563477 8.577987670898438 2.0386486053466797 0.44944795966148376 0 3
25.309452056884766 8.60195255279541 2.098253011703491 0.893532395362854 0 3
25.274364471435547 8.33773422241211 2.089059352874756 0.8974665403366089 0 3
25.23958396911621 8.075780868530273 2.0801048278808594 0.9013280868530273 0 3
25.20509147644043 7.816054344177246 2.0713963508605957 0.905117392539978 0 3
25.17089080810547 7.558456897735596 2.0629265308380127 0.9088335037231445 0 3
25.1369571685791 7.302968502044678 2.054687976837158 0.9124763011932373 0 3
25.103300094604492 7.049452781677246 2.0466840267181396 0.9160457849502563 0 3
25.069896697998047 6.797910213470459 2.038904905319214 0.9195412993431091 0 3
25.036739349365234 6.548261642456055 2.031346321105957 0.9229629635810852 0 3
25.00383186340332 6.30040979385376 2.024005651473999 0.9263100624084473 0 3
24.97115135192871 6.054355144500732 2.0168797969818115 0.9295826554298401 0 3
24.938703536987305 5.809960842132568 2.009967565536499 0.932780385017395 0 3
24.916107177734375 5.569414138793945 2.0040361881256104 0.9956297874450684 0 3
25.23136329650879 5.402538776397705 2.02541184425354 0.4701247811317444 0 3
25.71117401123047 5.264394283294678 2.060051918029785 0.46222013235092163 0 3
26.209028244018555 5.121660232543945 2.096173048019409 0.3175210952758789 0 3
26.975406646728516 5.020468711853027 2.1537773609161377 0.3090289533138275 0 3
28.32968521118164 5.009882926940918 2.258220672607422 0.08718130737543106 0 3
36.16171646118164 6.060683250427246 2.8780741691589355 0.2919708788394928 0 3
37.30910110473633 5.909199237823486 2.965052366256714 0.2834060490131378 0 3
43.7465705871582 -13.565741539001465 3.5951714515686035 0.9970768690109253 0 3
42.43790054321289 -13.578632354736328 3.4974920749664307 0.8190194964408875 0 3
39.36568832397461 -12.986308097839355 3.253772497177124 0.6102995276451111 0 3
38.88594436645508 -13.216249465942383 3.223806619644165 0.5540292859077454 0 3
38.66025924682617 -13.52783203125 3.21502423286438 0.9093255400657654 0 3
38.2994384765625 -13.788652420043945 3.1952502727508545 0.25336551666259766 0 3
32.10108947753906 -11.883671760559082 2.6868693828582764 0.3702174723148346 0 3
31.519405364990234 -11.991093635559082 2.6470837593078613 0.6450798511505127 0 3
31.023197174072266 -12.122187614440918 2.614441394805908 0.8531625270843506 0 3
28.314647674560547 -11.357831954956055 2.394679546356201 0.997200071811676 0 3
27.79298973083496 -11.439237594604492 2.3591508865356445 0.6653203368186951 0 3
10.894614219665527 -4.598866939544678 0.9282336235046387 0.7664762139320374 0 6
27.18034553527832 -11.761991500854492 2.3246960639953613 0.8711554408073425 0 3
26.98004150390625 -11.963964462280273 2.316654682159424 0.9802053570747375 0 3
26.827402114868164 -12.185565948486328 2.312847852706909 0.9818188548088074 0 3
26.72440528869629 -12.429374694824219 2.3134942054748535 0.9867392182350159 0 3
25.746435165405273 -12.256776809692383 2.238267660140991 0.9472822546958923 0 3
25.75188446044922 -12.544140815734863 2.2484374046325684 0.3156547546386719 0 3
24.96772003173828 -12.440683364868164 2.1896331310272217 0.32413250207901 0 3
20.376468658447266 -10.382343292236328 1.7950891256332397 0.47551652789115906 0 3
20.08465003967285 -10.461776733398438 1.7775824069976807 0.7292328476905823 0 3
19.82468032836914 -10.553651809692383 1.7628862857818604 0.7353121042251587 0 3
19.562110900878906 -10.640312194824219 1.7479608058929443 0.9112206101417542 0 3
19.38909149169922 -10.772811889648438 1.741068720817566 0.9148190021514893 0 3
19.303205490112305 -10.953007698059082 1.7421166896820068 0.07326852530241013 0 3
17.319442749023438 -10.033945083618164 1.5711504220962524 0.9695236086845398 0 3
17.059720993041992 -10.089062690734863 1.555735468864441 0.3908770978450775 0 3
16.503978729248047 -9.96142578125 1.5131524801254272 0.7705278396606445 0 3
16.294322967529297 -10.035527229309082 1.5021276473999023 0.7761837244033813 0 3
16.035058975219727 -10.075468063354492 1.486507534980774 0.9349109530448914 0 3
16.00787353515625 -10.259961128234863 1.4924602508544922 0.9794667363166809 0 3
15.888312339782715 -10.385703086853027 1.4899474382400513 0.9811198711395264 0 3
15.769145011901855 -10.511034965515137 1.4875597953796387 0.9826942682266235 0 3
15.650348663330078 -10.635976791381836 1.485298991203308 0.9841893911361694 0 3
15.43272876739502 -10.691816329956055 1.473690152168274 0.9973670244216919 0 3
15.403886795043945 -10.877734184265137 1.4802019596099854 0.9447075724601746 0 3
15.352785110473633 -11.049530982971191 1.4847649335861206 0.9418054819107056 0 3
15.294145584106445 -11.217069625854492 1.4887664318084717 0.47941142320632935 0 3
14.948702812194824 -11.171425819396973 1.4648431539535522 0.4872412085533142 0 3
14.614154815673828 -11.127245903015137 1.4417986869812012 0.4950319230556488 0 3
14.247550964355469 -11.051523208618164 1.4153027534484863 0.8741892576217651 0 3
14.061933517456055 -11.111151695251465 1.4067529439926147 0.510528028011322 0 3
13.775915145874023 -11.087421417236328 1.3880560398101807 0.5181586742401123 0 3
13.456954956054688 -11.031229972839355 1.3658379316329956 0.5257900953292847 0 3
13.086548805236816 -10.925429344177246 1.3381439447402954 0.5333766937255859 0 3
12.806838989257812 -10.888476371765137 1.3194897174835205 0.5409195423126221 0 3
12.532248497009277 -10.850332260131836 1.3011748790740967 0.8342898488044739 0 3
12.345949172973633 -10.884413719177246 1.29192316532135 0.5558739900588989 0 3
12.086637496948242 -10.8501558303833 1.274929165840149 0.5632832646369934 0 3
11.83403491973877 -10.816777229309082 1.258473515510559 0.5706496238708496 0 3
9.925337791442871 -9.237030982971191 1.06427001953125 0.145924910902977 0 3
9.545839309692383 -9.045097351074219 1.0322442054748535 0.8893515467643738 0 3
9.410639762878418 -9.0786714553833 1.0263922214508057 0.5924649834632874 0 3
9.185847282409668 -9.022382736206055 1.010667085647583 0.5996430516242981 0 3
20.2927188873291 20.292753219604492 2.0147082805633545 0.6072989106178284 0 3
20.198131561279297 19.838769912719727 1.9875560998916626 0.6135150790214539 0 3
20.144367218017578 19.433807373046875 1.9650170803070068 0.6205511689186096 0 3
20.09180450439453 19.03788948059082 1.9431408643722534 0.6275368332862854 0 3
20.04039192199707 18.650644302368164 1.9219030141830444 0.6344724297523499 0 3
19.990087509155273 18.271757125854492 1.90127432346344 0.6413570642471313 0 3
19.94084930419922 17.900859832763672 1.8812310695648193 0.6481900811195374 0 3
19.93164825439453 17.57210922241211 1.8654210567474365 0.6541300415992737 0 3
12.97249984741211 11.231464385986328 1.204744815826416 0.9690035581588745 0 6
19.912988662719727 16.93017578125 1.834908366203308 0.9957349300384521 0 3
19.588403701782227 16.353553771972656 1.7914074659347534 0.10611139982938766 0 3
19.400814056396484 15.903632164001465 1.7611266374588013 0.1079358235001564 0 3
18.402015686035156 14.810722351074219 1.6583226919174194 0.6880699396133423 0 3
18.3619384765625 14.5088472366333 1.642910122871399 0.6945254802703857 0 3
18.322589874267578 14.212480545043945 1.6279064416885376 0.700925350189209 0 3
18.28394889831543 13.9214448928833 1.6133086681365967 0.707269012928009 0 3
18.245990753173828 13.635565757751465 1.5990935564041138 0.7135556936264038 0 3
18.367687225341797 13.471288681030273 1.5990984439849854 0.07661622017621994 0 3
18.343547821044922 13.20199203491211 1.5866155624389648 0.7259553670883179 0 3
18.307165145874023 12.927988052368164 1.5733685493469238 0.7320675253868103 0 3
18.271381378173828 12.658456802368164 1.560465693473816 0.7381212711334229 0 3
18.236175537109375 12.393320083618164 1.5478954315185547 0.7441150546073914 0 3
18.201528549194336 12.132363319396973 1.535646915435791 0.750049352645874 0 3
18.16742706298828 11.87548828125 1.5237200260162354 0.7559232711791992 0 3
18.13384437561035 11.62255859375 1.5120885372161865 0.7617359757423401 0 3
18.10076904296875 11.373476028442383 1.5007586479187012 0.767487108707428 0 3
18.06818389892578 11.128046989440918 1.489715576171875 0.7731766700744629 0 3
18.036069869995117 10.886171340942383 1.4789526462554932 0.7788042426109314 0 3
18.00441551208496 10.647772789001465 1.4684594869613647 0.7843687534332275 0 3
17.973203659057617 10.412714958190918 1.4582306146621704 0.7898702621459961 0 3
18.02119255065918 10.225565910339355 1.45461905002594 0.795307993888855 0 3
18.14857292175293 10.083593368530273 1.4575353860855103 0.5943127870559692 0 3
18.497541427612305 10.061269760131836 1.4782507419586182 0.587103009223938 0 3
18.819719314575195 10.018671989440918 1.4967485666275024 0.5798463225364685 0 3
19.150104522705078 9.974980354309082 1.515844702720642 0.5725424885749817 0 3
19.489042282104492 9.93017578125 1.5355541706085205 0.5651927590370178 0 3
19.83696174621582 9.88417911529541 1.555914282798767 0.5577971339225769 0 3
20.194259643554688 9.836933135986328 1.5769506692886353 0.5503565073013306 0 3
20.561368942260742 9.788397789001465 1.5986895561218262 0.5428717732429504 0 3
20.938798904418945 9.738515853881836 1.621174931526184 0.535342812538147 0 3
21.286407470703125 9.668749809265137 1.6412999629974365 0.5277710556983948 0 3
21.278810501098633 9.435819625854492 1.6341192722320557 0.8508011698722839 0 3
21.334423065185547 9.232226371765137 1.6319574117660522 0.9672853350639343 0 3
21.465478897094727 9.0610933303833 1.6357007026672363 0.9650716185569763 0 3
21.729806900024414 8.943710327148438 1.6496562957763672 0.49706360697746277 0 3
22.155925750732422 8.887402534484863 1.675881266593933 0.48928508162498474 0 3
22.59587287902832 8.82925796508789 1.7030962705612183 0.4814666509628296 0 3
23.05036735534668 8.769179344177246 1.7313482761383057 0.47360965609550476 0 3
23.520246505737305 8.707070350646973 1.760703682899475 0.46571436524391174 0 3
24.006372451782227 8.642831802368164 1.7912145853042603 0.45778146386146545 0 3
24.509689331054688 8.576308250427246 1.8229509592056274 0.4498116374015808 0 3
25.309703826904297 8.60205078125 1.8766350746154785 0.8940715193748474 0 3
25.274616241455078 8.337812423706055 1.8684087991714478 0.898007869720459 0 3
25.23982810974121 8.075859069824219 1.8604040145874023 0.9018720388412476 0 3
25.205341339111328 7.816112995147705 1.8526147603988647 0.9056634902954102 0 3
25.1711368560791 7.558554649353027 1.8450384140014648 0.9093818068504333 0 3
25.1372013092041 7.30300760269165 1.8376744985580444 0.9130271673202515 0 3
25.10354232788086 7.049530982971191 1.8305144309997559 0.9165986776351929 0 3
25.07013702392578 6.79796838760376 1.8235546350479126 0.9200965166091919 0 3
25.03697967529297 6.548300743103027 1.8167937994003296 0.9235202074050903 0 3
25.004074096679688 6.300468444824219 1.8102282285690308 0.92686927318573 0 3
24.971393585205078 6.054394245147705 1.8038549423217773 0.9301437735557556 0 3
24.938941955566406 5.810019493103027 1.7976702451705933 0.9333435893058777 0 3
24.915660858154297 5.569316387176514 1.7923181056976318 0.9962583184242249 0 3
25.22675323486328 5.401562213897705 1.8111376762390137 0.47049909830093384 0 3
25.70640754699707 5.263398170471191 1.8421050310134888 0.4625888466835022 0 3
26.20279312133789 5.120449066162109 1.8743090629577637 0.45464199781417847 0 3
26.96770477294922 5.01904296875 1.9257231950759888 0.3093067407608032 0 3
28.301183700561523 5.004824161529541 2.017653703689575 0.08732251077890396 0 3
36.150814056396484 6.05886697769165 2.5732884407043457 0.2922380268573761 0 3
37.297542572021484 5.907362937927246 2.651041269302368 0.28366777300834656 0 3
26.177785873413086 -0.11748046427965164 1.8377758264541626 0.9893501400947571 1151 15
26.146324157714844 -0.35203123092651367 1.8357170820236206 0.9904605746269226 1151 15
26.114931106567383 -0.5861132740974426 1.8338067531585693 0.9914916157722473 1151 15
26.08360481262207 -0.8197070360183716 1.8320488929748535 0.9924424290657043 1151 15
28.028953552246094 -1.132753849029541 1.969319462776184 0.09184083342552185 1151 15
43.74755859375 -13.566054344177246 3.2154765129089355 0.9976657629013062 0 3
42.44145965576172 -13.579784393310547 3.128322124481201 0.8194533586502075 0 3
39.37101364135742 -12.988085746765137 2.9104766845703125 0.6105912327766418 0 3
38.882022857666016 -13.2149019241333 2.882985830307007 0.554425060749054 0 3
38.66276931762695 -13.52871036529541 2.875617027282715 0.9098241329193115 0 3
38.288169860839844 -13.784608840942383 2.8569018840789795 0.25359517335891724 0 3
32.04716491699219 -11.863710403442383 2.3990209102630615 0.9972547292709351 0 3
31.44845199584961 -11.96410083770752 2.3621439933776855 0.6453824639320374 0 3
28.31061553955078 -11.062246322631836 2.1338305473327637 0.9657909870147705 0 3
28.448617935180664 -11.411581993103027 2.1518688201904297 0.09266820549964905 0 3
27.865882873535156 -11.46923828125 2.1154870986938477 0.665625810623169 0 3
10.895151138305664 -4.599101543426514 0.8302270174026489 0.7669088244438171 0 6
27.235118865966797 -11.7857027053833 2.0833330154418945 0.8716312646865845 0 3
27.0279541015625 -11.985234260559082 2.0756304264068604 0.9807566404342651 0 3
26.875030517578125 -12.207226753234863 2.0722179412841797 0.9823715686798096 0 3
26.77113914489746 -12.451093673706055 2.072740316390991 0.9871311783790588 0 3
26.694583892822266 -12.70816421508789 2.0755631923675537 0.9857895374298096 0 3
25.910890579223633 -12.62158203125 2.0233545303344727 0.31568020582199097 0 3
24.99793243408203 -12.45572280883789 1.9607152938842773 0.32688048481941223 0 3
20.765235900878906 -10.58041000366211 1.6361078023910522 0.33261945843696594 0 3
20.086915969848633 -10.4629487991333 1.589998722076416 0.729597806930542 0 3
19.82689666748047 -10.554823875427246 1.576849341392517 0.7356802225112915 0 3
19.61819076538086 -10.67080020904541 1.5678057670593262 0.40560808777809143 0 3
19.537649154663086 -10.85537052154541 1.5690953731536865 0.9662266373634338 0 3
19.395193099975586 -11.00521469116211 1.565523624420166 0.9684303402900696 0 3
17.31984519958496 -10.034198760986328 1.4052202701568604 0.9700954556465149 0 3
17.027374267578125 -10.069941520690918 1.3887677192687988 0.06487887352705002 0 3
16.505746841430664 -9.962499618530273 1.3534637689590454 0.7709176540374756 0 3
16.296051025390625 -10.036601066589355 1.3436028957366943 0.7765771746635437 0 3
16.036231994628906 -10.076210975646973 1.3295714855194092 0.9354156255722046 0 3
16.00883674621582 -10.260565757751465 1.3348925113677979 0.9800084233283997 0 3
15.889269828796387 -10.386327743530273 1.3326458930969238 0.9816626906394958 0 3
15.770092010498047 -10.511659622192383 1.3305089473724365 0.9832378625869751 0 3
15.651298522949219 -10.636601448059082 1.3284893035888672 0.9847339391708374 0 3
15.43346881866455 -10.692323684692383 1.3180902004241943 0.997930645942688 0 3
15.404253005981445 -10.878026962280273 1.3238848447799683 0.9452640414237976 0 3
15.353154182434082 -11.049784660339355 1.327962040901184 0.942360520362854 0 3
15.296972274780273 -11.219120979309082 1.3317644596099854 0.47961685061454773 0 3
14.951398849487305 -11.173457145690918 1.3103508949279785 0.48745203018188477 0 3
14.616755485534668 -11.129218101501465 1.2897313833236694 0.4952475130558014 0 3
14.248003005981445 -11.051894187927246 1.265913724899292 0.8746967911720276 0 3
14.06435489654541 -11.113065719604492 1.2583880424499512 0.5107177495956421 0 3
13.735929489135742 -11.055253982543945 1.2378332614898682 0.5580437183380127 0 3
13.45920181274414 -11.033065795898438 1.221771240234375 0.5260251760482788 0 3
13.088706016540527 -10.927226066589355 1.1969964504241943 0.53361576795578 0 3
12.808918952941895 -10.890233993530273 1.180303931236267 0.5411633849143982 0 3
12.53240966796875 -10.850448608398438 1.1637475490570068 0.8347913026809692 0 3
12.348292350769043 -10.886484146118164 1.1557214260101318 0.8892903923988342 0 3
12.039496421813965 -10.807831764221191 1.1358098983764648 0.5635403990745544 0 3
11.835864067077637 -10.818437576293945 1.1257171630859375 0.5709124803543091 0 3
