ply
format ascii 1.0
element vertex 613
property float32 x
property float32 y
property float32 z
property float32 CosAngle
property uint32 ObjIdx
property uint32 ObjTag
end_header
6.923320293426514 -6.800136566162109 3.623706340789795 0.7616477012634277 0 3
6.87072229385376 -6.809316158294678 3.612135171890259 0.7640876173973083 0 3
22.032733917236328 -6.187187194824219 8.114699363708496 0.40593793988227844 0 3
21.862285614013672 -6.245292663574219 8.062155723571777 0.41016262769699097 0 3
21.63343620300293 -6.285136699676514 7.988101482391357 0.4139649569988251 0 3
21.40882682800293 -6.324179649353027 7.915554046630859 0.4177588224411011 0 3
21.188201904296875 -6.362519264221191 7.844471454620361 0.42154252529144287 0 3
20.97913932800293 -6.402558326721191 7.777634143829346 0.441291481256485 0 3
20.77457046508789 -6.44216775894165 7.712425231933594 0.44502243399620056 0 3
20.56685447692871 -6.479062557220459 7.646024227142334 0.4186347723007202 0 3
20.355350494384766 -6.513007640838623 7.578190803527832 0.42238226532936096 0 3
20.147558212280273 -6.546347618103027 7.511702537536621 0.4261208176612854 0 3
19.89275360107422 -6.562382698059082 7.427595138549805 0.4942808151245117 0 3
19.71662139892578 -6.6025390625 7.37281608581543 0.4979533851146698 0 3
19.54296875 -6.64208984375 7.318965911865234 0.5016171336174011 0 3
19.371854782104492 -6.681054592132568 7.266025066375732 0.505271852016449 0 3
19.21160125732422 -6.722421646118164 7.217171669006348 0.5505527257919312 0 3
19.062538146972656 -6.766425609588623 7.172502517700195 0.553981363773346 0 3
18.91517448425293 -6.809882640838623 7.128494739532471 0.5574014782905579 0 3
18.769590377807617 -6.852753639221191 7.085136413574219 0.5608124136924744 0 3
18.6046085357666 -6.887304306030273 7.034459114074707 0.47440966963768005 0 3
18.431718826293945 -6.917500019073486 6.980751991271973 0.47805970907211304 0 3
18.26140594482422 -6.947285175323486 6.927992820739746 0.48170006275177 0 3
18.093671798706055 -6.9765625 6.876164436340332 0.4853309392929077 0 3
17.928436279296875 -7.005429744720459 6.82524299621582 0.48895180225372314 0 3
17.76558494567871 -7.033886432647705 6.775203704833984 0.4925628900527954 0 3
17.424100875854492 -6.989277362823486 6.656867504119873 0.5002068877220154 0 3
17.26839828491211 -7.016952991485596 6.609342098236084 0.49309882521629333 0 3
17.208574295043945 -7.08279275894165 6.598544597625732 0.7967783212661743 0 3
17.11443328857422 -7.134023189544678 6.574661731719971 0.38634103536605835 0 3
16.934589385986328 -7.1484375 6.517827987670898 0.5171183347702026 0 3
16.78706932067871 -7.175156116485596 6.473398208618164 0.520668089389801 0 3
16.64156150817871 -7.20144510269165 6.42968225479126 0.5242075324058533 0 3
16.497987747192383 -7.227421760559082 6.3866868019104 0.5277367234230042 0 3
16.356386184692383 -7.253026962280273 6.344388484954834 0.5312551259994507 0 3
16.216562271118164 -7.2783203125 6.302773475646973 0.5347629189491272 0 3
16.07861328125 -7.303242206573486 6.261823654174805 0.5382600426673889 0 3
15.943553924560547 -7.32839822769165 6.221972465515137 0.6555843353271484 0 3
15.684062004089355 -7.294569969177246 6.133426189422607 0.5465944409370422 0 3
15.55322265625 -7.318769454956055 6.095034122467041 0.5500367283821106 0 3
15.49349594116211 -7.375781059265137 6.08453369140625 0.7685264945030212 0 3
5.911230564117432 -2.8466992378234863 2.3264291286468506 0.5577029585838318 0 6
5.880663871765137 -2.864550828933716 2.319486379623413 0.9309722781181335 0 6
5.869570255279541 -2.891796827316284 2.3200862407684326 0.9041321873664856 0 6
5.883066177368164 -2.9313671588897705 2.3306686878204346 0.44951289892196655 0 6
14.955976486206055 -7.536054611206055 5.938368797302246 0.5626051425933838 0 3
14.832655906677246 -7.5576171875 5.902821063995361 0.5659933686256409 0 3
14.710820198059082 -7.578906059265137 5.867815971374512 0.5693700313568115 0 3
14.428241729736328 -7.515429496765137 5.76849365234375 0.5732969045639038 0 3
14.310683250427246 -7.536035060882568 5.734963417053223 0.5766489505767822 0 3
14.193085670471191 -7.5556640625 5.701364517211914 0.5733732581138611 0 3
14.184863090515137 -7.633183479309082 5.711763858795166 0.7406702637672424 0 3
14.10677719116211 -7.673007488250732 5.694128513336182 0.5860800743103027 0 3
13.993242263793945 -7.692831993103027 5.662181377410889 0.5893868207931519 0 3
13.880995750427246 -7.712441444396973 5.630706787109375 0.5926815867424011 0 3
13.769941329956055 -7.731855392456055 5.599688529968262 0.5959645509719849 0 3
13.66015625 -7.751015663146973 5.569125652313232 0.5992351174354553 0 3
13.55150318145752 -7.769999980926514 5.539000034332275 0.6024945378303528 0 3
13.44408130645752 -7.788769245147705 5.509314060211182 0.6057406663894653 0 3
13.337773323059082 -7.807323932647705 5.480051040649414 0.6089750528335571 0 3
13.23257827758789 -7.825703144073486 5.451210975646973 0.6121974587440491 0 3
12.99746036529541 -7.765625 5.368664264678955 0.6150745153427124 0 3
10.161386489868164 -6.133203029632568 4.208531856536865 0.6186047792434692 0 3
10.08187484741211 -6.147070407867432 4.186975479125977 0.6217890977859497 0 3
10.003125190734863 -6.160859107971191 4.1657209396362305 0.6249618530273438 0 3
9.925214767456055 -6.174452781677246 4.144766330718994 0.6281217336654663 0 3
9.848066329956055 -6.187910079956055 4.12410306930542 0.6312688589096069 0 3
9.791444778442383 -6.213828086853027 4.112033843994141 0.696945309638977 0 3
9.803593635559082 -6.283456802368164 4.128941059112549 0.6940916180610657 0 3
9.74429702758789 -6.307323932647705 4.11584997177124 0.6406339406967163 0 3
9.669159889221191 -6.320448875427246 4.096056938171387 0.6437299251556396 0 3
9.594765663146973 -6.333417892456055 4.076531410217285 0.646813154220581 0 3
9.5210542678833 -6.346289157867432 4.057278156280518 0.6498824954032898 0 3
9.448007583618164 -6.359081745147705 4.0382819175720215 0.6529396772384644 0 3
9.375702857971191 -6.37169885635376 4.019545078277588 0.6559830904006958 0 3
9.304022789001465 -6.384238243103027 4.001060485839844 0.6590138077735901 0 3
9.233027458190918 -6.396620750427246 3.9828274250030518 0.6620302200317383 0 3
9.043242454528809 -6.325429439544678 3.9131813049316406 0.6690650582313538 0 3
8.974687576293945 -6.337616920471191 3.89577054977417 0.6720554828643799 0 3
8.906699180603027 -6.349687576293945 3.8785927295684814 0.6750316619873047 0 3
8.839316368103027 -6.361679553985596 3.8616409301757812 0.6779949069023132 0 3
8.772480010986328 -6.373593807220459 3.8449110984802246 0.6809448599815369 0 3
8.706289291381836 -6.385351657867432 3.8284053802490234 0.6838803887367249 0 3
8.640585899353027 -6.397031307220459 3.8121144771575928 0.6868032813072205 0 3
8.575469017028809 -6.408593654632568 3.7960383892059326 0.6897119879722595 0 3
8.510937690734863 -6.420058250427246 3.7801730632781982 0.6926062703132629 0 3
8.446894645690918 -6.431445121765137 3.764514923095703 0.695487380027771 0 3
8.383398056030273 -6.442714691162109 3.749060869216919 0.6983539462089539 0 3
8.320390701293945 -6.453925609588623 3.7338051795959473 0.70120769739151 0 3
8.257890701293945 -6.465019226074219 3.7187507152557373 0.7040458917617798 0 3
8.195918083190918 -6.476035118103027 3.7038893699645996 0.7068710327148438 0 3
8.149999618530273 -6.499394416809082 3.6962850093841553 0.33436548709869385 0 3
8.120741844177246 -6.535898208618164 3.6962850093841553 0.33436211943626404 0 3
8.091327667236328 -6.572285175323486 3.6962857246398926 0.3343620300292969 0 3
7.951757431030273 -6.518320083618164 3.645843744277954 0.709050178527832 0 3
7.891425609588623 -6.528359413146973 3.6315884590148926 0.7118332386016846 0 3
7.831582069396973 -6.538280963897705 3.6175215244293213 0.7146018147468567 0 3
7.772206783294678 -6.548105239868164 3.6036317348480225 0.7173559665679932 0 3
7.761796474456787 -6.59912109375 3.612499713897705 0.6022263765335083 0 3
7.756249904632568 -6.654609203338623 3.623776435852051 0.7276255488395691 0 3
7.697929382324219 -6.664784908294678 3.610470771789551 0.7303067445755005 0 3
7.640078067779541 -6.674882888793945 3.597339153289795 0.7329726219177246 0 3
7.582597255706787 -6.684921741485596 3.5843708515167236 0.7356248497962952 0 3
7.525546550750732 -6.694882869720459 3.5715694427490234 0.738261342048645 0 3
7.468886375427246 -6.704784870147705 3.5589308738708496 0.7408835887908936 0 3
7.412656307220459 -6.714609146118164 3.546452283859253 0.74349045753479 0 3
7.356777191162109 -6.724374771118164 3.5341298580169678 0.7460824847221375 0 3
7.301328182220459 -6.734062194824219 3.521967887878418 0.7486591339111328 0 3
7.24621057510376 -6.743710994720459 3.5099551677703857 0.7512211799621582 0 3
7.19152307510376 -6.753242015838623 3.4980995655059814 0.7537672519683838 0 3
7.137148380279541 -6.762753963470459 3.486388683319092 0.7562987804412842 0 3
7.083202838897705 -6.772167682647705 3.4748263359069824 0.7588149309158325 0 3
7.029550552368164 -6.781562328338623 3.4634132385253906 0.7613157033920288 0 3
6.976269245147705 -6.790859222412109 3.452143669128418 0.7638015747070312 0 3
6.92333984375 -6.800097465515137 3.441014528274536 0.7662714719772339 0 3
6.870761394500732 -6.809277057647705 3.430025815963745 0.7687262892723083 0 3
22.269062042236328 -6.145898342132568 7.761721134185791 0.40522366762161255 0 3
22.031641006469727 -6.186894416809082 7.688568115234375 0.40557757019996643 0 3
21.859941482543945 -6.244668006896973 7.638351917266846 0.41256681084632874 0 3
21.63117218017578 -6.284472465515137 7.568195819854736 0.4163891673088074 0 3
21.406600952148438 -6.32351541519165 7.499466419219971 0.42020508646965027 0 3
21.136972427368164 -6.347148418426514 7.414919376373291 0.47184839844703674 0 3
20.94202995300293 -6.391191482543945 7.356515884399414 0.47559410333633423 0 3
20.750078201293945 -6.434550762176514 7.299153804779053 0.47933170199394226 0 3
20.561016082763672 -6.477226257324219 7.242809772491455 0.48306071758270264 0 3
20.393436431884766 -6.525195121765137 7.19401741027832 0.5263575911521912 0 3
20.229473114013672 -6.572948932647705 7.146508693695068 0.5298573970794678 0 3
20.06753921508789 -6.620038986206055 7.099730014801025 0.5333482027053833 0 3
19.89417839050293 -6.661992073059082 7.048900127410889 0.4511796534061432 0 3
19.700897216796875 -6.695761680603027 6.990998268127441 0.4549165964126587 0 3
19.510780334472656 -6.728984355926514 6.934180736541748 0.45864391326904297 0 3
19.323749542236328 -6.761660099029541 6.878411769866943 0.4623625874519348 0 3
19.139667510986328 -6.793808460235596 6.823674201965332 0.4660716652870178 0 3
18.95849609375 -6.825448989868164 6.769933700561523 0.469771146774292 0 3
18.58720588684082 -6.786171913146973 6.648165225982666 0.4773145914077759 0 3
18.414569854736328 -6.816953182220459 6.597295761108398 0.4809950888156891 0 3
18.244569778442383 -6.84728479385376 6.547328948974609 0.48466554284095764 0 3
18.077070236206055 -6.877148151397705 6.498238563537598 0.4883267879486084 0 3
17.912090301513672 -6.906581878662109 6.450015544891357 0.49197807908058167 0 3
17.877147674560547 -6.985410213470459 6.448652267456055 0.31864798069000244 0 3
17.78546905517578 -7.041757583618164 6.426919937133789 0.49539798498153687 0 3
17.42851448059082 -6.991093635559082 6.309208869934082 0.49227088689804077 0 3
17.26953125 -7.017460823059082 6.262992858886719 0.49590325355529785 0 3
17.20849609375 -7.08279275894165 6.252321720123291 0.80136638879776 0 3
17.13115119934082 -7.141035079956055 6.235794544219971 0.3881853520870209 0 3
16.94609260559082 -7.153339862823486 6.180064678192139 0.5197404026985168 0 3
16.798418045043945 -7.179999828338623 6.137902736663818 0.5233108997344971 0 3
16.652753829956055 -7.206308364868164 6.096419334411621 0.526870846748352 0 3
16.509042739868164 -7.232245922088623 6.055635929107666 0.5304200053215027 0 3
16.367206573486328 -7.2578125 6.0155029296875 0.5339586734771729 0 3
16.227245330810547 -7.283105373382568 5.97601318359375 0.5374870300292969 0 3
16.089101791381836 -7.308007717132568 5.937159061431885 0.5410043001174927 0 3
15.952792167663574 -7.332616806030273 5.898929119110107 0.5445107221603394 0 3
15.685077667236328 -7.295019149780273 5.811981201171875 0.5497057437896729 0 3
15.553398132324219 -7.318867206573486 5.775308609008789 0.5447909832000732 0 3
15.493456840515137 -7.37576150894165 5.765268325805664 0.7729517221450806 0 3
5.910780906677246 -2.846484422683716 2.204200029373169 0.5609553456306458 0 6
5.880410194396973 -2.8644139766693115 2.197675943374634 0.9363747239112854 0 6
5.869277000427246 -2.891679525375366 2.198375701904297 0.9093732237815857 0 6
5.882538795471191 -2.9310741424560547 2.2081844806671143 0.4521404206752777 0 6
14.955878257751465 -7.536054611206055 5.626776218414307 0.5658460855484009 0 3
14.832616806030273 -7.557558536529541 5.593095779418945 0.5692532658576965 0 3
14.71078109741211 -7.578866958618164 5.559925556182861 0.5726490020751953 0 3
14.428339958190918 -7.515468597412109 5.465866565704346 0.576593279838562 0 3
14.310800552368164 -7.536093711853027 5.434096336364746 0.5799642205238342 0 3
14.193944931030273 -7.556132793426514 5.4025559425354 0.5766386389732361 0 3
14.184823989868164 -7.633163928985596 5.412067890167236 0.7449352145195007 0 3
14.106738090515137 -7.672948837280273 5.395351409912109 0.589455783367157 0 3
13.993203163146973 -7.692812442779541 5.365081787109375 0.5927815437316895 0 3
13.880937576293945 -7.712421894073486 5.335256099700928 0.5960952639579773 0 3
13.76992130279541 -7.731816291809082 5.305867671966553 0.5993971228599548 0 3
13.660117149353027 -7.7509765625 5.276904106140137 0.6026866436004639 0 3
13.551484107971191 -7.769980430603027 5.248363971710205 0.605963945388794 0 3
13.44400405883789 -7.788730144500732 5.220236778259277 0.609229564666748 0 3
13.337714195251465 -7.807284832000732 5.192509651184082 0.6124824285507202 0 3
13.232539176940918 -7.82568359375 5.165180683135986 0.6157232522964478 0 3
12.997538566589355 -7.765664100646973 5.0870137214660645 0.6186109185218811 0 3
10.161347389221191 -6.133163928985596 3.98771071434021 0.6221672892570496 0 3
10.081835746765137 -6.147070407867432 3.9672818183898926 0.6253706216812134 0 3
10.00308609008789 -6.160820007324219 3.947143077850342 0.6285614967346191 0 3
9.925175666809082 -6.17443323135376 3.9272871017456055 0.6317868232727051 0 3
9.848027229309082 -6.187890529632568 3.9077115058898926 0.6349520683288574 0 3
9.791425704956055 -6.213788986206055 3.896275758743286 0.7009583115577698 0 3
9.803573608398438 -6.283417701721191 3.912281036376953 0.6980885863304138 0 3
9.744257926940918 -6.307284832000732 3.899890899658203 0.6443228721618652 0 3
9.669120788574219 -6.320410251617432 3.881133556365967 0.6474368572235107 0 3
9.594745635986328 -6.333398342132568 3.862635612487793 0.6505377292633057 0 3
9.521035194396973 -6.346269607543945 3.844391107559204 0.6536248922348022 0 3
9.447988510131836 -6.359062194824219 3.8263919353485107 0.6566996574401855 0 3
9.375663757324219 -6.371679782867432 3.8086347579956055 0.6597607135772705 0 3
9.303984642028809 -6.384199142456055 3.7911219596862793 0.6628086566925049 0 3
9.2329683303833 -6.39660120010376 3.7738442420959473 0.6658432483673096 0 3
9.044023513793945 -6.325937271118164 3.7081727981567383 0.6758929491043091 0 3
8.97597599029541 -6.338554382324219 3.6919050216674805 0.6788713932037354 0 3
8.908514976501465 -6.351015567779541 3.6758480072021484 0.6818371415138245 0 3
8.843183517456055 -6.364472389221191 3.660637378692627 0.6625582575798035 0 3
8.855292320251465 -6.433691024780273 3.6775593757629395 0.6595092415809631 0 3
8.83251953125 -6.477949142456055 3.680152177810669 0.6837666630744934 0 3
8.765703201293945 -6.489628791809082 3.6643989086151123 0.6867059469223022 0 3
8.699453353881836 -6.501210689544678 3.6488540172576904 0.6896313428878784 0 3
8.633710861206055 -6.512675762176514 3.6335110664367676 0.6925433278083801 0 3
8.568534851074219 -6.524062156677246 3.618372917175293 0.6954412460327148 0 3
8.503886222839355 -6.535370826721191 3.603430986404419 0.6983249187469482 0 3
8.43984317779541 -6.546542644500732 3.588683605194092 0.7011941075325012 0 3
8.376269340515137 -6.557656288146973 3.5741305351257324 0.7040495872497559 0 3
8.313163757324219 -6.568691253662109 3.5597634315490723 0.7068915367126465 0 3
8.250624656677246 -6.579609394073486 3.5455849170684814 0.709717869758606 0 3
8.188573837280273 -6.59044885635376 3.531587839126587 0.7125308513641357 0 3
8.126992225646973 -6.60119104385376 3.5177724361419678 0.7153292894363403 0 3
7.952128887176514 -6.518651962280273 3.454721212387085 0.7130969166755676 0 3
7.891816139221191 -6.528652191162109 3.441213607788086 0.7158958315849304 0 3
7.831972599029541 -6.538554668426514 3.4278810024261475 0.7186803221702576 0 3
7.772597312927246 -6.548418045043945 3.4147188663482666 0.7214507460594177 0 3
7.761777400970459 -6.599101543426514 3.4229488372802734 0.6056948304176331 0 3
7.756230354309082 -6.654589653015137 3.43363356590271 0.7318156957626343 0 3
7.697890281677246 -6.664765357971191 3.421029806137085 0.7345125079154968 0 3
7.640058517456055 -6.674863338470459 3.408585548400879 0.737193763256073 0 3
7.582578182220459 -6.684902191162109 3.3962996006011963 0.7398611903190613 0 3
7.525527000427246 -6.694902420043945 3.384168863296509 0.7425127625465393 0 3
7.468847274780273 -6.704784870147705 3.3721914291381836 0.7451501488685608 0 3
7.41259765625 -6.714609146118164 3.360367774963379 0.7477720975875854 0 3
7.356738090515137 -6.72439432144165 3.34869647026062 0.7503782510757446 0 3
7.301289081573486 -6.734062194824219 3.3371686935424805 0.7529705166816711 0 3
7.246191024780273 -6.743691444396973 3.3257875442504883 0.7555463910102844 0 3
7.191464900970459 -6.753242015838623 3.3145511150360107 0.7581081390380859 0 3
7.137109279632568 -6.762753963470459 3.3034579753875732 0.7606541514396667 0 3
7.08312463760376 -6.772187232971191 3.2925045490264893 0.7631844878196716 0 3
7.029511451721191 -6.781562328338623 3.2816884517669678 0.7656999230384827 0 3
6.976249694824219 -6.790859222412109 3.271008014678955 0.7681996822357178 0 3
6.923281192779541 -6.800097465515137 3.2604641914367676 0.7706842422485352 0 3
6.870683670043945 -6.809296607971191 3.2500526905059814 0.7731530666351318 0 3
22.2686710357666 -6.145761489868164 7.336574554443359 0.40463152527809143 0 3
22.03058624267578 -6.186601638793945 7.267214298248291 0.413091778755188 0 3
21.86408233642578 -6.245859146118164 7.221473217010498 0.8576626777648926 0 3
21.69906234741211 -6.304140567779541 7.176220417022705 0.5014874935150146 0 3
21.517459869384766 -6.356269359588623 7.12553596496582 0.5050546526908875 0 3
21.338397979736328 -6.407617092132568 7.075673580169678 0.5086137056350708 0 3
21.12482452392578 -6.446991920471191 7.014387130737305 0.43090683221817017 0 3
20.9107608795166 -6.484355449676514 6.952896595001221 0.4347178339958191 0 3
20.70037078857422 -6.521132469177246 6.892611026763916 0.4385198950767517 0 3
20.49365234375 -6.557226181030273 6.833499431610107 0.4423132538795471 0 3
20.290390014648438 -6.592753887176514 6.775527000427246 0.446097731590271 0 3
19.884140014648438 -6.559550762176514 6.649638652801514 0.45353472232818604 0 3
19.836503982543945 -6.642675399780273 6.643599510192871 0.8381498456001282 0 3
19.70081901550293 -6.695703029632568 6.608154296875 0.4573965072631836 0 3
19.510683059692383 -6.728945255279541 6.554448127746582 0.4611443281173706 0 3
19.323652267456055 -6.761601448059082 6.501739501953125 0.46488291025161743 0 3
19.139530181884766 -6.793808460235596 6.44999361038208 0.4686122536659241 0 3
18.958377838134766 -6.825409889221191 6.399200439453125 0.4723320007324219 0 3
18.588729858398438 -6.78673791885376 6.284655570983887 0.4845329821109772 0 3
18.41796875 -6.818242073059082 6.237203121185303 0.4798319935798645 0 3
18.408672332763672 -6.908905982971191 6.244494438171387 0.8213238716125488 0 3
18.281757354736328 -6.955019474029541 6.211965084075928 0.48711758852005005 0 3
18.113828659057617 -6.984355449676514 6.1654953956604 0.49078911542892456 0 3
17.948436737060547 -7.013242244720459 6.119832515716553 0.4944506287574768 0 3
17.785390853881836 -7.041738033294678 6.074968338012695 0.4980982542037964 0 3
17.428691864013672 -6.991152286529541 5.963789939880371 0.5018587112426758 0 3
17.270721435546875 -7.017910003662109 5.920444011688232 0.49857065081596375 0 3
17.208436965942383 -7.082753658294678 5.90994119644165 0.8057330846786499 0 3
17.137226104736328 -7.143535137176514 5.896430492401123 0.5126062035560608 0 3
16.95751953125 -7.158164024353027 5.845592975616455 0.5222193002700806 0 3
16.8096866607666 -7.184784889221191 5.805686950683594 0.5258088707923889 0 3
16.663846969604492 -7.211073875427246 5.766436576843262 0.5293881297111511 0 3
16.519941329956055 -7.236991882324219 5.727829456329346 0.5329571962356567 0 3
16.377988815307617 -7.262578010559082 5.689843654632568 0.5365147590637207 0 3
16.237831115722656 -7.287831783294678 5.652466773986816 0.5400624871253967 0 3
16.099550247192383 -7.312734127044678 5.615695476531982 0.5435988306999207 0 3
15.963007926940918 -7.337343692779541 5.579511642456055 0.5471247434616089 0 3
15.686074256896973 -7.295468807220459 5.494090557098389 0.5526643395423889 0 3
15.553534507751465 -7.318906307220459 5.459115028381348 0.5477540493011475 0 3
15.49339771270752 -7.375722408294678 5.449568748474121 0.7771636247634888 0 3
5.910351276397705 -2.846269369125366 2.0833487510681152 0.5640528202056885 0 6
5.880136489868164 -2.8642773628234863 2.0772616863250732 0.9415169954299927 0 6
5.869023323059082 -2.8915233612060547 2.077836275100708 0.9143720865249634 0 6
5.882030963897705 -2.930800676345825 2.0870795249938965 0.4545871615409851 0 6
14.955820083618164 -7.536015510559082 5.318648338317871 0.5689301490783691 0 3
14.832538604736328 -7.557538986206055 5.286807537078857 0.5723559856414795 0 3
14.710741996765137 -7.578808307647705 5.255460262298584 0.5757701396942139 0 3
14.428437232971191 -7.515527248382568 5.166608810424805 0.5797292590141296 0 3
14.310897827148438 -7.5361328125 5.136574745178223 0.5831190943717957 0 3
14.194686889648438 -7.556503772735596 5.106991767883301 0.5864968299865723 0 3
14.184784889221191 -7.633124828338623 5.115701675415039 0.748994767665863 0 3
13.90396499633789 -7.562675476074219 5.026605606079102 0.5922935605049133 0 3
13.7919921875 -7.582187175750732 4.998386859893799 0.5956375002861023 0 3
13.68130874633789 -7.601503849029541 4.970583915710449 0.5989692211151123 0 3
13.571894645690918 -7.62060546875 4.9432053565979 0.6027624607086182 0 3
13.463632583618164 -7.639550685882568 4.91623067855835 0.606069803237915 0 3
13.400077819824219 -7.683183193206787 4.905555725097656 0.3026087284088135 0 3
13.365448951721191 -7.743241786956787 4.90556001663208 0.3028542697429657 0 3
13.33056640625 -7.803164005279541 4.905556678771973 0.30285409092903137 0 3
13.230195045471191 -7.824316024780273 4.881496906280518 0.5960788726806641 0 3
13.123652458190918 -7.841054439544678 4.85512113571167 0.5993166565895081 0 3
10.161347389221191 -6.133163928985596 3.7693514823913574 0.6256035566329956 0 3
10.081835746765137 -6.147070407867432 3.7500436305999756 0.6288239359855652 0 3
10.003105163574219 -6.160800457000732 3.7310121059417725 0.6320322155952454 0 3
9.925155639648438 -6.174452781677246 3.7122421264648438 0.6352278590202332 0 3
9.848007202148438 -6.187910079956055 3.6937367916107178 0.6384099721908569 0 3
9.791366577148438 -6.213769435882568 3.682908535003662 0.7047783136367798 0 3
9.803534507751465 -6.283398151397705 3.6980483531951904 0.7018925547599792 0 3
9.744237899780273 -6.30724573135376 3.686328411102295 0.6478349566459656 0 3
9.66910171508789 -6.320390701293945 3.668600082397461 0.65096515417099 0 3
9.594706535339355 -6.333378791809082 3.6511154174804688 0.6540828347206116 0 3
9.521015167236328 -6.346250057220459 3.633869171142578 0.6571869850158691 0 3
9.447949409484863 -6.359042644500732 3.616856336593628 0.6602783203125 0 3
9.375605583190918 -6.371660232543945 3.6000759601593018 0.6633564233779907 0 3
9.303964614868164 -6.384179592132568 3.5835189819335938 0.6664208769798279 0 3
9.232949256896973 -6.396582126617432 3.5671839714050293 0.6694719791412354 0 3
9.044472694396973 -6.326269626617432 3.5053067207336426 0.6795399188995361 0 3
8.97640609741211 -6.3388671875 3.4899160861968994 0.6825351715087891 0 3
8.908965110778809 -6.351327896118164 3.4747445583343506 0.6855166554450989 0 3
8.84316349029541 -6.364452838897705 3.460174083709717 0.6661688685417175 0 3
8.855254173278809 -6.433691024780273 3.4761769771575928 0.6631025075912476 0 3
8.832499504089355 -6.477929592132568 3.478625774383545 0.6874930262565613 0 3
8.765664100646973 -6.489609241485596 3.4637367725372314 0.6904481649398804 0 3
8.699433326721191 -6.501171588897705 3.449042558670044 0.6933895349502563 0 3
8.63369083404541 -6.512656211853027 3.434542417526245 0.6963173151016235 0 3
8.56851577758789 -6.524023056030273 3.420232057571411 0.6992311477661133 0 3
8.503867149353027 -6.535331726074219 3.40610671043396 0.7021305561065674 0 3
8.439824104309082 -6.546523094177246 3.3921682834625244 0.705015242099762 0 3
8.376211166381836 -6.557675838470459 3.3784091472625732 0.7078863978385925 0 3
8.313105583190918 -6.568691253662109 3.364830493927002 0.7107439041137695 0 3
8.250585556030273 -6.57958984375 3.351426601409912 0.713585615158081 0 3
8.188495635986328 -6.59044885635376 3.3381967544555664 0.7164138555526733 0 3
8.126914024353027 -6.601210594177246 3.32513689994812 0.7192275524139404 0 3
7.95226526260376 -6.51882791519165 3.2656209468841553 0.7221341133117676 0 3
7.892148494720459 -6.528984069824219 3.25293231010437 0.7197613716125488 0 3
7.832324028015137 -6.538906097412109 3.2403297424316406 0.7225608229637146 0 3
7.772929668426514 -6.548730373382568 3.2278895378112793 0.7253460884094238 0 3
7.761738300323486 -6.599101543426514 3.2355079650878906 0.6089956164360046 0 3
7.756171703338623 -6.654589653015137 3.2456088066101074 0.7358037233352661 0 3
7.69787073135376 -6.664765357971191 3.2336947917938232 0.7385146617889404 0 3
7.640019416809082 -6.674863338470459 3.2219302654266357 0.7412110567092896 0 3
7.582558631896973 -6.684902191162109 3.210317611694336 0.7438921928405762 0 3
7.525487899780273 -6.694882869720459 3.198852062225342 0.7465592622756958 0 3
7.468827724456787 -6.704784870147705 3.1875314712524414 0.7492101192474365 0 3
7.41259765625 -6.714589595794678 3.1763570308685303 0.7518462538719177 0 3
7.356738090515137 -6.724355220794678 3.1653213500976562 0.754467248916626 0 3
7.30126953125 -6.734062194824219 3.1544270515441895 0.757073163986206 0 3
7.246171951293945 -6.743671894073486 3.1436679363250732 0.7596638202667236 0 3
7.191445350646973 -6.753222465515137 3.1330459117889404 0.7622393369674683 0 3
7.137089729309082 -6.762714862823486 3.12256121635437 0.7647992968559265 0 3
7.083105087280273 -6.772167682647705 3.112205743789673 0.7673435211181641 0 3
7.029472351074219 -6.781542778015137 3.101982355117798 0.7698724269866943 0 3
6.976210594177246 -6.790820121765137 3.091888666152954 0.7723858952522278 0 3
6.923242092132568 -6.80007791519165 3.081920623779297 0.7748841047286987 0 3
6.870664119720459 -6.809277057647705 3.0720794200897217 0.7773663401603699 0 3
22.26888656616211 -6.145800590515137 6.916097164154053 0.40996113419532776 0 3
22.032440185546875 -6.18712854385376 6.851230144500732 0.4138427972793579 0 3
21.864042282104492 -6.245820045471191 6.807509422302246 0.8620715737342834 0 3
21.79035186767578 -6.330664157867432 6.793332576751709 0.4215809106826782 0 3
21.564453125 -6.370136737823486 6.731753826141357 0.4254370629787445 0 3
21.12353515625 -6.343105316162109 6.602929592132568 0.43799275159835815 0 3
20.910350799560547 -6.381542682647705 6.545184135437012 0.436593621969223 0 3
20.699941635131836 -6.419003963470459 6.488265037536621 0.4404236972332001 0 3
20.54363250732422 -6.471776962280273 6.448328495025635 0.28696316480636597 0 3
20.514373779296875 -6.563886642456055 6.448323726654053 0.2869633436203003 0 3
20.313085556030273 -6.600136756896973 6.39430046081543 0.4483928382396698 0 3
19.88607406616211 -6.560214519500732 6.269086837768555 0.445021390914917 0 3
19.83642578125 -6.642675399780273 6.262765884399414 0.8424606323242188 0 3
19.700702667236328 -6.695722579956055 6.229344367980957 0.459749698638916 0 3
19.510604858398438 -6.728925704956055 6.178714275360107 0.4635170102119446 0 3
19.323514938354492 -6.761601448059082 6.129024505615234 0.4672747850418091 0 3
19.13945198059082 -6.793769359588623 6.080244064331055 0.47102344036102295 0 3
18.958280563354492 -6.825390338897705 6.032364368438721 0.4747622609138489 0 3
18.58997917175293 -6.787206649780273 5.924809455871582 0.48699089884757996 0 3
18.41814422607422 -6.818281173706055 5.879726409912109 0.48229482769966125 0 3
18.408632278442383 -6.908886432647705 5.88652229309082 0.8255481719970703 0 3
18.281679153442383 -6.954999923706055 5.855860233306885 0.4896240830421448 0 3
18.113750457763672 -6.984335899353027 5.812061786651611 0.49331408739089966 0 3
17.948320388793945 -7.013222694396973 5.769017219543457 0.4969947636127472 0 3
17.78533172607422 -7.041679382324219 5.726719856262207 0.5006612539291382 0 3
17.428808212280273 -6.9912109375 5.621978759765625 0.5044348835945129 0 3
17.271835327148438 -7.018378734588623 5.581443786621094 0.5011008977890015 0 3
17.208398818969727 -7.082734107971191 5.5711669921875 0.8098769783973694 0 3
17.137147903442383 -7.143515586853027 5.558416843414307 0.5152438282966614 0 3
16.968847274780273 -7.162929534912109 5.514196872711182 0.5245537757873535 0 3
16.820819854736328 -7.189550399780273 5.476524353027344 0.528161883354187 0 3
16.674823760986328 -7.215800762176514 5.439481258392334 0.53175950050354 0 3
16.530742645263672 -7.241718769073486 5.403026103973389 0.5353468656539917 0 3
16.388593673706055 -7.267284870147705 5.367178916931152 0.5389232039451599 0 3
16.248319625854492 -7.292519569396973 5.331901550292969 0.5424883961677551 0 3
16.10986328125 -7.317421913146973 5.297187328338623 0.546043336391449 0 3
15.9732027053833 -7.341991901397705 5.263033390045166 0.5495874881744385 0 3
15.686738014221191 -7.295781135559082 5.179377555847168 0.5470417141914368 0 3
15.553651809692383 -7.318984031677246 5.146224021911621 0.5505660772323608 0 3
15.493378639221191 -7.375702857971191 5.137179851531982 0.7811607122421265 0 3
5.90994119644165 -2.8460545539855957 1.9637829065322876 0.5669939517974854 0 6
5.879863262176514 -2.8641600608825684 1.958126425743103 0.9463990926742554 0 6
5.86876916885376 -2.8913867473602295 1.958699345588684 0.9191127419471741 0 6
5.881503582000732 -2.9305663108825684 1.967273235321045 0.4569645822048187 0 6
14.697733879089355 -7.405976295471191 4.927260398864746 0.625475287437439 0 3
14.601698875427246 -7.439960956573486 4.906212329864502 0.628158688545227 0 3
14.565839767456055 -7.50417947769165 4.905415058135986 0.2869701087474823 0 3
14.53197193145752 -7.569511413574219 4.90541410446167 0.28697025775909424 0 3
14.453495979309082 -7.611249923706055 4.890397548675537 0.5637715458869934 0 3
14.333026885986328 -7.630175590515137 4.861181735992432 0.56715989112854 0 3
14.214042663574219 -7.648906230926514 4.832416534423828 0.5705360174179077 0 3
14.09642505645752 -7.667402267456055 4.804084777832031 0.5739008188247681 0 3
13.980234146118164 -7.685683250427246 4.77617883682251 0.5772534608840942 0 3
13.865370750427246 -7.703769207000732 4.748700141906738 0.5805935263633728 0 3
13.751815795898438 -7.721640586853027 4.7216291427612305 0.5839223861694336 0 3
13.63955020904541 -7.739355087280273 4.694967746734619 0.5872386693954468 0 3
13.52855396270752 -7.7568359375 4.668700695037842 0.5905426740646362 0 3
13.418768882751465 -7.774159908294678 4.642821788787842 0.5938345193862915 0 3
13.310253143310547 -7.791269302368164 4.617324352264404 0.597113847732544 0 3
13.202948570251465 -7.80822229385376 4.592198848724365 0.6003802418708801 0 3
13.096757888793945 -7.82498025894165 4.567439079284668 0.6036349534988403 0 3
10.161367416381836 -6.133183479309082 3.5532894134521484 0.6288189888000488 0 3
10.08187484741211 -6.147050857543945 3.5350892543792725 0.6320560574531555 0 3
10.003105163574219 -6.160820007324219 3.5171456336975098 0.6352810263633728 0 3
9.92519474029541 -6.17443323135376 3.499452829360962 0.6384928226470947 0 3
9.848027229309082 -6.187929630279541 3.482008218765259 0.6416912078857422 0 3
9.79134750366211 -6.213749885559082 3.471785545349121 0.7084035873413086 0 3
9.803515434265137 -6.283378601074219 3.4860610961914062 0.7055027484893799 0 3
9.744218826293945 -6.307226657867432 3.4750125408172607 0.6511673927307129 0 3
9.669081687927246 -6.320371150970459 3.458301067352295 0.6543137431144714 0 3
9.594687461853027 -6.333339691162109 3.4418184757232666 0.6574472784996033 0 3
9.520956993103027 -6.346230506896973 3.4255592823028564 0.6605678796768188 0 3
9.447929382324219 -6.35900354385376 3.4095230102539062 0.6636747121810913 0 3
9.375624656677246 -6.371621131896973 3.3937008380889893 0.6667681932449341 0 3
9.303906440734863 -6.384199142456055 3.378096580505371 0.6698485612869263 0 3
9.232890129089355 -6.39660120010376 3.3627004623413086 0.6729155778884888 0 3
9.044901847839355 -6.326601505279541 3.3045332431793213 0.6829997897148132 0 3
8.976836204528809 -6.339179515838623 3.2900307178497314 0.6860103011131287 0 3
8.909296989440918 -6.351582050323486 3.2756972312927246 0.6821331977844238 0 3
8.84310531616211 -6.364452838897705 3.2618277072906494 0.66959547996521 0 3
8.855195045471191 -6.433691024780273 3.2769038677215576 0.6665135025978088 0 3
8.832460403442383 -6.477949142456055 3.2792158126831055 0.69102942943573 0 3
8.765625 -6.489609241485596 3.2651796340942383 0.693999707698822 0 3
8.69937515258789 -6.501171588897705 3.251331329345703 0.6969560384750366 0 3
8.63363265991211 -6.512656211853027 3.237658977508545 0.6998990774154663 0 3
8.568476676940918 -6.52404260635376 3.2241671085357666 0.7028278708457947 0 3
8.503847122192383 -6.535331726074219 3.2108564376831055 0.7057414054870605 0 3
8.439745903015137 -6.546542644500732 3.197713851928711 0.708641767501831 0 3
8.376191139221191 -6.557636737823486 3.1847469806671143 0.7115274667739868 0 3
8.313105583190918 -6.568652153015137 3.1719441413879395 0.7143990993499756 0 3
8.250566482543945 -6.579570293426514 3.1593093872070312 0.7172559499740601 0 3
8.1884765625 -6.590429306030273 3.1468379497528076 0.7200989723205566 0 3
8.126893997192383 -6.60119104385376 3.1345272064208984 0.7229271531105042 0 3
7.952343463897705 -6.518867015838623 3.078446865081787 0.7258420586585999 0 3
7.892539024353027 -6.529257774353027 3.066617250442505 0.7234277129173279 0 3
7.832675457000732 -6.539198875427246 3.0547332763671875 0.7262414693832397 0 3
7.773261547088623 -6.549062252044678 3.0430023670196533 0.7290410399436951 0 3
7.76171875 -6.599062442779541 3.0500335693359375 0.6121306419372559 0 3
7.756152153015137 -6.65457010269165 3.059558391571045 0.7395885586738586 0 3
7.69787073135376 -6.664745807647705 3.0483267307281494 0.7423133254051208 0 3
7.639999866485596 -6.674843788146973 3.037238121032715 0.7450236678123474 0 3
7.582539081573486 -6.684882640838623 3.026289224624634 0.7477186322212219 0 3
7.525449275970459 -6.694882869720459 3.015481472015381 0.7503986358642578 0 3
7.468808650970459 -6.704765319824219 3.0048112869262695 0.7530637979507446 0 3
7.412558555603027 -6.714570045471191 2.9942736625671387 0.7557135224342346 0 3
7.35671854019165 -6.724335670471191 2.983872890472412 0.7583480477333069 0 3
7.301249980926514 -6.734042644500732 2.9736006259918213 0.7609673142433167 0 3
7.246152400970459 -6.74365234375 2.9634602069854736 0.7635713815689087 0 3
7.191425800323486 -6.753222465515137 2.953449010848999 0.7661592960357666 0 3
7.137070178985596 -6.7626953125 2.9435644149780273 0.7687332034111023 0 3
7.083086013793945 -6.772128582000732 2.9338033199310303 0.7712905406951904 0 3
7.029452800750732 -6.781503677368164 2.9241669178009033 0.7738324403762817 0 3
6.97619104385376 -6.79080057144165 2.914649486541748 0.7763587832450867 0 3
6.923222541809082 -6.800058364868164 2.9052529335021973 0.7788699269294739 0 3
6.870644569396973 -6.809257507324219 2.895974636077881 0.7813650369644165 0 3
22.26884651184082 -6.145761489868164 6.499700546264648 0.4119870066642761 0 3
22.032421112060547 -6.187109470367432 6.438743591308594 0.41588741540908813 0 3
21.863983154296875 -6.245820045471191 6.397646427154541 0.8662439584732056 0 3
21.79019546508789 -6.330664157867432 6.384310245513916 0.4236225187778473 0 3
21.564315795898438 -6.3701171875 6.326438903808594 0.42749765515327454 0 3
21.125194549560547 -6.343632698059082 6.205898284912109 0.44007715582847595 0 3
20.913280487060547 -6.38244104385376 6.151989459991455 0.8585690855979919 0 3
20.93228530883789 -6.491074085235596 6.166114330291748 0.856606662273407 0 3
20.72345733642578 -6.528398513793945 6.113146781921387 0.44291090965270996 0 3
20.516483306884766 -6.564550399780273 6.060717582702637 0.4467421770095825 0 3
20.31298828125 -6.60009765625 6.009308815002441 0.45056453347206116 0 3
19.88753890991211 -6.560683250427246 5.892093181610107 0.44714146852493286 0 3
19.83638572692871 -6.642675399780273 5.885701656341553 0.8465374112129211 0 3
19.700605392456055 -6.695663928985596 5.854278564453125 0.4619762897491455 0 3
19.510488510131836 -6.728906154632568 5.806697845458984 0.46576187014579773 0 3
19.32341766357422 -6.761562347412109 5.760002136230469 0.46953803300857544 0 3
19.139373779296875 -6.793710708618164 5.714161396026611 0.4733045697212219 0 3
18.958221435546875 -6.825351238250732 5.669158935546875 0.47706139087677 0 3
18.59126853942871 -6.787636756896973 5.568490982055664 0.48931387066841125 0 3
18.41828155517578 -6.818339824676514 5.525779724121094 0.4846247434616089 0 3
18.408594131469727 -6.908847332000732 5.532116413116455 0.8295443058013916 0 3
18.281641006469727 -6.954941272735596 5.503293514251709 0.49199479818344116 0 3
18.113710403442383 -6.984296798706055 5.462122917175293 0.4957031309604645 0 3
17.948261260986328 -7.01318359375 5.421669960021973 0.4994010925292969 0 3
17.785253524780273 -7.041640281677246 5.381916522979736 0.5030855536460876 0 3
17.428983688354492 -6.991230487823486 5.283553123474121 0.5068715810775757 0 3
17.272441864013672 -7.018593788146973 5.245595455169678 0.5105392932891846 0 3
17.208398818969727 -7.082714557647705 5.235742092132568 0.813797652721405 0 3
17.137109756469727 -7.143456935882568 5.223752498626709 0.5177385807037354 0 3
16.9800968170166 -7.167636394500732 5.185643196105957 0.5267430543899536 0 3
16.831893920898438 -7.194257736206055 5.150197505950928 0.5303689241409302 0 3
16.68570327758789 -7.220527172088623 5.115334510803223 0.5339838266372681 0 3
16.305545806884766 -7.14306640625 5.008567810058594 0.5322224497795105 0 3
16.164140701293945 -7.16775369644165 4.974966526031494 0.5358170866966248 0 3
16.024648666381836 -7.192128658294678 4.941917419433594 0.5394004583358765 0 3
15.886972427368164 -7.216191291809082 4.90939998626709 0.542972981929779 0 3
15.84105396270752 -7.281269550323486 4.905259132385254 0.27100446820259094 0 3
15.8081636428833 -7.35232400894165 4.905256748199463 0.27100464701652527 0 3
15.707695007324219 -7.391484260559082 4.884309768676758 0.5332967042922974 0 3
15.571581840515137 -7.413007736206055 4.852290153503418 0.536815881729126 0 3
5.909511566162109 -2.845820188522339 1.8454192876815796 0.5697794556617737 0 6
5.879589557647705 -2.864062547683716 1.8401546478271484 0.9510207772254944 0 6
5.868456840515137 -2.8912694454193115 1.8405965566635132 0.9236056804656982 0 6
5.880957126617432 -2.9302732944488525 1.8486684560775757 0.45921623706817627 0 6
14.917070388793945 -7.516484260559082 4.6997175216674805 0.5539941787719727 0 3
14.791034698486328 -7.53640604019165 4.67061710357666 0.5574455261230469 0 3
14.666582107543945 -7.556093692779541 4.641973972320557 0.5608853101730347 0 3
14.543593406677246 -7.575527191162109 4.613773822784424 0.5643137693405151 0 3
14.422147750854492 -7.594746112823486 4.586008548736572 0.567730188369751 0 3
14.30214786529541 -7.613749980926514 4.558667182922363 0.5711348056793213 0 3
14.183573722839355 -7.632499694824219 4.531750679016113 0.5745275020599365 0 3
14.066445350646973 -7.651054382324219 4.505239486694336 0.5779079794883728 0 3
13.950605392456055 -7.669414043426514 4.479129314422607 0.5812771320343018 0 3
13.836132049560547 -7.687558650970459 4.4534125328063965 0.5846337676048279 0 3
13.723007202148438 -7.705488204956055 4.428081035614014 0.5879780650138855 0 3
13.612714767456055 -7.724101543426514 4.403628826141357 0.6301133036613464 0 3
13.50673770904541 -7.744335651397705 4.380549907684326 0.6334331035614014 0 3
13.401874542236328 -7.764335632324219 4.3577985763549805 0.6367402672767639 0 3
13.29808521270752 -7.784121036529541 4.335367679595947 0.6400347948074341 0 3
13.195331573486328 -7.8037109375 4.3132452964782715 0.6433173418045044 0 3
13.093632698059082 -7.823105335235596 4.2914347648620605 0.6465867757797241 0 3
10.161347389221191 -6.133183479309082 3.339367389678955 0.6318609714508057 0 3
10.081796646118164 -6.147109031677246 3.3222639560699463 0.6351139545440674 0 3
10.003105163574219 -6.160820007324219 3.3053998947143555 0.6383540630340576 0 3
9.925155639648438 -6.174472332000732 3.2887752056121826 0.6415812969207764 0 3
9.848007202148438 -6.187949180603027 3.27237868309021 0.6447959542274475 0 3
9.791288375854492 -6.213749885559082 3.262760877609253 0.711832582950592 0 3
9.803476333618164 -6.283378601074219 3.276172637939453 0.7089179158210754 0 3
9.744140625 -6.307226657867432 3.2657907009124756 0.6543196439743042 0 3
9.669023513793945 -6.320351600646973 3.250084400177002 0.6574813723564148 0 3
9.59462833404541 -6.333359241485596 3.2345919609069824 0.6606302857398987 0 3
9.52089786529541 -6.346230506896973 3.2193167209625244 0.6637658476829529 0 3
9.447871208190918 -6.35900354385376 3.20424222946167 0.6668878197669983 0 3
9.3755464553833 -6.371640682220459 3.1893770694732666 0.6699966788291931 0 3
9.30386734008789 -6.384160041809082 3.1747140884399414 0.673091471195221 0 3
9.232871055603027 -6.396562576293945 3.1602418422698975 0.6761733293533325 0 3
9.045331954956055 -6.326913833618164 3.105741262435913 0.686270534992218 0 3
8.977285385131836 -6.339491844177246 3.092111825942993 0.6892952919006348 0 3
8.909355163574219 -6.351621150970459 3.078503131866455 0.6854293942451477 0 3
8.843066215515137 -6.364433288574219 3.0654420852661133 0.6728368401527405 0 3
8.855155944824219 -6.433652400970459 3.07961368560791 0.6697383522987366 0 3
8.832441329956055 -6.477929592132568 3.081782579421997 0.6943748593330383 0 3
8.765604972839355 -6.489589691162109 3.0685932636260986 0.697359561920166 0 3
8.699355125427246 -6.501152038574219 3.055574893951416 0.7003303170204163 0 3
8.63363265991211 -6.512636661529541 3.0427284240722656 0.7032873630523682 0 3
8.568437576293945 -6.52404260635376 3.03005051612854 0.706229567527771 0 3
8.503828048706055 -6.535312175750732 3.01753830909729 0.7091580629348755 0 3
8.439726829528809 -6.54650354385376 3.0051891803741455 0.7120723724365234 0 3
8.37613296508789 -6.5576171875 2.9930009841918945 0.7149727940559387 0 3
8.313085556030273 -6.56863260269165 2.9809701442718506 0.7178575992584229 0 3
8.2505464553833 -6.579550743103027 2.96909761428833 0.7207284569740295 0 3
8.188456535339355 -6.590410232543945 2.9573757648468018 0.7235848307609558 0 3
8.126874923706055 -6.601152420043945 2.945805549621582 0.7264269590377808 0 3
7.952343463897705 -6.518886566162109 2.893127918243408 0.7293500304222107 0 3
7.892597675323486 -6.529335975646973 2.882014036178589 0.7321622967720032 0 3
7.833027362823486 -6.539492130279541 2.8709588050842285 0.7297213077545166 0 3
7.773632526397705 -6.549335956573486 2.859933376312256 0.7325349450111389 0 3
7.761699199676514 -6.599042892456055 2.8663978576660156 0.6150940656661987 0 3
7.756113052368164 -6.654531002044678 2.8753504753112793 0.7431688904762268 0 3
7.697851181030273 -6.664726257324219 2.864795207977295 0.7459068894386292 0 3
7.639960765838623 -6.674824237823486 2.854374408721924 0.7486305832862854 0 3
7.58251953125 -6.68484354019165 2.8440866470336914 0.7513384222984314 0 3
7.525449275970459 -6.694843769073486 2.833927631378174 0.7540313601493835 0 3
7.468769550323486 -6.704726219177246 2.823899269104004 0.756709635257721 0 3
7.412539005279541 -6.714550495147705 2.8139965534210205 0.7593722939491272 0 3
7.356679439544678 -6.724316120147705 2.8042213916778564 0.7620193958282471 0 3
7.301210880279541 -6.734023094177246 2.794570207595825 0.7646512389183044 0 3
7.246132850646973 -6.743632793426514 2.785039186477661 0.7672678828239441 0 3
7.19140625 -6.75320291519165 2.7756307125091553 0.7698683738708496 0 3
7.137050628662109 -6.762675762176514 2.766340970993042 0.7724539637565613 0 3
7.083066463470459 -6.772109031677246 2.7571675777435303 0.7750245332717896 0 3
7.029433250427246 -6.781484127044678 2.7481093406677246 0.7775787115097046 0 3
6.976171493530273 -6.790781021118164 2.739166736602783 0.7801172137260437 0 3
6.923242092132568 -6.800019264221191 2.730336904525757 0.7826398611068726 0 3
6.870625019073486 -6.809218406677246 2.72161865234375 0.7851475477218628 0 3
22.26884651184082 -6.145820140838623 6.08720588684082 0.4138562083244324 0 3
22.032421112060547 -6.18712854385376 6.030114650726318 0.41777464747428894 0 3
21.86392593383789 -6.245800495147705 5.991611003875732 0.8701772093772888 0 3
21.790096282958984 -6.330605506896973 5.979102611541748 0.42554765939712524 0 3
21.564218521118164 -6.370078086853027 5.924904823303223 0.42944008111953735 0 3
21.126815795898438 -6.344081878662109 5.8125 0.4420402944087982 0 3
20.913280487060547 -6.382421970367432 5.761544227600098 0.8624678254127502 0 3
20.9322452545166 -6.491054534912109 5.774739742279053 0.8604966402053833 0 3
20.723358154296875 -6.528359413146973 5.725152492523193 0.4449232220649719 0 3
20.516347885131836 -6.564531326293945 5.676048278808594 0.44877198338508606 0 3
20.312910079956055 -6.600078105926514 5.627899169921875 0.4526115655899048 0 3
19.88900375366211 -6.561132431030273 5.518558025360107 0.44913801550865173 0 3
19.836328506469727 -6.642656326293945 5.51215934753418 0.8503813147544861 0 3
19.70052719116211 -6.695644378662109 5.48271369934082 0.46407508850097656 0 3
19.51038932800293 -6.728867053985596 5.43815279006958 0.467878133058548 0 3
19.3233585357666 -6.761523246765137 5.394420146942139 0.4716712534427643 0 3
19.1392765045166 -6.793671607971191 5.351490497589111 0.4754546284675598 0 3
18.958105087280273 -6.825331687927246 5.309345722198486 0.4792288839817047 0 3
18.592226028442383 -6.788007736206055 5.215351581573486 0.48306575417518616 0 3
18.418437957763672 -6.818378925323486 5.175130367279053 0.4868203103542328 0 3
18.408554077148438 -6.908827781677246 5.181009292602539 0.8333110809326172 0 3
18.281522750854492 -6.954921722412109 5.153998851776123 0.49423009157180786 0 3
18.11361312866211 -6.984257698059082 5.115447044372559 0.49795523285865784 0 3
17.59242057800293 -6.87414026260376 4.976923942565918 0.50166255235672 0 3
17.451385498046875 -6.909472465515137 4.9457502365112305 0.5535826683044434 0 3
17.330097198486328 -6.951581954956055 4.920163154602051 0.5564613938331604 0 3
17.245683670043945 -7.007773399353027 4.905088901519775 0.2549619972705841 0 3
17.21404266357422 -7.085097312927246 4.905084609985352 0.25496840476989746 0 3
17.1353702545166 -7.142773151397705 4.891745090484619 0.5007303953170776 0 3
16.979551315307617 -7.167460918426514 4.856400489807129 0.5043741464614868 0 3
16.82601547241211 -7.191777229309082 4.821664810180664 0.508007824420929 0 3
16.67464828491211 -7.215761661529541 4.787520408630371 0.5116308927536011 0 3
16.525409698486328 -7.239433288574219 4.7539520263671875 0.5152434706687927 0 3
16.37826156616211 -7.262734413146973 4.720954895019531 0.5188448429107666 0 3
16.233163833618164 -7.28576135635376 4.688508033752441 0.5224356055259705 0 3
16.090057373046875 -7.308456897735596 4.656598091125488 0.5260156989097595 0 3
15.948866844177246 -7.33083963394165 4.625216960906982 0.5295846462249756 0 3
