ply
format ascii 1.0
element vertex 612
property float32 x
property float32 y
property float32 z
property float32 CosAngle
property uint32 ObjIdx
property uint32 ObjTag
end_header
15.589961051940918 14.772148132324219 8.019774436950684 0.7198410630226135 0 9
15.679003715515137 14.72353458404541 8.031497955322266 0.7187897562980652 0 9
15.768359184265137 14.674843788146973 8.04345989227295 0.717721164226532 0 9
15.858046531677246 14.626054763793945 8.055641174316406 0.7166359424591064 0 9
15.948065757751465 14.5771484375 8.068048477172852 0.7155336737632751 0 9
16.03839874267578 14.528143882751465 8.08069133758545 0.7144144177436829 0 9
15.713300704956055 14.105780601501465 7.8849101066589355 0.25272220373153687 0 9
15.975038528442383 14.211776733398438 7.98415470123291 0.24958014488220215 0 9
16.067167282104492 14.165078163146973 7.9983367919921875 0.10871121287345886 0 9
16.3267765045166 14.264238357543945 8.0956449508667 0.9429466724395752 0 9
15.260995864868164 13.21279239654541 7.53769063949585 0.6397637724876404 0 9
15.397871017456055 13.210859298706055 7.575937747955322 0.6365340948104858 0 9
15.143925666809082 12.875449180603027 7.422486782073975 0.6011788249015808 0 9
15.263710975646973 12.85970687866211 7.452828884124756 0.5987310409545898 0 9
15.384491920471191 12.843886375427246 7.4836015701293945 0.5962693691253662 0 9
15.5064058303833 12.82796859741211 7.514806270599365 0.5937931537628174 0 9
15.619296073913574 12.803750038146973 7.5416083335876465 0.8097612857818604 0 9
15.714022636413574 12.763886451721191 7.5595903396606445 0.8078347444534302 0 9
15.809179306030273 12.723847389221191 7.577820301055908 0.8058912754058838 0 9
15.90478515625 12.683612823486328 7.5963029861450195 0.803930938243866 0 9
16.000898361206055 12.643202781677246 7.615021228790283 0.8019545078277588 0 9
16.09749984741211 12.602578163146973 7.6339945793151855 0.7999611496925354 0 9
16.194570541381836 12.56175708770752 7.653224468231201 0.797951340675354 0 9
16.29216766357422 12.52074146270752 7.672708034515381 0.7959251403808594 0 9
16.32027244567871 12.42626953125 7.659615993499756 0.26838141679763794 0 9
16.272480010986328 12.274863243103027 7.611235618591309 0.2700870633125305 0 9
16.224843978881836 12.125097274780273 7.56343412399292 0.2717939615249634 0 9
16.177440643310547 11.97689437866211 7.51620626449585 0.27350178360939026 0 9
16.130252838134766 11.830273628234863 7.469537734985352 0.27521058917045593 0 9
16.08329963684082 11.685136795043945 7.423421859741211 0.2769203186035156 0 9
15.80736255645752 11.376640319824219 7.272430419921875 0.16322703659534454 0 9
16.270545959472656 11.599531173706055 7.4614996910095215 0.15909087657928467 0 9
16.75843620300293 11.834296226501465 7.660810947418213 0.15495170652866364 0 9
17.184940338134766 12.020234107971191 7.831034183502197 0.768649160861969 0 9
17.17951202392578 11.901972770690918 7.804148197174072 0.7712968587875366 0 9
17.17414093017578 11.78451156616211 7.7775797843933105 0.7739318013191223 0 9
17.168651580810547 11.667773246765137 7.751322269439697 0.7765535116195679 0 9
17.163183212280273 11.5518159866333 7.725368976593018 0.7791621685028076 0 9
17.157733917236328 11.4365816116333 7.699720859527588 0.7817577123641968 0 9
17.152206420898438 11.322050094604492 7.674371719360352 0.7843400239944458 0 9
17.146697998046875 11.208261489868164 7.649312973022461 0.7869091629981995 0 9
17.141132354736328 11.095155715942383 7.624549865722656 0.7894651293754578 0 9
17.13558578491211 10.982733726501465 7.60007381439209 0.7920080423355103 0 9
17.129980087280273 10.87099552154541 7.575878143310547 0.794536828994751 0 9
17.124374389648438 10.759961128234863 7.551967144012451 0.7970527410507202 0 9
17.118749618530273 10.649531364440918 7.5283331871032715 0.7995551824569702 0 9
17.11308479309082 10.539785385131836 7.504971027374268 0.8020437955856323 0 9
18.957773208618164 11.558886528015137 8.291110038757324 0.4134790599346161 0 9
18.83855438232422 11.370527267456055 8.21658706665039 0.4172293245792389 0 9
18.721426010131836 11.185507774353027 8.143513679504395 0.4209733009338379 0 9
18.606229782104492 11.003671646118164 8.071845054626465 0.4247110188007355 0 9
23.25472640991211 13.612265586853027 10.061878204345703 0.9830554723739624 0 9
23.298280715942383 13.497753143310547 10.054409980773926 0.9837859272956848 0 9
22.076074600219727 12.657694816589355 9.50234317779541 0.24926602840423584 0 9
22.473379135131836 12.75179672241211 9.648626327514648 0.24548670649528503 0 9
20.24968719482422 11.370214462280273 8.671917915344238 0.7920749187469482 0 9
20.236093521118164 11.243436813354492 8.644407272338867 0.7945951819419861 0 9
20.222578048706055 11.117441177368164 8.61722183227539 0.7971020340919495 0 9
20.209022521972656 10.992167472839355 8.590353012084961 0.7995954155921936 0 9
20.195526123046875 10.867636680603027 8.563790321350098 0.8020755052566528 0 9
20.182050704956055 10.743847846984863 8.53753662109375 0.8045418858528137 0 9
20.1685733795166 10.620780944824219 8.511582374572754 0.8069950342178345 0 9
20.15511703491211 10.49843692779541 8.48593807220459 0.8094340562820435 0 9
20.141679763793945 10.37679672241211 8.460585594177246 0.8118595480918884 0 9
20.12824249267578 10.255800247192383 8.43552017211914 0.8142718076705933 0 9
20.114824295043945 10.135507583618164 8.410751342773438 0.8166699409484863 0 9
20.10140609741211 10.015878677368164 8.38626480102539 0.8190542459487915 0 9
20.0880069732666 9.896952629089355 8.36206340789795 0.8214248418807983 0 9
20.074628829956055 9.778613090515137 8.33813762664795 0.8237817287445068 0 9
23.59990119934082 11.365057945251465 9.781092643737793 0.7432118654251099 0 9
23.62175750732422 11.245292663574219 9.76913833618164 0.7441214323043823 0 9
23.64337921142578 11.125683784484863 9.757330894470215 0.7450221180915833 0 9
23.52242088317871 10.94009780883789 9.68706226348877 0.28464004397392273 0 9
23.264198303222656 10.69326114654541 9.5608491897583 0.2883976995944977 0 9
23.01234245300293 10.452655792236328 9.43796443939209 0.2921524941921234 0 9
23.727420806884766 10.649276733398438 9.7115478515625 0.7485343217849731 0 9
23.74785041809082 10.53066349029541 9.70046329498291 0.7493896484375 0 9
23.76802635192871 10.412206649780273 9.6895170211792 0.750235915184021 0 9
23.787948608398438 10.293964385986328 9.678717613220215 0.7510731220245361 0 9
23.807674407958984 10.175859451293945 9.668062210083008 0.7519013285636902 0 9
23.8271484375 10.057929039001465 9.657539367675781 0.7527203559875488 0 9
23.846385955810547 9.940176010131836 9.647162437438965 0.7535303831100464 0 9
25.271875381469727 10.40152359008789 10.204854011535645 0.8290390968322754 0 9
25.248125076293945 10.259491920471191 10.176568984985352 0.8313433527946472 0 9
25.224393844604492 10.118183135986328 10.148611068725586 0.8336338400840759 0 9
25.200761795043945 9.977636337280273 10.120973587036133 0.8359102606773376 0 9
25.177167892456055 9.837831497192383 10.093657493591309 0.8381723165512085 0 9
25.501874923706055 9.8330078125 10.20604419708252 0.6795586347579956 0 9
25.48322296142578 9.694686889648438 10.181062698364258 0.6812262535095215 0 9
31.511600494384766 11.82650375366211 12.568198204040527 0.8022071719169617 0 9
31.60347557067871 11.699414253234863 12.583771705627441 0.8012144565582275 0 9
31.69562339782715 11.572050094604492 12.5996675491333 0.8002039194107056 0 9
31.77193260192871 11.438554763793945 12.609464645385742 0.35463428497314453 0 9
32.161251068115234 11.415976524353027 12.743505477905273 0.35090404748916626 0 9
31.877830505371094 11.154492378234863 12.61124038696289 0.3184033930301666 0 9
31.556406021118164 10.883339881896973 12.464631080627441 0.32214871048927307 0 9
31.568904876708984 10.729354858398438 12.450424194335938 0.4882758855819702 0 9
31.525897979736328 10.557147979736328 12.41464614868164 0.4896831512451172 0 9
33.06943130493164 10.9092378616333 13.003080368041992 0.5630763173103333 0 9
33.20907974243164 10.790273666381836 13.038810729980469 0.5615330338478088 0 9
33.34970474243164 10.67074203491211 13.075090408325195 0.5599750876426697 0 9
33.491329193115234 10.550585746765137 13.111906051635742 0.558402419090271 0 9
31.96564292907715 9.912460327148438 12.497057914733887 0.21433976292610168 0 9
23.20150375366211 -6.740624904632568 9.021917343139648 0.4727005958557129 0 3
23.00697135925293 -6.796210765838623 8.95804500579834 0.555853009223938 0 3
9.086503982543945 -2.7285351753234863 3.542675018310547 0.8925418853759766 0 6
9.078359603881836 -2.7705469131469727 3.5443053245544434 0.8321331143379211 0 6
22.385936737060547 -6.941816329956055 8.751832962036133 0.42886093258857727 0 3
22.161542892456055 -6.981406211853027 8.676277160644531 0.43253251910209656 0 3
21.940996170043945 -7.020351409912109 8.602174758911133 0.4362581670284271 0 3
21.72330093383789 -7.058300495147705 8.529158592224121 0.42454540729522705 0 3
21.503768920898438 -7.093828201293945 8.455389022827148 0.428249716758728 0 3
21.287988662719727 -7.128749847412109 8.383038520812988 0.4318862557411194 0 3
21.075897216796875 -7.163066387176514 8.31209659576416 0.4355725049972534 0 3
20.867382049560547 -7.196835994720459 8.242500305175781 0.43924984335899353 0 3
20.662322998046875 -7.230019569396973 8.174246788024902 0.4429178237915039 0 3
20.46062469482422 -7.2626953125 8.107269287109375 0.4465770125389099 0 3
20.262226104736328 -7.294843673706055 8.041549682617188 0.45022645592689514 0 3
20.06705093383789 -7.32644510269165 7.97705602645874 0.45386675000190735 0 3
19.874980926513672 -7.357597351074219 7.913745403289795 0.4574975073337555 0 3
19.685916900634766 -7.388261318206787 7.851598262786865 0.46111881732940674 0 3
19.460039138793945 -7.403281211853027 7.774682998657227 0.5310378074645996 0 3
19.29736328125 -7.44070291519165 7.722951889038086 0.534594714641571 0 3
19.136816024780273 -7.477597713470459 7.672052383422852 0.5381419062614441 0 3
18.978281021118164 -7.514003753662109 7.621943950653076 0.5416794419288635 0 3
18.82972526550293 -7.553105354309082 7.575808525085449 0.5871120691299438 0 3
18.662128448486328 -7.583320140838623 7.52200984954834 0.5487247705459595 0 3
14.8740816116333 -6.121953010559082 6.006192684173584 0.5018210411071777 0 3
14.7422456741333 -6.145234107971191 5.964043617248535 0.5053675174713135 0 3
14.612284660339355 -6.168163776397705 5.922601699829102 0.508903443813324 0 3
14.484081268310547 -6.190800666809082 5.8818511962890625 0.5124293565750122 0 3
14.482597351074219 -6.267148494720459 5.892601013183594 0.7838947772979736 0 3
14.3974609375 -6.307187557220459 5.869411945343018 0.5193983912467957 0 3
14.27294921875 -6.329160213470459 5.830183982849121 0.5228933095932007 0 3
14.150156021118164 -6.350820064544678 5.791596412658691 0.5263770818710327 0 3
14.028905868530273 -6.372206687927246 5.753626346588135 0.5298510789871216 0 3
13.749862670898438 -6.320019245147705 5.650737762451172 0.5413414239883423 0 3
13.633418083190918 -6.340781211853027 5.614540100097656 0.5364031195640564 0 3
13.526639938354492 -6.365117073059082 5.582264423370361 0.7673141956329346 0 3
13.540839195251465 -6.446171760559082 5.600017547607422 0.7648831605911255 0 3
13.463085174560547 -6.483457088470459 5.579836368560791 0.5470576286315918 0 3
13.3506441116333 -6.503261566162109 5.545283794403076 0.5504664182662964 0 3
13.239628791809082 -6.522871017456055 5.5112714767456055 0.5538635849952698 0 3
13.129961013793945 -6.542226314544678 5.477779865264893 0.557249903678894 0 3
12.725897789001465 -6.412343502044678 5.321158409118652 0.5606175661087036 0 3
12.633222579956055 -6.436933517456055 5.294447898864746 0.679163932800293 0 3
12.550800323486328 -6.466054439544678 5.271999359130859 0.6820558309555054 0 3
12.469199180603027 -6.494980335235596 5.249922275543213 0.6612091064453125 0 3
12.42025375366211 -6.54052734375 5.241625785827637 0.34525731205940247 0 3
12.390448570251465 -6.596035003662109 5.241485595703125 0.34565451741218567 0 3
12.360390663146973 -6.6513671875 5.241333484649658 0.34566447138786316 0 3
12.279746055603027 -6.67919921875 5.219795227050781 0.5581434369087219 0 3
12.17812442779541 -6.694960594177246 5.189329624176025 0.5614203810691833 0 3
12.077714920043945 -6.710527420043945 5.159326553344727 0.5646852254867554 0 3
11.978476524353027 -6.725898265838623 5.1297736167907715 0.5679382681846619 0 3
11.88037109375 -6.741132736206055 5.1006622314453125 0.5711794495582581 0 3
11.783378601074219 -6.756171703338623 5.071991443634033 0.5744084119796753 0 3
11.687479972839355 -6.771093368530273 5.043741226196289 0.5776255130767822 0 3
11.592636108398438 -6.785820007324219 5.0159125328063965 0.5808306932449341 0 3
11.498886108398438 -6.800371170043945 4.988490104675293 0.5840232968330383 0 3
11.40609359741211 -6.814824104309082 4.961467742919922 0.5872042179107666 0 3
11.314374923706055 -6.829082012176514 4.934844970703125 0.5903722047805786 0 3
11.223651885986328 -6.84326171875 4.908637523651123 0.5941289663314819 0 3
11.133984565734863 -6.857304573059082 4.882817268371582 0.5972704887390137 0 3
11.04525375366211 -6.87121057510376 4.857372283935547 0.6003991961479187 0 3
10.95742130279541 -6.884980201721191 4.832294940948486 0.6035147309303284 0 3
10.87050724029541 -6.898612976074219 4.807572364807129 0.6066182851791382 0 3
10.78451156616211 -6.912109375 4.783204078674316 0.609708845615387 0 3
10.699355125427246 -6.925487995147705 4.759176731109619 0.6127871870994568 0 3
10.615546226501465 -6.939023494720459 4.735701084136963 0.664601743221283 0 3
10.535859107971191 -6.954648494720459 4.714042663574219 0.6676551699638367 0 3
10.456972122192383 -6.970117092132568 4.69267463684082 0.6706950068473816 0 3
10.378729820251465 -6.985448837280273 4.671590328216553 0.6737223267555237 0 3
10.301191329956055 -7.000624656677246 4.650783061981201 0.6767362356185913 0 3
10.224316596984863 -7.015703201293945 4.630253791809082 0.6797373294830322 0 3
10.148124694824219 -7.030644416809082 4.60999059677124 0.6827250719070435 0 3
10.072577476501465 -7.04541015625 4.589988708496094 0.6856998801231384 0 3
9.997694969177246 -7.060039043426514 4.57025671005249 0.6886605620384216 0 3
9.923418045043945 -7.074570178985596 4.550775527954102 0.6916083693504333 0 3
9.849784851074219 -7.088964462280273 4.531547546386719 0.6945430636405945 0 3
9.765761375427246 -7.095234394073486 4.5074968338012695 0.606391429901123 0 3
9.684823989868164 -7.103046894073486 4.484805107116699 0.677017092704773 0 3
9.611679077148438 -7.115937232971191 4.46567440032959 0.6799175143241882 0 3
9.539140701293945 -7.128749847412109 4.446793556213379 0.6828041076660156 0 3
9.467206954956055 -7.141445159912109 4.428157329559326 0.6856777667999268 0 3
9.39589786529541 -7.154003620147705 4.40977144241333 0.6885367631912231 0 3
9.325136184692383 -7.16650390625 4.391621112823486 0.6913825273513794 0 3
9.255000114440918 -7.178866863250732 4.3737101554870605 0.6942136883735657 0 3
9.18539047241211 -7.191152095794678 4.3560285568237305 0.6970316171646118 0 3
9.11636734008789 -7.203320026397705 4.338577747344971 0.6998351812362671 0 3
9.048047065734863 -7.215527057647705 4.321434020996094 0.7095884680747986 0 3
8.980429649353027 -7.227792739868164 4.304595947265625 0.7123634815216064 0 3
8.913359642028809 -7.239980220794678 4.287977695465088 0.7151243090629578 0 3
8.846796989440918 -7.252050399780273 4.271572589874268 0.7178712487220764 0 3
8.780741691589355 -7.264023303985596 4.255373001098633 0.7206036448478699 0 3
8.715155601501465 -7.275918006896973 4.239384174346924 0.723321795463562 0 3
8.650136947631836 -7.28771448135376 4.223598480224609 0.7260249257087708 0 3
8.585527420043945 -7.299413681030273 4.208012580871582 0.7287140488624573 0 3
8.5283203125 -7.316991806030273 4.196040630340576 0.8147931694984436 0 3
8.473379135131836 -7.336112976074219 4.18514347076416 0.816913366317749 0 3
8.326132774353027 -7.274277210235596 4.128507614135742 0.7360137701034546 0 3
8.264199256896973 -7.285839557647705 4.113974571228027 0.7386135458946228 0 3
8.202675819396973 -7.297304630279541 4.0996270179748535 0.7411993741989136 0 3
8.141230583190918 -7.308339595794678 4.0852580070495605 0.7417523860931396 0 3
8.080195426940918 -7.319296836853027 4.071061134338379 0.7443385720252991 0 3
8.019550323486328 -7.330136775970459 4.057046413421631 0.746910035610199 0 3
7.959316253662109 -7.340956687927246 4.043208122253418 0.7494668960571289 0 3
7.899511337280273 -7.351659774780273 4.029541492462158 0.7520084977149963 0 3
7.840097427368164 -7.3623046875 4.016048431396484 0.7545347213745117 0 3
7.791718482971191 -7.382948875427246 4.00819730758667 0.3463892638683319 0 3
7.758163928985596 -7.417539119720459 4.008029460906982 0.3464066982269287 0 3
7.724492073059082 -7.451952934265137 4.00786018371582 0.3464214503765106 0 3
7.690624713897705 -7.486230373382568 4.007689952850342 0.3464363217353821 0 3
7.645820140838623 -7.509726524353027 4.001856803894043 0.7627680897712708 0 3
7.587773323059082 -7.519980430603027 3.989117383956909 0.7652039527893066 0 3
17.71156120300293 17.7115421295166 8.881647109985352 0.1312425136566162 0 9
17.763202667236328 17.604413986206055 8.867825508117676 0.13144704699516296 0 9
18.252422332763672 17.927637100219727 9.07181453704834 0.4981979429721832 0 9
18.207090377807617 17.7232608795166 9.00965404510498 0.5016354918479919 0 9
18.16240119934082 17.52165985107422 8.94852352142334 0.5050623416900635 0 9
15.36757755279541 14.69287109375 7.5389723777771 0.731558084487915 0 9
15.455331802368164 14.6445894241333 7.549715995788574 0.7305173873901367 0 9
15.543417930603027 14.596210479736328 7.560652256011963 0.7294597029685974 0 9
15.631815910339355 14.547734260559082 7.571816921234131 0.7283847332000732 0 9
15.720526695251465 14.499198913574219 7.583184242248535 0.7272928357124329 0 9
15.809531211853027 14.450507164001465 7.59476375579834 0.7261837124824524 0 9
15.898847579956055 14.40175724029541 7.606560707092285 0.72505784034729 0 9
15.988534927368164 14.35287094116211 7.618569850921631 0.7239147424697876 0 9
16.07857322692871 14.303886413574219 7.630795001983643 0.7227547764778137 0 9
16.168926239013672 14.254804611206055 7.643243789672852 0.7215778231620789 0 9
16.259647369384766 14.205585479736328 7.655912399291992 0.720383882522583 0 9
16.35074234008789 14.156269073486328 7.668800354003906 0.7191731333732605 0 9
14.892792701721191 12.777519226074219 6.958033084869385 0.6126728653907776 0 9
15.009960174560547 12.761542320251465 6.9859538078308105 0.6102246642112732 0 9
15.128144264221191 12.74550724029541 7.014253616333008 0.6077620983123779 0 9
15.247343063354492 12.729354858398438 7.042959213256836 0.6052852272987366 0 9
15.367538452148438 12.713105201721191 7.072065830230713 0.6027941107749939 0 9
15.4888277053833 12.696796417236328 7.10158109664917 0.6002888679504395 0 9
15.611190795898438 12.680371284484863 7.131514549255371 0.5977693200111389 0 9
15.73460865020752 12.663846969604492 7.161862850189209 0.5952363014221191 0 9
15.859198570251465 12.647226333618164 7.1926493644714355 0.5926883816719055 0 9
15.97900390625 12.62587833404541 7.221221923828125 0.8079275488853455 0 9
16.075408935546875 12.585272789001465 7.239191055297852 0.8059219717979431 0 9
16.172285079956055 12.5444917678833 7.257399082183838 0.8039000630378723 0 9
16.26968765258789 12.5034761428833 7.275851249694824 0.8018612861633301 0 9
16.367597579956055 12.462285041809082 7.2945475578308105 0.7998062968254089 0 9
16.46599578857422 12.420859336853027 7.313486576080322 0.7977346777915955 0 9
16.313886642456055 12.19163990020752 7.221538543701172 0.2562689781188965 0 9
16.13916015625 11.948534965515137 7.120392799377441 0.259909451007843 0 9
15.969393730163574 11.712265014648438 7.022223472595215 0.26354271173477173 0 9
15.804374694824219 11.482519149780273 6.926938533782959 0.2671683430671692 0 9
16.966073989868164 12.21060562133789 7.412023067474365 0.7871295809745789 0 9
16.238788604736328 11.576855659484863 7.071512699127197 0.16036930680274963 0 9
16.724863052368164 11.810585975646973 7.260025978088379 0.1562054604291916 0 9
16.853046417236328 11.788105010986328 7.292629718780518 0.2693004012107849 0 9
16.798261642456055 11.637831687927246 7.246240615844727 0.27102434635162354 0 9
16.743749618530273 11.489198684692383 7.200417518615723 0.2727489769458771 0 9
16.689550399780273 11.34218692779541 7.155159950256348 0.27447450160980225 0 9
17.306406021118164 11.648202896118164 7.397121906280518 0.7774035334587097 0 9
17.300390243530273 11.531679153442383 7.372358798980713 0.7800148725509644 0 9
17.294374465942383 11.415898323059082 7.3478851318359375 0.7826129198074341 0 9
17.288339614868164 11.3008394241333 7.323695659637451 0.7851978540420532 0 9
17.282264709472656 11.186503410339355 7.299787521362305 0.7877691388130188 0 9
17.276229858398438 11.072890281677246 7.276165008544922 0.7903271913528442 0 9
17.2701358795166 10.959940910339355 7.25281286239624 0.7928717136383057 0 9
17.264022827148438 10.847695350646973 7.229732990264893 0.7954028248786926 0 9
17.25794792175293 10.736132621765137 7.2069244384765625 0.7979205250740051 0 9
17.25179672241211 10.625234603881836 7.1843767166137695 0.8004242777824402 0 9
17.245683670043945 10.514960289001465 7.162093162536621 0.8029146194458008 0 9
18.91468620300293 11.416464805603027 7.833893299102783 0.17375938594341278 0 9
18.969764709472656 11.33388614654541 7.83554744720459 0.4179835915565491 0 9
18.850839614868164 11.148320198059082 7.765679359436035 0.42174434661865234 0 9
18.733924865722656 10.966015815734863 7.6971611976623535 0.4254980683326721 0 9
18.61894416809082 10.786796569824219 7.629955291748047 0.42924636602401733 0 9
18.505918502807617 10.610663414001465 7.564035892486572 0.4329872131347656 0 9
23.509374618530273 13.339628219604492 9.58457088470459 0.9859309196472168 0 9
23.55271339416504 13.224863052368164 9.577958106994629 0.9866122007369995 0 9
23.595975875854492 13.11019515991211 9.571517944335938 0.9872757196426392 0 9
21.862070083618164 12.018730163574219 8.84620189666748 0.6770731210708618 0 9
22.00777244567871 11.970526695251465 8.883337020874023 0.6742426753044128 0 9
20.364492416381836 10.958574295043945 8.200084686279297 0.8002486824989319 0 9
20.350332260131836 10.833476066589355 8.174741744995117 0.8027299642562866 0 9
20.33625030517578 10.709101676940918 8.149685859680176 0.8051978945732117 0 9
20.322168350219727 10.585429191589355 8.124924659729004 0.8076519966125488 0 9
20.30810546875 10.462519645690918 8.100447654724121 0.8100923299789429 0 9
20.2940616607666 10.340312004089355 8.07625675201416 0.812518835067749 0 9
20.280057907104492 10.218769073486328 8.052343368530273 0.8149315714836121 0 9
23.2203311920166 11.569960594177246 9.1990966796875 0.6510992646217346 0 9
23.99349594116211 11.821093559265137 9.484285354614258 0.38376736640930176 0 9
24.065351486206055 11.722578048706055 9.49179744720459 0.7316679954528809 0 9
24.087305068969727 11.599784851074219 9.479825019836426 0.7325921654701233 0 9
24.1090030670166 11.477246284484863 9.467995643615723 0.7335070371627808 0 9
24.130468368530273 11.35488224029541 9.456319808959961 0.7344132661819458 0 9
24.15165901184082 11.23275375366211 9.444778442382812 0.7353102564811707 0 9
23.882869720458984 10.977656364440918 9.320301055908203 0.2826315462589264 0 9
23.616249084472656 10.72695255279541 9.197368621826172 0.2864091992378235 0 9
23.356348037719727 10.482714653015137 9.077719688415527 0.29018378257751465 0 9
23.10287094116211 10.24462890625 8.961259841918945 0.29395535588264465 0 9
24.25421905517578 10.625195503234863 9.389246940612793 0.739658772945404 0 9
24.274003982543945 10.504277229309082 9.378572463989258 0.7405012845993042 0 9
24.29361343383789 10.383535385131836 9.368027687072754 0.7413342595100403 0 9
24.312891006469727 10.262988090515137 9.357629776000977 0.7421581745147705 0 9
24.33203125 10.1426362991333 9.347370147705078 0.7429729700088501 0 9
24.35087776184082 10.0224609375 9.337244033813477 0.7437784671783447 0 9
25.456464767456055 10.344179153442383 9.743277549743652 0.8295431137084961 0 9
25.431991577148438 10.201464653015137 9.716285705566406 0.831847608089447 0 9
25.407577514648438 10.059531211853027 9.68960952758789 0.8341376781463623 0 9
33.015743255615234 12.900741577148438 12.568918228149414 0.9270899295806885 0 9
33.1237678527832 12.771894454956055 12.588092803955078 0.9256772994995117 0 9
33.23200988769531 12.642597198486328 12.607548713684082 0.9242492914199829 0 9
33.34050750732422 12.512890815734863 12.627263069152832 0.922805905342102 0 9
32.94435501098633 12.19580078125 12.456378936767578 0.4662511348724365 0 9
32.89748001098633 12.010839462280273 12.418147087097168 0.4676865339279175 0 9
31.52894401550293 11.351093292236328 11.882197380065918 0.3595362603664398 0 9
31.9127140045166 11.327714920043945 12.007548332214355 0.35578304529190063 0 9
31.873554229736328 11.153027534484863 11.973859786987305 0.4713638126850128 0 9
32.03523254394531 11.048457145690918 12.015844345092773 0.4697166681289673 0 9
31.958086013793945 10.861620903015137 11.968507766723633 0.3205220699310303 0 9
32.362850189208984 10.837421417236328 12.101752281188965 0.46638208627700806 0 9
32.528865814208984 10.730878829956055 12.145708084106445 0.4646944999694824 0 9
31.845760345458984 10.347285270690918 11.873186111450195 0.21552886068820953 0 9
32.40716552734375 10.369120597839355 12.06503677368164 0.21210189163684845 0 9
32.97323989868164 10.387382507324219 12.258302688598633 0.5706177353858948 0 9
33.112205505371094 10.268046379089355 12.292704582214355 0.5690205693244934 0 9
33.252166748046875 10.148085594177246 12.32763385772705 0.5674083828926086 0 9
33.393123626708984 10.02750015258789 12.363080978393555 0.565781831741333 0 9
33.53509521484375 9.90625 12.399049758911133 0.5641402006149292 0 9
33.67808532714844 9.784394264221191 12.435564041137695 0.5624839663505554 0 9
33.82210922241211 9.661835670471191 12.472609519958496 0.5608131289482117 0 9
33.96722412109375 9.538613319396973 12.510207176208496 0.5591276288032532 0 9
24.214900970458984 -6.566054344177246 8.896322250366211 0.4234602451324463 0 3
23.96921730041504 -6.615077972412109 8.81689167022705 0.4272753596305847 0 3
23.72785186767578 -6.66320276260376 8.739017486572266 0.43108251690864563 0 3
23.49070167541504 -6.710488319396973 8.662675857543945 0.4348814785480499 0 3
23.306854248046875 -6.771230220794678 8.605999946594238 0.9185689687728882 0 3
23.08285140991211 -6.818671703338623 8.534501075744629 0.40567338466644287 0 3
9.086835861206055 -2.728632688522339 3.3642003536224365 0.8979251384735107 0 6
9.078866958618164 -2.770703077316284 3.3658158779144287 0.8371354937553406 0 6
22.36490249633789 -6.935292720794678 8.302817344665527 0.41658875346183777 0 3
22.13412094116211 -6.972792625427246 8.228676795959473 0.4203420579433441 0 3
21.907440185546875 -7.009609222412109 8.156023025512695 0.4240865409374237 0 3
21.68472671508789 -7.045781135559082 8.084811210632324 0.427822470664978 0 3
21.465898513793945 -7.081367015838623 8.01499080657959 0.4315491020679474 0 3
21.250839233398438 -7.116308212280273 7.946528911590576 0.43526703119277954 0 3
21.039432525634766 -7.15066385269165 7.879397392272949 0.43897545337677 0 3
20.783065795898438 -7.16775369644165 7.795356750488281 0.5059810876846313 0 3
20.602304458618164 -7.209043025970459 7.739614486694336 0.5096254348754883 0 3
20.424062728881836 -7.249726295471191 7.6848039627075195 0.5132601857185364 0 3
20.248300552368164 -7.28982400894165 7.630899906158447 0.51688551902771 0 3
20.083730697631836 -7.332539081573486 7.58120059967041 0.5604982376098633 0 3
19.8984375 -7.366250038146973 7.5236687660217285 0.5241084694862366 0 3
19.729745864868164 -7.404687404632568 7.472372055053711 0.5277058482170105 0 3
19.56332015991211 -7.442538738250732 7.421909809112549 0.5312939286231995 0 3
19.3990421295166 -7.479902267456055 7.37225866317749 0.5348722338676453 0 3
19.242244720458984 -7.518788814544678 7.3254218101501465 0.5774191617965698 0 3
19.0972843170166 -7.561132431030273 7.283072471618652 0.5807767510414124 0 3
18.93195343017578 -7.594120979309082 7.232941627502441 0.49763360619544983 0 3
18.762401580810547 -7.6240234375 7.181164264678955 0.5012215375900269 0 3
14.874608993530273 -6.122168064117432 5.703607082366943 0.5048480033874512 0 3
14.742793083190918 -6.145429611206055 5.66357946395874 0.508415937423706 0 3
14.612832069396973 -6.168378829956055 5.6242241859436035 0.51197350025177 0 3
14.484628677368164 -6.190996170043945 5.5855255126953125 0.5155207514762878 0 3
14.484198570251465 -6.26785135269165 5.596159934997559 0.7885639071464539 0 3
14.397871017456055 -6.307382583618164 5.5736823081970215 0.5225351452827454 0 3
14.273398399353027 -6.329316139221191 5.536430358886719 0.5260509848594666 0 3
14.15054702758789 -6.350996017456055 5.499780178070068 0.5295564532279968 0 3
14.029296875 -6.372402191162109 5.463727951049805 0.533051073551178 0 3
13.648847579956055 -6.273612976074219 5.3264617919921875 0.3952842056751251 0 3
13.515546798706055 -6.285956859588623 5.285395622253418 0.6273986101150513 0 3
13.429413795471191 -6.319355487823486 5.262750148773193 0.6301459074020386 0 3
13.35912036895752 -6.359667778015137 5.246334075927734 0.3295193612575531 0 3
13.330117225646973 -6.419394493103027 5.246210098266602 0.3299234211444855 0 3
13.300800323486328 -6.47900390625 5.246063232421875 0.3299328088760376 0 3
13.220820426940918 -6.513632774353027 5.226000785827637 0.5324469804763794 0 3
13.10781192779541 -6.531191349029541 5.192866325378418 0.5358445048332214 0 3
12.99625015258789 -6.548573970794678 5.160252571105957 0.53923100233078 0 3
12.886054039001465 -6.565742015838623 5.128154754638672 0.542605996131897 0 3
12.777265548706055 -6.582714557647705 5.096562385559082 0.545969545841217 0 3
12.669784545898438 -6.599492073059082 5.065459251403809 0.5493220090866089 0 3
12.563691139221191 -6.616034984588623 5.034842491149902 0.5526623725891113 0 3
12.458788871765137 -6.632402420043945 5.004693984985352 0.555991530418396 0 3
12.355175971984863 -6.648573875427246 4.975010395050049 0.5593088269233704 0 3
12.252792358398438 -6.664570331573486 4.945775508880615 0.5626148581504822 0 3
12.151620864868164 -6.680390357971191 4.916995048522949 0.5659084320068359 0 3
12.051640510559082 -6.696034908294678 4.888641357421875 0.569190502166748 0 3
11.952773094177246 -6.711484432220459 4.860711097717285 0.5724607110023499 0 3
11.855058670043945 -6.726777076721191 4.833205223083496 0.575718879699707 0 3
11.758476257324219 -6.741874694824219 4.8061113357543945 0.5789647102355957 0 3
11.662948608398438 -6.756855487823486 4.779413223266602 0.5821986198425293 0 3
11.568476676940918 -6.771659851074219 4.753113746643066 0.5854201316833496 0 3
11.477890014648438 -6.787968635559082 4.728358268737793 0.6359125375747681 0 3
11.390019416809082 -6.805195331573486 4.7046966552734375 0.6391109824180603 0 3
11.303007125854492 -6.822246074676514 4.681361198425293 0.6422973275184631 0 3
11.2168550491333 -6.839101314544678 4.658346652984619 0.645470380783081 0 3
11.131562232971191 -6.855800628662109 4.63564395904541 0.64863121509552 0 3
11.047050476074219 -6.872323989868164 4.613250732421875 0.6517794728279114 0 3
10.963358879089355 -6.888710975646973 4.591164588928223 0.6549152731895447 0 3
10.880449295043945 -6.90490198135376 4.569375514984131 0.6580384969711304 0 3
10.798280715942383 -6.920957088470459 4.547879695892334 0.6611487865447998 0 3
10.716933250427246 -6.936855316162109 4.526670932769775 0.6642458438873291 0 3
10.6362886428833 -6.952597618103027 4.505748271942139 0.6673305630683899 0 3
10.556406021118164 -6.968183517456055 4.485105037689209 0.6704021096229553 0 3
10.47720718383789 -6.983632564544678 4.46473503112793 0.6734607815742493 0 3
10.398730278015137 -6.998925685882568 4.444635391235352 0.6765062808990479 0 3
10.32095718383789 -7.014081954956055 4.424803256988525 0.6795385479927063 0 3
10.243866920471191 -7.029101371765137 4.40523099899292 0.6825574040412903 0 3
10.167441368103027 -7.044003963470459 4.385917663574219 0.6855628490447998 0 3
10.091659545898438 -7.058749675750732 4.366856575012207 0.6885560154914856 0 3
10.016562461853027 -7.073378562927246 4.3480448722839355 0.6915347576141357 0 3
9.942090034484863 -7.087851524353027 4.329475402832031 0.6945003271102905 0 3
9.8682222366333 -7.102206707000732 4.311149597167969 0.697452962398529 0 3
9.787793159484863 -7.111230373382568 4.289910793304443 0.6086983680725098 0 3
9.700644493103027 -7.114628791809082 4.2656660079956055 0.5801925659179688 0 3
9.613945007324219 -7.117636680603027 4.241547107696533 0.6906722187995911 0 3
9.541796684265137 -7.130702972412109 4.223790645599365 0.6935760378837585 0 3
9.47021484375 -7.143710613250732 4.206258296966553 0.6964669227600098 0 3
9.39925765991211 -7.156562328338623 4.188961505889893 0.6993424892425537 0 3
9.328886985778809 -7.169335842132568 4.1718854904174805 0.702205240726471 0 3
9.259003639221191 -7.182011604309082 4.155027389526367 0.7050541043281555 0 3
9.18978500366211 -7.194550514221191 4.138394832611084 0.7078878283500671 0 3
9.121034622192383 -7.20703125 4.12196683883667 0.7107086181640625 0 3
9.052851676940918 -7.219374656677246 4.10576057434082 0.7135146856307983 0 3
8.985214233398438 -7.231640338897705 4.089757442474365 0.7163068652153015 0 3
8.918086051940918 -7.243788719177246 4.073960304260254 0.7190845608711243 0 3
8.85146427154541 -7.255878925323486 4.05836296081543 0.7218474745750427 0 3
8.785370826721191 -7.267831802368164 4.042966842651367 0.7245960831642151 0 3
8.719745635986328 -7.279726505279541 4.027769565582275 0.7273301482200623 0 3
8.654608726501465 -7.29150390625 4.012760639190674 0.7300509214401245 0 3
8.589961051940918 -7.30322265625 3.997945547103882 0.7327566146850586 0 3
8.53207015991211 -7.320195198059082 3.986240863800049 0.8193789124488831 0 3
8.47705078125 -7.339316368103027 3.975886821746826 0.8215119242668152 0 3
8.3267183303833 -7.274804592132568 3.920668363571167 0.7404255867004395 0 3
8.264784812927246 -7.286366939544678 3.906863212585449 0.7430418133735657 0 3
8.20328140258789 -7.2978515625 3.893242120742798 0.7456423044204712 0 3
8.142226219177246 -7.309218406677246 3.8797826766967773 0.7482280135154724 0 3
8.113847732543945 -7.349804401397705 3.8819377422332764 0.5797885656356812 0 3
8.123964309692383 -7.42556619644165 3.9026670455932617 0.7472326755523682 0 3
8.062792778015137 -7.436347484588623 3.8892791271209717 0.7498050332069397 0 3
8.0020112991333 -7.447089672088623 3.876060724258423 0.7523623108863831 0 3
7.941699028015137 -7.457714557647705 3.8630101680755615 0.75490403175354 0 3
7.881757736206055 -7.468281269073486 3.850125551223755 0.7574307918548584 0 3
7.822226524353027 -7.47878885269165 3.83740234375 0.7599421143531799 0 3
7.763124942779541 -7.489218711853027 3.8248393535614014 0.7624380588531494 0 3
7.704335689544678 -7.499570369720459 3.812434673309326 0.7649168372154236 0 3
7.645956993103027 -7.50988245010376 3.8001861572265625 0.7673822045326233 0 3
7.587968349456787 -7.520116806030273 3.788090705871582 0.7698323130607605 0 3
17.16206932067871 17.162050247192383 8.15456485748291 0.29829078912734985 0 9
17.196502685546875 17.04281234741211 8.13449478149414 0.2990266680717468 0 9
17.231054306030273 16.9244327545166 8.114829063415527 0.29975154995918274 0 9
17.265722274780273 16.806894302368164 8.095547676086426 0.3004654049873352 0 9
17.300506591796875 16.690195083618164 8.076662063598633 0.30116772651672363 0 9
17.335430145263672 16.57435417175293 8.058174133300781 0.3018588423728943 0 9
15.324589729309082 14.520683288574219 7.0930681228637695 0.7409919500350952 0 9
15.411718368530273 14.472538948059082 7.10326623916626 0.7399279475212097 0 9
15.499178886413574 14.424296379089355 7.113663673400879 0.7388468384742737 0 9
15.5869140625 14.375956535339355 7.1242499351501465 0.7377487421035767 0 9
15.674960136413574 14.327519416809082 7.135037899017334 0.73663330078125 0 9
15.763339042663574 14.278984069824219 7.146022319793701 0.7355009317398071 0 9
15.842577934265137 14.22183609008789 7.152954578399658 0.9553390145301819 0 9
15.885936737060547 14.132518768310547 7.143793106079102 0.9565632939338684 0 9
15.92910099029541 14.043339729309082 7.134796619415283 0.9577697515487671 0 9
15.972128868103027 13.954394340515137 7.125950336456299 0.9589586853981018 0 9
16.015058517456055 13.865644454956055 7.117258548736572 0.9601296186447144 0 9
16.057811737060547 13.777050018310547 7.108720779418945 0.9612832069396973 0 9
16.100488662719727 13.68871021270752 7.100335597991943 0.9624187350273132 0 9
15.2969331741333 12.8876953125 6.720389366149902 0.8273233771324158 0 9
15.389941215515137 12.848398208618164 6.735846996307373 0.8254249095916748 0 9
15.483359336853027 12.80892562866211 6.7515177726745605 0.8235092759132385 0 9
15.577265739440918 12.76927661895752 6.767396926879883 0.8215765953063965 0 9
15.473085403442383 12.56820297241211 6.697569847106934 0.6065751314163208 0 9
15.594882011413574 12.551347732543945 6.725826740264893 0.6040269136428833 0 9
15.717714309692383 12.534394264221191 6.75447940826416 0.6014647483825684 0 9
15.84164047241211 12.517362594604492 6.78353214263916 0.5988887548446655 0 9
15.966718673706055 12.500214576721191 6.8130011558532715 0.5962985754013062 0 9
16.09294891357422 12.482929229736328 6.8428850173950195 0.5936942100524902 0 9
16.220312118530273 12.465527534484863 6.8731913566589355 0.5910761952400208 0 9
16.303203582763672 12.413261413574219 6.884627342224121 0.2561723589897156 0 9
16.127323150634766 12.165410041809082 6.78722620010376 0.2598487436771393 0 9
15.956425666809082 11.924511909484863 6.692724227905273 0.26351749897003174 0 9
15.790410041809082 11.69033145904541 6.6010026931762695 0.2671794295310974 0 9
16.741308212280273 12.278398513793945 6.9754180908203125 0.7970753908157349 0 9
16.805644989013672 12.209980010986328 6.979330062866211 0.9083338975906372 0 9
16.83492088317871 12.116190910339355 6.968835830688477 0.9097015261650085 0 9
17.044042587280273 12.150957107543945 7.032756805419922 0.7905769348144531 0 9
16.691816329956055 11.787226676940918 6.865516662597656 0.15741556882858276 0 9
17.20263671875 12.032597541809082 7.053354263305664 0.15322338044643402 0 9
17.351972579956055 12.021445274353027 7.092372417449951 0.7839316129684448 0 9
17.455760955810547 11.97777271270752 7.112764358520508 0.7816841006278992 0 9
17.45685577392578 11.863632202148438 7.091436386108398 0.7727910280227661 0 9
17.5103702545166 11.785468101501465 7.091618061065674 0.8272823691368103 0 9
17.273710250854492 11.513886451721191 6.97476863861084 0.23666909337043762 0 9
17.410194396972656 11.492323875427246 7.008981704711914 0.23551377654075623 0 9
17.469141006469727 11.419023513793945 7.012020587921143 0.2669098973274231 0 9
17.40687370300293 11.267128944396973 6.966654300689697 0.2686479687690735 0 9
17.34503936767578 11.116991996765137 6.9218621253967285 0.2703864574432373 0 9
17.973905563354492 11.40658187866211 7.152335166931152 0.23079344630241394 0 9
18.119491577148438 11.385214805603027 7.189859867095947 0.22958877682685852 0 9
18.267070770263672 11.363905906677246 7.228099822998047 0.2283741533756256 0 9
18.416601181030273 11.34261703491211 7.267056941986084 0.22714993357658386 0 9
19.47380828857422 11.87353515625 7.663114547729492 0.4072955250740051 0 9
18.36361312866211 11.083847045898438 7.206601619720459 0.18000395596027374 0 9
18.81804656982422 11.243242263793945 7.365057945251465 0.1761312186717987 0 9
19.09894561767578 11.295058250427246 7.455088138580322 0.4186606705188751 0 9
18.978300094604492 11.10904312133789 7.388458728790283 0.4224362373352051 0 9
18.85970687866211 10.92626953125 7.323115825653076 0.4262058734893799 0 9
18.743066787719727 10.746621131896973 7.25902795791626 0.4299687147140503 0 9
18.628398895263672 10.570096969604492 7.196167469024658 0.43372443318367004 0 9
18.51558494567871 10.396523475646973 7.134494304656982 0.43747371435165405 0 9
18.40462875366211 10.225820541381836 7.073981761932373 0.44121628999710083 0 9
22.155683517456055 12.180155754089355 8.494637489318848 0.6650937795639038 0 9
21.970195770263672 11.950078010559082 8.402868270874023 0.6792842149734497 0 9
22.116718292236328 11.901484489440918 8.438406944274902 0.6764233112335205 0 9
22.264530181884766 11.852460861206055 8.474428176879883 0.6735484004020691 0 9
22.413652420043945 11.80306625366211 8.5109281539917 0.6706594824790955 0 9
22.564043045043945 11.753222465515137 8.547924995422363 0.6677569150924683 0 9
22.71579933166504 11.70296859741211 8.585417747497559 0.6648404002189636 0 9
22.868886947631836 11.652265548706055 8.623432159423828 0.6619099378585815 0 9
22.95085906982422 11.564550399780273 8.634689331054688 0.8617770671844482 0 9
23.179237365722656 11.549511909484863 8.70101261138916 0.6560077667236328 0 9
23.3365421295166 11.497421264648438 8.740612030029297 0.6530360579490662 0 9
23.495330810546875 11.444902420043945 8.780743598937988 0.6500511169433594 0 9
23.65556526184082 11.391874313354492 8.821447372436523 0.6470522880554199 0 9
23.817323684692383 11.33837890625 8.86269474029541 0.6440402865409851 0 9
23.98062515258789 11.284394264221191 8.904529571533203 0.6410149931907654 0 9
24.14548683166504 11.22988224029541 8.946946144104004 0.6379759311676025 0 9
24.242870330810547 11.143105506896973 8.964402198791504 0.6144509315490723 0 9
24.245038986206055 11.012578010559082 8.946837425231934 0.2805866599082947 0 9
23.969921112060547 10.758124351501465 8.827409744262695 0.28438282012939453 0 9
23.70181655883789 10.51025390625 8.711219787597656 0.28817620873451233 0 9
23.4404296875 10.268671989440918 8.598125457763672 0.29196661710739136 0 9
24.41337776184082 10.564570426940918 8.937532424926758 0.6162983775138855 0 9
24.447772979736328 10.449453353881836 8.932860374450684 0.6166203618049622 0 9
24.482303619384766 10.334491729736328 8.928433418273926 0.6169264316558838 0 9
24.51689338684082 10.219706535339355 8.924236297607422 0.6172162890434265 0 9
24.551620483398438 10.105097770690918 8.920273780822754 0.6174904704093933 0 9
24.586444854736328 9.990644454956055 8.916553497314453 0.6177483797073364 0 9
24.62138557434082 9.87630844116211 8.913055419921875 0.6179904341697693 0 9
25.615312576293945 10.141777038574219 9.25629711151123 0.8321346640586853 0 9
32.11800765991211 12.549941062927246 11.585627555847168 0.9376793503761292 0 9
32.22132873535156 12.423925399780273 11.602673530578613 0.9363018870353699 0 9
32.3249397277832 12.29751968383789 11.61999225616455 0.9349066019058228 0 9
32.42880630493164 12.170722007751465 11.637575149536133 0.9334938526153564 0 9
32.53298568725586 12.0435152053833 11.655439376831055 0.9320629835128784 0 9
32.637420654296875 11.91591739654541 11.673576354980469 0.9306148886680603 0 9
32.74212646484375 11.787870407104492 11.691999435424805 0.92914879322052 0 9
31.60870933532715 11.219823837280273 11.2691650390625 0.27923819422721863 0 9
32.05728530883789 11.217304229736328 11.411025047302246 0.35678091645240784 0 9
32.45212936401367 11.192245483398438 11.5335693359375 0.3529900014400482 0 9
31.702518463134766 10.774765014648438 11.249860763549805 0.21677672863006592 0 9
32.26332092285156 10.804061889648438 11.43154525756836 0.21333114802837372 0 9
32.842010498046875 10.834218978881836 11.619247436523438 0.20988492667675018 0 9
32.92074203491211 10.696581840515137 11.629987716674805 0.6142362356185913 0 9
32.34220504760742 10.348359107971191 11.409101486206055 0.5842667818069458 0 9
32.309783935546875 10.178339958190918 11.381427764892578 0.4725853204727173 0 9
32.47542953491211 10.070566177368164 11.42374038696289 0.4708349406719208 0 9
32.64255905151367 9.962011337280273 11.46669864654541 0.4690711796283722 0 9
32.71492004394531 9.823808670043945 11.476506233215332 0.6224509477615356 0 9
32.85066223144531 9.704081535339355 11.508734703063965 0.48161768913269043 0 9
32.82464599609375 9.536425590515137 11.484519004821777 0.48263323307037354 0 9
33.304100036621094 9.513847351074219 11.637191772460938 0.5728143453598022 0 9
33.445430755615234 9.392069816589355 11.671735763549805 0.5711190700531006 0 9
33.587791442871094 9.269628524780273 11.706787109375 0.5694091320037842 0 9
33.73125076293945 9.146503448486328 11.742353439331055 0.5676846504211426 0 9
33.87574005126953 9.022656440734863 11.77843952178955 0.5659452676773071 0 9
25.86214828491211 -6.270351409912109 8.940967559814453 0.38008975982666016 0 3
25.57173728942871 -6.321601390838623 8.850287437438965 0.38398388028144836 0 3
25.287187576293945 -6.371796607971191 8.761616706848145 0.38787004351615906 0 3
25.03158187866211 -6.426991939544678 8.682955741882324 0.43196630477905273 0 3
24.783260345458984 -6.48193359375 8.606813430786133 0.43578800559043884 0 3
24.532636642456055 -6.534199237823486 8.529878616333008 0.38538795709609985 0 3
24.29245948791504 -6.587089538574219 8.456549644470215 0.3391091227531433 0 3
24.059432983398438 -6.639960765838623 8.38573932647705 0.3930834233760834 0 3
23.797266006469727 -6.682675838470459 8.304723739624023 0.39691779017448425 0 3
23.540117263793945 -6.724609375 8.22544002532959 0.40074408054351807 0 3
23.287870407104492 -6.765722274780273 8.14781379699707 0.4045596718788147 0 3
23.040311813354492 -6.806093692779541 8.071815490722656 0.40836501121520996 0 3
9.087167739868164 -2.7287304401397705 3.1878063678741455 0.9030454754829407 0 6
9.079355239868164 -2.7708592414855957 3.1893980503082275 0.8419067859649658 0 6
22.324647903442383 -6.922832012176514 7.853036403656006 0.4197417199611664 0 3
22.05757713317871 -6.948671817779541 7.76999568939209 0.48376721143722534 0 3
21.858163833618164 -6.993847370147705 7.710722923278809 0.4874860644340515 0 3
21.661718368530273 -7.038320064544678 7.652493000030518 0.49119529128074646 0 3
21.473867416381836 -7.083964824676514 7.597273349761963 0.5330165028572083 0 3
21.271562576293945 -7.123261451721191 7.536947250366211 0.4985881447792053 0 3
21.08365249633789 -7.165702819824219 7.481682777404785 0.5022709369659424 0 3
20.898418426513672 -7.20751953125 7.4273505210876465 0.505945086479187 0 3
20.71578025817871 -7.248749732971191 7.373934745788574 0.5096098780632019 0 3
20.544336318969727 -7.292402267456055 7.324483871459961 0.5503433346748352 0 3
20.383203506469727 -7.338398456573486 7.278703212738037 0.47125619649887085 0 3
20.192089080810547 -7.372109413146973 7.222199440002441 0.4749433994293213 0 3
20.00390625 -7.405332088470459 7.166701316833496 0.47862112522125244 0 3
19.62908172607422 -7.366913795471191 7.044194221496582 0.48608505725860596 0 3
19.449472427368164 -7.399238109588623 6.9915771484375 0.4897429645061493 0 3
19.272480010986328 -7.431093692779541 6.939879417419434 0.49339133501052856 0 3
19.098066329956055 -7.462480068206787 6.889073371887207 0.4970301389694214 0 3
18.92298698425293 -7.492109298706055 6.8379693031311035 0.49017009139060974 0 3
18.915584564208984 -7.587577819824219 6.847529888153076 0.8067760467529297 0 3
18.76298713684082 -7.624277114868164 6.804596424102783 0.5040911436080933 0 3
14.875136375427246 -6.122402191162109 5.404547214508057 0.5077357292175293 0 3
14.668007850646973 -6.1142578125 5.339205741882324 0.5112774968147278 0 3
14.538671493530273 -6.137070178985596 5.302103042602539 0.5148555040359497 0 3
14.411112785339355 -6.159589767456055 5.265614986419678 0.5184231996536255 0 3
14.344257354736328 -6.207284927368164 5.2513041496276855 0.3140716850757599 0 3
14.315897941589355 -6.271425724029541 5.251167297363281 0.3141116797924042 0 3
14.273202896118164 -6.329237937927246 5.245884895324707 0.5054914951324463 0 3
14.146268844604492 -6.349081993103027 5.209650039672852 0.5090072154998779 0 3
14.021093368530273 -6.368632793426514 5.174015522003174 0.512512743473053 0 3
13.897597312927246 -6.387948989868164 5.138978958129883 0.5160071849822998 0 3
13.77578067779541 -6.406991958618164 5.104512691497803 0.5194911956787109 0 3
13.655585289001465 -6.425800800323486 5.070615291595459 0.5229639410972595 0 3
13.53701114654541 -6.444355487823486 5.037271499633789 0.526425838470459 0 3
13.4199800491333 -6.46267557144165 5.00446891784668 0.5298764109611511 0 3
