ply
format ascii 1.0
element vertex 580
property float32 x
property float32 y
property float32 z
property float32 CosAngle
property uint32 ObjIdx
property uint32 ObjTag
end_header
1.6364648342132568 -0.409912109375 -0.48749250173568726 0.015530228614807129 2915 14
1.6244921684265137 -0.41462889313697815 -0.4844694435596466 0.01562678813934326 2915 14
1.6121093034744263 -0.41914060711860657 -0.4813343584537506 0.01572936773300171 2915 14
1.5993359088897705 -0.42344725131988525 -0.4780779778957367 0.015836447477340698 2915 14
1.58621084690094 -0.4275488257408142 -0.47472259402275085 0.01594790816307068 2915 14
1.5727343559265137 -0.4314550757408142 -0.47126325964927673 0.01606735587120056 2915 14
1.5589648485183716 -0.4351757764816284 -0.46770843863487244 0.016187191009521484 2915 14
1.5448827743530273 -0.43868163228034973 -0.464070588350296 0.01631474494934082 2915 14
1.5305273532867432 -0.4419921636581421 -0.46034300327301025 0.016446173191070557 2915 14
1.5159178972244263 -0.44511717557907104 -0.45653989911079407 0.016583234071731567 2915 14
1.5010350942611694 -0.4480370879173279 -0.4526617228984833 0.016726791858673096 2915 14
1.4859570264816284 -0.45076170563697815 -0.44871488213539124 0.01687413454055786 2915 14
1.4771093130111694 -0.45527341961860657 -0.44664686918258667 0.17094504833221436 2915 14
1.4749804735183716 -0.4618456959724426 -0.44662612676620483 0.17095254361629486 2915 14
1.4728124141693115 -0.4683886468410492 -0.44659972190856934 0.17096443474292755 2915 14
1.470605492591858 -0.47493162751197815 -0.4465682804584503 0.1709766536951065 2915 14
1.468359351158142 -0.4814453125 -0.44653090834617615 0.17099006474018097 2915 14
1.4660351276397705 -0.4879492223262787 -0.44648849964141846 0.17100736498832703 2915 14
1.4636913537979126 -0.4944238066673279 -0.4464404284954071 0.17102554440498352 2915 14
1.4613085985183716 -0.5008984208106995 -0.4463868737220764 0.17104412615299225 2915 14
1.4588671922683716 -0.5073437094688416 -0.4463281035423279 0.17106761038303375 2915 14
1.456386685371399 -0.5137792825698853 -0.44626373052597046 0.1710914671421051 2915 14
1.4538280963897705 -0.5201953053474426 -0.4461941421031952 0.17111963033676147 2915 14
1.4512499570846558 -0.5265917778015137 -0.4461187720298767 0.1711486130952835 2915 14
1.448632836341858 -0.5329492092132568 -0.4460383653640747 0.17117935419082642 2915 14
1.4459569454193115 -0.539306640625 -0.4459521472454071 0.1712135523557663 2915 14
1.4432421922683716 -0.5456445217132568 -0.445860892534256 0.17124897241592407 2915 14
1.440468668937683 -0.5519628524780273 -0.4457640051841736 0.17128533124923706 2915 14
1.4376757144927979 -0.5582616925239563 -0.44566208124160767 0.1713229864835739 2915 14
1.4348242282867432 -0.5645312666893005 -0.44555434584617615 0.1713651716709137 2915 14
1.4319335222244263 -0.5707812309265137 -0.4454415738582611 0.17140808701515198 2915 14
1.42898428440094 -0.5770117044448853 -0.44532346725463867 0.1714557260274887 2915 14
1.4259960651397705 -0.5832226276397705 -0.4451994299888611 0.17150114476680756 2915 14
1.4229687452316284 -0.5894140601158142 -0.4450708031654358 0.1715511977672577 2915 14
1.4199023246765137 -0.5955761671066284 -0.44493651390075684 0.17160286009311676 2915 14
1.41677725315094 -0.6017089486122131 -0.4447968900203705 0.17165865004062653 2915 14
1.4136327505111694 -0.6078320145606995 -0.44465208053588867 0.1717126965522766 2915 14
1.4104101657867432 -0.6139257550239563 -0.4445017874240875 0.17177140712738037 2915 14
1.407167911529541 -0.6200000047683716 -0.4443466067314148 0.1718316227197647 2915 14
1.4038866758346558 -0.6260546445846558 -0.44418594241142273 0.17189285159111023 2915 14
1.4005663394927979 -0.6320703029632568 -0.4440200626850128 0.17195594310760498 2915 14
1.3972070217132568 -0.6380761861801147 -0.44385451078414917 0.1723465472459793 2915 14
1.3937890529632568 -0.6440624594688416 -0.4436851441860199 0.1724136471748352 2915 14
1.3903710842132568 -0.6500195264816284 -0.44351059198379517 0.1724795550107956 2915 14
1.3868944644927979 -0.655957043170929 -0.4433309733867645 0.17254993319511414 2915 14
1.3833788633346558 -0.6618554592132568 -0.4431460499763489 0.17262211441993713 2915 14
1.3798046112060547 -0.6677343845367432 -0.4429560899734497 0.1726963222026825 2915 14
1.3762109279632568 -0.6735937595367432 -0.44276106357574463 0.17277184128761292 2915 14
1.3725781440734863 -0.6794238090515137 -0.4425608813762665 0.17284932732582092 2915 14
1.3689062595367432 -0.6852148175239563 -0.4423559606075287 0.17292910814285278 2915 14
1.365175724029541 -0.6909863352775574 -0.44214537739753723 0.17301367223262787 2915 14
1.3614062070846558 -0.6967382431030273 -0.44193023443222046 0.1730966866016388 2915 14
1.3575975894927979 -0.7024609446525574 -0.4417097270488739 0.17318478226661682 2915 14
1.3537695407867432 -0.70814448595047 -0.441484659910202 0.17327208817005157 2915 14
1.3526562452316284 -0.7152636647224426 -0.4421558976173401 0.11666564643383026 2915 14
1.3537499904632568 -0.723583996295929 -0.4435626268386841 0.11629574000835419 2915 14
1.3547850847244263 -0.73193359375 -0.44496580958366394 0.11592887341976166 2915 14
1.3557422161102295 -0.7402929663658142 -0.4463665783405304 0.11556555330753326 2915 14
1.3566601276397705 -0.74867182970047 -0.44776350259780884 0.11520490050315857 2915 14
1.357519507408142 -0.7570703029632568 -0.4491572380065918 0.11484724283218384 2915 14
1.3583202362060547 -0.7654784917831421 -0.4505470097064972 0.11449337005615234 2915 14
1.3590624332427979 -0.7739062309265137 -0.451932817697525 0.11414197087287903 2915 14
1.3597460985183716 -0.7823535203933716 -0.45331525802612305 0.11379329860210419 2915 14
1.3603515625 -0.7908007502555847 -0.4546928405761719 0.11344893276691437 2915 14
1.3608983755111694 -0.7992773056030273 -0.4560662806034088 0.11310786008834839 2915 14
1.3614062070846558 -0.80775386095047 -0.4574354588985443 0.11276891827583313 2915 14
1.3618359565734863 -0.8162499666213989 -0.45879927277565 0.11243373155593872 2915 14
1.362207055091858 -0.824755847454071 -0.46015793085098267 0.11210125684738159 2915 14
1.3625195026397705 -0.8332714438438416 -0.4615122973918915 0.1117718517780304 2915 14
1.362734317779541 -0.841796875 -0.4628608524799347 0.11144691705703735 2915 14
1.3629101514816284 -0.8503222465515137 -0.4642041027545929 0.11112552881240845 2915 14
1.3630273342132568 -0.8588671684265137 -0.46554136276245117 0.11080500483512878 2915 14
1.3630664348602295 -0.8674120903015137 -0.46687284111976624 0.11049000918865204 2915 14
1.3630468845367432 -0.8759667873382568 -0.4681982398033142 0.11017677187919617 2915 14
1.3629297018051147 -0.8845312595367432 -0.4695174992084503 0.10986752808094025 2915 14
1.3627734184265137 -0.8930858969688416 -0.47082945704460144 0.1095617413520813 2915 14
1.3625586032867432 -0.901660144329071 -0.47213590145111084 0.10925665497779846 2915 14
1.362246036529541 -0.9102246165275574 -0.4734344482421875 0.10895910859107971 2915 14
1.3618944883346558 -0.9187988042831421 -0.4747268557548523 0.10866086184978485 2915 14
1.3614453077316284 -0.9273730516433716 -0.4760114848613739 0.10836872458457947 2915 14
1.3609179258346558 -0.9359374642372131 -0.47728803753852844 0.10807926952838898 2915 14
1.3603515625 -0.9445117115974426 -0.4785575866699219 0.10779079794883728 2915 14
1.359706997871399 -0.9530761241912842 -0.47981902956962585 0.10750707983970642 2915 14
1.358984351158142 -0.9616405963897705 -0.4810729920864105 0.10722735524177551 2915 14
1.3581836223602295 -0.9701952934265137 -0.4823175072669983 0.10695144534111023 2915 14
1.3573046922683716 -0.9787499904632568 -0.48355451226234436 0.10667720437049866 2915 14
1.356347680091858 -0.9873046875 -0.4847823977470398 0.10640779137611389 2915 14
1.3553320169448853 -0.9958398342132568 -0.4860011041164398 0.10614147782325745 2915 14
1.3542382717132568 -1.0043749809265137 -0.48721083998680115 0.10587786138057709 2915 14
1.3530858755111694 -1.0128905773162842 -0.48841139674186707 0.1056160032749176 2915 14
1.3518359661102295 -1.0214061737060547 -0.48960235714912415 0.10535970330238342 2915 14
1.3505077362060547 -1.0299023389816284 -0.49078369140625 0.10510599613189697 2915 14
1.3491015434265137 -1.0383886098861694 -0.4919548034667969 0.10485726594924927 2915 14
1.3476366996765137 -1.0468652248382568 -0.4931161403656006 0.10460984706878662 2915 14
1.346093773841858 -1.055332064628601 -0.4942668080329895 0.10436514019966125 2915 14
1.3444530963897705 -1.0637792348861694 -0.49540647864341736 0.10412609577178955 2915 14
1.3427343368530273 -1.072206974029541 -0.4965362548828125 0.10388925671577454 2915 14
1.341210961341858 -1.0808203220367432 -0.4977473318576813 0.10635602474212646 2915 14
1.33984375 -1.0896093845367432 -0.49903884530067444 0.10608173906803131 2915 14
1.3383984565734863 -1.098388671875 -0.5003213286399841 0.10580964386463165 2915 14
1.3368945121765137 -1.1071581840515137 -0.5015945434570312 0.10554006695747375 2915 14
1.3352733850479126 -1.1159179210662842 -0.5028590559959412 0.10527583956718445 2915 14
1.333593726158142 -1.124668002128601 -0.5041133165359497 0.1050143837928772 2915 14
1.3318554162979126 -1.133398413658142 -0.5053578019142151 0.10475499927997589 2915 14
1.330019474029541 -1.1421191692352295 -0.5065925717353821 0.10450020432472229 2915 14
1.328125 -1.150820255279541 -0.507816731929779 0.10424715280532837 2915 14
1.326113224029541 -1.1595019102096558 -0.509030282497406 0.1039993017911911 2915 14
1.324062466621399 -1.1681640148162842 -0.5102332830429077 0.1037529855966568 2915 14
4.380214691162109 -3.899365186691284 -1.6946325302124023 0.278601735830307 0 2
4.362851619720459 -3.9189257621765137 -1.6946563720703125 0.2785976529121399 0 2
4.345370769500732 -3.938417911529541 -1.6946805715560913 0.27859365940093994 0 2
4.327831745147705 -3.95782208442688 -1.6947046518325806 0.27858966588974 0 2
4.310175895690918 -3.9771580696105957 -1.6947290897369385 0.2785857319831848 0 2
4.292441368103027 -3.996406078338623 -1.6947535276412964 0.27858179807662964 0 2
4.274648189544678 -4.015585899353027 -1.6947780847549438 0.2785772979259491 0 2
4.256738185882568 -4.034677505493164 -1.6948027610778809 0.2785734236240387 0 2
4.238749980926514 -4.053681373596191 -1.6948275566101074 0.2785692811012268 0 2
4.220683574676514 -4.072617053985596 -1.694852590560913 0.2785654664039612 0 2
4.202519416809082 -4.091474533081055 -1.6948776245117188 0.27856138348579407 0 2
4.184296607971191 -4.110253810882568 -1.6949026584625244 0.27855703234672546 0 2
4.165976524353027 -4.128945350646973 -1.6949279308319092 0.27855271100997925 0 2
4.332441329956055 4.332421779632568 -1.797797679901123 0.2824888527393341 0 1
4.351660251617432 4.312978267669678 -1.7977710962295532 0.2824931740760803 0 1
4.370800495147705 4.29345703125 -1.7977447509765625 0.2824975848197937 0 1
4.389843463897705 4.273837566375732 -1.7977182865142822 0.28250181674957275 0 1
4.408808708190918 4.254150390625 -1.7976921796798706 0.2825055420398712 0 1
4.427695274353027 4.234375 -1.7976659536361694 0.2825096845626831 0 1
4.446484088897705 4.214511394500732 -1.797640085220337 0.2825136184692383 0 1
4.465156078338623 4.194570064544678 -1.7976142168045044 0.2825182378292084 0 1
4.483788967132568 4.174540996551514 -1.7975884675979614 0.2825217843055725 0 1
4.502304553985596 4.154433727264404 -1.7975629568099976 0.2825257182121277 0 1
4.520741939544678 4.134238243103027 -1.7975374460220337 0.2825300395488739 0 1
4.539082050323486 4.113974571228027 -1.797512173652649 0.28253358602523804 0 1
4.557323932647705 4.093613147735596 -1.7974867820739746 0.2825378179550171 0 1
4.575488090515137 4.073183536529541 -1.7974618673324585 0.2825419008731842 0 1
4.593554496765137 4.052665710449219 -1.7974368333816528 0.2825454771518707 0 1
4.611523151397705 4.032070159912109 -1.7974120378494263 0.2825494408607483 0 1
4.629414081573486 4.011396408081055 -1.7973873615264893 0.2825535833835602 0 1
4.647206783294678 3.9906444549560547 -1.7973626852035522 0.2825571298599243 0 1
4.664902210235596 3.9698143005371094 -1.7973382472991943 0.2825608551502228 0 1
4.682499885559082 3.948906183242798 -1.797313928604126 0.2825653553009033 0 1
4.700019359588623 3.927919864654541 -1.7972897291183472 0.28256869316101074 0 1
4.717421531677246 3.9068455696105957 -1.7972655296325684 0.28257280588150024 0 1
4.734765529632568 3.8857030868530273 -1.7972418069839478 0.28257638216018677 0 1
4.751992225646973 3.8644824028015137 -1.7972179651260376 0.28258010745048523 0 1
4.769121170043945 3.843193292617798 -1.7971941232681274 0.28258371353149414 0 1
4.786171913146973 3.8218162059783936 -1.797170639038086 0.2825877070426941 0 1
4.803105354309082 3.800370931625366 -1.7971471548080444 0.2825915515422821 0 1
4.819960594177246 3.7788572311401367 -1.7971240282058716 0.28259462118148804 0 1
4.836718559265137 3.757265567779541 -1.7971007823944092 0.28259846568107605 0 1
4.853378772735596 3.735595703125 -1.7970777750015259 0.28260180354118347 0 1
4.869921684265137 3.713857412338257 -1.7970548868179321 0.28260567784309387 0 1
4.886386394500732 3.692031145095825 -1.797032117843628 0.2826092541217804 0 1
4.902753829956055 3.6701464653015137 -1.7970095872879028 0.2826131284236908 0 1
4.919023513793945 3.648183584213257 -1.7969870567321777 0.2826164662837982 0 1
4.935194969177246 3.626162052154541 -1.7969646453857422 0.2826194167137146 0 1
4.951269626617432 3.6040525436401367 -1.7969423532485962 0.28262344002723694 0 1
4.967246055603027 3.5818748474121094 -1.7969204187393188 0.2826266586780548 0 1
4.983105182647705 3.559638500213623 -1.7968984842300415 0.28263020515441895 0 1
4.998886585235596 3.5373144149780273 -1.7968767881393433 0.28263407945632935 0 1
5.014570236206055 3.5149316787719727 -1.7968549728393555 0.28263694047927856 0 1
5.030136585235596 3.4924802780151367 -1.7968335151672363 0.28264036774635315 0 1
5.045605182647705 3.469960927963257 -1.7968120574951172 0.2826436758041382 0 1
5.060996055603027 3.4473631381988525 -1.7967908382415771 0.28264710307121277 0 1
5.076250076293945 3.4247069358825684 -1.796769618988037 0.2826508581638336 0 1
5.091425895690918 3.401982307434082 -1.7967487573623657 0.28265380859375 0 1
5.106503963470459 3.3791894912719727 -1.7967278957366943 0.28265732526779175 0 1
5.121464729309082 3.356328010559082 -1.796707272529602 0.28266072273254395 0 1
5.136328220367432 3.3333983421325684 -1.7966866493225098 0.282664030790329 0 1
5.151093482971191 3.3104100227355957 -1.7966662645339966 0.282666951417923 0 1
5.165781021118164 3.287353515625 -1.7966461181640625 0.2826697528362274 0 1
5.180331707000732 3.264228343963623 -1.7966259717941284 0.2826731503009796 0 1
5.194785118103027 3.241044759750366 -1.7966058254241943 0.28267619013786316 0 1
5.209120750427246 3.2177929878234863 -1.7965859174728394 0.28267982602119446 0 1
5.223398208618164 3.1944823265075684 -1.7965664863586426 0.2826823890209198 0 1
5.237538814544678 3.1711034774780273 -1.7965466976165771 0.2826855480670929 0 1
5.251582145690918 3.1476659774780273 -1.79652738571167 0.28268834948539734 0 1
5.265507698059082 3.1241698265075684 -1.7965081930160522 0.28269174695014954 0 1
5.279355525970459 3.1006054878234863 -1.796488881111145 0.28269481658935547 0 1
5.293086051940918 3.076982259750366 -1.796470046043396 0.28269752860069275 0 1
5.306699275970459 3.053300619125366 -1.7964510917663574 0.2827005684375763 0 1
5.320214748382568 3.0295605659484863 -1.7964324951171875 0.28270331025123596 0 1
5.333632469177246 3.005751848220825 -1.7964138984680176 0.2827066481113434 0 1
5.346933364868164 2.9818944931030273 -1.7963955402374268 0.28270938992500305 0 1
5.36013650894165 2.9579687118530273 -1.796377182006836 0.28271201252937317 0 1
5.373222351074219 2.9339940547943115 -1.7963591814041138 0.2827150225639343 0 1
5.386210918426514 2.909960985183716 -1.7963411808013916 0.2827182114124298 0 1
5.399081707000732 2.885859251022339 -1.796323537826538 0.28272125124931335 0 1
5.411855220794678 2.861708879470825 -1.796305775642395 0.2827237546443939 0 1
5.424511432647705 2.8374998569488525 -1.796288251876831 0.28272661566734314 0 1
5.437089920043945 2.8132519721984863 -1.7962708473205566 0.28272897005081177 0 1
5.449531078338623 2.7889256477355957 -1.7962536811828613 0.2827318608760834 0 1
5.461874961853027 2.7645604610443115 -1.796236515045166 0.28273406624794006 0 1
5.474101543426514 2.740126848220825 -1.7962197065353394 0.28273680806159973 0 1
5.486210823059082 2.715644359588623 -1.7962030172348022 0.2827397584915161 0 1
5.498241901397705 2.691113233566284 -1.7961863279342651 0.28274235129356384 0 1
5.510136604309082 2.6665234565734863 -1.7961698770523071 0.2827451527118683 0 1
5.521933555603027 2.6418848037719727 -1.7961535453796387 0.28274741768836975 0 1
5.533613204956055 2.6171875 -1.7961373329162598 0.2827500104904175 0 1
5.545175552368164 2.592460870742798 -1.79612135887146 0.2827526926994324 0 1
5.556660175323486 2.5676562786102295 -1.7961056232452393 0.28275516629219055 0 1
5.568007469177246 2.5428123474121094 -1.796089768409729 0.2827576994895935 0 1
5.579257488250732 2.5179295539855957 -1.7960741519927979 0.2827596366405487 0 1
5.590371131896973 2.492978572845459 -1.7960588932037354 0.282762736082077 0 1
5.601406097412109 2.4679784774780273 -1.7960436344146729 0.28276529908180237 0 1
5.612324237823486 2.442939281463623 -1.7960286140441895 0.2827671468257904 0 1
5.623125076293945 2.417861223220825 -1.796013593673706 0.28276917338371277 0 1
5.633808612823486 2.392714738845825 -1.7959988117218018 0.28277161717414856 0 1
5.644374847412109 2.3675291538238525 -1.795984148979187 0.28277409076690674 0 1
5.654843807220459 2.3423047065734863 -1.7959696054458618 0.282776802778244 0 1
5.665194988250732 2.317021369934082 -1.7959554195404053 0.28277894854545593 0 1
5.675429344177246 2.291699171066284 -1.7959412336349487 0.28278112411499023 0 1
5.685546875 2.2663378715515137 -1.7959272861480713 0.28278353810310364 0 1
5.695566177368164 2.2409276962280273 -1.7959133386611938 0.28278523683547974 0 1
5.705449104309082 2.215468645095825 -1.7958996295928955 0.28278791904449463 0 1
5.715253829956055 2.1899707317352295 -1.7958861589431763 0.28279006481170654 0 1
5.724921703338623 2.164433479309082 -1.7958728075027466 0.2827920913696289 0 1
5.73449182510376 2.138847589492798 -1.795859456062317 0.28279370069503784 0 1
5.74392557144165 2.113222599029541 -1.7958464622497559 0.2827960252761841 0 1
5.753261566162109 2.0875487327575684 -1.7958335876464844 0.28279775381088257 0 1
5.762499809265137 2.061845541000366 -1.795820713043213 0.2827995717525482 0 1
5.771582126617432 2.0360937118530273 -1.79580819606781 0.2828022241592407 0 1
5.780566215515137 2.010312557220459 -1.7957959175109863 0.2828041911125183 0 1
5.789453029632568 1.984472632408142 -1.795783519744873 0.28280553221702576 0 1
5.798202991485596 1.9586132764816284 -1.7957714796066284 0.2828076183795929 0 1
5.806835651397705 1.932705044746399 -1.7957594394683838 0.2828097641468048 0 1
5.815390586853027 1.9067480564117432 -1.7957476377487183 0.28281131386756897 0 1
5.823789119720459 1.8807713985443115 -1.7957358360290527 0.2828136086463928 0 1
5.832089900970459 1.8547461032867432 -1.7957243919372559 0.28281521797180176 0 1
5.840273380279541 1.828701138496399 -1.795713186264038 0.28281670808792114 0 1
5.848339557647705 1.8026074171066284 -1.7957018613815308 0.2828182876110077 0 1
5.856269359588623 1.7764843702316284 -1.7956910133361816 0.2828207314014435 0 1
5.864120960235596 1.7503124475479126 -1.7956801652908325 0.2828224301338196 0 1
5.871835708618164 1.72412109375 -1.7956695556640625 0.2828240990638733 0 1
5.879433631896973 1.6978906393051147 -1.795658826828003 0.2828257083892822 0 1
5.886913776397705 1.671630859375 -1.7956485748291016 0.28282737731933594 0 1
5.894277095794678 1.6453319787979126 -1.7956384420394897 0.28282901644706726 0 1
5.901542663574219 1.6190038919448853 -1.795628309249878 0.2828298807144165 0 1
5.908671855926514 1.5926367044448853 -1.7956185340881348 0.2828323245048523 0 1
5.915683269500732 1.566249966621399 -1.7956087589263916 0.28283390402793884 0 1
5.922597408294678 1.539833903312683 -1.7955992221832275 0.28283464908599854 0 1
5.929374694824219 1.5133788585662842 -1.7955896854400635 0.2828361392021179 0 1
5.93603515625 1.486904263496399 -1.795580506324768 0.28283756971359253 0 1
5.942577838897705 1.4603807926177979 -1.7955714464187622 0.2828390598297119 0 1
5.949023246765137 1.4338476657867432 -1.795562505722046 0.28284040093421936 0 1
5.955331802368164 1.4072850942611694 -1.7955538034439087 0.2828417420387268 0 1
5.961523532867432 1.3806835412979126 -1.7955453395843506 0.2828429937362671 0 1
5.967577934265137 1.3540624380111694 -1.795536756515503 0.28284499049186707 0 1
5.973535060882568 1.3274023532867432 -1.795528531074524 0.2828461527824402 0 1
5.979374885559082 1.3007323741912842 -1.7955204248428345 0.28284716606140137 0 1
5.985077857971191 1.2740331888198853 -1.7955126762390137 0.28284895420074463 0 1
5.990703105926514 1.2473046779632568 -1.7955046892166138 0.2828497886657715 0 1
5.996191501617432 1.220556616783142 -1.7954972982406616 0.28285056352615356 0 1
6.001543045043945 1.1937792301177979 -1.79548978805542 0.2828521132469177 0 1
6.006777286529541 1.1669824123382568 -1.7954823970794678 0.2828534245491028 0 1
6.011894226074219 1.1401562690734863 -1.7954754829406738 0.28285476565361023 0 1
6.016894340515137 1.113320231437683 -1.7954684495925903 0.28285592794418335 0 1
6.021816253662109 1.0864453315734863 -1.795461654663086 0.28285619616508484 0 1
6.026562213897705 1.0595605373382568 -1.7954550981521606 0.2828579545021057 0 1
6.031210899353027 1.032656192779541 -1.7954485416412354 0.28285878896713257 0 1
6.035742282867432 1.0057226419448853 -1.7954423427581787 0.2828594446182251 0 1
6.040136814117432 0.9787792563438416 -1.7954362630844116 0.2828608453273773 0 1
6.04443359375 0.9518163800239563 -1.795430302619934 0.28286126255989075 0 1
6.048593521118164 0.9248339533805847 -1.795424461364746 0.2828623652458191 0 1
6.052656173706055 0.8978222608566284 -1.7954188585281372 0.2828633487224579 0 1
6.056581974029541 0.8708007335662842 -1.7954134941101074 0.28286421298980713 0 1
6.060390472412109 0.8437694907188416 -1.7954081296920776 0.28286486864089966 0 1
6.06408166885376 0.8167187571525574 -1.795403003692627 0.28286537528038025 0 1
6.067636489868164 0.7896386384963989 -1.7953981161117554 0.28286659717559814 0 1
6.07107400894165 0.7625488042831421 -1.7953933477401733 0.2828676998615265 0 1
6.074413776397705 0.7354491949081421 -1.7953885793685913 0.28286775946617126 0 1
6.077617168426514 0.7083398103713989 -1.795384168624878 0.28286847472190857 0 1
6.080722332000732 0.681201159954071 -1.795379877090454 0.28286901116371155 0 1
6.083671569824219 0.6540625095367432 -1.7953758239746094 0.28287023305892944 0 1
6.086523532867432 0.626904308795929 -1.7953717708587646 0.28287047147750854 0 1
6.089238166809082 0.5997363328933716 -1.795367956161499 0.2828713357448578 0 1
6.091835975646973 0.572558581829071 -1.7953643798828125 0.2828720211982727 0 1
6.094316482543945 0.5453710556030273 -1.795361042022705 0.2828725576400757 0 1
6.0966796875 0.5181542634963989 -1.795357584953308 0.2828729450702667 0 1
6.098945140838623 0.49094724655151367 -1.7953546047210693 0.28287309408187866 0 1
6.101054668426514 0.46373045444488525 -1.795351505279541 0.28287386894226074 0 1
6.103046894073486 0.4364941418170929 -1.7953487634658813 0.28287452459335327 0 1
6.104921817779541 0.40925779938697815 -1.7953461408615112 0.2828749716281891 0 1
6.106679439544678 0.3820117115974426 -1.7953437566757202 0.2828752398490906 0 1
6.108320236206055 0.35475584864616394 -1.7953414916992188 0.28287526965141296 0 1
6.109824180603027 0.32749998569488525 -1.7953393459320068 0.2828759551048279 0 1
6.111230373382568 0.3002246022224426 -1.7953373193740845 0.282875657081604 0 1
6.112499713897705 0.27294921875 -1.7953356504440308 0.28287678956985474 0 1
6.113652229309082 0.2456640601158142 -1.795333981513977 0.2828769087791443 0 1
6.114687442779541 0.21837890148162842 -1.795332431793213 0.2828768193721771 0 1
6.115585803985596 0.19109374284744263 -1.7953312397003174 0.2828773856163025 0 1
6.116366863250732 0.16379882395267487 -1.7953301668167114 0.28287774324417114 0 1
6.117050647735596 0.1365039050579071 -1.7953290939331055 0.2828770875930786 0 1
6.117578029632568 0.10920897871255875 -1.7953283786773682 0.2828778624534607 0 1
6.118027210235596 0.08190429210662842 -1.7953276634216309 0.2828776240348816 0 1
6.118319988250732 0.05460937321186066 -1.7953273057937622 0.28287801146507263 0 1
6.118495941162109 0.02730468660593033 -1.7953269481658936 0.28287822008132935 0 1
6.118574142456055 -0.0 -1.795326828956604 0.2828773558139801 0 1
6.118495941162109 -0.02730468660593033 -1.7953269481658936 0.28287801146507263 0 1
6.118319988250732 -0.05460937321186066 -1.795327067375183 0.2828775644302368 0 1
6.118007659912109 -0.08191405981779099 -1.7953275442123413 0.2828778028488159 0 1
6.117578029632568 -0.10920897871255875 -1.7953280210494995 0.2828778326511383 0 1
6.117050647735596 -0.13651366531848907 -1.7953287363052368 0.282877653837204 0 1
6.116386413574219 -0.16380858421325684 -1.7953296899795532 0.28287726640701294 0 1
6.115605354309082 -0.1911035180091858 -1.7953307628631592 0.28287672996520996 0 1
6.114687442779541 -0.2183886617422104 -1.7953319549560547 0.28287678956985474 0 1
6.113652229309082 -0.24567382037639618 -1.7953333854675293 0.2828766107559204 0 1
6.112499713897705 -0.2729589641094208 -1.7953349351882935 0.28287631273269653 0 1
6.111230373382568 -0.3002246022224426 -1.7953366041183472 0.28287574648857117 0 1
6.109824180603027 -0.3274902403354645 -1.79533851146698 0.2828758656978607 0 1
6.108320236206055 -0.35475584864616394 -1.7953405380249023 0.28287577629089355 0 1
6.106679439544678 -0.3820117115974426 -1.7953428030014038 0.28287550806999207 0 1
6.104921817779541 -0.40925779938697815 -1.7953453063964844 0.28287503123283386 0 1
6.103046894073486 -0.4364941418170929 -1.795347809791565 0.28287437558174133 0 1
6.101035118103027 -0.46373045444488525 -1.7953505516052246 0.28287437558174133 0 1
6.098925590515137 -0.49095702171325684 -1.7953534126281738 0.2828733026981354 0 1
6.0966796875 -0.5181640386581421 -1.7953563928604126 0.2828729450702667 0 1
6.094336032867432 -0.545361340045929 -1.79535973072052 0.28287237882614136 0 1
6.091835975646973 -0.572558581829071 -1.7953630685806274 0.2828724682331085 0 1
6.089238166809082 -0.5997363328933716 -1.795366644859314 0.2828715443611145 0 1
6.086503982543945 -0.626904308795929 -1.7953704595565796 0.282871276140213 0 1
6.083671569824219 -0.6540625095367432 -1.7953742742538452 0.28286999464035034 0 1
6.08068323135376 -0.6812109351158142 -1.79537832736969 0.28287017345428467 0 1
6.077597618103027 -0.7083300352096558 -1.7953826189041138 0.282869428396225 0 1
6.074394226074219 -0.7354491949081421 -1.7953869104385376 0.28286847472190857 0 1
6.071093559265137 -0.7625488042831421 -1.79539155960083 0.2828673720359802 0 1
6.067636489868164 -0.7896386384963989 -1.7953962087631226 0.2828669250011444 0 1
6.064062595367432 -0.8167187571525574 -1.7954012155532837 0.2828662693500519 0 1
6.060370922088623 -0.8437597751617432 -1.7954063415527344 0.2828655540943146 0 1
1.515663981437683 -0.2179296761751175 -0.4493047893047333 0.030387073755264282 2915 14
1.497890591621399 -0.2221972644329071 -0.4443240165710449 0.03072841465473175 2915 14
1.4904100894927979 -0.22788085043430328 -0.44240492582321167 0.1847914457321167 2915 14
1.48779296875 -0.2342870980501175 -0.44193023443222046 0.1849886178970337 2915 14
1.4851171970367432 -0.2406640499830246 -0.44145140051841736 0.18519079685211182 2915 14
1.482421875 -0.24702148139476776 -0.4409693777561188 0.18539156019687653 2915 14
1.4807811975479126 -0.2535449266433716 -0.4408128261566162 0.17566752433776855 2915 14
1.4800585508346558 -0.26021483540534973 -0.4409448206424713 0.17561587691307068 2915 14
1.4793163537979126 -0.26689451932907104 -0.44107162952423096 0.17556461691856384 2915 14
1.478515625 -0.2735644578933716 -0.44119322299957275 0.17551755905151367 2915 14
1.4776757955551147 -0.28023436665534973 -0.44130951166152954 0.17547082901000977 2915 14
1.4767773151397705 -0.28690430521965027 -0.4414207339286804 0.17542800307273865 2915 14
1.4758398532867432 -0.29356443881988525 -0.44152694940567017 0.17538270354270935 2915 14
1.4748437404632568 -0.30021482706069946 -0.4416276514530182 0.17534470558166504 2915 14
1.4738085269927979 -0.3068554699420929 -0.44172346591949463 0.17530766129493713 2915 14
1.4727343320846558 -0.31349608302116394 -0.44181394577026367 0.17527103424072266 2915 14
1.4716014862060547 -0.3201269507408142 -0.44189924001693726 0.17523843050003052 2915 14
1.4704101085662842 -0.3267480432987213 -0.44197890162467957 0.17520645260810852 2915 14
1.4691991806030273 -0.3333691358566284 -0.44205397367477417 0.17517516016960144 2915 14
1.4679296016693115 -0.3399707078933716 -0.44212356209754944 0.17514830827713013 2915 14
1.4666210412979126 -0.34657225012779236 -0.4421877861022949 0.17512162029743195 2915 14
1.465234398841858 -0.35316404700279236 -0.4422470033168793 0.17509913444519043 2915 14
1.4638280868530273 -0.3597363233566284 -0.4423007071018219 0.1750773787498474 2915 14
1.4623632431030273 -0.3662988245487213 -0.44234907627105713 0.17506000399589539 2915 14
1.4608592987060547 -0.3728613257408142 -0.4423925578594208 0.17504313588142395 2915 14
1.459316372871399 -0.37941405177116394 -0.4424305558204651 0.17502689361572266 2915 14
1.4577147960662842 -0.38594725728034973 -0.442463219165802 0.1750117689371109 2915 14
1.4560546875 -0.39247068762779236 -0.44249069690704346 0.17500406503677368 2915 14
1.45437490940094 -0.398994117975235 -0.44251295924186707 0.17499330639839172 2915 14
1.45263671875 -0.4054882824420929 -0.4425295889377594 0.17498740553855896 2915 14
1.4508593082427979 -0.4119824171066284 -0.44254133105278015 0.17498192191123962 2915 14
1.44900381565094 -0.41845703125 -0.4425477385520935 0.17498093843460083 2915 14
1.4471288919448853 -0.42491209506988525 -0.44254881143569946 0.17498059570789337 2915 14
1.445214867591858 -0.4313671886920929 -0.4425444006919861 0.17498084902763367 2915 14
1.4432421922683716 -0.4378027319908142 -0.44253507256507874 0.1749858856201172 2915 14
1.4412304162979126 -0.44422850012779236 -0.44252029061317444 0.17499148845672607 2915 14
1.4391601085662842 -0.45063474774360657 -0.44250014424324036 0.17499831318855286 2915 14
1.437050700187683 -0.45702147483825684 -0.44247496128082275 0.175009623169899 2915 14
1.434902310371399 -0.46339842677116394 -0.44244399666786194 0.17502149939537048 2915 14
1.432714819908142 -0.4697558581829071 -0.4424082934856415 0.17503434419631958 2915 14
1.4304686784744263 -0.4761035144329071 -0.4423670768737793 0.17505164444446564 2915 14
1.428164005279541 -0.4824316203594208 -0.44232070446014404 0.1750701367855072 2915 14
1.4258397817611694 -0.4887402355670929 -0.442268967628479 0.17508988082408905 2915 14
1.4234570264816284 -0.49503904581069946 -0.4422120451927185 0.175113707780838 2915 14
1.4210351705551147 -0.5013183355331421 -0.44214996695518494 0.17513878643512726 2915 14
1.4185742139816284 -0.5075781345367432 -0.44208234548568726 0.17516502737998962 2915 14
1.416054606437683 -0.5138086080551147 -0.4420095682144165 0.1751924753189087 2915 14
1.4134960174560547 -0.5200293064117432 -0.4419316053390503 0.17522461712360382 2915 14
1.4108984470367432 -0.5262402296066284 -0.44184860587120056 0.17525750398635864 2915 14
1.4082616567611694 -0.532421886920929 -0.44175994396209717 0.1752922087907791 2915 14
1.4055858850479126 -0.5385937094688416 -0.44166672229766846 0.17532780766487122 2915 14
1.40283203125 -0.5447363257408142 -0.4415678381919861 0.17536845803260803 2915 14
1.4000585079193115 -0.5508496165275574 -0.44146376848220825 0.1754104197025299 2915 14
1.39724600315094 -0.5569629073143005 -0.44135481119155884 0.17545324563980103 2915 14
1.3943945169448853 -0.5630468726158142 -0.44124066829681396 0.17549803853034973 2915 14
1.3914843797683716 -0.5691112875938416 -0.44112104177474976 0.17554718255996704 2915 14
1.3885351419448853 -0.5751562118530273 -0.4409962296485901 0.17559459805488586 2915 14
1.3855468034744263 -0.5811620950698853 -0.4408663809299469 0.17564725875854492 2915 14
1.3825194835662842 -0.5871679782867432 -0.44073179364204407 0.17570088803768158 2915 14
1.3794530630111694 -0.5931445360183716 -0.440591424703598 0.17575626075267792 2915 14
1.3763476610183716 -0.5990917682647705 -0.44044676423072815 0.17581407725811005 2915 14
1.3731836080551147 -0.605029284954071 -0.44030120968818665 0.17620563507080078 2915 14
1.370019555091858 -0.6109374761581421 -0.4401525855064392 0.1762637495994568 2915 14
1.366796851158142 -0.6168359518051147 -0.4399987757205963 0.17632651329040527 2915 14
1.3635547161102295 -0.6227050423622131 -0.4398399293422699 0.1763882040977478 2915 14
1.360253930091858 -0.6285547018051147 -0.43967604637145996 0.1764545440673828 2915 14
1.3568944931030273 -0.6343749761581421 -0.43950727581977844 0.17652317881584167 2915 14
1.353515625 -0.6401659846305847 -0.4393334984779358 0.1765933334827423 2915 14
1.35009765625 -0.6459375023841858 -0.43915465474128723 0.17666560411453247 2915 14
1.3466405868530273 -0.6516796946525574 -0.43897125124931335 0.17674025893211365 2915 14
1.3431445360183716 -0.6574023365974426 -0.43878233432769775 0.17681631445884705 2915 14
1.3395898342132568 -0.6631054282188416 -0.4385887086391449 0.17689396440982819 2915 14
1.3360155820846558 -0.6687597632408142 -0.43839049339294434 0.17697477340698242 2915 14
1.332421898841858 -0.6744042634963989 -0.43818679451942444 0.17705373466014862 2915 14
1.3287694454193115 -0.6800292730331421 -0.4379786550998688 0.17713773250579834 2915 14
1.3250781297683716 -0.6856152415275574 -0.4377651810646057 0.17722459137439728 2915 14
1.321328043937683 -0.6911718845367432 -0.43754759430885315 0.1773134171962738 2915 14
1.3175585269927979 -0.6967089772224426 -0.4373248219490051 0.177404522895813 2915 14
1.3137500286102295 -0.7022168040275574 -0.4370971620082855 0.17749790847301483 2915 14
1.3099218606948853 -0.7076953053474426 -0.4368647634983063 0.17759069800376892 2915 14
1.308144450187683 -0.7142968773841858 -0.4373292326927185 0.11962816119194031 2915 14
1.3088672161102295 -0.72230464220047 -0.4386501908302307 0.11926780641078949 2915 14
1.3095507621765137 -0.7303222417831421 -0.4399665594100952 0.11891119182109833 2915 14
1.3101757764816284 -0.7383496165275574 -0.4412805140018463 0.11855912208557129 2915 14
1.3107616901397705 -0.7463964819908142 -0.4425894021987915 0.11820654571056366 2915 14
1.3112695217132568 -0.7544628977775574 -0.4438949525356293 0.11785918474197388 2915 14
1.3117187023162842 -0.7625292539596558 -0.44519591331481934 0.1175163984298706 2915 14
1.312109351158142 -0.7706152200698853 -0.4464923143386841 0.11717316508293152 2915 14
1.312441349029541 -0.7787109017372131 -0.44778457283973694 0.11683586239814758 2915 14
1.3127148151397705 -0.786816418170929 -0.4490710496902466 0.11650097370147705 2915 14
1.312929630279541 -0.794921875 -0.45035308599472046 0.11617046594619751 2915 14
1.313085913658142 -0.8030468821525574 -0.4516308605670929 0.11584186553955078 2915 14
1.3131835460662842 -0.8111816048622131 -0.4529021978378296 0.11551523208618164 2915 14
1.3132030963897705 -0.8193163871765137 -0.45416900515556335 0.11519274115562439 2915 14
1.3131639957427979 -0.8274609446525574 -0.45542922616004944 0.11487433314323425 2915 14
1.3130663633346558 -0.8356054425239563 -0.4566839635372162 0.11455950140953064 2915 14
1.3129100799560547 -0.8437597751617432 -0.45793241262435913 0.1142464131116867 2915 14
1.3126952648162842 -0.8519140481948853 -0.459174782037735 0.11393636465072632 2915 14
1.312402367591858 -0.8600683212280273 -0.4604113698005676 0.11363187432289124 2915 14
1.3120312690734863 -0.8682324290275574 -0.46164122223854065 0.11332875490188599 2915 14
1.311621069908142 -0.8763964772224426 -0.46286407113075256 0.11302796006202698 2915 14
1.311132788658142 -0.8845605254173279 -0.4640800356864929 0.11273199319839478 2915 14
1.3105664253234863 -0.89271479845047 -0.4652886986732483 0.11244159936904907 2915 14
1.309960961341858 -0.90087890625 -0.46648985147476196 0.11214974522590637 2915 14
1.3092772960662842 -0.9090331792831421 -0.4676840007305145 0.11186355352401733 2915 14
1.308496117591858 -0.9171874523162842 -0.4688708484172821 0.11158150434494019 2915 14
1.3076757192611694 -0.925341784954071 -0.4700494408607483 0.11130082607269287 2915 14
1.3067773580551147 -0.9334765672683716 -0.471219927072525 0.1110251247882843 2915 14
1.3058202266693115 -0.9416210651397705 -0.4723820388317108 0.11075064539909363 2915 14
1.304785132408142 -0.9497460722923279 -0.47353607416152954 0.11048214137554169 2915 14
1.303652286529541 -0.9578710794448853 -0.47468137741088867 0.11021678149700165 2915 14
1.3024804592132568 -0.9659863114356995 -0.4758177101612091 0.10995346307754517 2915 14
1.3012499809265137 -0.9740917682647705 -0.4769454896450043 0.10969221591949463 2915 14
1.2999218702316284 -0.9821972250938416 -0.4780639410018921 0.10943582653999329 2915 14
1.2985351085662842 -0.9902734160423279 -0.4791724979877472 0.10918328166007996 2915 14
1.2970898151397705 -0.9983496069908142 -0.4802720546722412 0.1089312732219696 2915 14
1.2955273389816284 -1.0064061880111694 -0.4813615381717682 0.10868585109710693 2915 14
1.2941014766693115 -1.0145800113677979 -0.48250365257263184 0.11127373576164246 2915 14
1.292871117591858 -1.0229589939117432 -0.4837420582771301 0.11098992824554443 2915 14
1.2915624380111694 -1.031337857246399 -0.48497235774993896 0.11070916056632996 2915 14
1.2901952266693115 -1.039697289466858 -0.4861944615840912 0.11043056845664978 2915 14
1.2887499332427979 -1.0480566024780273 -0.4874078333377838 0.11015579104423523 2915 14
1.2872265577316284 -1.056396484375 -0.48861265182495117 0.10988418757915497 2915 14
1.28564453125 -1.064736247062683 -0.4898086488246918 0.10961495339870453 2915 14
1.2839843034744263 -1.0730565786361694 -0.49099576473236084 0.10935062170028687 2915 14
1.282265543937683 -1.0813671350479126 -0.49217313528060913 0.10908740758895874 2915 14
1.2804491519927979 -1.0896581411361694 -0.4933410584926605 0.10883045196533203 2915 14
1.2785546779632568 -1.0979297161102295 -0.49449965357780457 0.10857605934143066 2915 14
1.2766015529632568 -1.1061913967132568 -0.4956483244895935 0.10832449793815613 2915 14
1.2745897769927979 -1.1144237518310547 -0.4967869520187378 0.10807481408119202 2915 14
1.2724804878234863 -1.122646450996399 -0.49791502952575684 0.10783076286315918 2915 14
1.2703124284744263 -1.1308398246765137 -0.4990324378013611 0.10758957266807556 2915 14
1.26806640625 -1.1390234231948853 -0.5001401901245117 0.10735112428665161 2915 14
1.265722632408142 -1.1471874713897705 -0.5012363791465759 0.10711552202701569 2915 14
1.2633203268051147 -1.155312418937683 -0.502321183681488 0.10688532888889313 2915 14
1.260839819908142 -1.163427710533142 -0.5033954977989197 0.10665738582611084 2915 14
1.25830078125 -1.1715039014816284 -0.5044581294059753 0.10643145442008972 2915 14
4.2099609375 -3.954824209213257 -1.694867491722107 0.28251954913139343 0 2
4.192324161529541 -3.973623037338257 -1.6948918104171753 0.28251534700393677 0 2
4.174609184265137 -3.9923436641693115 -1.6949162483215332 0.28251129388809204 0 2
4.156816482543945 -4.010995864868164 -1.6949408054351807 0.2825073301792145 0 2
4.13894510269165 -4.02957010269165 -1.6949654817581177 0.28250250220298767 0 2
4.120976448059082 -4.048056602478027 -1.6949901580810547 0.2824990749359131 0 2
4.102929592132568 -4.066464900970459 -1.6950150728225708 0.28249478340148926 0 2
4.267695426940918 4.267685413360596 -1.7978869676589966 0.28642621636390686 0 1
4.286640644073486 4.24853515625 -1.797860860824585 0.2864300608634949 0 1
4.305507659912109 4.229306697845459 -1.7978347539901733 0.2864341139793396 0 1
4.324257850646973 4.20999002456665 -1.7978087663650513 0.2864386737346649 0 1
4.342929363250732 4.190585613250732 -1.7977830171585083 0.2864427864551544 0 1
4.361542701721191 4.171103477478027 -1.7977572679519653 0.286446750164032 0 1
4.380038738250732 4.151542663574219 -1.7977317571640015 0.28645089268684387 0 1
4.398457050323486 4.131904125213623 -1.7977062463760376 0.2864546477794647 0 1
4.416796684265137 4.112177848815918 -1.7976809740066528 0.2864588499069214 0 1
4.435039043426514 4.092363357543945 -1.797655701637268 0.2864626944065094 0 1
4.453203201293945 4.072470664978027 -1.7976305484771729 0.28646695613861084 0 1
4.471269607543945 4.052499771118164 -1.7976057529449463 0.28647080063819885 0 1
4.489238262176514 4.032460689544678 -1.7975808382034302 0.2864745855331421 0 1
4.507128715515137 4.012333869934082 -1.7975561618804932 0.28647884726524353 0 1
4.524921894073486 3.992128849029541 -1.7975316047668457 0.28648266196250916 0 1
4.542636394500732 3.9718358516693115 -1.7975069284439087 0.28648635745048523 0 1
4.560253620147705 3.9514646530151367 -1.7974827289581299 0.2864905893802643 0 1
4.577773571014404 3.931025266647339 -1.7974584102630615 0.2864944040775299 0 1
4.595195293426514 3.9105076789855957 -1.7974343299865723 0.28649842739105225 0 1
4.612558364868164 3.8899121284484863 -1.7974103689193726 0.28650203347206116 0 1
4.629804611206055 3.8692381381988525 -1.797386646270752 0.2865058183670044 0 1
4.646953105926514 3.8484861850738525 -1.7973629236221313 0.28650981187820435 0 1
4.664042949676514 3.8276660442352295 -1.7973393201828003 0.286513090133667 0 1
4.680995941162109 3.806757688522339 -1.7973159551620483 0.28651750087738037 0 1
4.697871208190918 3.7857909202575684 -1.7972924709320068 0.28652095794677734 0 1
4.714687347412109 3.7647361755371094 -1.7972692251205444 0.2865242063999176 0 1
4.731367111206055 3.7436132431030273 -1.7972462177276611 0.286528080701828 0 1
4.747949123382568 3.722412109375 -1.7972233295440674 0.28653213381767273 0 1
4.764472484588623 3.7011327743530273 -1.7972005605697632 0.2865355312824249 0 1
4.780879020690918 3.6797947883605957 -1.7971776723861694 0.2865388095378876 0 1
4.797187328338623 3.658378839492798 -1.7971552610397339 0.2865423560142517 0 1
4.813417911529541 3.6368846893310547 -1.7971328496932983 0.28654608130455017 0 1
4.829531192779541 3.6153221130371094 -1.7971105575561523 0.28654977679252625 0 1
4.845546722412109 3.593691349029541 -1.797088384628296 0.28655341267585754 0 1
4.861484050750732 3.5719921588897705 -1.797066330909729 0.28655701875686646 0 1
4.877324104309082 3.5502147674560547 -1.7970445156097412 0.28656014800071716 0 1
4.893046855926514 3.52837872505188 -1.7970227003097534 0.2865636646747589 0 1
4.90869140625 3.506464719772339 -1.7970011234283447 0.2865673899650574 0 1
4.924218654632568 3.4844822883605957 -1.7969796657562256 0.28657108545303345 0 1
4.939667701721191 3.4624316692352295 -1.796958327293396 0.28657400608062744 0 1
4.954999923706055 3.440312385559082 -1.7969372272491455 0.28657764196395874 0 1
4.970253944396973 3.4181249141693115 -1.7969160079956055 0.2865811884403229 0 1
4.985410213470459 3.395878791809082 -1.796895146369934 0.2865837514400482 0 1
5.000449180603027 3.3735547065734863 -1.7968744039535522 0.2865872383117676 0 1
5.01540994644165 3.3511717319488525 -1.7968535423278809 0.28659042716026306 0 1
5.030253887176514 3.328730344772339 -1.7968331575393677 0.28659355640411377 0 1
5.044980525970459 3.30621075630188 -1.796812653541565 0.2865974009037018 0 1
5.059628963470459 3.283622980117798 -1.7967925071716309 0.2866004407405853 0 1
5.074179649353027 3.260976552963257 -1.7967724800109863 0.2866039276123047 0 1
5.088632583618164 3.2382616996765137 -1.7967524528503418 0.28660669922828674 0 1
5.102968692779541 3.2154881954193115 -1.7967325448989868 0.28660985827445984 0 1
5.117226600646973 3.1926465034484863 -1.796712875366211 0.28661301732063293 0 1
5.13134765625 3.169745922088623 -1.7966933250427246 0.28661659359931946 0 1
5.145390510559082 3.146777391433716 -1.7966738939285278 0.2866193950176239 0 1
5.159316062927246 3.1237499713897705 -1.7966545820236206 0.28662267327308655 0 1
5.173163890838623 3.100663900375366 -1.7966355085372925 0.2866256535053253 0 1
5.186894416809082 3.077519416809082 -1.7966166734695435 0.2866286039352417 0 1
5.200507640838623 3.054316282272339 -1.7965977191925049 0.2866317629814148 0 1
5.214023113250732 3.0310449600219727 -1.796579122543335 0.2866348922252655 0 1
5.227460861206055 3.0077147483825684 -1.796560525894165 0.28663772344589233 0 1
5.240781307220459 2.984326124191284 -1.7965420484542847 0.28664031624794006 0 1
5.253984451293945 2.960878849029541 -1.7965238094329834 0.2866433560848236 0 1
5.26708984375 2.9373631477355957 -1.7965056896209717 0.2866463363170624 0 1
5.280117034912109 2.913808584213257 -1.7964876890182495 0.28664880990982056 0 1
5.293007850646973 2.890185594558716 -1.796469807624817 0.2866517901420593 0 1
5.305781364440918 2.86651349067688 -1.7964521646499634 0.2866550087928772 0 1
5.318476676940918 2.8427734375 -1.7964346408843994 0.2866573929786682 0 1
5.331074237823486 2.818984270095825 -1.796417236328125 0.2866600751876831 0 1
5.34353494644165 2.7951464653015137 -1.7964000701904297 0.2866632342338562 0 1
5.355898380279541 2.771250009536743 -1.7963829040527344 0.2866659164428711 0 1
5.3681640625 2.7472949028015137 -1.7963659763336182 0.2866682708263397 0 1
5.380331993103027 2.723281145095825 -1.7963491678237915 0.28667113184928894 0 1
5.392382621765137 2.69921875 -1.7963324785232544 0.28667351603507996 0 1
5.404316425323486 2.675107479095459 -1.7963159084320068 0.2866763770580292 0 1
5.416152000427246 2.650937557220459 -1.7962995767593384 0.2866787612438202 0 1
5.427890300750732 2.626718759536743 -1.7962833642959595 0.2866814434528351 0 1
5.439492225646973 2.6024413108825684 -1.7962673902511597 0.2866845726966858 0 1
5.451015472412109 2.578125 -1.7962515354156494 0.2866864800453186 0 1
5.46240234375 2.5537500381469727 -1.7962355613708496 0.286689430475235 0 1
5.473691463470459 2.5293262004852295 -1.796220064163208 0.28669190406799316 0 1
5.484902381896973 2.5048632621765137 -1.7962044477462769 0.2866939306259155 0 1
5.495956897735596 2.4803318977355957 -1.7961891889572144 0.2866971790790558 0 1
5.506933689117432 2.455761671066284 -1.7961739301681519 0.28669896721839905 0 1
5.517792701721191 2.431142568588257 -1.796159029006958 0.2867010831832886 0 1
5.528554439544678 2.4064745903015137 -1.7961440086364746 0.2867036759853363 0 1
5.539179801940918 2.3817577362060547 -1.7961294651031494 0.2867063581943512 0 1
5.549706935882568 2.356992244720459 -1.7961149215698242 0.2867085933685303 0 1
5.560117244720459 2.3321971893310547 -1.796100378036499 0.2867109477519989 0 1
5.57042932510376 2.3073437213897705 -1.7960861921310425 0.2867128252983093 0 1
5.580625057220459 2.2824413776397705 -1.796072006225586 0.2867157757282257 0 1
5.590722560882568 2.257499933242798 -1.796058177947998 0.2867174446582794 0 1
5.600683689117432 2.2325096130371094 -1.7960442304611206 0.28672006726264954 0 1
5.610546588897705 2.2074804306030273 -1.7960306406021118 0.2867221534252167 0 1
5.620292663574219 2.1824023723602295 -1.7960172891616821 0.28672441840171814 0 1
5.629961013793945 2.157285213470459 -1.796003818511963 0.2867259979248047 0 1
5.639472484588623 2.132128953933716 -1.7959907054901123 0.28672870993614197 0 1
5.648886680603027 2.106923818588257 -1.7959777116775513 0.2867307662963867 0 1
5.658203125 2.081669807434082 -1.7959647178649902 0.2867322862148285 0 1
5.667382717132568 2.056396484375 -1.7959520816802979 0.28673461079597473 0 1
5.676484107971191 2.031064510345459 -1.7959394454956055 0.2867364287376404 0 1
5.685449123382568 2.0057029724121094 -1.7959270477294922 0.28673842549324036 0 1
5.694296836853027 1.9802929162979126 -1.795914888381958 0.2867405414581299 0 1
5.703027248382568 1.95486319065094 -1.7959027290344238 0.2867426872253418 0 1
5.711659908294678 1.9293749332427979 -1.7958908081054688 0.28674426674842834 0 1
5.720195293426514 1.9038573503494263 -1.7958790063858032 0.2867460250854492 0 1
5.728593826293945 1.8783007860183716 -1.7958673238754272 0.28674784302711487 0 1
5.736875057220459 1.8526952266693115 -1.79585599899292 0.28674986958503723 0 1
