ply
format ascii 1.0
element vertex 1414
property float32 x
property float32 y
property float32 z
property float32 CosAngle
property uint32 ObjIdx
property uint32 ObjTag
end_header
23.3229 -15.7739 1.0452 0.8281 0 5
23.3229 -15.6977 1.0436 0.8293 0 5
23.3230 -15.6218 1.0421 0.8306 0 5
23.3230 -15.5461 1.0405 0.8318 0 5
23.3231 -15.4707 1.0390 0.8331 0 5
23.2675 -15.3588 1.0350 0.5625 0 5
23.2627 -15.2807 1.0332 0.9812 0 5
23.3232 -15.2457 1.0344 0.8368 0 5
23.3232 -15.1711 1.0329 0.8380 0 5
23.3233 -15.0968 1.0314 0.8392 0 5
23.3233 -15.0226 1.0299 0.8404 0 5
23.3234 -14.9487 1.0284 0.8416 0 5
23.3234 -14.8750 1.0269 0.8428 0 5
23.3235 -14.8015 1.0255 0.8440 0 5
23.3235 -14.7282 1.0240 0.8452 0 5
23.3236 -14.6552 1.0226 0.8464 0 5
23.3236 -14.5823 1.0211 0.8476 0 5
23.3236 -14.5096 1.0197 0.8488 0 5
23.3237 -14.4371 1.0183 0.8500 0 5
23.3237 -14.3649 1.0169 0.8512 0 5
23.3238 -14.2929 1.0155 0.8523 0 5
23.3238 -14.2210 1.0141 0.8535 0 5
23.3238 -14.1493 1.0127 0.8547 0 5
23.3239 -14.0778 1.0113 0.8558 0 5
23.3239 -14.0065 1.0100 0.8570 0 5
23.3239 -13.9354 1.0086 0.8581 0 5
23.3240 -13.8645 1.0073 0.8593 0 5
23.3240 -13.7938 1.0059 0.8604 0 5
23.3241 -13.7233 1.0046 0.8616 0 5
23.3241 -13.6529 1.0033 0.8627 0 5
23.3242 -13.5828 1.0020 0.8638 0 5
23.3242 -13.5128 1.0007 0.8649 0 5
23.3242 -13.4430 0.9994 0.8661 0 5
23.3243 -13.3734 0.9981 0.8672 0 5
23.3243 -13.3040 0.9968 0.8683 0 5
23.3244 -13.2347 0.9955 0.8694 0 5
23.3244 -13.1656 0.9943 0.8705 0 5
23.3245 -13.0967 0.9930 0.8716 0 5
23.3245 -13.0280 0.9918 0.8727 0 5
23.3245 -12.9594 0.9905 0.8738 0 5
23.3246 -12.8910 0.9893 0.8749 0 5
23.3246 -12.8228 0.9881 0.8760 0 5
23.3246 -12.7548 0.9869 0.8770 0 5
23.3247 -12.6869 0.9857 0.8781 0 5
23.2666 -12.5877 0.9820 0.6325 0 5
23.2632 -12.5185 0.9807 0.9940 0 5
23.3248 -12.4842 0.9821 0.8813 0 5
23.3248 -12.4170 0.9809 0.8824 0 5
23.3249 -12.3499 0.9798 0.8834 0 5
23.3249 -12.2830 0.9786 0.8844 0 5
23.3249 -12.2162 0.9774 0.8855 0 5
23.3250 -12.1496 0.9763 0.8865 0 5
23.3250 -12.0832 0.9752 0.8876 0 5
23.3251 -12.0169 0.9740 0.8886 0 5
23.3251 -11.9508 0.9729 0.8896 0 5
23.3252 -11.8848 0.9718 0.8906 0 5
23.3252 -11.8190 0.9707 0.8916 0 5
23.3252 -11.7533 0.9696 0.8927 0 5
23.3253 -11.6877 0.9685 0.8937 0 5
23.3253 -11.6223 0.9674 0.8947 0 5
23.3253 -11.5571 0.9664 0.8957 0 5
23.3254 -11.4920 0.9653 0.8966 0 5
23.3254 -11.4270 0.9642 0.8976 0 5
23.3255 -11.3622 0.9632 0.8986 0 5
23.3255 -11.2975 0.9621 0.8996 0 5
23.3255 -11.2330 0.9611 0.9006 0 5
23.3256 -11.1686 0.9600 0.9015 0 5
23.3256 -11.1043 0.9590 0.9025 0 5
23.3256 -11.0402 0.9580 0.9035 0 5
23.3257 -10.9762 0.9570 0.9044 0 5
23.3257 -10.9124 0.9560 0.9054 0 5
23.3258 -10.8487 0.9550 0.9063 0 5
23.3258 -10.7851 0.9540 0.9073 0 5
23.3258 -10.7216 0.9530 0.9082 0 5
23.3259 -10.6584 0.9520 0.9091 0 5
23.3259 -10.5952 0.9511 0.9101 0 5
23.3259 -10.5321 0.9501 0.9110 0 5
23.3260 -10.4691 0.9491 0.9119 0 5
23.3260 -10.4063 0.9482 0.9128 0 5
23.3261 -10.3437 0.9472 0.9137 0 5
23.3261 -10.2811 0.9463 0.9146 0 5
23.3261 -10.2187 0.9454 0.9155 0 5
23.3262 -10.1563 0.9444 0.9164 0 5
23.3262 -10.0941 0.9435 0.9173 0 5
23.3263 -10.0321 0.9426 0.9182 0 5
23.3263 -9.9702 0.9417 0.9191 0 5
23.3263 -9.9083 0.9408 0.9200 0 5
23.2803 -9.8272 0.9381 0.6880 0 5
23.3034 -9.7754 0.9381 0.6953 0 5
23.5884 -9.8328 0.9487 0.3839 0 5
23.7385 -9.8329 0.9538 0.3819 0 5
23.8902 -9.8329 0.9590 0.3798 0 5
24.0436 -9.8330 0.9643 0.3777 0 5
24.1987 -9.8331 0.9696 0.3756 0 5
24.3555 -9.8332 0.9750 0.3736 0 5
24.5140 -9.8333 0.9805 0.3715 0 5
24.6744 -9.8334 0.9860 0.3694 0 5
24.8365 -9.8335 0.9916 0.3673 0 5
25.0005 -9.8336 0.9973 0.3652 0 5
25.1664 -9.8337 1.0030 0.3631 0 5
25.3342 -9.8338 1.0088 0.3610 0 5
25.5040 -9.8339 1.0147 0.3590 0 5
25.6758 -9.8340 1.0207 0.3569 0 5
25.8496 -9.8341 1.0267 0.3548 0 5
26.0254 -9.8342 1.0328 0.3527 0 5
26.1856 -9.8277 1.0383 0.7167 0 5
26.2193 -9.7732 1.0387 0.6657 0 5
26.5658 -9.8346 1.0516 0.3464 0 5
26.7503 -9.8346 1.0580 0.3443 0 5
26.9371 -9.8348 1.0645 0.3422 0 5
27.1262 -9.8348 1.0711 0.3400 0 5
27.3177 -9.8350 1.0778 0.3379 0 5
27.5115 -9.8351 1.0846 0.3358 0 5
27.7078 -9.8352 1.0915 0.3337 0 5
27.9067 -9.8354 1.0984 0.3316 0 5
28.1080 -9.8355 1.1055 0.3295 0 5
28.3121 -9.8356 1.1126 0.3274 0 5
28.5187 -9.8357 1.1199 0.3252 0 5
28.7280 -9.8358 1.1272 0.3231 0 5
28.9402 -9.8360 1.1347 0.3210 0 5
29.0947 -9.8157 1.1399 0.9954 0 5
29.1550 -9.7633 1.1414 0.6403 0 5
29.5937 -9.8363 1.1577 0.3146 0 5
29.8175 -9.8365 1.1656 0.3125 0 5
30.0444 -9.8367 1.1736 0.3104 0 5
30.2743 -9.8368 1.1817 0.3082 0 5
30.5075 -9.8369 1.1899 0.3061 0 5
30.7440 -9.8371 1.1983 0.3040 0 5
30.9839 -9.8372 1.2068 0.3018 0 5
31.2271 -9.8373 1.2154 0.2997 0 5
31.4738 -9.8375 1.2241 0.2975 0 5
31.7241 -9.8377 1.2330 0.2954 0 5
31.9781 -9.8378 1.2420 0.2933 0 5
32.0328 -9.7760 1.2433 0.6194 0 5
32.4974 -9.8381 1.2605 0.2890 0 5
32.7628 -9.8383 1.2699 0.2868 0 5
33.0323 -9.8384 1.2795 0.2847 0 5
33.3059 -9.8386 1.2892 0.2825 0 5
33.5158 -9.8189 1.2965 0.1784 0 5
33.7496 -9.8052 1.3047 0.1773 0 5
33.9864 -9.7914 1.3130 0.1761 0 5
34.2476 -9.7835 1.3222 0.2763 0 5
34.5378 -9.7826 1.3326 0.2742 0 5
34.8326 -9.7817 1.3431 0.2720 0 5
42.3762 -9.8724 1.6152 0.9465 0 6
28.1894 -6.4341 1.0734 0.5299 310 7
28.0258 -6.3306 1.0666 0.8166 310 6
28.0455 -6.2689 1.0668 0.7226 310 6
28.1855 -6.2338 1.0716 0.9758 310 7
28.2476 -6.1811 1.0734 0.2087 310 7
34.4914 -6.1794 1.3008 0.9115 0 6
41.7704 4.1377 1.5582 0.0991 0 3
40.8910 4.1433 1.5257 0.3970 0 3
40.7762 4.2241 1.5218 0.9379 0 3
40.7452 4.3133 1.5210 0.9937 0 3
40.7453 4.4058 1.5214 0.9934 0 3
38.8293 4.2868 1.4502 0.1103 0 3
38.0504 4.2873 1.4215 0.1125 0 3
37.3019 4.2877 1.3939 0.1147 0 3
36.6707 4.2986 1.3706 0.9924 0 3
36.6707 4.3820 1.3710 0.9921 0 3
36.6708 4.4655 1.3714 0.9919 0 3
36.1264 4.4815 1.3514 0.1236 0 3
35.4777 4.4819 1.3275 0.1258 0 3
34.8516 4.4823 1.3044 0.1281 0 3
34.2468 4.4826 1.2821 0.1303 0 3
33.6624 4.4830 1.2607 0.1325 0 3
33.0971 4.4833 1.2399 0.1347 0 3
32.5503 4.4836 1.2198 0.1370 0 3
32.0208 4.4840 1.2003 0.1392 0 3
31.5081 4.4843 1.1814 0.1414 0 3
18.3939 2.6599 0.6899 0.6834 0 6
18.3642 2.6978 0.6890 0.9987 0 6
18.3709 2.7408 0.6895 0.7236 0 6
29.6084 4.4854 1.1117 0.1503 0 3
29.1681 4.4857 1.0955 0.1525 0 3
28.7403 4.4860 1.0798 0.1547 0 3
28.4433 4.5050 1.0690 0.9869 0 3
28.4433 4.5704 1.0694 0.9865 0 3
28.4434 4.6359 1.0698 0.9862 0 3
28.4434 4.7015 1.0702 0.9858 0 3
28.4435 4.7671 1.0706 0.9854 0 3
28.4435 4.8328 1.0710 0.9851 0 3
28.4435 4.8985 1.0714 0.9847 0 3
28.4436 4.9642 1.0719 0.9843 0 3
28.4436 5.0300 1.0723 0.9839 0 3
28.4437 5.0958 1.0727 0.9835 0 3
28.4437 5.1618 1.0731 0.9831 0 3
28.4437 5.2278 1.0736 0.9827 0 3
28.4438 5.2938 1.0740 0.9823 0 3
28.4438 5.3599 1.0745 0.9819 0 3
28.4438 5.4260 1.0749 0.9815 0 3
28.4439 5.4922 1.0754 0.9810 0 3
28.4439 5.5584 1.0759 0.9806 0 3
28.4440 5.6247 1.0764 0.9802 0 3
28.4440 5.6911 1.0768 0.9797 0 3
28.4441 5.7575 1.0773 0.9793 0 3
28.4441 5.8240 1.0778 0.9788 0 3
28.4441 5.8905 1.0783 0.9784 0 3
28.4442 5.9571 1.0788 0.9779 0 3
28.4442 6.0238 1.0793 0.9775 0 3
28.4443 6.0905 1.0799 0.9770 0 3
28.4443 6.1573 1.0804 0.9765 0 3
28.4443 6.2242 1.0809 0.9760 0 3
28.4444 6.2911 1.0814 0.9756 0 3
28.4444 6.3581 1.0820 0.9751 0 3
28.4445 6.4251 1.0825 0.9746 0 3
28.4445 6.4923 1.0831 0.9741 0 3
28.4445 6.5595 1.0836 0.9736 0 3
28.4446 6.6267 1.0842 0.9731 0 3
28.4446 6.6941 1.0848 0.9726 0 3
28.4447 6.7615 1.0854 0.9720 0 3
28.0857 6.7428 1.0722 0.2339 0 3
22.9299 5.5595 0.8759 0.2360 0 3
22.7078 5.5596 0.8679 0.2382 0 3
22.4898 5.5597 0.8600 0.2404 0 3
22.2756 5.5598 0.8523 0.2426 0 3
22.0653 5.5600 0.8447 0.2447 0 3
21.8586 5.5601 0.8373 0.2469 0 3
21.6556 5.5602 0.8300 0.2491 0 3
21.4560 5.5603 0.8228 0.2513 0 3
21.2599 5.5604 0.8158 0.2534 0 3
21.0671 5.5605 0.8088 0.2556 0 3
20.8776 5.5607 0.8020 0.2578 0 3
20.6912 5.5608 0.7954 0.2599 0 3
20.5079 5.5609 0.7888 0.2621 0 3
20.3276 5.5610 0.7823 0.2643 0 3
20.1502 5.5611 0.7760 0.2664 0 3
19.9757 5.5612 0.7697 0.2686 0 3
19.8039 5.5613 0.7636 0.2707 0 3
19.6349 5.5614 0.7576 0.2729 0 3
19.4686 5.5615 0.7516 0.2751 0 3
19.3048 5.5616 0.7458 0.2772 0 3
19.2314 5.5872 0.7434 0.0390 0 3
19.2155 5.6294 0.7433 0.0390 0 3
19.1994 5.6715 0.7432 0.0390 0 3
19.1833 5.7136 0.7430 0.0390 0 3
19.1671 5.7556 0.7429 0.0390 0 3
19.1508 5.7976 0.7428 0.0390 0 3
19.1343 5.8395 0.7427 0.0391 0 3
19.1179 5.8814 0.7425 0.0391 0 3
19.1014 5.9233 0.7424 0.0391 0 3
19.0847 5.9651 0.7423 0.0391 0 3
19.0680 6.0069 0.7421 0.0391 0 3
19.0512 6.0486 0.7420 0.0391 0 3
19.0343 6.0903 0.7419 0.0391 0 3
19.0173 6.1319 0.7418 0.0391 0 3
19.0002 6.1736 0.7416 0.0391 0 3
18.9830 6.2151 0.7415 0.0391 0 3
18.9658 6.2566 0.7414 0.0391 0 3
18.9484 6.2981 0.7413 0.0391 0 3
18.9310 6.3395 0.7411 0.0391 0 3
18.9135 6.3809 0.7410 0.0391 0 3
18.8960 6.4222 0.7409 0.0392 0 3
18.8783 6.4635 0.7407 0.0392 0 3
18.8605 6.5047 0.7406 0.0392 0 3
16.0149 5.5636 0.6294 0.3285 0 3
15.9000 5.5637 0.6253 0.3306 0 3
15.7864 5.5637 0.6214 0.3327 0 3
15.6743 5.5638 0.6174 0.3348 0 3
15.5637 5.5638 0.6136 0.3370 0 3
15.4544 5.5639 0.6098 0.3391 0 3
15.3464 5.5640 0.6060 0.3412 0 3
15.2397 5.5640 0.6023 0.3433 0 3
15.1344 5.5641 0.5986 0.3454 0 3
15.0303 5.5642 0.5950 0.3475 0 3
14.9335 5.5664 0.5916 0.9361 0 3
14.9335 5.6046 0.5921 0.9353 0 3
14.9336 5.6429 0.5926 0.9346 0 3
14.9336 5.6812 0.5931 0.9338 0 3
14.9336 5.7196 0.5936 0.9330 0 3
14.9336 5.7581 0.5942 0.9321 0 3
14.9337 5.7966 0.5947 0.9313 0 3
14.9337 5.8352 0.5952 0.9305 0 3
14.9337 5.8739 0.5957 0.9297 0 3
14.9337 5.9126 0.5962 0.9289 0 3
14.9337 5.9515 0.5968 0.9281 0 3
14.9337 5.9904 0.5973 0.9272 0 3
14.9338 6.0293 0.5979 0.9264 0 3
14.9338 6.0683 0.5984 0.9255 0 3
14.9338 6.1074 0.5989 0.9247 0 3
14.9338 6.1466 0.5995 0.9238 0 3
14.9338 6.1858 0.6001 0.9230 0 3
13.7653 5.7380 0.5536 0.3850 0 3
13.7412 5.7642 0.5532 0.9212 0 3
13.7412 5.8005 0.5537 0.9204 0 3
13.7412 5.8369 0.5542 0.9195 0 3
13.7413 5.8733 0.5548 0.9186 0 3
13.7413 5.9098 0.5553 0.9177 0 3
13.7413 5.9464 0.5558 0.9168 0 3
13.7413 5.9830 0.5564 0.9160 0 3
13.7413 6.0198 0.5569 0.9151 0 3
13.7414 6.0566 0.5575 0.9142 0 3
13.6728 6.0630 0.5552 0.4056 0 3
13.5905 6.0631 0.5524 0.4077 0 3
13.5091 6.0631 0.5497 0.4097 0 3
13.4284 6.0632 0.5470 0.4118 0 3
13.3486 6.0632 0.5443 0.4138 0 3
13.2695 6.0633 0.5416 0.4159 0 3
13.1913 6.0633 0.5389 0.4179 0 3
13.1137 6.0634 0.5363 0.4199 0 3
13.0370 6.0634 0.5337 0.4220 0 3
12.9609 6.0635 0.5312 0.4240 0 3
12.8856 6.0635 0.5287 0.4260 0 3
12.8110 6.0635 0.5262 0.4281 0 3
12.7371 6.0636 0.5237 0.4301 0 3
12.6639 6.0636 0.5212 0.4321 0 3
12.5914 6.0637 0.5188 0.4341 0 3
12.5195 6.0637 0.5164 0.4361 0 3
12.4483 6.0637 0.5140 0.4382 0 3
12.3778 6.0638 0.5117 0.4402 0 3
12.3079 6.0638 0.5093 0.4422 0 3
12.2386 6.0639 0.5070 0.4442 0 3
10.1405 5.0527 0.4206 0.6749 0 3
10.1264 5.0741 0.4205 0.6751 0 3
10.1122 5.0954 0.4204 0.6753 0 3
10.0981 5.1167 0.4202 0.6754 0 3
10.0840 5.1381 0.4201 0.6756 0 3
10.0700 5.1594 0.4200 0.6758 0 3
10.0759 5.1911 0.4208 0.1036 0 3
11.0964 5.7483 0.4639 0.9526 0 3
11.0756 5.7691 0.4636 0.9533 0 3
11.0665 5.7959 0.4637 0.8849 0 3
11.0665 5.8277 0.4643 0.8839 0 3
11.0665 5.8594 0.4648 0.8828 0 3
11.0666 5.8912 0.4654 0.8818 0 3
11.0666 5.9232 0.4660 0.8807 0 3
11.0666 5.9552 0.4665 0.8797 0 3
11.0666 5.9873 0.4671 0.8786 0 3
11.0666 6.0194 0.4677 0.8775 0 3
11.0667 6.0516 0.4682 0.8765 0 3
11.0667 6.0839 0.4688 0.8754 0 3
11.0667 6.1163 0.4694 0.8743 0 3
11.0667 6.1488 0.4700 0.8732 0 3
11.0667 6.1814 0.4706 0.8721 0 3
11.0668 6.2140 0.4712 0.8710 0 3
11.0668 6.2467 0.4718 0.8699 0 3
11.0668 6.2795 0.4724 0.8688 0 3
11.0668 6.3124 0.4730 0.8677 0 3
11.0668 6.3454 0.4736 0.8666 0 3
11.0669 6.3784 0.4742 0.8655 0 3
11.0669 6.4116 0.4748 0.8643 0 3
11.0669 6.4448 0.4754 0.8632 0 3
11.0669 6.4781 0.4760 0.8621 0 3
11.0670 6.5115 0.4767 0.8609 0 3
11.0670 6.5450 0.4773 0.8598 0 3
11.0670 6.5785 0.4779 0.8587 0 3
11.0670 6.6122 0.4786 0.8575 0 3
11.0670 6.6459 0.4792 0.8564 0 3
11.0671 6.6798 0.4799 0.8552 0 3
11.0671 6.7137 0.4805 0.8540 0 3
11.0671 6.7478 0.4812 0.8529 0 3
11.0671 6.7819 0.4818 0.8517 0 3
11.0671 6.8162 0.4825 0.8505 0 3
11.0671 6.8505 0.4832 0.8493 0 3
11.0672 6.8848 0.4839 0.8482 0 3
11.0672 6.9194 0.4845 0.8470 0 3
11.0672 6.9540 0.4852 0.8458 0 3
11.0672 6.9887 0.4859 0.8446 0 3
11.0672 7.0235 0.4866 0.8434 0 3
11.0673 7.0584 0.4873 0.8422 0 3
11.0673 7.0934 0.4880 0.8410 0 3
11.0673 7.1285 0.4887 0.8398 0 3
11.0673 7.1637 0.4894 0.8385 0 3
11.0674 7.1990 0.4901 0.8373 0 3
11.0674 7.2344 0.4908 0.8361 0 3
11.0674 7.2699 0.4916 0.8349 0 3
11.0674 7.3055 0.4923 0.8336 0 3
11.0674 7.3412 0.4930 0.8324 0 3
11.0675 7.3771 0.4938 0.8311 0 3
9.2377 6.1874 0.4127 0.5566 0 3
9.1930 6.1875 0.4114 0.5585 0 3
9.1487 6.1875 0.4100 0.5603 0 3
9.1046 6.1875 0.4086 0.5622 0 3
9.0609 6.1876 0.4073 0.5640 0 3
9.0174 6.1876 0.4060 0.5659 0 3
8.9742 6.1876 0.4047 0.5677 0 3
8.9313 6.1876 0.4033 0.5696 0 3
8.8887 6.1876 0.4020 0.5714 0 3
8.8463 6.1877 0.4008 0.5733 0 3
8.8042 6.1877 0.3995 0.5751 0 3
8.7624 6.1877 0.3982 0.5769 0 3
8.7208 6.1877 0.3970 0.5788 0 3
8.6795 6.1878 0.3957 0.5806 0 3
8.6385 6.1878 0.3945 0.5824 0 3
8.5977 6.1878 0.3932 0.5842 0 3
3.4663 2.5065 0.1588 0.4169 312 6
3.4481 2.5051 0.1582 0.7342 312 6
3.4357 2.5080 0.1579 0.8535 312 6
3.4257 2.5125 0.1577 0.9393 312 6
3.4174 2.5182 0.1576 0.9881 312 6
3.4106 2.5251 0.1575 0.9884 312 6
3.4053 2.5329 0.1575 0.9980 312 6
3.4011 2.5417 0.1576 0.9683 312 6
3.3985 2.5517 0.1578 0.9005 312 6
3.3977 2.5630 0.1580 0.7974 312 6
3.3997 2.5765 0.1584 0.6629 312 6
3.4098 2.5963 0.1591 0.3241 312 6
8.5410 6.5335 0.3992 0.7933 0 3
8.5411 6.5639 0.3999 0.7920 0 3
8.5411 6.5945 0.4006 0.7906 0 3
8.5411 6.6251 0.4013 0.7892 0 3
3.2506 2.5332 0.1530 0.3412 312 7
3.2348 2.5325 0.1525 0.8294 312 7
3.2243 2.5360 0.1523 0.8306 312 7
3.2186 2.5432 0.1523 0.9984 312 7
3.2132 2.5506 0.1523 0.9983 312 7
3.2126 2.5620 0.1525 0.7809 312 7
3.2187 2.5787 0.1531 0.2631 312 7
8.5413 6.8743 0.4070 0.7781 0 3
13.3009 10.7544 0.6350 0.6288 0 3
13.2400 10.7544 0.6332 0.6305 0 3
13.1796 10.7544 0.6315 0.6323 0 3
13.1194 10.7545 0.6297 0.6340 0 3
13.0596 10.7545 0.6280 0.6357 0 3
13.0000 10.7546 0.6263 0.6374 0 3
12.9408 10.7546 0.6246 0.6392 0 3
12.9098 10.7779 0.6243 0.7667 0 3
12.9098 10.8271 0.6255 0.7653 0 3
12.8732 10.8458 0.6249 0.6443 0 3
12.8148 10.8458 0.6232 0.6460 0 3
12.7567 10.8458 0.6216 0.6478 0 3
12.6989 10.8459 0.6199 0.6495 0 3
12.6414 10.8459 0.6183 0.6512 0 3
12.5842 10.8460 0.6167 0.6529 0 3
12.5273 10.8460 0.6151 0.6546 0 3
12.4706 10.8460 0.6135 0.6562 0 3
12.4143 10.8461 0.6120 0.6579 0 3
12.3582 10.8461 0.6104 0.6596 0 3
12.3025 10.8461 0.6088 0.6613 0 3
12.2470 10.8461 0.6073 0.6630 0 3
12.1918 10.8462 0.6058 0.6647 0 3
12.1369 10.8462 0.6042 0.6663 0 3
12.0823 10.8463 0.6027 0.6680 0 3
12.0279 10.8463 0.6012 0.6697 0 3
11.9738 10.8463 0.5997 0.6713 0 3
11.9200 10.8463 0.5983 0.6730 0 3
11.8664 10.8464 0.5968 0.6747 0 3
11.8131 10.8464 0.5953 0.6763 0 3
11.7600 10.8464 0.5939 0.6780 0 3
11.7072 10.8465 0.5925 0.6796 0 3
11.6547 10.8465 0.5910 0.6812 0 3
11.6025 10.8465 0.5896 0.6829 0 3
11.5504 10.8465 0.5882 0.6845 0 3
6.5611 6.1890 0.3348 0.6861 0 3
6.5317 6.1891 0.3340 0.6878 0 3
6.5024 6.1891 0.3332 0.6894 0 3
6.4733 6.1891 0.3325 0.6910 0 3
6.4443 6.1891 0.3317 0.6926 0 3
6.4154 6.1891 0.3309 0.6943 0 3
6.3867 6.1891 0.3302 0.6959 0 3
6.3581 6.1891 0.3294 0.6975 0 3
6.3296 6.1892 0.3286 0.6991 0 3
6.3013 6.1892 0.3279 0.7007 0 3
6.2731 6.1892 0.3271 0.7023 0 3
6.2450 6.1892 0.3264 0.7039 0 3
6.2171 6.1892 0.3257 0.7055 0 3
23.3183 -23.3183 0.9520 0.7072 0 5
23.3183 -23.2139 0.9498 0.7088 0 5
23.3184 -23.1100 0.9477 0.7104 0 5
23.3185 -23.0066 0.9456 0.7119 0 5
23.3185 -22.9036 0.9436 0.7135 0 5
23.3186 -22.8011 0.9415 0.7151 0 5
23.3186 -22.6990 0.9394 0.7167 0 5
23.3187 -22.5973 0.9374 0.7182 0 5
23.3188 -22.4962 0.9354 0.7198 0 5
23.3188 -22.3954 0.9333 0.7213 0 5
23.3189 -22.2951 0.9313 0.7229 0 5
23.3189 -22.1952 0.9293 0.7244 0 5
23.3190 -22.0958 0.9274 0.7260 0 5
23.3190 -21.9967 0.9254 0.7275 0 5
23.3191 -21.8981 0.9235 0.7290 0 5
23.3191 -21.7999 0.9215 0.7306 0 5
23.3192 -21.7021 0.9196 0.7321 0 5
23.3193 -21.6047 0.9177 0.7336 0 5
23.3193 -21.5077 0.9158 0.7352 0 5
23.3194 -21.4111 0.9139 0.7367 0 5
23.3194 -21.3149 0.9120 0.7382 0 5
23.3195 -21.2192 0.9102 0.7397 0 5
23.3195 -21.1237 0.9083 0.7412 0 5
23.3196 -21.0287 0.9065 0.7427 0 5
23.2612 -20.8815 0.9024 0.4346 0 5
23.2702 -20.7955 0.9009 0.9011 0 5
23.3198 -20.7459 0.9010 0.7472 0 5
23.3198 -20.6524 0.8992 0.7487 0 5
23.3199 -20.5593 0.8975 0.7502 0 5
23.3199 -20.4665 0.8957 0.7516 0 5
23.3200 -20.3741 0.8939 0.7531 0 5
23.3200 -20.2820 0.8922 0.7546 0 5
23.3201 -20.1904 0.8905 0.7561 0 5
23.3201 -20.0990 0.8887 0.7575 0 5
23.3202 -20.0080 0.8870 0.7590 0 5
23.3203 -19.9174 0.8853 0.7605 0 5
23.3203 -19.8271 0.8836 0.7619 0 5
23.3204 -19.7371 0.8820 0.7634 0 5
23.3204 -19.6475 0.8803 0.7648 0 5
23.3204 -19.5582 0.8786 0.7662 0 5
23.3205 -19.4693 0.8770 0.7677 0 5
23.3205 -19.3807 0.8753 0.7691 0 5
23.3206 -19.2925 0.8737 0.7705 0 5
23.3206 -19.2045 0.8721 0.7720 0 5
23.3207 -19.1169 0.8705 0.7734 0 5
23.3207 -19.0296 0.8689 0.7748 0 5
23.3208 -18.9426 0.8673 0.7762 0 5
23.3208 -18.8560 0.8657 0.7776 0 5
23.3209 -18.7697 0.8642 0.7790 0 5
23.3210 -18.6836 0.8626 0.7805 0 5
23.3210 -18.5979 0.8611 0.7819 0 5
23.3211 -18.5125 0.8596 0.7832 0 5
23.3211 -18.4273 0.8580 0.7846 0 5
23.3212 -18.3426 0.8565 0.7860 0 5
23.3212 -18.2580 0.8550 0.7874 0 5
23.3212 -18.1738 0.8535 0.7888 0 5
23.2617 -18.0436 0.8499 0.9636 0 5
23.3213 -18.0062 0.8506 0.7915 0 5
23.3214 -17.9229 0.8491 0.7929 0 5
23.3214 -17.8398 0.8476 0.7943 0 5
23.3215 -17.7570 0.8462 0.7956 0 5
23.3215 -17.6746 0.8447 0.7970 0 5
23.3216 -17.5923 0.8433 0.7983 0 5
23.3216 -17.5104 0.8419 0.7997 0 5
23.3217 -17.4287 0.8405 0.8010 0 5
23.3217 -17.3473 0.8391 0.8024 0 5
23.3218 -17.2662 0.8377 0.8037 0 5
23.3218 -17.1854 0.8363 0.8050 0 5
23.3219 -17.1048 0.8349 0.8064 0 5
23.3219 -17.0245 0.8335 0.8077 0 5
23.3220 -16.9444 0.8322 0.8090 0 5
23.3220 -16.8646 0.8308 0.8103 0 5
23.3221 -16.7851 0.8295 0.8116 0 5
23.3221 -16.7058 0.8282 0.8129 0 5
23.3222 -16.6268 0.8268 0.8142 0 5
23.3222 -16.5480 0.8255 0.8155 0 5
23.3223 -16.4695 0.8242 0.8168 0 5
23.3223 -16.3912 0.8229 0.8181 0 5
23.3224 -16.3132 0.8216 0.8194 0 5
23.3224 -16.2354 0.8203 0.8207 0 5
23.3224 -16.1578 0.8191 0.8220 0 5
23.3225 -16.0805 0.8178 0.8232 0 5
23.3225 -16.0035 0.8165 0.8245 0 5
23.3226 -15.9266 0.8153 0.8258 0 5
23.3226 -15.8501 0.8140 0.8270 0 5
23.3227 -15.7737 0.8128 0.8283 0 5
23.3227 -15.6976 0.8116 0.8296 0 5
23.3227 -15.6217 0.8104 0.8308 0 5
23.3228 -15.5460 0.8091 0.8320 0 5
23.3228 -15.4705 0.8079 0.8333 0 5
23.2672 -15.3586 0.8048 0.5626 0 5
23.2625 -15.2806 0.8035 0.9815 0 5
23.3230 -15.2455 0.8044 0.8370 0 5
23.3230 -15.1710 0.8032 0.8382 0 5
23.3231 -15.0966 0.8020 0.8394 0 5
23.3231 -15.0225 0.8009 0.8406 0 5
23.3231 -14.9486 0.7997 0.8419 0 5
23.3232 -14.8749 0.7986 0.8431 0 5
23.3232 -14.8014 0.7974 0.8443 0 5
23.3233 -14.7281 0.7963 0.8455 0 5
23.3233 -14.6550 0.7952 0.8467 0 5
23.3234 -14.5822 0.7941 0.8479 0 5
23.3234 -14.5095 0.7929 0.8490 0 5
23.3234 -14.4370 0.7918 0.8502 0 5
23.3235 -14.3648 0.7907 0.8514 0 5
23.3235 -14.2927 0.7897 0.8526 0 5
23.3236 -14.2208 0.7886 0.8537 0 5
23.3236 -14.1491 0.7875 0.8549 0 5
23.3237 -14.0777 0.7864 0.8561 0 5
23.3237 -14.0064 0.7854 0.8572 0 5
23.3237 -13.9353 0.7843 0.8584 0 5
23.3238 -13.8644 0.7833 0.8595 0 5
23.3238 -13.7937 0.7822 0.8607 0 5
23.3238 -13.7232 0.7812 0.8618 0 5
23.3239 -13.6528 0.7802 0.8629 0 5
23.3239 -13.5827 0.7792 0.8641 0 5
23.3240 -13.5127 0.7781 0.8652 0 5
23.3240 -13.4429 0.7771 0.8663 0 5
23.3241 -13.3733 0.7761 0.8674 0 5
23.3241 -13.3038 0.7751 0.8685 0 5
23.3241 -13.2346 0.7742 0.8696 0 5
23.3242 -13.1655 0.7732 0.8708 0 5
23.3242 -13.0966 0.7722 0.8718 0 5
23.3243 -13.0279 0.7712 0.8729 0 5
23.3243 -12.9593 0.7703 0.8740 0 5
23.3244 -12.8910 0.7693 0.8751 0 5
23.3244 -12.8227 0.7684 0.8762 0 5
23.3244 -12.7546 0.7674 0.8773 0 5
23.3245 -12.6868 0.7665 0.8784 0 5
23.2663 -12.5876 0.7636 0.6327 0 5
23.2631 -12.5184 0.7626 0.9943 0 5
23.3246 -12.4841 0.7637 0.8815 0 5
23.3246 -12.4169 0.7628 0.8826 0 5
23.3247 -12.3498 0.7619 0.8836 0 5
23.3247 -12.2828 0.7610 0.8847 0 5
23.3247 -12.2161 0.7601 0.8857 0 5
23.3248 -12.1495 0.7592 0.8868 0 5
23.3248 -12.0831 0.7583 0.8878 0 5
23.3249 -12.0168 0.7574 0.8888 0 5
23.3249 -11.9506 0.7566 0.8899 0 5
23.3249 -11.8847 0.7557 0.8909 0 5
23.3250 -11.8188 0.7548 0.8919 0 5
23.3250 -11.7531 0.7540 0.8929 0 5
23.3251 -11.6876 0.7531 0.8939 0 5
23.3251 -11.6222 0.7523 0.8949 0 5
23.3251 -11.5570 0.7515 0.8959 0 5
23.3252 -11.4919 0.7506 0.8969 0 5
23.3252 -11.4269 0.7498 0.8979 0 5
23.3253 -11.3621 0.7490 0.8989 0 5
23.3253 -11.2974 0.7482 0.8999 0 5
23.3253 -11.2329 0.7474 0.9008 0 5
23.3254 -11.1685 0.7466 0.9018 0 5
23.3254 -11.1042 0.7458 0.9028 0 5
23.3254 -11.0401 0.7450 0.9037 0 5
23.3255 -10.9762 0.7442 0.9047 0 5
23.3255 -10.9123 0.7434 0.9056 0 5
23.3256 -10.8486 0.7426 0.9066 0 5
23.3256 -10.7850 0.7418 0.9075 0 5
23.3256 -10.7215 0.7411 0.9085 0 5
23.3257 -10.6582 0.7403 0.9094 0 5
23.3257 -10.5950 0.7396 0.9103 0 5
23.3258 -10.5320 0.7388 0.9112 0 5
23.3258 -10.4690 0.7381 0.9122 0 5
23.3258 -10.4062 0.7373 0.9131 0 5
23.3258 -10.3435 0.7366 0.9140 0 5
23.3259 -10.2810 0.7359 0.9149 0 5
23.3259 -10.2185 0.7351 0.9158 0 5
23.3260 -10.1562 0.7344 0.9167 0 5
23.3260 -10.0940 0.7337 0.9176 0 5
23.3261 -10.0320 0.7330 0.9185 0 5
23.3261 -9.9700 0.7323 0.9194 0 5
23.3261 -9.9082 0.7316 0.9202 0 5
23.2801 -9.8271 0.7295 0.6882 0 5
23.3033 -9.7753 0.7295 0.6955 0 5
23.5885 -9.8327 0.7377 0.3840 0 5
23.7385 -9.8328 0.7417 0.3820 0 5
23.8902 -9.8329 0.7458 0.3799 0 5
24.0436 -9.8330 0.7499 0.3778 0 5
24.1987 -9.8331 0.7540 0.3757 0 5
24.3555 -9.8332 0.7582 0.3737 0 5
24.5140 -9.8333 0.7625 0.3716 0 5
24.6744 -9.8334 0.7668 0.3695 0 5
24.8366 -9.8335 0.7711 0.3674 0 5
25.0005 -9.8336 0.7755 0.3653 0 5
25.1664 -9.8337 0.7800 0.3632 0 5
25.3343 -9.8338 0.7845 0.3611 0 5
25.5040 -9.8339 0.7891 0.3591 0 5
25.6758 -9.8340 0.7937 0.3570 0 5
25.8496 -9.8341 0.7984 0.3549 0 5
26.0254 -9.8342 0.8031 0.3528 0 5
26.1853 -9.8276 0.8074 0.7169 0 5
26.2191 -9.7732 0.8078 0.6659 0 5
26.5658 -9.8345 0.8178 0.3465 0 5
26.7503 -9.8347 0.8228 0.3444 0 5
26.9371 -9.8348 0.8278 0.3423 0 5
27.1262 -9.8349 0.8329 0.3401 0 5
27.3176 -9.8350 0.8381 0.3380 0 5
27.5115 -9.8351 0.8434 0.3359 0 5
27.7079 -9.8352 0.8488 0.3338 0 5
27.9067 -9.8354 0.8542 0.3317 0 5
28.1081 -9.8355 0.8597 0.3296 0 5
28.3120 -9.8356 0.8652 0.3275 0 5
28.5187 -9.8357 0.8709 0.3253 0 5
28.7280 -9.8358 0.8766 0.3232 0 5
28.9401 -9.8360 0.8824 0.3211 0 5
29.0945 -9.8157 0.8864 0.9957 0 5
29.1549 -9.7632 0.8876 0.6405 0 5
29.5937 -9.8363 0.9003 0.3147 0 5
29.8175 -9.8365 0.9064 0.3126 0 5
30.0443 -9.8366 0.9126 0.3105 0 5
30.2743 -9.8368 0.9189 0.3083 0 5
30.5075 -9.8369 0.9253 0.3062 0 5
30.7440 -9.8371 0.9318 0.3040 0 5
30.9838 -9.8372 0.9384 0.3019 0 5
31.2271 -9.8373 0.9451 0.2998 0 5
31.4738 -9.8375 0.9519 0.2976 0 5
31.7242 -9.8377 0.9588 0.2955 0 5
31.9781 -9.8378 0.9658 0.2933 0 5
32.0326 -9.7760 0.9668 0.6196 0 5
32.4974 -9.8381 0.9802 0.2891 0 5
32.7628 -9.8383 0.9875 0.2869 0 5
33.0323 -9.8384 0.9950 0.2848 0 5
33.3058 -9.8386 1.0025 0.2826 0 5
33.5836 -9.8387 1.0102 0.2805 0 5
33.8657 -9.8389 1.0180 0.2783 0 5
34.1521 -9.8391 1.0260 0.2761 0 5
34.4431 -9.8393 1.0341 0.2740 0 5
34.7387 -9.8395 1.0423 0.2718 0 5
34.8795 -9.7948 1.0458 0.9993 0 6
42.3759 -9.8723 1.2561 0.9468 0 6
28.1890 -6.4340 0.8347 0.5300 310 7
28.0255 -6.3305 0.8294 0.8168 310 6
28.0453 -6.2689 0.8296 0.7228 310 6
28.1852 -6.2338 0.8333 0.9761 310 7
28.2476 -6.1811 0.8347 0.2087 310 7
45.2170 -9.7880 1.3355 0.5168 0 5
45.7868 -9.8039 1.3517 0.2047 0 5
46.3597 -9.8178 1.3680 0.0820 0 5
47.0372 -9.8511 1.3873 0.0808 0 5
48.0040 -9.8289 1.4145 0.9792 0 5
34.4897 -6.1791 1.0115 0.9118 0 6
41.7706 4.1377 1.2117 0.0991 0 3
40.8907 4.1432 1.1865 0.3971 0 3
40.7759 4.2241 1.1834 0.9382 0 3
40.7449 4.3133 1.1828 0.9939 0 3
40.7450 4.4058 1.1831 0.9937 0 3
38.8292 4.2868 1.1277 0.1103 0 3
38.0505 4.2873 1.1054 0.1125 0 3
37.3020 4.2877 1.0839 0.1147 0 3
36.6704 4.2985 1.0658 0.9927 0 3
36.6704 4.3820 1.0661 0.9924 0 3
36.6705 4.4655 1.0664 0.9922 0 3
36.1263 4.4815 1.0509 0.1237 0 3
35.4778 4.4819 1.0323 0.1259 0 3
34.8516 4.4823 1.0144 0.1281 0 3
34.2468 4.4827 0.9970 0.1303 0 3
33.6623 4.4830 0.9803 0.1326 0 3
33.0972 4.4833 0.9642 0.1348 0 3
32.5503 4.4837 0.9485 0.1370 0 3
32.0208 4.4840 0.9334 0.1392 0 3
31.5081 4.4843 0.9187 0.1414 0 3
18.3927 2.6598 0.5365 0.6836 0 6
18.3633 2.6976 0.5358 0.9991 0 6
18.3697 2.7407 0.5362 0.7238 0 6
30.8692 4.6764 0.9013 0.0279 0 3
29.1681 4.4857 0.8519 0.1525 0 3
28.7404 4.4860 0.8397 0.1547 0 3
28.4430 4.5049 0.8313 0.9872 0 3
28.4431 4.5704 0.8316 0.9868 0 3
28.4431 4.6359 0.8319 0.9864 0 3
28.4432 4.7015 0.8322 0.9861 0 3
28.4432 4.7671 0.8325 0.9857 0 3
28.4433 4.8328 0.8329 0.9853 0 3
28.4433 4.8984 0.8332 0.9850 0 3
28.4433 4.9642 0.8335 0.9846 0 3
28.4434 5.0300 0.8338 0.9842 0 3
28.4434 5.0958 0.8342 0.9838 0 3
28.4435 5.1617 0.8345 0.9834 0 3
28.4435 5.2277 0.8349 0.9830 0 3
28.4435 5.2937 0.8352 0.9826 0 3
28.4436 5.3598 0.8356 0.9822 0 3
28.4436 5.4260 0.8359 0.9817 0 3
28.4437 5.4921 0.8363 0.9813 0 3
28.4437 5.5584 0.8366 0.9809 0 3
28.4437 5.6247 0.8370 0.9804 0 3
28.4438 5.6910 0.8374 0.9800 0 3
28.4438 5.7575 0.8378 0.9796 0 3
28.4439 5.8239 0.8381 0.9791 0 3
28.4439 5.8905 0.8385 0.9787 0 3
28.4439 5.9571 0.8389 0.9782 0 3
28.4440 6.0238 0.8393 0.9777 0 3
28.4440 6.0905 0.8397 0.9773 0 3
28.4441 6.1573 0.8401 0.9768 0 3
28.4441 6.2242 0.8405 0.9763 0 3
28.4442 6.2911 0.8410 0.9758 0 3
28.4442 6.3581 0.8414 0.9753 0 3
28.4442 6.4251 0.8418 0.9749 0 3
28.4443 6.4923 0.8422 0.9744 0 3
28.4443 6.5595 0.8427 0.9739 0 3
28.4444 6.6268 0.8431 0.9733 0 3
28.4444 6.6941 0.8436 0.9728 0 3
28.4445 6.7614 0.8440 0.9723 0 3
28.0856 6.7428 0.8338 0.2339 0 3
22.9300 5.5595 0.6811 0.2361 0 3
22.7079 5.5596 0.6749 0.2383 0 3
22.4898 5.5597 0.6688 0.2405 0 3
22.2757 5.5599 0.6628 0.2426 0 3
22.2455 5.6054 0.6622 0.9691 0 3
22.2455 5.6585 0.6626 0.9686 0 3
22.2455 5.7117 0.6630 0.9680 0 3
22.2456 5.7649 0.6634 0.9674 0 3
22.2456 5.8182 0.6638 0.9669 0 3
22.2456 5.8716 0.6642 0.9663 0 3
22.2457 5.9250 0.6646 0.9657 0 3
22.2457 5.9786 0.6650 0.9651 0 3
22.2457 6.0321 0.6654 0.9646 0 3
22.2458 6.0858 0.6658 0.9640 0 3
22.2458 6.1395 0.6662 0.9634 0 3
22.2458 6.1932 0.6666 0.9628 0 3
22.2459 6.2470 0.6670 0.9622 0 3
22.2458 6.3009 0.6675 0.9616 0 3
22.2459 6.3549 0.6679 0.9609 0 3
22.2459 6.4090 0.6683 0.9603 0 3
22.2459 6.4631 0.6687 0.9597 0 3
22.2460 6.5172 0.6692 0.9591 0 3
22.1286 6.5368 0.6661 0.2837 0 3
21.9475 6.5369 0.6611 0.2859 0 3
21.7691 6.5370 0.6562 0.2880 0 3
21.5935 6.5371 0.6513 0.2902 0 3
21.4204 6.5372 0.6465 0.2923 0 3
21.2498 6.5373 0.6418 0.2944 0 3
21.0816 6.5374 0.6372 0.2966 0 3
20.9159 6.5375 0.6326 0.2987 0 3
20.7525 6.5376 0.6281 0.3009 0 3
20.5915 6.5377 0.6237 0.3030 0 3
20.4327 6.5377 0.6193 0.3051 0 3
20.2761 6.5378 0.6150 0.3073 0 3
20.1216 6.5379 0.6108 0.3094 0 3
19.9693 6.5380 0.6066 0.3115 0 3
19.8190 6.5381 0.6025 0.3137 0 3
19.6708 6.5381 0.5984 0.3158 0 3
19.5245 6.5382 0.5944 0.3179 0 3
19.3803 6.5383 0.5904 0.3201 0 3
19.2379 6.5384 0.5866 0.3222 0 3
19.0974 6.5385 0.5827 0.3243 0 3
18.9587 6.5385 0.5789 0.3264 0 3
16.0149 5.5636 0.4894 0.3286 0 3
15.8999 5.5637 0.4863 0.3307 0 3
15.7864 5.5637 0.4832 0.3328 0 3
15.6743 5.5637 0.4801 0.3349 0 3
15.5636 5.5638 0.4771 0.3370 0 3
15.4543 5.5639 0.4742 0.3392 0 3
15.3464 5.5640 0.4712 0.3413 0 3
15.2397 5.5640 0.4683 0.3434 0 3
15.1344 5.5641 0.4655 0.3455 0 3
15.0304 5.5642 0.4627 0.3476 0 3
14.9334 5.5664 0.4601 0.9364 0 3
14.9334 5.6046 0.4605 0.9356 0 3
14.9334 5.6429 0.4608 0.9348 0 3
14.9334 5.6812 0.4612 0.9340 0 3
14.9335 5.7196 0.4616 0.9332 0 3
14.9335 5.7581 0.4620 0.9324 0 3
14.9335 5.7966 0.4624 0.9316 0 3
14.9335 5.8352 0.4628 0.9308 0 3
14.9336 5.8739 0.4632 0.9300 0 3
14.9336 5.9126 0.4637 0.9291 0 3
14.9336 5.9514 0.4641 0.9283 0 3
14.9336 5.9903 0.4645 0.9275 0 3
14.9337 6.0292 0.4649 0.9266 0 3
14.9337 6.0683 0.4653 0.9258 0 3
14.9337 6.1074 0.4658 0.9249 0 3
14.9337 6.1465 0.4662 0.9241 0 3
14.9337 6.1858 0.4666 0.9232 0 3
13.7653 5.7380 0.4305 0.3852 0 3
13.7411 5.7641 0.4302 0.9215 0 3
13.7411 5.8004 0.4306 0.9206 0 3
13.7411 5.8368 0.4310 0.9198 0 3
13.7411 5.8732 0.4314 0.9189 0 3
13.7411 5.9098 0.4318 0.9180 0 3
13.7412 5.9463 0.4322 0.9171 0 3
13.7412 5.9830 0.4326 0.9162 0 3
13.7412 6.0197 0.4331 0.9153 0 3
13.7412 6.0565 0.4335 0.9144 0 3
13.6728 6.0630 0.4318 0.4058 0 3
13.5905 6.0631 0.4296 0.4078 0 3
13.5091 6.0631 0.4275 0.4098 0 3
13.4284 6.0631 0.4253 0.4119 0 3
13.3486 6.0632 0.4232 0.4139 0 3
13.2695 6.0632 0.4212 0.4160 0 3
13.1913 6.0633 0.4191 0.4180 0 3
13.1137 6.0634 0.4171 0.4200 0 3
13.0369 6.0634 0.4151 0.4221 0 3
12.9609 6.0635 0.4131 0.4241 0 3
12.8856 6.0635 0.4111 0.4261 0 3
12.8110 6.0636 0.4092 0.4282 0 3
12.7371 6.0636 0.4072 0.4302 0 3
12.6639 6.0637 0.4053 0.4322 0 3
12.5914 6.0637 0.4034 0.4342 0 3
12.5195 6.0637 0.4016 0.4363 0 3
12.4483 6.0638 0.3997 0.4383 0 3
12.3778 6.0638 0.3979 0.4403 0 3
10.1663 5.0087 0.3272 0.9921 0 3
10.1222 5.0153 0.3261 0.9924 0 3
10.1082 5.0366 0.3260 0.9927 0 3
10.0943 5.0580 0.3259 0.9929 0 3
10.0803 5.0793 0.3259 0.9932 0 3
10.0663 5.1006 0.3258 0.9934 0 3
10.0524 5.1220 0.3257 0.9937 0 3
10.0384 5.1432 0.3256 0.9939 0 3
10.0755 5.1908 0.3272 0.1036 0 3
10.2853 5.3281 0.3344 0.1014 0 3
10.5044 5.4715 0.3419 0.0992 0 3
10.7337 5.6217 0.3498 0.0970 0 3
11.0664 5.8276 0.3611 0.8841 0 3
11.0664 5.8594 0.3615 0.8831 0 3
11.0664 5.8912 0.3619 0.8820 0 3
11.0665 5.9231 0.3623 0.8810 0 3
11.0665 5.9551 0.3628 0.8799 0 3
11.0665 5.9872 0.3632 0.8788 0 3
11.0665 6.0194 0.3637 0.8778 0 3
11.0665 6.0516 0.3641 0.8767 0 3
11.0666 6.0839 0.3646 0.8756 0 3
11.0666 6.1163 0.3650 0.8745 0 3
11.0666 6.1487 0.3655 0.8735 0 3
11.0666 6.1813 0.3659 0.8724 0 3
11.0666 6.2139 0.3664 0.8713 0 3
11.0667 6.2467 0.3668 0.8702 0 3
11.0667 6.2794 0.3673 0.8691 0 3
11.0667 6.3123 0.3678 0.8679 0 3
11.0667 6.3453 0.3683 0.8668 0 3
11.0668 6.3783 0.3687 0.8657 0 3
11.0668 6.4115 0.3692 0.8646 0 3
11.0668 6.4447 0.3697 0.8635 0 3
11.0668 6.4780 0.3702 0.8623 0 3
11.0668 6.5114 0.3707 0.8612 0 3
11.0669 6.5449 0.3712 0.8600 0 3
11.0669 6.5785 0.3717 0.8589 0 3
11.0669 6.6121 0.3722 0.8578 0 3
11.0669 6.6459 0.3727 0.8566 0 3
11.0669 6.6797 0.3732 0.8554 0 3
11.0670 6.7137 0.3737 0.8543 0 3
11.0670 6.7477 0.3742 0.8531 0 3
11.0670 6.7819 0.3747 0.8519 0 3
11.0670 6.8161 0.3752 0.8508 0 3
11.0670 6.8504 0.3757 0.8496 0 3
11.0671 6.8848 0.3763 0.8484 0 3
11.0671 6.9193 0.3768 0.8472 0 3
11.0671 6.9539 0.3773 0.8460 0 3
11.0671 6.9886 0.3779 0.8448 0 3
11.0671 7.0234 0.3784 0.8436 0 3
11.0672 7.0583 0.3789 0.8424 0 3
11.0672 7.0933 0.3795 0.8412 0 3
11.0672 7.1284 0.3800 0.8400 0 3
11.0672 7.1636 0.3806 0.8388 0 3
11.0672 7.1989 0.3811 0.8376 0 3
11.0673 7.2343 0.3817 0.8363 0 3
11.0673 7.2699 0.3823 0.8351 0 3
11.0673 7.3055 0.3828 0.8339 0 3
11.0673 7.3412 0.3834 0.8326 0 3
11.0673 7.3770 0.3840 0.8314 0 3
9.2377 6.1874 0.3210 0.5568 0 3
9.1930 6.1875 0.3199 0.5586 0 3
9.1487 6.1875 0.3188 0.5605 0 3
9.1046 6.1875 0.3178 0.5623 0 3
9.0609 6.1875 0.3167 0.5642 0 3
9.0174 6.1876 0.3157 0.5660 0 3
8.9742 6.1876 0.3147 0.5679 0 3
8.9313 6.1876 0.3137 0.5697 0 3
8.8886 6.1877 0.3126 0.5716 0 3
8.8463 6.1877 0.3116 0.5734 0 3
8.8042 6.1877 0.3106 0.5753 0 3
8.7624 6.1877 0.3097 0.5771 0 3
8.7208 6.1878 0.3087 0.5789 0 3
8.6795 6.1878 0.3077 0.5807 0 3
8.6385 6.1878 0.3068 0.5826 0 3
8.5977 6.1878 0.3058 0.5844 0 3
3.4663 2.5065 0.1235 0.4170 312 6
3.4481 2.5052 0.1230 0.7344 312 6
3.4357 2.5080 0.1228 0.8538 312 6
3.4257 2.5125 0.1226 0.9395 312 6
3.4174 2.5182 0.1225 0.9884 312 6
3.4106 2.5251 0.1225 0.9887 312 6
3.4044 2.5323 0.1225 0.5587 312 7
3.3884 2.5322 0.1221 0.5604 312 7
3.3724 2.5321 0.1217 0.5621 312 7
3.3565 2.5320 0.1214 0.5638 312 7
3.3408 2.5318 0.1210 0.5655 312 7
3.3251 2.5317 0.1206 0.5672 312 7
3.3095 2.5316 0.1203 0.5689 312 7
3.2940 2.5315 0.1199 0.5706 312 7
3.2786 2.5314 0.1196 0.5723 312 7
3.2623 2.5305 0.1192 0.5247 312 7
3.2496 2.5323 0.1189 0.7371 312 7
3.2377 2.5348 0.1187 0.8008 312 7
3.2297 2.5402 0.1186 0.9213 312 7
3.2238 2.5473 0.1186 0.9222 312 7
3.2204 2.5563 0.1187 0.6887 312 7
3.2202 2.5681 0.1189 0.6875 312 7
8.5411 6.8427 0.3159 0.7797 0 3
8.5412 6.8743 0.3165 0.7783 0 3
13.3009 10.7544 0.4938 0.6289 0 3
13.2401 10.7544 0.4924 0.6307 0 3
13.1796 10.7544 0.4911 0.6324 0 3
13.1194 10.7545 0.4897 0.6342 0 3
13.0596 10.7545 0.4884 0.6359 0 3
13.0000 10.7545 0.4871 0.6376 0 3
12.9408 10.7546 0.4857 0.6393 0 3
12.9096 10.7777 0.4855 0.7669 0 3
12.9097 10.8270 0.4864 0.7655 0 3
12.8732 10.8458 0.4859 0.6445 0 3
12.8148 10.8458 0.4846 0.6462 0 3
12.7567 10.8458 0.4834 0.6479 0 3
12.6989 10.8459 0.4821 0.6496 0 3
12.6414 10.8459 0.4808 0.6513 0 3
12.5841 10.8460 0.4796 0.6530 0 3
12.5273 10.8460 0.4783 0.6547 0 3
12.4706 10.8460 0.4771 0.6564 0 3
12.4143 10.8461 0.4759 0.6581 0 3
12.3582 10.8461 0.4747 0.6598 0 3
12.3025 10.8461 0.4735 0.6615 0 3
12.2470 10.8462 0.4723 0.6632 0 3
12.1918 10.8462 0.4711 0.6648 0 3
12.1369 10.8462 0.4699 0.6665 0 3
12.0822 10.8462 0.4687 0.6682 0 3
12.0279 10.8463 0.4675 0.6699 0 3
11.9738 10.8463 0.4664 0.6715 0 3
11.9200 10.8464 0.4652 0.6732 0 3
11.8664 10.8464 0.4641 0.6748 0 3
11.8131 10.8464 0.4630 0.6765 0 3
11.7600 10.8465 0.4618 0.6781 0 3
11.7072 10.8465 0.4607 0.6798 0 3
11.6547 10.8465 0.4596 0.6814 0 3
11.6024 10.8466 0.4585 0.6831 0 3
11.5504 10.8466 0.4574 0.6847 0 3
6.5611 6.1890 0.2604 0.6863 0 3
6.5317 6.1890 0.2598 0.6880 0 3
6.5024 6.1891 0.2591 0.6896 0 3
6.4733 6.1891 0.2585 0.6912 0 3
6.4443 6.1891 0.2579 0.6928 0 3
6.4154 6.1891 0.2573 0.6944 0 3
6.3867 6.1891 0.2567 0.6961 0 3
6.3581 6.1892 0.2561 0.6977 0 3
6.3296 6.1892 0.2556 0.6993 0 3
6.3013 6.1892 0.2550 0.7009 0 3
6.2731 6.1892 0.2544 0.7025 0 3
6.2450 6.1892 0.2538 0.7041 0 3
6.2171 6.1892 0.2532 0.7056 0 3
23.3180 -23.3180 0.6799 0.7074 0 5
23.3180 -23.2136 0.6784 0.7089 0 5
23.3181 -23.1097 0.6769 0.7105 0 5
23.3182 -23.0063 0.6754 0.7121 0 5
23.3182 -22.9033 0.6739 0.7137 0 5
23.3183 -22.8008 0.6724 0.7152 0 5
23.3183 -22.6987 0.6709 0.7168 0 5
23.3184 -22.5971 0.6695 0.7184 0 5
23.3185 -22.4959 0.6680 0.7199 0 5
23.3185 -22.3952 0.6666 0.7215 0 5
23.3186 -22.2949 0.6651 0.7230 0 5
23.3186 -22.1950 0.6637 0.7246 0 5
23.3187 -22.0955 0.6623 0.7261 0 5
23.3188 -21.9965 0.6609 0.7277 0 5
23.3188 -21.8979 0.6595 0.7292 0 5
23.3189 -21.7997 0.6581 0.7307 0 5
23.3189 -21.7019 0.6568 0.7323 0 5
23.3190 -21.6045 0.6554 0.7338 0 5
23.3190 -21.5075 0.6540 0.7353 0 5
23.3191 -21.4109 0.6527 0.7368 0 5
23.3192 -21.3147 0.6513 0.7383 0 5
23.3192 -21.2189 0.6500 0.7399 0 5
23.3193 -21.1235 0.6487 0.7414 0 5
23.3193 -21.0284 0.6474 0.7429 0 5
23.2608 -20.8812 0.6445 0.4346 0 5
23.2701 -20.7954 0.6434 0.9013 0 5
23.3195 -20.7457 0.6435 0.7474 0 5
23.3195 -20.6522 0.6422 0.7488 0 5
23.3196 -20.5591 0.6409 0.7503 0 5
23.3197 -20.4662 0.6397 0.7518 0 5
23.3197 -20.3739 0.6384 0.7533 0 5
23.3198 -20.2818 0.6372 0.7548 0 5
23.3198 -20.1901 0.6359 0.7562 0 5
23.3199 -20.0988 0.6347 0.7577 0 5
23.3200 -20.0078 0.6335 0.7592 0 5
23.3200 -19.9171 0.6323 0.7606 0 5
23.3201 -19.8269 0.6311 0.7621 0 5
23.3201 -19.7370 0.6299 0.7635 0 5
23.3202 -19.6473 0.6287 0.7650 0 5
23.3202 -19.5580 0.6275 0.7664 0 5
23.3203 -19.4691 0.6263 0.7678 0 5
23.3203 -19.3805 0.6252 0.7693 0 5
23.3204 -19.2923 0.6240 0.7707 0 5
23.3204 -19.2043 0.6228 0.7721 0 5
23.3205 -19.1167 0.6217 0.7736 0 5
23.3205 -19.0295 0.6206 0.7750 0 5
23.3206 -18.9424 0.6194 0.7764 0 5
23.3206 -18.8558 0.6183 0.7778 0 5
23.3207 -18.7695 0.6172 0.7792 0 5
23.3207 -18.6834 0.6161 0.7806 0 5
23.3208 -18.5977 0.6150 0.7820 0 5
23.3208 -18.5123 0.6139 0.7834 0 5
23.3209 -18.4272 0.6128 0.7848 0 5
23.3209 -18.3424 0.6117 0.7862 0 5
23.3210 -18.2578 0.6106 0.7876 0 5
23.3210 -18.1736 0.6096 0.7890 0 5
23.2615 -18.0435 0.6069 0.9638 0 5
23.3211 -18.0060 0.6074 0.7917 0 5
23.3212 -17.9227 0.6064 0.7931 0 5
23.3212 -17.8396 0.6054 0.7944 0 5
23.3213 -17.7569 0.6043 0.7958 0 5
23.3213 -17.6744 0.6033 0.7972 0 5
23.3214 -17.5922 0.6023 0.7985 0 5
23.3214 -17.5102 0.6013 0.7999 0 5
23.3215 -17.4285 0.6003 0.8012 0 5
23.3215 -17.3472 0.5992 0.8025 0 5
23.3215 -17.2660 0.5982 0.8039 0 5
23.3216 -17.1852 0.5973 0.8052 0 5
23.3216 -17.1046 0.5963 0.8065 0 5
23.3217 -17.0243 0.5953 0.8079 0 5
23.3217 -16.9443 0.5943 0.8092 0 5
23.3218 -16.8645 0.5934 0.8105 0 5
23.3218 -16.7849 0.5924 0.8118 0 5
23.3219 -16.7056 0.5915 0.8131 0 5
23.3219 -16.6266 0.5905 0.8144 0 5
23.3220 -16.5478 0.5896 0.8157 0 5
23.3220 -16.4693 0.5886 0.8170 0 5
23.3221 -16.3910 0.5877 0.8183 0 5
23.3221 -16.3130 0.5868 0.8196 0 5
23.3221 -16.2352 0.5859 0.8209 0 5
23.3222 -16.1577 0.5850 0.8221 0 5
23.3222 -16.0804 0.5841 0.8234 0 5
23.3223 -16.0033 0.5831 0.8247 0 5
23.3223 -15.9265 0.5823 0.8260 0 5
23.3224 -15.8499 0.5814 0.8272 0 5
23.3224 -15.7736 0.5805 0.8285 0 5
23.3225 -15.6974 0.5796 0.8297 0 5
23.3225 -15.6215 0.5787 0.8310 0 5
23.3226 -15.5459 0.5779 0.8322 0 5
23.3226 -15.4704 0.5770 0.8335 0 5
23.2669 -15.3584 0.5748 0.5627 0 5
23.2623 -15.2805 0.5738 0.9817 0 5
23.3227 -15.2454 0.5745 0.8372 0 5
23.3228 -15.1708 0.5736 0.8384 0 5
23.3228 -15.0965 0.5728 0.8396 0 5
23.3229 -15.0224 0.5720 0.8408 0 5
23.3229 -14.9484 0.5711 0.8420 0 5
23.3229 -14.8748 0.5703 0.8432 0 5
23.3230 -14.8013 0.5695 0.8444 0 5
23.3230 -14.7280 0.5687 0.8456 0 5
23.3231 -14.6549 0.5679 0.8468 0 5
23.3231 -14.5821 0.5671 0.8480 0 5
23.3232 -14.5093 0.5663 0.8492 0 5
23.3232 -14.4369 0.5655 0.8504 0 5
23.3233 -14.3646 0.5647 0.8516 0 5
23.3233 -14.2926 0.5640 0.8528 0 5
23.3233 -14.2207 0.5632 0.8539 0 5
23.3234 -14.1490 0.5624 0.8551 0 5
23.3234 -14.0775 0.5617 0.8562 0 5
23.3235 -14.0063 0.5609 0.8574 0 5
23.3235 -13.9352 0.5601 0.8586 0 5
23.3236 -13.8643 0.5594 0.8597 0 5
23.3236 -13.7936 0.5587 0.8608 0 5
23.3237 -13.7230 0.5579 0.8620 0 5
23.3237 -13.6527 0.5572 0.8631 0 5
23.3237 -13.5825 0.5565 0.8642 0 5
23.3238 -13.5126 0.5557 0.8654 0 5
23.3238 -13.4428 0.5550 0.8665 0 5
23.3238 -13.3732 0.5543 0.8676 0 5
23.3239 -13.3038 0.5536 0.8687 0 5
23.3239 -13.2345 0.5529 0.8698 0 5
23.3240 -13.1654 0.5522 0.8709 0 5
23.3240 -13.0965 0.5515 0.8720 0 5
23.3241 -13.0277 0.5508 0.8731 0 5
23.3241 -12.9592 0.5501 0.8742 0 5
23.3241 -12.8908 0.5494 0.8753 0 5
23.3242 -12.8226 0.5488 0.8764 0 5
23.3242 -12.7546 0.5481 0.8775 0 5
23.3243 -12.6867 0.5474 0.8785 0 5
23.2661 -12.5874 0.5454 0.6328 0 5
23.2629 -12.5183 0.5446 0.9945 0 5
23.3244 -12.4840 0.5454 0.8817 0 5
23.3244 -12.4168 0.5448 0.8828 0 5
23.3245 -12.3497 0.5441 0.8838 0 5
23.3245 -12.2828 0.5435 0.8849 0 5
23.3245 -12.2160 0.5428 0.8859 0 5
23.3246 -12.1494 0.5422 0.8870 0 5
23.3246 -12.0829 0.5416 0.8880 0 5
23.3247 -12.0167 0.5410 0.8890 0 5
23.3247 -11.9505 0.5403 0.8900 0 5
23.3247 -11.8846 0.5397 0.8911 0 5
23.3248 -11.8187 0.5391 0.8921 0 5
23.3248 -11.7530 0.5385 0.8931 0 5
23.3248 -11.6875 0.5379 0.8941 0 5
23.3249 -11.6221 0.5373 0.8951 0 5
23.3249 -11.5569 0.5367 0.8961 0 5
23.3250 -11.4918 0.5361 0.8971 0 5
23.3250 -11.4268 0.5355 0.8981 0 5
23.3250 -11.3620 0.5349 0.8991 0 5
23.3251 -11.2973 0.5343 0.9000 0 5
23.3251 -11.2328 0.5338 0.9010 0 5
23.3252 -11.1684 0.5332 0.9020 0 5
23.3252 -11.1041 0.5326 0.9030 0 5
23.3253 -11.0400 0.5320 0.9039 0 5
23.3253 -10.9761 0.5315 0.9049 0 5
23.3253 -10.9122 0.5309 0.9058 0 5
23.3254 -10.8485 0.5304 0.9068 0 5
23.3254 -10.7849 0.5298 0.9077 0 5
23.3254 -10.7214 0.5293 0.9086 0 5
23.3254 -10.6581 0.5287 0.9096 0 5
23.3255 -10.5950 0.5282 0.9105 0 5
23.3255 -10.5319 0.5276 0.9114 0 5
23.3256 -10.4690 0.5271 0.9124 0 5
23.3256 -10.4062 0.5266 0.9133 0 5
23.3256 -10.3435 0.5261 0.9142 0 5
23.3257 -10.2809 0.5255 0.9151 0 5
23.3257 -10.2185 0.5250 0.9160 0 5
23.3258 -10.1562 0.5245 0.9169 0 5
23.3258 -10.0940 0.5240 0.9178 0 5
23.3258 -10.0319 0.5235 0.9187 0 5
23.3259 -9.9700 0.5230 0.9195 0 5
23.3259 -9.9081 0.5225 0.9204 0 5
23.2798 -9.8270 0.5210 0.6883 0 5
23.3032 -9.7753 0.5210 0.6956 0 5
23.5884 -9.8327 0.5269 0.3841 0 5
23.7385 -9.8328 0.5297 0.3820 0 5
23.8902 -9.8329 0.5326 0.3800 0 5
24.0436 -9.8330 0.5356 0.3779 0 5
24.1987 -9.8331 0.5385 0.3758 0 5
24.3555 -9.8332 0.5415 0.3737 0 5
24.5140 -9.8333 0.5446 0.3717 0 5
24.6744 -9.8334 0.5476 0.3696 0 5
24.8365 -9.8335 0.5507 0.3675 0 5
25.0005 -9.8336 0.5539 0.3654 0 5
25.1664 -9.8337 0.5571 0.3633 0 5
25.3342 -9.8338 0.5603 0.3612 0 5
25.5040 -9.8339 0.5635 0.3591 0 5
25.6757 -9.8340 0.5669 0.3570 0 5
25.8495 -9.8341 0.5702 0.3549 0 5
26.0254 -9.8342 0.5736 0.3528 0 5
26.1851 -9.8274 0.5766 0.7170 0 5
26.2190 -9.7731 0.5769 0.6661 0 5
26.5658 -9.8346 0.5840 0.3465 0 5
26.7503 -9.8347 0.5876 0.3444 0 5
26.9371 -9.8348 0.5912 0.3423 0 5
27.1262 -9.8349 0.5949 0.3402 0 5
27.3177 -9.8350 0.5986 0.3381 0 5
27.5115 -9.8351 0.6024 0.3360 0 5
27.7078 -9.8352 0.6062 0.3339 0 5
27.9067 -9.8354 0.6100 0.3318 0 5
28.1080 -9.8354 0.6140 0.3296 0 5
28.3120 -9.8356 0.6179 0.3275 0 5
28.5187 -9.8357 0.6220 0.3254 0 5
28.7280 -9.8358 0.6260 0.3233 0 5
28.9401 -9.8360 0.6302 0.3212 0 5
29.0943 -9.8156 0.6331 0.9959 0 5
29.1547 -9.7632 0.6339 0.6406 0 5
29.5937 -9.8363 0.6429 0.3148 0 5
29.8174 -9.8365 0.6473 0.3126 0 5
30.0443 -9.8366 0.6518 0.3105 0 5
30.2743 -9.8368 0.6563 0.3084 0 5
30.5075 -9.8369 0.6609 0.3062 0 5
30.7439 -9.8371 0.6655 0.3041 0 5
30.9838 -9.8372 0.6702 0.3020 0 5
31.2271 -9.8374 0.6750 0.2998 0 5
31.4738 -9.8375 0.6799 0.2977 0 5
31.7241 -9.8376 0.6848 0.2955 0 5
31.9780 -9.8378 0.6898 0.2934 0 5
32.0325 -9.7759 0.6905 0.6197 0 5
32.4974 -9.8381 0.7000 0.2891 0 5
32.7628 -9.8382 0.7053 0.2870 0 5
33.0323 -9.8384 0.7106 0.2848 0 5
33.3059 -9.8386 0.7160 0.2827 0 5
33.5836 -9.8388 0.7215 0.2805 0 5
33.8656 -9.8389 0.7271 0.2784 0 5
34.1521 -9.8391 0.7328 0.2762 0 5
34.4431 -9.8393 0.7385 0.2740 0 5
34.7386 -9.8395 0.7444 0.2719 0 5
34.8792 -9.7947 0.7469 0.9762 0 6
42.3755 -9.8722 0.8971 0.9470 0 6
28.1887 -6.4339 0.5962 0.5301 310 7
28.0253 -6.3304 0.5924 0.8170 310 6
28.0451 -6.2688 0.5925 0.7230 310 6
28.1850 -6.2337 0.5951 0.9763 310 7
28.2476 -6.1811 0.5962 0.2088 310 7
45.2174 -9.7881 0.9538 0.5599 0 5
48.0037 -9.8288 1.0103 0.9794 0 5
34.5123 -6.2631 0.7232 0.4104 0 6
34.4879 -6.1788 0.7224 0.9120 0 6
41.7705 4.1377 0.8654 0.0992 0 3
40.8904 4.1432 0.8474 0.3972 0 3
40.7756 4.2240 0.8452 0.9384 0 3
40.7446 4.3132 0.8447 0.9941 0 3
40.7446 4.4057 0.8449 0.9939 0 3
38.8293 4.2868 0.8054 0.1103 0 3
38.0505 4.2873 0.7894 0.1125 0 3
37.3021 4.2878 0.7741 0.1148 0 3
36.6701 4.2985 0.7612 0.9929 0 3
36.6701 4.3819 0.7614 0.9926 0 3
36.6702 4.4654 0.7616 0.9924 0 3
36.1265 4.4815 0.7505 0.1237 0 3
35.7548 4.5169 0.7430 0.9918 0 3
35.7549 4.5984 0.7432 0.9915 0 3
35.7549 4.6800 0.7434 0.9912 0 3
35.7550 4.7616 0.7437 0.9909 0 3
35.7550 4.8434 0.7439 0.9906 0 3
35.7551 4.9251 0.7441 0.9903 0 3
35.7551 5.0069 0.7444 0.9900 0 3
35.7552 5.0887 0.7446 0.9897 0 3
18.3915 2.6596 0.3831 0.6838 0 6
18.3624 2.6975 0.3826 0.9993 0 6
18.3686 2.7405 0.3829 0.7240 0 6
35.7554 5.4166 0.7456 0.9884 0 3
29.1681 4.4857 0.6084 0.1526 0 3
28.7404 4.4860 0.5997 0.1548 0 3
28.4428 4.5049 0.5937 0.9874 0 3
28.4429 4.5704 0.5939 0.9870 0 3
28.4429 4.6359 0.5941 0.9866 0 3
28.4429 4.7014 0.5944 0.9863 0 3
28.4430 4.7670 0.5946 0.9859 0 3
28.4430 4.8327 0.5948 0.9855 0 3
28.4430 4.8984 0.5950 0.9852 0 3
28.4431 4.9641 0.5953 0.9848 0 3
28.4431 5.0299 0.5955 0.9844 0 3
28.4432 5.0958 0.5957 0.9840 0 3
28.4432 5.1617 0.5960 0.9836 0 3
28.4432 5.2276 0.5962 0.9832 0 3
28.4433 5.2937 0.5965 0.9828 0 3
28.4433 5.3597 0.5967 0.9824 0 3
28.4434 5.4258 0.5970 0.9819 0 3
28.4434 5.4921 0.5972 0.9815 0 3
28.4435 5.5583 0.5975 0.9811 0 3
28.4435 5.6246 0.5978 0.9807 0 3
28.4435 5.6910 0.5980 0.9802 0 3
28.4436 5.7574 0.5983 0.9798 0 3
28.4436 5.8238 0.5986 0.9793 0 3
28.4437 5.8904 0.5989 0.9789 0 3
28.4437 5.9570 0.5991 0.9784 0 3
28.4437 6.0237 0.5994 0.9779 0 3
28.4438 6.0904 0.5997 0.9775 0 3
28.4438 6.1572 0.6000 0.9770 0 3
28.4439 6.2240 0.6003 0.9765 0 3
28.4439 6.2910 0.6006 0.9760 0 3
28.4439 6.3580 0.6009 0.9756 0 3
28.4440 6.4251 0.6012 0.9751 0 3
28.4440 6.4922 0.6015 0.9746 0 3
28.4441 6.5594 0.6018 0.9741 0 3
28.4441 6.6266 0.6021 0.9736 0 3
28.4442 6.6940 0.6025 0.9730 0 3
28.4442 6.7614 0.6028 0.9725 0 3
28.0857 6.7428 0.5955 0.2340 0 3
22.9300 5.5595 0.4865 0.2362 0 3
22.7079 5.5596 0.4820 0.2383 0 3
22.4898 5.5597 0.4776 0.2405 0 3
22.2756 5.5598 0.4733 0.2427 0 3
22.2453 5.6053 0.4730 0.9693 0 3
22.2453 5.6584 0.4732 0.9688 0 3
22.2453 5.7116 0.4735 0.9682 0 3
22.2454 5.7649 0.4738 0.9676 0 3
22.2454 5.8182 0.4741 0.9671 0 3
22.2454 5.8715 0.4743 0.9665 0 3
22.2454 5.9250 0.4746 0.9659 0 3
22.2455 5.9785 0.4749 0.9654 0 3
22.2455 6.0321 0.4752 0.9648 0 3
22.2455 6.0857 0.4755 0.9642 0 3
22.2456 6.1394 0.4758 0.9636 0 3
22.2456 6.1932 0.4761 0.9630 0 3
22.2456 6.2470 0.4764 0.9624 0 3
22.2457 6.3009 0.4767 0.9618 0 3
22.2457 6.3549 0.4770 0.9611 0 3
22.2457 6.4089 0.4773 0.9605 0 3
22.2458 6.4630 0.4776 0.9599 0 3
22.2458 6.5171 0.4779 0.9593 0 3
22.1277 6.5366 0.4757 0.2838 0 3
21.9467 6.5366 0.4721 0.2859 0 3
21.7684 6.5367 0.4686 0.2881 0 3
21.5927 6.5369 0.4651 0.2902 0 3
21.4196 6.5370 0.4617 0.2924 0 3
21.2490 6.5370 0.4584 0.2945 0 3
21.0808 6.5371 0.4550 0.2967 0 3
20.9152 6.5372 0.4518 0.2988 0 3
20.7518 6.5373 0.4486 0.3009 0 3
20.5908 6.5374 0.4454 0.3031 0 3
20.4320 6.5375 0.4423 0.3052 0 3
20.2754 6.5376 0.4392 0.3074 0 3
20.1210 6.5377 0.4362 0.3095 0 3
19.9687 6.5378 0.4332 0.3116 0 3
19.8184 6.5378 0.4303 0.3138 0 3
19.6701 6.5379 0.4274 0.3159 0 3
19.5239 6.5380 0.4245 0.3180 0 3
19.3796 6.5381 0.4217 0.3201 0 3
19.2372 6.5382 0.4189 0.3223 0 3
19.0967 6.5383 0.4162 0.3244 0 3
18.9580 6.5383 0.4135 0.3265 0 3
16.0150 5.5636 0.3495 0.3287 0 3
15.9000 5.5637 0.3473 0.3308 0 3
15.7864 5.5637 0.3451 0.3329 0 3
15.6744 5.5638 0.3429 0.3350 0 3
15.5637 5.5638 0.3408 0.3371 0 3
15.4544 5.5639 0.3386 0.3392 0 3
15.3464 5.5640 0.3365 0.3413 0 3
15.2397 5.5641 0.3345 0.3434 0 3
15.1344 5.5641 0.3324 0.3455 0 3
15.0304 5.5642 0.3304 0.3477 0 3
14.9333 5.5664 0.3286 0.9366 0 3
14.9333 5.6046 0.3288 0.9358 0 3
14.9333 5.6429 0.3291 0.9350 0 3
14.9333 5.6812 0.3294 0.9342 0 3
14.9334 5.7196 0.3297 0.9334 0 3
14.9334 5.7581 0.3300 0.9326 0 3
14.9334 5.7966 0.3303 0.9318 0 3
14.9334 5.8352 0.3305 0.9310 0 3
14.9334 5.8739 0.3308 0.9302 0 3
14.9335 5.9126 0.3311 0.9293 0 3
14.9335 5.9514 0.3314 0.9285 0 3
14.9335 5.9903 0.3317 0.9277 0 3
14.9335 6.0293 0.3320 0.9268 0 3
14.9336 6.0682 0.3323 0.9260 0 3
14.9336 6.1073 0.3326 0.9251 0 3
14.9336 6.1465 0.3329 0.9243 0 3
14.9336 6.1857 0.3333 0.9234 0 3
13.7653 5.7380 0.3075 0.3852 0 3
13.7409 5.7641 0.3072 0.9217 0 3
13.7409 5.8003 0.3075 0.9208 0 3
13.7410 5.8367 0.3078 0.9200 0 3
13.7410 5.8731 0.3081 0.9191 0 3
13.7410 5.9097 0.3084 0.9182 0 3
13.7410 5.9463 0.3087 0.9173 0 3
13.7411 5.9829 0.3090 0.9164 0 3
13.7411 6.0196 0.3093 0.9155 0 3
13.7411 6.0564 0.3096 0.9146 0 3
13.6728 6.0630 0.3084 0.4058 0 3
13.5905 6.0630 0.3068 0.4079 0 3
13.5091 6.0631 0.3053 0.4099 0 3
13.4284 6.0632 0.3038 0.4120 0 3
13.3486 6.0632 0.3023 0.4140 0 3
13.2696 6.0633 0.3008 0.4161 0 3
13.1913 6.0633 0.2993 0.4181 0 3
13.1137 6.0634 0.2979 0.4201 0 3
13.0370 6.0634 0.2964 0.4222 0 3
12.9609 6.0634 0.2950 0.4242 0 3
12.8856 6.0635 0.2936 0.4262 0 3
12.8110 6.0635 0.2922 0.4283 0 3
12.7371 6.0636 0.2908 0.4303 0 3
12.6639 6.0636 0.2895 0.4323 0 3
12.5914 6.0637 0.2881 0.4343 0 3
12.5195 6.0637 0.2868 0.4364 0 3
12.4483 6.0637 0.2855 0.4384 0 3
12.3778 6.0638 0.2842 0.4404 0 3
10.1663 5.0087 0.2337 0.9924 0 3
10.1222 5.0153 0.2329 0.9926 0 3
10.1082 5.0366 0.2328 0.9929 0 3
10.0942 5.0579 0.2328 0.9932 0 3
10.0802 5.0793 0.2327 0.9934 0 3
10.0663 5.1006 0.2327 0.9937 0 3
10.0523 5.1219 0.2326 0.9939 0 3
10.0384 5.1432 0.2325 0.9941 0 3
10.0751 5.1906 0.2337 0.1037 0 3
10.2847 5.3278 0.2388 0.1014 0 3
10.5039 5.4713 0.2442 0.0992 0 3
