ply
format ascii 1.0
element vertex 606
property float32 x
property float32 y
property float32 z
property float32 CosAngle
property uint32 ObjIdx
property uint32 ObjTag
end_header
31.07789421081543 8.128271102905273 6.303715229034424 0.13053114712238312 0 9
31.14899253845215 7.848847389221191 6.303587436676025 0.13053365051746368 0 9
31.223695755004883 7.570273399353027 6.304704666137695 0.13051068782806396 0 9
31.301902770996094 7.292392253875732 6.307024002075195 0.1304626613855362 0 9
46.70998764038086 -4.838798522949219 9.215180397033691 0.1351929008960724 0 9
45.80418395996094 -5.160927772521973 9.04525375366211 0.13773272931575775 0 9
46.51383590698242 -6.088271141052246 9.205501556396484 0.5409761071205139 0 9
24.57131576538086 -3.440810441970825 4.86879825592041 0.9508101940155029 0 6
18.04379653930664 -2.692070245742798 3.5800182819366455 0.7064741253852844 0 6
46.52326965332031 -7.368613243103027 9.243290901184082 0.5583571195602417 0 9
35.36692428588867 -5.927460670471191 7.037034034729004 0.567970871925354 0 9
35.39051818847656 -6.258515357971191 7.052616596221924 0.5667155981063843 0 9
33.04925537109375 -6.15090799331665 6.596785068511963 0.8374975323677063 0 9
33.18210220336914 -6.484325885772705 6.6346564292907715 0.8327174186706543 0 9
33.26028060913086 -6.810117244720459 6.662245273590088 0.8118707537651062 0 9
33.41020965576172 -7.153847694396973 6.704858779907227 0.8067096471786499 0 9
33.6131477355957 -7.830898284912109 6.772722244262695 0.09221313893795013 0 9
33.44683074951172 -8.109335899353027 6.753599643707275 0.15895867347717285 0 9
31.38743019104004 -7.90896463394165 6.351837635040283 0.6925733089447021 0 9
31.54188346862793 -8.249696731567383 6.397821426391602 0.6875953674316406 0 9
31.251720428466797 -8.474218368530273 6.3541460037231445 0.40032389760017395 0 9
31.81670379638672 -8.934755325317383 6.48506498336792 0.39224278926849365 0 9
21.146713256835938 -6.143691062927246 4.32130765914917 0.8271516561508179 0 9
20.98384666442871 -6.301171779632568 4.299412250518799 0.8313641548156738 0 9
20.53834342956543 -6.368916034698486 4.219675064086914 0.43308064341545105 0 9
20.662458419799805 -6.611279010772705 4.257197380065918 0.8396080732345581 0 9
20.50383758544922 -6.764013290405273 4.23685359954834 0.8436393737792969 0 9
20.3465576171875 -6.915224552154541 4.217010498046875 0.8476091027259827 0 9
19.14280891418457 -6.698388576507568 3.9798247814178467 0.5727131366729736 0 9
19.326120376586914 -6.957841873168945 4.030755043029785 0.5654770731925964 0 9
31.782733917236328 -11.765800476074219 6.650533676147461 0.6437811851501465 0 9
31.24835205078125 -11.887968063354492 6.560774803161621 0.30273154377937317 0 9
31.622045516967773 -12.356181144714355 6.662256717681885 0.642648458480835 0 9
19.147762298583984 -7.680703163146973 4.048488140106201 0.5856823325157166 0 9
18.87741470336914 -7.769677639007568 4.005910396575928 0.5919071435928345 0 9
43.652400970458984 -18.42668914794922 9.298060417175293 0.06514109671115875 0 9
43.20486068725586 -18.696455001831055 9.238100051879883 0.393569678068161 0 9
41.99033737182617 -19.529491424560547 9.087581634521484 0.19337603449821472 0 9
24.1055850982666 -12.011093139648438 5.2850494384765625 0.5001724362373352 0 9
23.983957290649414 -12.22044849395752 5.282219886779785 0.9785624146461487 0 9
29.51493263244629 -15.373876571655273 6.530486106872559 0.9613035321235657 0 9
29.489349365234375 -15.698641777038574 6.555738925933838 0.31154531240463257 0 9
40.38085174560547 -21.96417999267578 9.020495414733887 0.016475826501846313 0 9
25.89823341369629 -16.272968292236328 6.002114772796631 0.5983070135116577 0 9
25.589656829833984 -16.40127944946289 5.964483737945557 0.968729555606842 0 9
23.81899642944336 -15.56982421875 5.58412504196167 0.8774233460426331 0 9
23.685619354248047 -15.78783130645752 5.585854530334473 0.8090438842773438 0 9
30.395320892333984 -20.656679153442383 7.211658954620361 0.26829248666763306 0 9
30.527801513671875 -21.149755477905273 7.287844181060791 0.26548802852630615 0 9
36.777992248535156 -25.971513748168945 8.835236549377441 0.9689812064170837 0 9
39.68905258178711 -28.564544677734375 9.595765113830566 0.2656908333301544 0 9
33.97819137573242 -24.920366287231445 8.268787384033203 0.14472630620002747 0 9
34.44124221801758 -25.73857307434082 8.437357902526855 0.2310502678155899 0 9
9.360458374023438 -7.127031326293945 2.3086788654327393 0.030765384435653687 0 9
8.920058250427246 -6.919072151184082 2.2152931690216064 0.22403420507907867 0 9
8.58151626586914 -6.780703067779541 2.146245002746582 0.5613029599189758 0 9
8.473278999328613 -6.81960916519165 2.1343994140625 0.5644185543060303 0 9
8.366347312927246 -6.858212947845459 2.1228864192962646 0.567479133605957 0 9
8.260717391967773 -6.89651346206665 2.1117024421691895 0.5704843401908875 0 9
8.156317710876465 -6.934531211853027 2.1008434295654297 0.5734336376190186 0 9
7.92361307144165 -6.860166072845459 2.056685209274292 0.2031082659959793 0 9
7.772397518157959 -6.852255821228027 2.0333168506622314 0.3861837089061737 0 9
7.700722694396973 -6.912890434265137 2.030717372894287 0.38667815923690796 0 9
7.629475116729736 -6.973613262176514 2.0283546447753906 0.38712841272354126 0 9
7.558642387390137 -7.034433364868164 2.026228666305542 0.3875347375869751 0 9
7.488198280334473 -7.095351219177246 2.024336576461792 0.387896865606308 0 9
7.404916763305664 -7.14367151260376 2.019075870513916 0.4884142279624939 0 9
7.312397480010986 -7.18224573135376 2.0113441944122314 0.4902920722961426 0 9
12.907455444335938 12.907441139221191 3.425995349884033 0.26847001910209656 0 9
12.959239959716797 12.728622436523438 3.409276008605957 0.2697865664958954 0 9
13.011161804199219 12.552197456359863 3.3931567668914795 0.27106815576553345 0 9
13.060905456542969 12.3757905960083 3.377023220062256 0.17971697449684143 0 9
12.904311180114746 12.00943374633789 3.3085289001464844 0.08836506307125092 0 9
12.723119735717773 11.629423141479492 3.2351770401000977 0.0903685986995697 0 9
12.551667213439941 11.267617225646973 3.165736675262451 0.09235085546970367 0 9
15.528359413146973 13.69008731842041 3.885354518890381 0.2768154740333557 0 9
13.453630447387695 11.648027420043945 3.3399431705474854 0.08778098225593567 0 9
13.325939178466797 11.329813957214355 3.282863140106201 0.08930729329586029 0 9
13.204596519470215 11.023964881896973 3.2284605503082275 0.09081217646598816 0 9
13.089167594909668 10.729697227478027 3.1765618324279785 0.09229587018489838 0 9
12.979345321655273 10.446337699890137 3.127028703689575 0.09375780820846558 0 9
29.0839786529541 22.980878829956055 6.957029819488525 0.22034235298633575 0 9
28.939205169677734 22.447538375854492 6.873926162719727 0.13691137731075287 0 9
18.036497116088867 13.73299789428711 4.254757404327393 0.043213218450546265 0 9
21.852930068969727 16.33110237121582 5.120265960693359 0.12245510518550873 0 9
22.36501121520996 16.403017044067383 5.205537796020508 0.12044908106327057 0 9
22.7340087890625 16.36186408996582 5.2570319175720215 0.16213703155517578 0 9
18.417219161987305 13.005643844604492 4.231637477874756 0.3533182740211487 0 9
15.801036834716797 10.946962356567383 3.607804536819458 0.08808381855487823 0 9
16.16487693786621 10.985614776611328 3.668219566345215 0.08663310110569 0 9
16.33454704284668 10.887890815734863 3.684396982192993 0.2918691635131836 0 9
16.44830322265625 10.751737594604492 3.688136577606201 0.2915731370449066 0 9
16.563047409057617 10.615771293640137 3.6923511028289795 0.2912403345108032 0 9
16.678821563720703 10.479999542236328 3.6970410346984863 0.29087093472480774 0 9
16.754558563232422 10.31900405883789 3.693148136138916 0.3286026120185852 0 9
16.82740020751953 10.156660079956055 3.688960552215576 0.3289758265018463 0 9
16.900733947753906 9.995068550109863 3.685218334197998 0.32930970191955566 0 9
17.111310958862305 9.913378715515137 3.7115838527679443 0.27784818410873413 0 9
17.32549476623535 9.830829620361328 3.738748788833618 0.27582937479019165 0 9
17.521711349487305 9.735292434692383 3.7620794773101807 0.2731943130493164 0 9
17.687114715576172 9.62044906616211 3.778904914855957 0.2719781994819641 0 9
17.854887008666992 9.505019187927246 3.7963671684265137 0.27072715759277344 0 9
18.025102615356445 9.388964653015137 3.814486503601074 0.26944124698638916 0 9
18.197858810424805 9.272246360778809 3.8332769870758057 0.2681204080581665 0 9
18.373241424560547 9.154833793640137 3.8527543544769287 0.2667648196220398 0 9
18.446962356567383 8.985791206359863 3.851145029067993 0.12860938906669617 0 9
18.47185707092285 8.793622970581055 3.839707612991333 0.12899240851402283 0 9
18.498605728149414 8.6035737991333 3.8290586471557617 0.12935112416744232 0 9
18.527250289916992 8.415478706359863 3.819200277328491 0.12968505918979645 0 9
18.55774688720703 8.229188919067383 3.810106039047241 0.12999454140663147 0 9
18.59014129638672 8.044657707214355 3.8017797470092773 0.1302793174982071 0 9
29.25738525390625 12.35018539428711 5.960377216339111 0.3203577399253845 0 9
18.446725845336914 7.399501800537109 3.7303342819213867 0.0562686026096344 0 9
17.909339904785156 6.997968673706055 3.6088175773620605 0.05816332995891571 0 9
17.409879684448242 6.623300552368164 3.4960527420043945 0.06003935635089874 0 9
46.388450622558594 -3.546132802963257 8.73183536529541 0.09134247899055481 0 9
24.882715225219727 -3.0300683975219727 4.704623222351074 0.9822133779525757 0 6
45.85654067993164 -6.002236366271973 8.680020332336426 0.41256821155548096 0 9
24.5707950592041 -3.440751791000366 4.6565775871276855 0.9523365497589111 0 6
18.042827606201172 -2.6919238567352295 3.4238574504852295 0.7076311111450195 0 6
46.09794998168945 -7.301249980926514 8.759761810302734 0.5644013285636902 0 9
35.846187591552734 -6.007802486419678 6.8216471672058105 0.5612648129463196 0 9
35.87115478515625 -6.343525409698486 6.836963176727295 0.5600076913833618 0 9
35.8953857421875 -6.680624961853027 6.852732181549072 0.5587189197540283 0 9
33.265533447265625 -6.500624656677246 6.36155366897583 0.8319448828697205 0 9
35.94157791137695 -7.359111309051514 6.885666370391846 0.5560466647148132 0 9
34.39503479003906 -7.364726543426514 6.60178279876709 0.32583364844322205 0 9
21.2486515045166 -4.749658107757568 4.086477756500244 0.4847530126571655 0 9
35.541290283203125 -8.280107498168945 6.84921932220459 0.24796634912490845 0 9
22.838647842407227 -5.537314414978027 4.410670280456543 0.8103933334350586 0 9
34.57073974609375 -8.711103439331055 6.6912431716918945 0.39317840337753296 0 9
35.165428161621094 -9.19742202758789 6.82205057144165 0.3856393098831177 0 9
31.32253074645996 -8.493417739868164 6.0910797119140625 0.4000515937805176 0 9
21.137731552124023 -5.935878753662109 4.120702266693115 0.6352518796920776 0 9
20.948829650878906 -6.086220741271973 4.094366550445557 0.6393387317657471 0 9
20.25351905822754 -6.081865310668945 3.9689769744873047 0.4410735070705414 0 9
20.5681095123291 -6.378144264221191 4.041684627532959 0.43313905596733093 0 9
20.394140243530273 -6.52541971206665 4.0188446044921875 0.6513521075248718 0 9
20.594650268554688 -6.793964862823486 4.0702104568481445 0.8412498235702515 0 9
20.43624496459961 -6.945712566375732 4.051064491271973 0.8452260494232178 0 9
19.182659149169922 -6.712314128875732 3.81435227394104 0.5724292993545532 0 9
19.366865158081055 -6.972519397735596 3.863274335861206 0.5651810169219971 0 9
19.302562713623047 -7.145712852478027 3.863084554672241 0.4615713655948639 0 9
31.05704116821289 -11.815195083618164 6.236520290374756 0.30507904291152954 0 9
42.95835876464844 -16.785810470581055 8.656311988830566 0.21043536067008972 0 9
19.285404205322266 -7.735917568206787 3.899937152862549 0.5824234485626221 0 9
19.01168441772461 -7.824931621551514 3.858632802963257 0.5886578559875488 0 9
18.743419647216797 -7.912011623382568 3.8184478282928467 0.5948529243469238 0 9
43.094886779785156 -18.648847579956055 8.813124656677246 0.4327119290828705 0 9
43.78386688232422 -20.363651275634766 9.062898635864258 0.0938127338886261 0 9
24.10152816772461 -12.009052276611328 5.053936004638672 0.5010489821434021 0 9
23.98142433166504 -12.21915054321289 5.051551342010498 0.9802439212799072 0 9
29.51167869567871 -15.372187614440918 6.245280742645264 0.9629323482513428 0 9
29.479814529418945 -15.693564414978027 6.268092632293701 0.31213971972465515 0 9
25.894577026367188 -16.270654678344727 5.739805221557617 0.5993395447731018 0 9
25.586917877197266 -16.399539947509766 5.704012393951416 0.9703676700592041 0 9
23.81644058227539 -15.568134307861328 5.340266227722168 0.8789074420928955 0 9
23.682519912719727 -15.785761833190918 5.341793060302734 0.8104315996170044 0 9
28.99615478515625 -19.705791473388672 6.579960823059082 0.12876993417739868 0 9
29.54817771911621 -20.4710636138916 6.746654987335205 0.12558835744857788 0 9
29.86226463317871 -21.087860107421875 6.861310958862305 0.2701335549354553 0 9
29.991262435913086 -21.5849609375 6.935184955596924 0.2672560214996338 0 9
38.037654876708984 -27.897661209106445 8.853384017944336 0.18400564789772034 0 9
9.649587631225586 -7.211288928985596 2.260944366455078 0.21027982234954834 0 9
9.225822448730469 -7.024521350860596 2.1763384342193604 0.21845419704914093 0 9
8.610285758972168 -6.678769588470459 2.045196294784546 0.5642651915550232 0 9
8.5021333694458 -6.717988014221191 2.0337491035461426 0.5674411058425903 0 9
8.3953218460083 -6.75686502456665 2.02262806892395 0.5705614686012268 0 9
8.289801597595215 -6.79543924331665 2.011817693710327 0.5736268758773804 0 9
8.16818618774414 -6.819238185882568 1.9970769882202148 0.20037421584129333 0 9
7.918559551239014 -6.732392311096191 1.9507440328598022 0.20513388514518738 0 9
7.705564022064209 -6.671376705169678 1.9129458665847778 0.39322203397750854 0 9
7.634902000427246 -6.731044769287109 1.9103280305862427 0.3937610983848572 0 9
7.564662933349609 -6.790761470794678 1.9079293012619019 0.39425623416900635 0 9
7.494831562042236 -6.850546836853027 1.905747652053833 0.39470726251602173 0 9
7.425385475158691 -6.910419940948486 1.9037851095199585 0.3951142430305481 0 9
7.356303691864014 -6.970390319824219 1.9020358324050903 0.3954772353172302 0 9
7.287582874298096 -7.030468463897705 1.9005072116851807 0.39579570293426514 0 9
7.219174861907959 -7.090683460235596 1.8991893529891968 0.3960701525211334 0 9
12.23373031616211 12.2337007522583 3.0997040271759033 0.05294319987297058 0 9
12.256898880004883 12.038798332214355 3.0780725479125977 0.05331526696681976 0 9
12.16671371459961 11.73753833770752 3.0288445949554443 0.0922808051109314 0 9
12.00508975982666 11.375322341918945 2.9630725383758545 0.09432926774024963 0 9
11.851967811584473 11.030038833618164 2.900726318359375 0.09635676443576813 0 9
12.377646446228027 11.313661575317383 3.0044052600860596 0.05462242662906647 0 9
12.414779663085938 11.144736289978027 2.9890172481536865 0.05490368604660034 0 9
12.442511558532715 10.969531059265137 2.971867084503174 0.09431551396846771 0 9
12.337751388549805 10.681884765625 2.9238269329071045 0.09586519002914429 0 9
12.237998008728027 10.4048433303833 2.877934455871582 0.09739378094673157 0 9
12.142983436584473 10.137685775756836 2.8340775966644287 0.09890100359916687 0 9
23.035682678222656 18.883251190185547 5.336585521697998 0.1464427411556244 0 9
22.68729019165039 17.598026275634766 5.144189357757568 0.05308283865451813 0 9
23.019222259521484 17.526874542236328 5.183572769165039 0.052679553627967834 0 9
23.362478256225586 17.45918846130371 5.225368499755859 0.05225814878940582 0 9
18.180387496948242 13.333876609802246 4.0393853187561035 0.3538607656955719 0 9
18.13064193725586 13.04874038696289 4.002142429351807 0.35715335607528687 0 9
18.082366943359375 12.76918888092041 3.966028928756714 0.3604055643081665 0 9
18.035503387451172 12.495038986206055 3.9309935569763184 0.363617867231369 0 9
17.98999786376953 12.225996017456055 3.896998167037964 0.3667898178100586 0 9
17.94581413269043 11.9619140625 3.864011764526367 0.36992114782333374 0 9
17.90289306640625 11.702577590942383 3.8319995403289795 0.3730114698410034 0 9
17.85752296447754 11.44546890258789 3.800144672393799 0.2689281702041626 0 9
16.18603515625 10.170380592346191 3.4248783588409424 0.08870890736579895 0 9
16.377338409423828 10.086679458618164 3.4460625648498535 0.29833513498306274 0 9
16.464092254638672 9.937382698059082 3.4454100131988525 0.33674415946006775 0 9
18.284738540649414 10.8135347366333 3.8059446811676025 0.2892981767654419 0 9
17.96463394165039 10.4077730178833 3.719721555709839 0.11551369726657867 0 9
16.88141441345215 9.578837394714355 3.477485179901123 0.2835136651992798 0 9
17.058488845825195 9.477919578552246 3.4962964057922363 0.28103750944137573 0 9
17.217491149902344 9.364999771118164 3.5115137100219727 0.27981966733932495 0 9
17.281938552856445 9.199999809265137 3.5076751708984375 0.13499438762664795 0 9
17.30209732055664 9.01235294342041 3.495206117630005 0.13547593355178833 0 9
17.323848724365234 8.826913833618164 3.4834539890289307 0.1359330415725708 0 9
17.104015350341797 8.522440910339355 3.4237303733825684 0.041744768619537354 0 9
16.889759063720703 8.227265357971191 3.365924596786499 0.04246175289154053 0 9
16.687944412231445 7.944413661956787 3.31136155128479 0.04316142201423645 0 9
26.90992546081543 12.515625 5.31718635559082 0.24182187020778656 0 9
27.258602142333984 12.381425857543945 5.363908767700195 0.15023238956928253 0 9
27.71681785583496 12.290654182434082 5.432147026062012 0.23767121136188507 0 9
25.187171936035156 10.899442672729492 4.916993141174316 0.056556954979896545 0 9
28.587160110473633 12.067255973815918 5.559364318847656 0.232232466340065 0 9
29.040212631225586 11.95254898071289 5.62637996673584 0.22946639358997345 0 9
29.505966186523438 11.835663795471191 5.695808410644531 0.22666950523853302 0 9
29.985023498535156 11.716504096984863 5.767750263214111 0.22384220361709595 0 9
24.882165908813477 -3.0299999713897705 4.490875720977783 0.9837218523025513 0 6
45.92127990722656 -6.010732173919678 8.297539710998535 0.5181856155395508 0 9
45.4664192199707 -6.366767406463623 8.225347518920898 0.4162316918373108 0 9
18.041912078857422 -2.691787004470825 3.2682104110717773 0.9280591011047363 0 6
36.30989456176758 -5.750927448272705 6.586464881896973 0.5557481050491333 0 9
36.33705139160156 -6.090068340301514 6.601041793823242 0.5545207858085632 0 9
36.33378219604492 -6.425332069396973 6.610657691955566 0.4464346170425415 0 9
35.90209197998047 -6.681865215301514 6.542754173278809 0.46147990226745605 0 9
34.750144958496094 -6.790751934051514 6.343674659729004 0.9683816432952881 0 9
34.22715377807617 -7.00808572769165 6.259437561035156 0.8526502251625061 0 9
34.28221893310547 -7.340585708618164 6.281305313110352 0.8496820330619812 0 9
21.26140594482422 -4.752519607543945 3.903245687484741 0.48519545793533325 0 9
21.561445236206055 -5.023202896118164 3.9664440155029297 0.47746410965919495 0 9
22.4328556060791 -5.438954830169678 4.135567665100098 0.9710872769355774 0 9
22.429906845092773 -5.651835918426514 4.1442060470581055 0.969062328338623 0 9
32.532676696777344 -8.508828163146973 6.024692058563232 0.8234506845474243 0 9
31.393455505371094 -8.512656211853027 5.827641010284424 0.3997519016265869 0 9
19.135841369628906 -5.373720645904541 3.5610387325286865 0.7562565207481384 0 9
21.149139404296875 -6.14440393447876 3.9458024501800537 0.6342417001724243 0 9
20.282302856445312 -6.090507507324219 3.794121503829956 0.44111427664756775 0 9
20.59786033630371 -6.387372970581055 3.8637242317199707 0.4331679940223694 0 9
20.585512161254883 -6.586650371551514 3.8723411560058594 0.646273672580719 0 9
20.401575088500977 -6.730263710021973 3.848950147628784 0.6502013206481934 0 9
19.00210189819336 -6.458271503448486 3.5957183837890625 0.7513540983200073 0 9
18.838817596435547 -6.591991901397705 3.5758721828460693 0.7555239796638489 0 9
18.677108764648438 -6.724189281463623 3.5564897060394287 0.7596410512924194 0 9
18.516931533813477 -6.854892253875732 3.5375640392303467 0.7637054324150085 0 9
31.400304794311523 -11.945780754089355 6.019113540649414 0.21469709277153015 0 9
19.707599639892578 -7.700644493103027 3.790839195251465 0.5728409290313721 0 9
19.424602508544922 -7.791748046875 3.7497057914733887 0.5791248083114624 0 9
19.14743423461914 -7.880810260772705 3.709707021713257 0.5853688716888428 0 9
18.875858306884766 -7.967919826507568 3.670799493789673 0.591573178768158 0 9
18.609689712524414 -8.05312442779541 3.632948637008667 0.5977368950843811 0 9
42.29042053222656 -18.753202438354492 8.288383483886719 0.28654319047927856 0 9
42.27439498901367 -19.202001571655273 8.318694114685059 0.28549930453300476 0 9
24.097457885742188 -12.007050514221191 4.823617935180664 0.5018921494483948 0 9
23.978906631469727 -12.217870712280273 4.821645259857178 0.9818308353424072 0 9
29.508441925048828 -15.37050724029541 5.961016654968262 0.9644956588745117 0 9
29.47031021118164 -15.688495635986328 5.981520175933838 0.31271302700042725 0 9
25.89090347290039 -16.26835823059082 5.4783759117126465 0.6003316640853882 0 9
25.58419418334961 -16.397783279418945 5.4444098472595215 0.9719399213790894 0 9
23.813899993896484 -15.566473960876465 5.0972089767456055 0.8803317546844482 0 9
23.679426193237305 -15.78369140625 5.098548412322998 0.8117643594741821 0 9
36.77055740356445 -25.96628761291504 8.064935684204102 0.9721813201904297 0 9
28.950477600097656 -20.83589744567871 6.390509605407715 0.12675800919532776 0 9
9.879582405090332 -7.245869159698486 2.1950764656066895 0.5056052803993225 0 9
9.54915714263916 -7.13623046875 2.1358091831207275 0.2128131091594696 0 9
9.133366584777832 -6.954121112823486 2.0566887855529785 0.22099938988685608 0 9
8.531168937683105 -6.617421627044678 1.9343804121017456 0.5703603029251099 0 9
8.424450874328613 -6.656601428985596 1.9236550331115723 0.573540449142456 0 9
8.319037437438965 -6.695468425750732 1.9132272005081177 0.5766658782958984 0 9
8.162724494934082 -6.691269397735596 1.8910164833068848 0.20230840146541595 0 9
7.914780139923096 -6.607685565948486 1.847245454788208 0.20710240304470062 0 9
7.678437232971191 -6.528232097625732 1.8056881427764893 0.2118687480688095 0 9
7.571847915649414 -6.555605411529541 1.7943880558013916 0.40077173709869385 0 9
7.502585411071777 -6.614394187927246 1.7919732332229614 0.40131184458732605 0 9
7.433730125427246 -6.673222541809082 1.789762258529663 0.40180760622024536 0 9
7.365253925323486 -6.732109069824219 1.7877514362335205 0.40225934982299805 0 9
7.297143459320068 -6.791064262390137 1.7859420776367188 0.40266698598861694 0 9
7.2293701171875 -6.850107192993164 1.7843313217163086 0.4030304551124573 0 9
7.161923885345459 -6.909247875213623 1.782920241355896 0.4033494293689728 0 9
7.094779968261719 -6.968515396118164 1.7817068099975586 0.4036242663860321 0 9
11.496164321899414 11.496142387390137 2.774670362472534 0.09609481692314148 0 9
15.6611909866333 15.382529258728027 3.7464427947998047 0.3252384066581726 0 9
15.86302661895752 15.303466796875 3.76171612739563 0.32391786575317383 0 9
16.06712532043457 15.224306106567383 3.7775585651397705 0.3225594758987427 0 9
16.2735595703125 15.14501953125 3.793978214263916 0.32116344571113586 0 9
16.482419967651367 15.065595626831055 3.8109898567199707 0.31972986459732056 0 9
15.908203125 14.280790328979492 3.6484386920928955 0.07842886447906494 0 9
16.90778923034668 14.906190872192383 3.846841335296631 0.3167499303817749 0 9
15.37057113647461 13.3076753616333 3.4697790145874023 0.12913508713245392 0 9
14.443854331970215 12.2802734375 3.2355644702911377 0.019048243761062622 0 9
15.918478965759277 13.289668083190918 3.5390312671661377 0.2771610617637634 0 9
16.27370262145996 13.340185165405273 3.591235876083374 0.36796972155570984 0 9
16.7313232421875 13.466034889221191 3.665400981903076 0.0457472950220108 0 9
28.14007568359375 22.235076904296875 6.120797634124756 0.29783350229263306 0 9
28.254467010498047 21.916406631469727 6.102642059326172 0.29871952533721924 0 9
22.108545303344727 16.83345603942871 4.742365837097168 0.062248796224594116 0 9
17.774755477905273 13.28335952758789 3.7870194911956787 0.2574312388896942 0 9
17.72057342529297 12.9966402053833 3.750474691390991 0.25993990898132324 0 9
17.668195724487305 12.715917587280273 3.7150797843933105 0.26241636276245117 0 9
17.61756706237793 12.440985679626465 3.680800676345825 0.2648599445819855 0 9
17.568653106689453 12.171601295471191 3.647614002227783 0.267270028591156 0 9
17.5213565826416 11.907509803771973 3.615455150604248 0.26964718103408813 0 9
17.475656509399414 11.64852523803711 3.584306001663208 0.27199068665504456 0 9
17.431468963623047 11.394413948059082 3.5541234016418457 0.2743005156517029 0 9
17.331615447998047 11.108378410339355 3.513289213180542 0.191591277718544 0 9
17.18620491027832 10.798798561096191 3.4640257358551025 0.1943160742521286 0 9
17.27101707458496 10.637060165405273 3.4617388248443604 0.2218605875968933 0 9
17.55865478515625 10.598036766052246 3.50018048286438 0.21942389011383057 0 9
17.837993621826172 10.549365043640137 3.5368456840515137 0.2969714403152466 0 9
18.050926208496094 10.457754135131836 3.5603086948394775 0.29501432180404663 0 9
18.267436981201172 10.36532211303711 3.5845158100128174 0.2930220365524292 0 9
18.184715270996094 10.10366153717041 3.5503454208374023 0.11545057594776154 0 9
18.711822509765625 10.177812576293945 3.635272741317749 0.2889307737350464 0 9
18.939950942993164 10.08266544342041 3.6618614196777344 0.2868328094482422 0 9
19.172269821166992 9.986513137817383 3.689300537109375 0.2846996784210205 0 9
19.408903121948242 9.889326095581055 3.7176012992858887 0.28253212571144104 0 9
19.650043487548828 9.791034698486328 3.7468066215515137 0.28032994270324707 0 9
26.318439483642578 12.820038795471191 4.996170520782471 0.2455063909292221 0 9
26.2126407623291 12.478700637817383 4.954625606536865 0.24756501615047455 0 9
26.109832763671875 12.143486022949219 4.914394378662109 0.2495918571949005 0 9
26.009899139404297 11.814237594604492 4.875424861907959 0.2515866160392761 0 9
26.601146697998047 11.795907974243164 4.96620512008667 0.15478989481925964 0 9
27.251422882080078 11.792704582214355 5.067638874053955 0.15169157087802887 0 9
27.722328186035156 11.702187538146973 5.135465145111084 0.2398228496313095 0 9
28.151430130004883 11.5867280960083 5.1954827308654785 0.23705269396305084 0 9
28.592111587524414 11.46908187866211 5.257603168487549 0.23425182700157166 0 9
29.044984817504883 11.349169731140137 5.321929931640625 0.2314203679561615 0 9
22.693012237548828 7.486152172088623 4.078186988830566 0.044345736503601074 0 9
47.56621170043945 -5.359462738037109 8.169225692749023 0.27206093072891235 0 9
46.66017532348633 -5.681904315948486 8.022049903869629 0.27705204486846924 0 9
45.367210388183594 -5.938202857971191 7.80861234664917 0.4590938687324524 0 9
45.33759689331055 -6.348740100860596 7.813008785247803 0.45883557200431824 0 9
18.041112899780273 -2.6916797161102295 3.113055944442749 0.9294397830963135 0 6
36.811405181884766 -5.830380916595459 6.360705852508545 0.5489678382873535 0 9
36.84005355834961 -6.174375057220459 6.374983310699463 0.5477390289306641 0 9
36.86802291870117 -6.519814491271973 6.389689922332764 0.5464781522750854 0 9
36.43283462524414 -6.780644416809082 6.324559688568115 0.4554135203361511 0 9
34.3691291809082 -6.71630859375 5.976539611816406 0.8518427014350891 0 9
34.41183090209961 -7.0458984375 5.994722843170166 0.8492982983589172 0 9
20.983060836791992 -4.492939472198486 3.6622331142425537 0.49330902099609375 0 9
21.274120330810547 -4.755351543426514 3.7203314304351807 0.4856051802635193 0 9
20.227182388305664 -4.712363243103027 3.5445001125335693 0.9413747787475586 0 9
19.95216178894043 -4.837500095367432 3.5037760734558105 0.9975287914276123 0 9
22.44778823852539 -5.656347751617432 3.9507908821105957 0.9696879982948303 0 9
22.444828033447266 -5.870361328125 3.959383964538574 0.967583179473877 0 9
19.19530487060547 -5.205009460449219 3.3942577838897705 0.7568743228912354 0 9
19.256317138671875 -5.407558441162109 3.41348934173584 0.7526094913482666 0 9
19.317829132080078 -5.61233377456665 3.4331846237182617 0.7482921481132507 0 9
20.311065673828125 -6.099140644073486 3.619288921356201 0.44112518429756165 0 9
19.631624221801758 -6.087744235992432 3.5078125 0.7347111105918884 0 9
19.46145248413086 -6.227001667022705 3.487250804901123 0.7390425801277161 0 9
18.904062271118164 -6.236249923706055 3.397268056869507 0.5861495137214661 0 9
19.081079483032227 -6.485107421875 3.4394030570983887 0.5789690613746643 0 9
18.9613037109375 -6.634862899780273 3.428412437438965 0.7517266869544983 0 9
18.79789161682129 -6.767675399780273 3.4097094535827637 0.7558495998382568 0 9
18.636032104492188 -6.898984432220459 3.3914506435394287 0.7599198818206787 0 9
33.51823425292969 -12.751532554626465 6.12034273147583 0.9811020493507385 0 9
19.836090087890625 -7.75084924697876 3.6345770359039307 0.6530007123947144 0 9
19.565406799316406 -7.848232269287109 3.5977396965026855 0.5757870674133301 0 9
19.059207916259766 -7.84451150894165 3.5174646377563477 0.44771379232406616 0 9
19.009790420532227 -8.024453163146973 3.521498918533325 0.5882533192634583 0 9
18.740354537963867 -8.109658241271973 3.4849321842193604 0.5944258570671082 0 9
18.476224899291992 -8.193037033081055 3.449349880218506 0.600557267665863 0 9
40.81272506713867 -18.538036346435547 7.650146484375 0.1981915831565857 0 9
40.829132080078125 -18.98943328857422 7.6848602294921875 0.19729626178741455 0 9
40.57579040527344 -19.31645393371582 7.669497013092041 0.18506669998168945 0 9
43.52635955810547 -21.202392578125 8.262843132019043 0.13202545046806335 0 9
24.09343910217285 -12.005019187927246 4.594057559967041 0.5027002096176147 0 9
23.976390838623047 -12.216571807861328 4.592464923858643 0.9833510518074036 0 9
29.505233764648438 -15.368827819824219 5.677659034729004 0.9660180807113647 0 9
29.460851669311523 -15.683466911315918 5.6959757804870605 0.3132648169994354 0 9
25.88726043701172 -16.26607322692871 5.217795372009277 0.6012827754020691 0 9
25.581483840942383 -16.396034240722656 5.185619831085205 0.973446249961853 0 9
23.81136703491211 -15.564824104309082 4.854927062988281 0.881696343421936 0 9
23.676342010498047 -15.781649589538574 4.856081008911133 0.8130417466163635 0 9
39.99876022338867 -27.18315887451172 8.253572463989258 0.11494632065296173 0 9
39.18749237060547 -27.14922332763672 8.136131286621094 0.05604250729084015 0 9
36.766868591308594 -25.96367645263672 7.681628704071045 0.9736822247505188 0 9
9.984445571899414 -7.185869216918945 2.099418878555298 0.504295289516449 0 9
9.786993980407715 -7.177968502044678 2.071362257003784 0.36260855197906494 0 9
9.451103210449219 -7.062949180603027 2.0136122703552246 0.21533121168613434 0 9
8.834921836853027 -6.726874828338623 1.895119547843933 0.051710210740566254 0 9
8.453722953796387 -6.557343482971191 1.825903296470642 0.5764158368110657 0 9
8.348398208618164 -6.596513748168945 1.8158700466156006 0.5796009302139282 0 9
8.158554077148438 -6.566308498382568 1.7873247861862183 0.2041873186826706 0 9
7.912187099456787 -6.485898494720459 1.746034860610962 0.20901574194431305 0 9
7.703476428985596 -6.43126916885376 1.712646484375 0.4037321209907532 0 9
7.553769588470459 -6.422226428985596 1.6921160221099854 0.5788390636444092 0 9
7.468996524810791 -6.466562271118164 1.6860601902008057 0.5202466249465942 0 9
7.40099573135376 -6.524824142456055 1.6838637590408325 0.5209253430366516 0 9
7.33331298828125 -6.583076000213623 1.6818392276763916 0.5215522050857544 0 9
7.265927791595459 -6.641318321228027 1.6799911260604858 0.5221264362335205 0 9
7.198822975158691 -6.699570178985596 1.6783108711242676 0.5226487517356873 0 9
7.131982326507568 -6.75784158706665 1.6768029928207397 0.5231187343597412 0 9
7.065402507781982 -6.816142559051514 1.6754671335220337 0.5235363245010376 0 9
6.999050140380859 -6.874492168426514 1.674296498298645 0.5239017605781555 0 9
15.12636661529541 15.126347541809082 3.4695611000061035 0.33421385288238525 0 9
15.320406913757324 15.047782897949219 3.4829461574554443 0.33292949199676514 0 9
15.399198532104492 14.855985641479492 3.4704015254974365 0.40848344564437866 0 9
15.714677810668945 14.890321731567383 3.511237621307373 0.33024704456329346 0 9
15.915053367614746 14.811357498168945 3.526162624359131 0.32884904742240906 0 9
16.117719650268555 14.732226371765137 3.5416204929351807 0.32741352915763855 0 9
16.322757720947266 14.652929306030273 3.5576329231262207 0.32594019174575806 0 9
15.78990650177002 13.920673370361328 3.41412353515625 0.07975929975509644 0 9
16.74024200439453 14.493574142456055 3.591329336166382 0.32288169860839844 0 9
20.104455947875977 17.09292984008789 4.279986381530762 0.21631492674350739 0 9
15.573905944824219 13.002001762390137 3.2905023097991943 0.17626795172691345 0 9
15.961261749267578 13.084052085876465 3.3473968505859375 0.17327214777469635 0 9
15.684882164001465 12.623857498168945 3.2655444145202637 0.017960861325263977 0 9
16.542375564575195 13.071054458618164 3.419501304626465 0.13928548991680145 0 9
16.772794723510742 13.010293006896973 3.442849636077881 0.1383407711982727 0 9
17.00794792175293 12.94986343383789 3.4671173095703125 0.13737252354621887 0 9
17.248018264770508 12.889726638793945 3.49233341217041 0.13638067245483398 0 9
17.24037742614746 12.644453048706055 3.4676647186279297 0.2675468921661377 0 9
17.19382095336914 12.374540328979492 3.435818910598755 0.2700265944004059 0 9
17.14881134033203 12.10995101928711 3.4049670696258545 0.27247339487075806 0 9
17.10529327392578 11.850565910339355 3.375068187713623 0.2748870849609375 0 9
17.06321907043457 11.596142768859863 3.346095561981201 0.2772672772407532 0 9
16.96402359008789 11.307490348815918 3.3066039085388184 0.19372491538524628 0 9
16.8231201171875 10.99673843383789 3.259768009185791 0.19650834798812866 0 9
16.687095642089844 10.695273399353027 3.214677572250366 0.19926461577415466 0 9
16.555709838867188 10.402655601501465 3.1712517738342285 0.20199327170848846 0 9
16.713951110839844 10.293993949890137 3.18373703956604 0.22956997156143188 0 9
16.986215591430664 10.25252914428711 3.2179362773895264 0.22713007032871246 0 9
17.265310287475586 10.210663795471191 3.2533154487609863 0.22466006875038147 0 9
17.551509857177734 10.168427467346191 3.28991436958313 0.2221609205007553 0 9
17.827234268188477 10.115527153015137 3.324443817138672 0.30066975951194763 0 9
18.039155960083008 10.02279281616211 3.347050189971924 0.2986389696598053 0 9
17.743154525756836 9.6509370803833 3.2759246826171875 0.11907239258289337 0 9
18.416425704956055 9.803955078125 3.3838446140289307 0.11527472734451294 0 9
18.69709587097168 9.739004135131836 3.419214963912964 0.29233604669570923 0 9
18.92426109313965 9.642382621765137 3.4447882175445557 0.2901655435562134 0 9
19.155616760253906 9.544668197631836 3.4711694717407227 0.2879604697227478 0 9
19.39134407043457 9.44580078125 3.4983787536621094 0.28572070598602295 0 9
28.337141036987305 13.490068435668945 5.090240478515625 0.9786194562911987 0 9
28.48649787902832 13.2488374710083 5.09550142288208 0.5787955522537231 0 9
26.607006072998047 11.231367111206055 4.684122085571289 0.15617689490318298 0 9
27.256587982177734 11.21841812133789 4.7805585861206055 0.15302641689777374 0 9
27.73552131652832 11.125458717346191 4.846851825714111 0.2418181598186493 0 9
28.164506912231445 11.005106925964355 4.904355525970459 0.23898275196552277 0 9
28.60515785217285 10.882363319396973 4.96388053894043 0.23611707985401154 0 9
47.437469482421875 -4.914150238037109 7.735068321228027 0.27343907952308655 0 9
46.535438537597656 -5.243310451507568 7.5953569412231445 0.2784689962863922 0 9
45.49986267089844 -5.540644645690918 7.43414831161499 0.5109409093856812 0 9
43.53431701660156 -5.698290824890137 7.121068477630615 0.14785030484199524 0 9
43.62803268432617 -6.109355449676514 7.145082950592041 0.1473533809185028 0 9
18.040321350097656 -2.6915624141693115 2.9583516120910645 0.9307570457458496 0 6
43.82844161987305 -6.941757678985596 7.197159290313721 0.14628726243972778 0 9
43.80160140991211 -7.341152191162109 7.203278541564941 0.037244245409965515 0 9
44.832454681396484 -7.928242206573486 7.384212493896484 0.44846734404563904 0 9
45.02304458618164 -8.379413604736328 7.427689075469971 0.44584202766418457 0 9
34.54113006591797 -6.749921798706055 5.708207130432129 0.8488041162490845 0 9
34.59799575805664 -7.084003925323486 5.727877616882324 0.8458884358406067 0 9
20.99538803100586 -4.495566368103027 3.4824328422546387 0.49369651079177856 0 9
20.28961181640625 -4.535293102264404 3.371983528137207 0.941694438457489 0 9
20.018646240234375 -4.663779258728027 3.33377742767334 0.9977076053619385 0 9
19.96978759765625 -4.841777324676514 3.332745313644409 0.9980168342590332 0 9
21.600597381591797 -5.442910194396973 3.6129143238067627 0.3439822793006897 0 9
19.25432586669922 -5.035927772521973 3.227910041809082 0.757399320602417 0 9
19.315895080566406 -5.237704753875732 3.2459819316864014 0.7531822919845581 0 9
19.377973556518555 -5.441718578338623 3.2644946575164795 0.7489117383956909 0 9
19.440580368041992 -5.648007869720459 3.283449649810791 0.7445881962776184 0 9
21.3634033203125 -6.415146350860596 3.617786169052124 0.6279832720756531 0 9
19.762731552124023 -6.128407955169678 3.355900764465332 0.7308392524719238 0 9
18.768728256225586 -6.005341529846191 3.1961326599121094 0.5929133892059326 0 9
18.942340850830078 -6.248877048492432 3.235116481781006 0.5857682824134827 0 9
18.84353256225586 -6.404394149780273 3.2279345989227295 0.4794265627861023 0 9
19.085052490234375 -6.678153991699219 3.27944278717041 0.7478781342506409 0 9
18.919897079467773 -6.811601638793945 3.2614355087280273 0.7520066499710083 0 9
18.75633430480957 -6.943515300750732 3.2438573837280273 0.7560826539993286 0 9
18.69314956665039 -7.111552715301514 3.243837833404541 0.7899093627929688 0 9
20.371841430664062 -7.960205078125 3.547396659851074 0.7384698390960693 0 9
19.04010772705078 -7.637519359588623 3.327301502227783 0.450418084859848 0 9
19.256067276000977 -7.925537109375 3.3773388862609863 0.44374534487724304 0 9
19.145244598388672 -8.08163070678711 3.370490074157715 0.5848934650421143 0 9
18.872493743896484 -8.166845321655273 3.335247039794922 0.5910742878913879 0 9
18.60515785217285 -8.250214576721191 3.300955057144165 0.5972143411636353 0 9
43.40504837036133 -19.715517044067383 7.732075214385986 0.48915109038352966 0 9
24.089401245117188 -12.003026962280273 4.365214824676514 0.50347501039505 0 9
23.97388458251953 -12.215312004089355 4.363979816436768 0.9848043322563171 0 9
29.502050399780273 -15.367167472839355 5.395157337188721 0.9674490094184875 0 9
29.451406478881836 -15.678427696228027 5.411420822143555 0.31379568576812744 0 9
25.883642196655273 -16.2637882232666 4.958016872406006 0.6021926403045654 0 9
25.578773498535156 -16.394296646118164 4.927613258361816 0.9748861193656921 0 9
23.808841705322266 -15.563163757324219 4.613372325897217 0.8830008506774902 0 9
23.67327117919922 -15.779589653015137 4.6143646240234375 0.8142637610435486 0 9
10.090505599975586 -7.125576019287109 2.003509283065796 0.5028871893882751 0 9
9.909411430358887 -7.131845474243164 1.98018217086792 0.5088109374046326 0 9
9.683894157409668 -7.102353572845459 1.9477758407592773 0.36697232723236084 0 9
9.355304718017578 -6.991357326507568 1.8942315578460693 0.21783503890037537 0 9
8.48312759399414 -6.459023475646973 1.7293059825897217 0.579188346862793 0 9
8.377875328063965 -6.498496055603027 1.7196727991104126 0.5824326276779175 0 9
8.155566215515137 -6.444130897521973 1.6858450174331665 0.2060123234987259 0 9
7.941975116729736 -6.392001628875732 1.6534875631332397 0.39795899391174316 0 9
7.774167537689209 -6.372753620147705 1.630393385887146 0.40359604358673096 0 9
7.611105918884277 -6.354159832000732 1.6080944538116455 0.4091928005218506 0 9
7.485036373138428 -6.363789081573486 1.5934624671936035 0.5849566459655762 0 9
7.390678405761719 -6.398740291595459 1.5855392217636108 0.5878798961639404 0 9
7.312975883483887 -6.447206974029541 1.581220030784607 0.5279197692871094 0 9
7.246196269989014 -6.504853248596191 1.5793429613113403 0.5285473465919495 0 9
7.179701805114746 -6.5625 1.577625036239624 0.5291227102279663 0 9
7.113478660583496 -6.620136737823486 1.57606840133667 0.529645562171936 0 9
7.047507286071777 -6.677783012390137 1.574668526649475 0.5301162600517273 0 9
6.981777191162109 -6.735458850860596 1.5734282732009888 0.5305344462394714 0 9
6.916269302368164 -6.793173789978027 1.5723437070846558 0.5309001207351685 0 9
14.806262016296387 14.80624008178711 3.2191686630249023 0.34188443422317505 0 9
14.994970321655273 14.728144645690918 3.2313268184661865 0.34059828519821167 0 9
15.15743350982666 14.622782707214355 3.2379236221313477 0.4155397415161133 0 9
15.187417030334473 14.390761375427246 3.216603994369507 0.41829365491867065 0 9
15.217365264892578 14.162089347839355 3.1958935260772705 0.4210042953491211 0 9
15.726806640625 14.374970436096191 3.275651693344116 0.31188881397247314 0 9
15.968754768371582 14.335175514221191 3.2991154193878174 0.33359983563423157 0 9
16.170106887817383 14.255887985229492 3.314141273498535 0.33208727836608887 0 9
16.373844146728516 14.176337242126465 3.32968807220459 0.33053702116012573 0 9
16.90928840637207 14.376405715942383 3.4121899604797363 0.07574443519115448 0 9
19.601224899291992 16.364295959472656 3.925610303878784 0.22384409606456757 0 9
19.79425048828125 16.22616195678711 3.9349420070648193 0.22331328690052032 0 9
19.989234924316406 16.08818244934082 3.9448344707489014 0.22275321185588837 0 9
20.186246871948242 15.950322151184082 3.9553027153015137 0.22216378152370453 0 9
14.493749618530273 11.242470741271973 2.8200182914733887 0.0197402685880661 0 9
15.790541648864746 12.02293872833252 3.051215648651123 0.07921150326728821 0 9
15.963324546813965 11.929667472839355 3.0637853145599365 0.07888646423816681 0 9
16.14002227783203 11.837430953979492 3.0771806240081787 0.07854306697845459 0 9
16.32080078125 11.746191024780273 3.0914225578308105 0.07818128168582916 0 9
16.505756378173828 11.65584945678711 3.1065123081207275 0.07780146598815918 0 9
16.608901977539062 11.506659507751465 3.1063616275787354 0.1957223117351532 0 9
16.472415924072266 11.194628715515137 3.0619163513183594 0.19856326282024384 0 9
16.340639114379883 10.891963005065918 3.0191240310668945 0.20137746632099152 0 9
17.29155731201172 11.30296802520752 3.1759471893310547 0.07610049843788147 0 9
17.500484466552734 11.21664047241211 3.195699453353882 0.07563011348247528 0 9
17.714895248413086 11.130995750427246 3.2164769172668457 0.07514162361621857 0 9
17.933115005493164 11.04483413696289 3.237966299057007 0.1644039899110794 0 9
17.968334197998047 10.845282554626465 3.226618528366089 0.16498221457004547 0 9
18.004566192626953 10.647841453552246 3.215831756591797 0.1655355840921402 0 9
16.986858367919922 9.841279029846191 3.018158435821533 0.22984468936920166 0 9
17.264680862426758 9.796318054199219 3.0517704486846924 0.22731298208236694 0 9
17.549646377563477 9.75082015991211 3.0865478515625 0.22475190460681915 0 9
17.820470809936523 9.692977905273438 3.118751049041748 0.30419522523880005 0 9
18.031455993652344 9.59903335571289 3.140469789505005 0.30209147930145264 0 9
17.973215103149414 9.361923217773438 3.1155669689178467 0.11883164942264557 0 9
18.46443748474121 9.408085823059082 3.185948371887207 0.2977792024612427 0 9
18.68669891357422 9.311005592346191 3.2097485065460205 0.29557114839553833 0 9
18.913013458251953 9.21279239654541 3.2342846393585205 0.29332876205444336 0 9
28.33414649963379 13.488622665405273 4.824484348297119 0.9799985885620117 0 9
28.482128143310547 13.246806144714355 4.8292412757873535 0.5796388387680054 0 9
27.273334503173828 10.656923294067383 4.501705646514893 0.1542385071516037 0 9
27.75580596923828 10.559287071228027 4.565510272979736 0.2436595857143402 0 9
28.18489646911621 10.4338960647583 4.6205034255981445 0.24075977504253387 0 9
49.19230270385742 -2.873339891433716 7.575656414031982 0.0719858855009079 0 9
47.314002990722656 -4.472519397735596 7.306425094604492 0.27475419640541077 0 9
46.39173889160156 -4.805819988250732 7.170373439788818 0.18207105994224548 0 9
44.98086166381836 -5.068154335021973 6.959061622619629 0.3239445090293884 0 9
44.94112777709961 -5.472607135772705 6.960232257843018 0.5179673433303833 0 9
24.78682518005371 -3.2444238662719727 3.8431999683380127 0.24978753924369812 0 6
44.69773483276367 -6.25915002822876 6.93882942199707 0.5195655822753906 0 9
18.039525985717773 -2.6914453506469727 2.80407452583313 0.9320111274719238 0 6
44.40253829956055 -7.032695293426514 6.911487102508545 0.5549522638320923 0 9
43.965633392333984 -7.368661880493164 6.853505611419678 0.1977902352809906 0 9
44.162681579589844 -7.809804439544678 6.894865989685059 0.3087173104286194 0 9
34.701473236083984 -6.458407878875732 5.426578998565674 0.8473938703536987 0 9
34.447265625 -6.731581687927246 5.396054744720459 0.4432823061943054 0 9
34.292110443115234 -7.021396160125732 5.381405353546143 0.44448912143707275 0 9
20.352252960205078 -4.357861042022705 3.199854612350464 0.9418679475784302 0 9
20.085224151611328 -4.489599704742432 3.164080858230591 0.9977384805679321 0 9
20.036306381225586 -4.667890548706055 3.1628472805023193 0.9981274604797363 0 9
19.25128746032715 -4.667558670043945 3.0454187393188477 0.7619451284408569 0 9
19.027482986450195 -4.794531345367432 3.016700267791748 0.5054776668548584 0 9
19.37503433227539 -5.067490100860596 3.078892707824707 0.7536615133285522 0 9
19.43767738342285 -5.270732402801514 3.0962395668029785 0.7494388818740845 0 9
19.500850677490234 -5.476240158081055 3.1140074729919434 0.7451627254486084 0 9
19.564577102661133 -5.684023380279541 3.132204532623291 0.7408336400985718 0 9
19.628870010375977 -5.894287109375 3.1508402824401855 0.7364513278007507 0 9
19.89525032043457 -6.169492244720459 3.2023608684539795 0.7269173860549927 0 9
18.806255340576172 -6.017343521118164 3.035645008087158 0.5925015807151794 0 9
18.69636344909668 -6.167724609375 3.026721715927124 0.4852866232395172 0 9
18.93505096435547 -6.435497760772705 3.0745928287506104 0.477731317281723 0 9
19.18128776550293 -6.711825847625732 3.1242284774780273 0.4701406955718994 0 9
19.043169021606445 -6.855976581573486 3.1116321086883545 0.7481126189231873 0 9
18.87786865234375 -6.988505840301514 3.0947484970092773 0.752193808555603 0 9
18.714183807373047 -7.119550704956055 3.0782666206359863 0.7562212944030762 0 9
19.02036476135254 -7.432138442993164 3.139475107192993 0.4530807137489319 0 9
19.235307693481445 -7.715810298919678 3.1862590312957764 0.4464285373687744 0 9
19.45648956298828 -8.008036613464355 3.234670877456665 0.4397464394569397 0 9
19.28227424621582 -8.139482498168945 3.2177250385284424 0.5814937949180603 0 9
19.006149291992188 -8.224687576293945 3.1838371753692627 0.5876827836036682 0 9
18.73556137084961 -8.308036804199219 3.1508758068084717 0.5938307046890259 0 9
18.470327377319336 -8.389609336853027 3.1188066005706787 0.5999364256858826 0 9
24.085399627685547 -12.001025199890137 4.137062072753906 0.5042150020599365 0 9
23.971384048461914 -12.21402359008789 4.136143684387207 0.9861907362937927 0 9
29.498876571655273 -15.365517616271973 5.11347770690918 0.9688142538070679 0 9
29.442007064819336 -15.67342758178711 5.127798557281494 0.3143051266670227 0 9
25.8800048828125 -16.261512756347656 4.699006080627441 0.6030622720718384 0 9
25.576068878173828 -16.392587661743164 4.670351982116699 0.9762596487998962 0 9
23.80630874633789 -15.5615234375 4.3725152015686035 0.8842453956604004 0 9
23.670209884643555 -15.777567863464355 4.373350620269775 0.8154304623603821 0 9
10.197802543640137 -7.065029144287109 1.9072905778884888 0.5013825297355652 0 9
10.014579772949219 -7.071962833404541 1.8848190307617188 0.5073603391647339 0 9
9.826220512390137 -7.071972370147705 1.8612383604049683 0.3644977807998657 0 9
9.583195686340332 -7.028515338897705 1.8270854949951172 0.3713115453720093 0 9
9.14990234375 -6.837851524353027 1.756103515625 0.050404127687215805 0 9
