ply
format ascii 1.0
element vertex 584
property float32 x
property float32 y
property float32 z
property float32 CosAngle
property uint32 ObjIdx
property uint32 ObjTag
end_header
10.2227144241333 -9.862128257751465 0.17569488286972046 0.7650535106658936 0 3
10.21133804321289 -10.029647827148438 0.17703917622566223 0.7592437863349915 0 3
4.527919769287109 4.528007507324219 0.026401367038488388 0.23677395284175873 161 14
4.4755859375 4.396015644073486 0.02586669847369194 0.24168486893177032 161 14
4.425312519073486 4.269257545471191 0.025350341573357582 0.24657517671585083 161 14
4.378066539764404 4.148417949676514 0.024866027757525444 0.3594398498535156 161 14
4.364843845367432 4.062226295471191 0.024583740159869194 0.3635786473751068 161 14
4.351953029632568 3.9778904914855957 0.024308165535330772 0.3676879405975342 161 14
4.339325904846191 3.8954687118530273 0.024041442200541496 0.37176865339279175 161 14
4.307314395904541 3.7974607944488525 0.023673705756664276 0.21717393398284912 161 14
4.320263385772705 3.7404491901397705 0.023559264838695526 0.49505385756492615 161 14
4.324726581573486 3.676933526992798 0.023403624072670937 0.45116427540779114 161 14
4.325614929199219 3.6113085746765137 0.023231811821460724 0.45449793338775635 161 14
4.326425552368164 3.5466015338897705 0.02306518517434597 0.45779451727867126 161 14
4.327294826507568 3.4828319549560547 0.022901000455021858 0.4610549211502075 161 14
4.328134536743164 3.4199609756469727 0.022742919623851776 0.46427786350250244 161 14
4.341816425323486 3.367871046066284 0.022654417902231216 0.5457094311714172 161 14
4.354814529418945 3.3158202171325684 0.022565918043255806 0.5464169383049011 161 14
4.36746072769165 3.263906240463257 0.022478332743048668 0.5485352277755737 161 14
4.380019664764404 3.21246075630188 0.022394409403204918 0.5506089329719543 161 14
4.392489910125732 3.161328077316284 0.022312011569738388 0.5526384115219116 161 14
4.404872894287109 3.110644578933716 0.022232361137866974 0.5546228885650635 161 14
4.417167663574219 3.060234308242798 0.022155150771141052 0.5565621852874756 161 14
4.429374694824219 3.0102343559265137 0.0220800768584013 0.5584561228752136 161 14
4.484824180603027 2.9894139766693115 0.022221067920327187 0.5759674906730652 161 14
4.563857555389404 2.9833006858825684 0.022479552775621414 0.5693563222885132 161 14
4.641718864440918 2.975039005279541 0.022729797288775444 0.5986633896827698 161 14
4.719902038574219 2.9657225608825684 0.022981872782111168 0.5921071767807007 161 14
4.799853324890137 2.956230401992798 0.023240966722369194 0.5855043530464172 161 14
4.881630897521973 2.9465038776397705 0.023508301004767418 0.5788542032241821 161 14
4.96533203125 2.9365625381469727 0.023783568292856216 0.5721569061279297 161 14
5.051015377044678 2.9263670444488525 0.024066772311925888 0.5654137134552002 161 14
5.138798713684082 2.9159178733825684 0.024359434843063354 0.558624804019928 161 14
5.234414100646973 2.908378839492798 0.024687498807907104 0.5101941227912903 161 14
5.335595607757568 2.902226448059082 0.025041503831744194 0.4977499544620514 161 14
5.44021463394165 2.8961522579193115 0.02540893480181694 0.490541011095047 161 14
5.547987937927246 2.889902353286743 0.025789184495806694 0.48329246044158936 161 14
5.659003734588623 2.8834569454193115 0.026184387505054474 0.4760064482688904 161 14
5.773496150970459 2.876835823059082 0.026594238355755806 0.4686819016933441 161 14
5.891640663146973 2.869999885559082 0.027019042521715164 0.4613197147846222 161 14
6.013632774353027 2.862910032272339 0.027459105476737022 0.4539182782173157 161 14
6.138750076293945 2.855175733566284 0.027911987155675888 0.45846787095069885 161 14
6.270185470581055 2.8481249809265137 0.028392944484949112 0.42458805441856384 161 14
6.408945083618164 2.8420116901397705 0.02890472300350666 0.4170723855495453 161 14
6.552783012390137 2.835703134536743 0.02943725511431694 0.40952232480049133 161 14
6.70421838760376 2.8300390243530273 0.030003050342202187 0.3936365842819214 161 14
6.862587928771973 2.824589729309082 0.030596312135457993 0.38599541783332825 161 14
7.030409812927246 2.8201756477355957 0.031232299283146858 0.3044375777244568 161 14
22.35178565979004 8.733925819396973 0.09893798828125 0.4263165295124054 0 3
22.86568260192871 8.698945045471191 0.100860595703125 0.41818028688430786 0 3
23.400009155273438 8.66259765625 0.10287109017372131 0.4100102484226227 0 3
23.95610237121582 8.624765396118164 0.10497253388166428 0.40180712938308716 0 3
24.535438537597656 8.585371017456055 0.10716857761144638 0.3935716152191162 0 3
25.139589309692383 8.54427719116211 0.10946960002183914 0.38530442118644714 0 3
25.59237289428711 8.442694664001465 0.11110412329435349 0.9261953234672546 0 3
25.935203552246094 8.298437118530273 0.11226958781480789 0.36867788434028625 0 3
26.61197280883789 8.252363204956055 0.11487090587615967 0.36031967401504517 0 3
27.49325180053711 8.2559175491333 0.11835357546806335 0.35193222761154175 0 3
28.064598083496094 8.153573989868164 0.12048888951539993 0.34351640939712524 0 3
28.84563446044922 8.100448608398438 0.12352386116981506 0.3350731432437897 0 3
29.66714859008789 8.044569969177246 0.12672972679138184 0.32660284638404846 0 3
30.532470703125 7.985683441162109 0.1301165670156479 0.3181060254573822 0 3
31.445409774780273 7.923593521118164 0.13369658589363098 0.3095833957195282 0 3
32.29175567626953 7.829296588897705 0.13698577880859375 0.9535965323448181 0 3
33.43117141723633 7.788496017456055 0.14152801036834717 0.2924649715423584 0 3
34.8623046875 7.792734146118164 0.14727477729320526 0.28387218713760376 0 3
36.02457809448242 7.713691234588623 0.1518917828798294 0.2752540111541748 0 3
37.261932373046875 7.629472255706787 0.15681518614292145 0.2666136622428894 0 3
38.58238220214844 7.53966760635376 0.16207976639270782 0.2579520642757416 0 3
39.99469757080078 7.443613052368164 0.16772522032260895 0.24926981329917908 0 3
41.509033203125 7.340585708618164 0.1737942397594452 0.24056755006313324 0 3
28.739843368530273 4.816835880279541 0.12014342844486237 0.6626758575439453 0 6
44.89293670654297 7.110410213470459 0.18739745020866394 0.22310510277748108 0 3
46.791893005371094 6.981249809265137 0.19505248963832855 0.214346244931221 0 3
48.85280990600586 6.841034889221191 0.20336975157260895 0.20557057857513428 0 3
43.380008697509766 -9.288554191589355 0.18290099501609802 0.989769697189331 0 3
36.16522216796875 -8.768378257751465 0.15333464741706848 0.1691282093524933 0 3
32.90771484375 -8.291972160339355 0.13991424441337585 0.9840186834335327 0 3
31.18503761291504 -8.156289100646973 0.1328936666250229 0.9823779463768005 0 3
29.623397827148438 -8.03255844116211 0.1265411376953125 0.9806616306304932 0 3
28.32859230041504 -7.955175399780273 0.12130919843912125 0.20439735054969788 0 3
27.16275405883789 -7.891523361206055 0.11661621183156967 0.976992130279541 0 3
26.039432525634766 -7.819218635559082 0.1120898425579071 0.9750393629074097 0 3
24.959482192993164 -7.739902019500732 0.10773437470197678 0.9730079174041748 0 3
23.90591812133789 -7.649003505706787 0.10347960889339447 0.6667038798332214 0 3
29.461444854736328 -9.718945503234863 0.12790222465991974 0.9687100648880005 0 3
9.076766967773438 -3.084843635559082 0.03952392563223839 0.9961766600608826 0 6
27.655546188354492 -9.677108764648438 0.12079528719186783 0.2654587924480438 0 3
26.698339462280273 -9.61197280883789 0.11698608100414276 0.27410176396369934 0 3
25.799551010131836 -9.5508394241333 0.11342223733663559 0.28272193670272827 0 3
24.953866958618164 -9.49332046508789 0.11007262766361237 0.2913200557231903 0 3
23.792383193969727 -9.296679496765137 0.10531188547611237 0.2998947501182556 0 3
24.148221969604492 -9.686562538146973 0.1072717234492302 0.9512189030647278 0 3
22.322723388671875 -9.187734603881836 0.09952392429113388 0.3169713616371155 0 3
24.11470603942871 -10.179335594177246 0.10791350901126862 0.9455286264419556 0 3
24.09779167175293 -10.428027153015137 0.10825378447771072 0.9425691366195679 0 3
24.08077049255371 -10.678261756896973 0.10860473662614822 0.9395333528518677 0 3
24.063642501831055 -10.930214881896973 0.10896392911672592 0.9364222884178162 0 3
24.046415328979492 -11.183769226074219 0.10933837294578552 0.9332358241081238 0 3
24.029043197631836 -11.439179420471191 0.1097189337015152 0.9299740195274353 0 3
24.011552810668945 -11.696328163146973 0.11011840403079987 0.9266372919082642 0 3
23.993934631347656 -11.955370903015137 0.11052367836236954 0.9232258200645447 0 3
14.360185623168945 -7.316835880279541 0.06644653528928757 0.39247098565101624 0 3
14.233124732971191 -7.413788795471191 0.06615752726793289 0.9161868095397949 0 3
14.222412109375 -7.571249961853027 0.06642364710569382 0.9125530123710632 0 3
17.63174819946289 -9.590253829956055 0.0827413946390152 0.9088391661643982 0 3
17.4193058013916 -9.678319931030273 0.08215636759996414 0.4252333343029022 0 3
17.007509231567383 -9.650312423706055 0.08061981201171875 0.43334001302719116 0 3
16.38448143005371 -9.492265701293945 0.07809081673622131 0.8972793221473694 0 3
16.0928897857666 -9.517207145690918 0.07708190381526947 0.4494485557079315 0 3
15.726913452148438 -9.492323875427246 0.07573547214269638 0.45744842290878296 0 3
15.373456954956055 -9.468280792236328 0.0744381695985794 0.4654111862182617 0 3
15.031855583190918 -9.445038795471191 0.07319182902574539 0.47333699464797974 0 3
14.701483726501465 -9.422577857971191 0.0719921886920929 0.4812247157096863 0 3
10.825712203979492 -7.076425552368164 0.0533212274312973 0.4890732765197754 0 3
10.615497589111328 -7.075761795043945 0.05260253697633743 0.8677566647529602 0 3
10.606493949890137 -7.208163738250732 0.052868347615003586 0.8632618188858032 0 3
10.597402572631836 -7.341894149780273 0.05315490439534187 0.8586971163749695 0 3
13.198593139648438 -9.320351600646973 0.06661377102136612 0.520068347454071 0 3
12.853036880493164 -9.25039005279541 0.0652560442686081 0.5277125239372253 0 3
12.681913375854492 -9.30117130279541 0.06484496593475342 0.5353121161460876 0 3
12.422529220581055 -9.283554077148438 0.0639355480670929 0.5427913069725037 0 3
12.170194625854492 -9.266347885131836 0.06306792795658112 0.5503016114234924 0 3
11.92464828491211 -9.249629020690918 0.06222167983651161 0.557771623134613 0 3
11.599130630493164 -9.165078163146973 0.06094726547598839 0.5652897357940674 0 3
11.43106460571289 -9.200117111206055 0.06049499288201332 0.57267165184021 0 3
11.204530715942383 -9.184706687927246 0.05972961336374283 0.5800063610076904 0 3
10.983613014221191 -9.169668197631836 0.058990173041820526 0.5872937440872192 0 3
10.768105506896973 -9.155019760131836 0.05827178806066513 0.5945359468460083 0 3
10.557753562927246 -9.140742301940918 0.05757507309317589 0.6017287373542786 0 3
10.3523530960083 -9.126776695251465 0.05689819157123566 0.6088736057281494 0 3
10.266406059265137 -9.216132164001465 0.05687865987420082 0.78774094581604 0 3
10.255663871765137 -9.374042510986328 0.05728393420577049 0.7821807861328125 0 3
10.244765281677246 -9.534257888793945 0.05769897252321243 0.7765567302703857 0 3
10.233710289001465 -9.696816444396973 0.05812316760420799 0.7708705067634583 0 3
10.222490310668945 -9.861894607543945 0.058559875935316086 0.7651219964027405 0 3
10.211112976074219 -10.029414176940918 0.05900939926505089 0.7593117356300354 0 3
4.405019283294678 4.405077934265137 -0.025685423985123634 0.2433818280696869 161 14
4.356523513793945 4.279023170471191 -0.02517547458410263 0.24829135835170746 161 14
4.310664176940918 4.158652305603027 -0.024693908169865608 0.36194053292274475 161 14
4.298290729522705 4.072890758514404 -0.024412840604782104 0.36610904335975647 161 14
4.286240100860596 3.9890429973602295 -0.0241400133818388 0.37024861574172974 161 14
4.2744140625 3.9070701599121094 -0.023875731974840164 0.37435781955718994 161 14
4.227587699890137 3.7951953411102295 -0.0234222412109375 0.4979581832885742 161 14
4.244228363037109 3.741816282272339 -0.023328246548771858 0.4999842643737793 161 14
4.260419845581055 3.688710927963257 -0.023233642801642418 0.4544614255428314 161 14
4.261757850646973 3.6234569549560547 -0.02306213416159153 0.4578316807746887 161 14
4.263037204742432 3.55914044380188 -0.022896118462085724 0.4611658453941345 161 14
4.264335632324219 3.495722532272339 -0.02273254282772541 0.4644627273082733 161 14
4.265614986419678 3.43316388130188 -0.022575072944164276 0.46772313117980957 161 14
4.275644302368164 3.3784570693969727 -0.022466430440545082 0.5502743721008301 161 14
4.289687633514404 3.3274412155151367 -0.022382201626896858 0.5523406267166138 161 14
4.302812576293945 3.276191234588623 -0.022296752780675888 0.5530184507369995 161 14
4.315536975860596 3.22509765625 -0.022211913019418716 0.5551363825798035 161 14
4.328144550323486 3.17437481880188 -0.02212829515337944 0.5572108030319214 161 14
4.340654373168945 3.1239843368530273 -0.02204803377389908 0.5592395067214966 161 14
4.353075981140137 3.074042797088623 -0.021970825269818306 0.5612241625785828 161 14
4.365400314331055 3.024355411529541 -0.021894531324505806 0.5631634593009949 161 14
4.390771389007568 2.984003782272339 -0.021886596456170082 0.6403328776359558 161 14
4.462001800537109 2.97417950630188 -0.022108154371380806 0.5789133906364441 161 14
4.540351390838623 2.967949151992798 -0.022363891825079918 0.5723023414611816 161 14
4.620575904846191 2.9615232944488525 -0.022626953199505806 0.6014038920402527 161 14
4.698163986206055 2.9521093368530273 -0.02287597581744194 0.5948488712310791 161 14
4.777490139007568 2.942460775375366 -0.023133238777518272 0.5882462859153748 161 14
4.85867166519165 2.9326171875 -0.023397216573357582 0.5815956592559814 161 14
4.941699028015137 2.922538995742798 -0.023669738322496414 0.5748986601829529 161 14
5.026699066162109 2.9122068881988525 -0.02395172044634819 0.5681543350219727 161 14
5.113710880279541 2.901621103286743 -0.02424011193215847 0.5613646507263184 161 14
5.206992149353027 2.8931055068969727 -0.024558410048484802 0.5128830671310425 161 14
5.306757926940918 2.886523485183716 -0.024906005710363388 0.5057266354560852 161 14
5.410117149353027 2.880117177963257 -0.025268860161304474 0.4932718276977539 161 14
5.516816139221191 2.873671770095825 -0.025645751506090164 0.4860241413116455 161 14
5.626728534698486 2.8669726848602295 -0.026035461574792862 0.47873708605766296 161 14
5.740058422088623 2.860117197036743 -0.026440734043717384 0.47141072154045105 161 14
5.856982231140137 2.8530468940734863 -0.026859739795327187 0.46404775977134705 161 14
5.977685451507568 2.8457226753234863 -0.027295531705021858 0.4566471576690674 161 14
6.102177619934082 2.838085889816284 -0.02774658054113388 0.4612138569355011 161 14
6.228154182434082 2.8290038108825684 -0.028203124180436134 0.42745107412338257 161 14
6.365214824676514 2.822636604309082 -0.028706664219498634 0.4199358820915222 161 14
6.507304668426514 2.8160154819488525 -0.029233092442154884 0.4123862385749817 161 14
6.655527114868164 2.809511661529541 -0.029784850776195526 0.39651817083358765 161 14
6.811787128448486 2.8037109375 -0.030369261279702187 0.3888761103153229 161 14
6.974277019500732 2.797675609588623 -0.030980529263615608 0.38120219111442566 161 14
22.352558135986328 8.73421859741211 -0.09894073009490967 0.426302045583725 0 3
22.866483688354492 8.699257850646973 -0.10086364299058914 0.4181654751300812 0 3
23.40083885192871 8.662909507751465 -0.10287536680698395 0.40999549627304077 0 3
23.896591186523438 8.603378295898438 -0.10470885783433914 0.4017924964427948 0 3
24.47450065612793 8.564062118530273 -0.1069042980670929 0.3935644328594208 0 3
11.347333908081055 3.856679677963257 -0.049410704523324966 0.21220269799232483 156 14
11.341093063354492 3.741328001022339 -0.04923645034432411 0.21295812726020813 156 14
11.334931373596191 3.6268162727355957 -0.049064330756664276 0.2136964201927185 156 14
11.328125 3.512871026992798 -0.04889800772070885 0.11854330450296402 156 14
11.282841682434082 3.3881444931030273 -0.048569031059741974 0.11934546381235123 156 14
11.265849113464355 3.273066282272339 -0.048369139432907104 0.15061964094638824 156 14
11.292167663574219 3.171093702316284 -0.04835723713040352 0.15065430104732513 156 14
11.30435562133789 3.065312385559082 -0.04829009994864464 0.21713455021381378 156 14
11.298300743103027 2.955078125 -0.04814819246530533 0.21777082979679108 156 14
11.292284965515137 2.8454883098602295 -0.04801086336374283 0.21838974952697754 156 14
11.286269187927246 2.736445188522339 -0.04788024723529816 0.21899166703224182 156 14
11.476025581359863 2.673593759536743 -0.04858093336224556 0.3725852072238922 156 14
11.761259078979492 2.628984212875366 -0.049685973674058914 0.3642939329147339 156 14
12.09627914428711 2.590136766433716 -0.05100036412477493 0.2648020386695862 156 14
12.521689414978027 2.5638670921325684 -0.052700500935316086 0.2646823525428772 156 14
38.58454895019531 7.540078163146973 -0.16209059953689575 0.25793761014938354 0 3
39.99700927734375 7.444023132324219 -0.167735293507576 0.24925531446933746 0 3
41.40601348876953 7.322343349456787 -0.17335906624794006 0.24055245518684387 0 3
28.73719596862793 4.816386699676514 -0.12012969702482224 0.662737250328064 0 6
44.89584732055664 7.110898494720459 -0.1874060034751892 0.22309064865112305 0 3
46.79505920410156 6.981698989868164 -0.195067897439003 0.21433177590370178 0 3
48.856327056884766 6.841523170471191 -0.20339080691337585 0.2055557668209076 0 3
46.47725296020508 -9.5161714553833 -0.1955917328596115 0.991030216217041 0 3
43.37925720214844 -9.288378715515137 -0.1828942894935608 0.989786684513092 0 3
40.759666442871094 -9.11083984375 -0.17219604551792145 0.15142306685447693 0 3
24.27437400817871 -5.655195236206055 -0.10275939851999283 0.6506982445716858 170 12
24.266063690185547 -5.883359432220459 -0.10294250398874283 0.32826370000839233 170 12
32.90713882446289 -8.291815757751465 -0.13991057872772217 0.9840356707572937 0 3
31.184511184692383 -8.15615177154541 -0.13289427757263184 0.9823949337005615 0 3
29.622880935668945 -8.032422065734863 -0.1265411376953125 0.9806787371635437 0 3
28.326541900634766 -7.95458984375 -0.12133483588695526 0.20441214740276337 0 3
27.162303924560547 -7.891366958618164 -0.11661681532859802 0.9770091772079468 0 3
26.03897476196289 -7.819081783294678 -0.11209136992692947 0.9750562310218811 0 3
24.959041595458984 -7.73974609375 -0.10773590207099915 0.973024845123291 0 3
24.0186710357666 -7.68505859375 -0.10396972298622131 0.970914900302887 0 3
29.460927963256836 -9.718789100646973 -0.12789733707904816 0.9687268733978271 0 3
9.0762300491333 -3.084707021713257 -0.03952118009328842 0.9962350130081177 0 6
27.65410041809082 -9.676562309265137 -0.12079039961099625 0.2654728591442108 0 3
26.69693374633789 -9.611464500427246 -0.11698455363512039 0.2741162180900574 0 3
25.79818344116211 -9.550332069396973 -0.11341460794210434 0.2827368378639221 0 3
24.952665328979492 -9.49283218383789 -0.11006683111190796 0.29133448004722595 0 3
23.873886108398438 -9.328652381896973 -0.10567504912614822 0.2999100089073181 0 3
24.14779281616211 -9.686406135559082 -0.10726623237133026 0.951235830783844 0 3
22.32170867919922 -9.187323570251465 -0.09951812773942947 0.31698617339134216 0 3
24.114276885986328 -10.179160118103027 -0.10791564732789993 0.9455455541610718 0 3
24.097362518310547 -10.427870750427246 -0.10825042426586151 0.9425858855247498 0 3
24.080341339111328 -10.678085327148438 -0.10860290378332138 0.9395504593849182 0 3
24.063201904296875 -10.930038452148438 -0.1089630126953125 0.9364391565322876 0 3
24.045955657958984 -11.18359375 -0.10933776944875717 0.9332526922225952 0 3
24.028593063354492 -11.439003944396973 -0.10972075909376144 0.929990828037262 0 3
24.0111026763916 -11.696151733398438 -0.11011535674333572 0.9266541004180908 0 3
23.993486404418945 -11.955175399780273 -0.11052215099334717 0.9232428669929504 0 3
14.359638214111328 -7.316542625427246 -0.06644439697265625 0.39248567819595337 0 3
14.232988357543945 -7.41369104385376 -0.06616180390119553 0.9161946177482605 0 3
14.222285270690918 -7.571132659912109 -0.06642761081457138 0.912561297416687 0 3
17.63141632080078 -9.590078353881836 -0.08275146037340164 0.9088560342788696 0 3
17.418701171875 -9.677968978881836 -0.0821557566523552 0.4252479374408722 0 3
17.006933212280273 -9.6499605178833 -0.0806179791688919 0.43335479497909546 0 3
16.384180068969727 -9.492050170898438 -0.07806335389614105 0.8972962498664856 0 3
16.092382431030273 -9.516913414001465 -0.07708282023668289 0.4494633078575134 0 3
15.72640609741211 -9.492011070251465 -0.07573120296001434 0.4574633538722992 0 3
15.37294864654541 -9.467988014221191 -0.07443694770336151 0.4654262363910675 0 3
15.031386375427246 -9.444746017456055 -0.07319030910730362 0.47335147857666016 0 3
14.70101547241211 -9.422285079956055 -0.07199279963970184 0.4812394678592682 0 3
10.825390815734863 -7.076210975646973 -0.0533224493265152 0.48908814787864685 0 3
10.61489200592041 -7.075351238250732 -0.052594296634197235 0.8678068518638611 0 3
10.605888366699219 -7.207734107971191 -0.052866820245981216 0.8633124232292175 0 3
10.596796989440918 -7.341464519500732 -0.05315520986914635 0.8587476015090942 0 3
13.198203086853027 -9.320077896118164 -0.06662048399448395 0.5200830101966858 0 3
12.852665901184082 -9.250097274780273 -0.06531555205583572 0.5277272462844849 0 3
12.6856050491333 -9.303828239440918 -0.06485259532928467 0.5351571440696716 0 3
12.426044464111328 -9.286151885986328 -0.0639590471982956 0.5426369309425354 0 3
12.173593521118164 -9.26894474029541 -0.0630810558795929 0.5501468777656555 0 3
11.927948951721191 -9.252206802368164 -0.062234800308942795 0.5576174855232239 0 3
11.598817825317383 -9.164862632751465 -0.060945432633161545 0.5653045177459717 0 3
11.43075180053711 -9.199902534484863 -0.06049438193440437 0.5726862549781799 0 3
11.204228401184082 -9.184492111206055 -0.059733886271715164 0.5800209045410156 0 3
10.983339309692383 -9.169472694396973 -0.058990173041820526 0.5873081088066101 0 3
10.767850875854492 -9.154804229736328 -0.05826965346932411 0.5945504903793335 0 3
10.557499885559082 -9.140546798706055 -0.0575726293027401 0.6017435193061829 0 3
10.352118492126465 -9.126582145690918 -0.05689941346645355 0.6088878512382507 0 3
10.266191482543945 -9.215956687927246 -0.05687865987420082 0.7877579927444458 0 3
10.25545883178711 -9.37386703491211 -0.05728393420577049 0.7821976542472839 0 3
10.244560241699219 -9.53408145904541 -0.05769714340567589 0.7765734791755676 0 3
10.233505249023438 -9.69662094116211 -0.05812377855181694 0.7708877325057983 0 3
10.222274780273438 -9.861699104309082 -0.058560483157634735 0.765139102935791 0 3
10.210888862609863 -10.029218673706055 -0.059009093791246414 0.7593287229537964 0 3
4.28662109375 4.286640644073486 -0.07498321682214737 0.2343589961528778 161 14
4.244179725646973 4.168710708618164 -0.07358337193727493 0.3643883764743805 161 14
4.232656002044678 4.083378791809082 -0.0727456659078598 0.36858561635017395 161 14
4.221386432647705 4.000019550323486 -0.07193176448345184 0.37275391817092896 161 14
4.195918083190918 3.9049999713897705 -0.07089782506227493 0.21755212545394897 161 14
4.152939319610596 3.795976400375366 -0.06959228217601776 0.5027751326560974 161 14
4.169677734375 3.7431836128234863 -0.0693078562617302 0.5048403143882751 161 14
4.186318397521973 3.690800666809082 -0.06903045624494553 0.5068660974502563 161 14
4.198808670043945 3.635370969772339 -0.06869567930698395 0.46109846234321594 161 14
4.200566291809082 3.571406126022339 -0.06819824129343033 0.46446868777275085 161 14
4.202304363250732 3.5083398818969727 -0.06771118193864822 0.4678027629852295 161 14
4.203974723815918 3.446230411529541 -0.06723754853010178 0.4710991084575653 161 14
4.210566520690918 3.388906240463257 -0.06685332953929901 0.5547577142715454 161 14
4.224746227264404 3.3382420539855957 -0.06660003215074539 0.5568678379058838 161 14
4.238808631896973 3.288027286529541 -0.06635376065969467 0.5589337348937988 161 14
4.252079963684082 3.2375781536102295 -0.06610381603240967 0.5595817565917969 161 14
4.264814376831055 3.187246084213257 -0.06585510075092316 0.5617005228996277 161 14
4.277461051940918 3.1371874809265137 -0.06561279296875 0.5637736320495605 161 14
4.290009498596191 3.087597608566284 -0.06537719815969467 0.5658029317855835 161 14
4.302460670471191 3.038281202316284 -0.06514831632375717 0.5677870512008667 161 14
4.314804553985596 2.989335775375366 -0.06492706388235092 0.5697265267372131 161 14
4.366718769073486 2.967656135559082 -0.06530456244945526 0.6438189744949341 161 14
4.439384460449219 2.959120988845825 -0.06599120795726776 0.5818210244178772 161 14
4.51711893081665 2.952714681625366 -0.06674987822771072 0.5752111077308655 161 14
4.596630573272705 2.9461913108825684 -0.06753112375736237 0.5685539841651917 161 14
4.676601409912109 2.938554525375366 -0.0683160349726677 0.597548246383667 161 14
4.75537109375 2.928828001022339 -0.06908019632101059 0.5909463763237 161 14
4.835859298706055 2.918886661529541 -0.06986632943153381 0.584296703338623 161 14
4.91824197769165 2.9087305068969727 -0.07067626714706421 0.5776000022888184 161 14
5.002558708190918 2.8983006477355957 -0.07151123136281967 0.5708558559417725 161 14
5.088886737823486 2.8875975608825684 -0.07237182557582855 0.5640671253204346 161 14
5.179794788360596 2.878046751022339 -0.07329406589269638 0.5155380964279175 161 14
5.278700828552246 2.871269464492798 -0.0743255615234375 0.5083823204040527 161 14
5.380419731140137 2.86431622505188 -0.07539306581020355 0.5011864900588989 161 14
5.485976219177246 2.857617139816284 -0.07650940120220184 0.488719642162323 161 14
5.59484338760376 2.850781202316284 -0.0776684582233429 0.4814334213733673 161 14
5.70703125 2.8437108993530273 -0.07886840403079987 0.47410911321640015 161 14
5.822743892669678 2.8364062309265137 -0.08011199533939362 0.4667457938194275 161 14
5.94216775894165 2.828867197036743 -0.08140319585800171 0.45934632420539856 161 14
6.065536975860596 2.821093797683716 -0.0827426165342331 0.4519091248512268 161 14
6.18997049331665 2.811640501022339 -0.08409149199724197 0.4565221965312958 161 14
6.32213830947876 2.8034961223602295 -0.08554260432720184 0.4227701425552368 161 14
6.46240234375 2.7966015338897705 -0.08709686249494553 0.41522228717803955 161 14
6.608251571655273 2.78955078125 -0.08872192353010178 0.40515637397766113 161 14
6.761708736419678 2.783085823059082 -0.09044311195611954 0.39172863960266113 161 14
6.921982288360596 2.7766406536102295 -0.09225036203861237 0.38405582308769226 161 14
7.114521503448486 2.780019521713257 -0.09448028355836868 0.3018881380558014 161 14
22.867284774780273 8.699589729309082 -0.3026278614997864 0.41812241077423096 0 3
23.40167999267578 8.66324234008789 -0.3086617887020111 0.40995290875434875 0 3
23.8974609375 8.603691101074219 -0.31417158246040344 0.40175074338912964 0 3
24.475448608398438 8.564374923706055 -0.32073745131492615 0.39352259039878845 0 3
11.12938404083252 3.782597541809082 -0.14539459347724915 0.7596180438995361 156 14
11.118574142456055 3.66796875 -0.14481674134731293 0.7626450061798096 156 14
11.107861518859863 3.5541796684265137 -0.1442553699016571 0.7656111121177673 156 14
11.0972261428833 3.441288948059082 -0.1437101662158966 0.7685158252716064 156 14
11.086660385131836 3.329238176345825 -0.14318053424358368 0.7713593244552612 156 14
11.082704544067383 3.219863176345825 -0.1427508443593979 0.7914503216743469 156 14
11.07901382446289 3.1111912727355957 -0.1423385590314865 0.7937449216842651 156 14
11.07535171508789 3.003222703933716 -0.14193999767303467 0.7959763407707214 156 14
11.071708679199219 2.895820140838623 -0.14155380427837372 0.7981443405151367 156 14
11.070663452148438 2.789628744125366 -0.14121490716934204 0.8472831845283508 156 14
11.21548843383789 2.7192578315734863 -0.14274460077285767 0.4998418986797333 156 14
11.447206497192383 2.666933536529541 -0.14538298547267914 0.3237415552139282 156 14
11.732772827148438 2.622617244720459 -0.14870575070381165 0.3651546835899353 156 14
12.060019493103027 2.5823631286621094 -0.15255126357078552 0.26558101177215576 156 14
12.480839729309082 2.5555076599121094 -0.1575828492641449 0.2655305862426758 156 14
38.586708068847656 7.540546894073486 -0.486307829618454 0.25790560245513916 0 3
39.99935531616211 7.444472312927246 -0.5032522678375244 0.2492237091064453 0 3
41.408592224121094 7.322773456573486 -0.5201374888420105 0.24052120745182037 0 3
28.734540939331055 4.815957069396973 -0.36037445068359375 0.6627539396286011 0 6
44.89883804321289 7.111367225646973 -0.5622793436050415 0.22306059300899506 0 3
46.79835891723633 6.98220682144165 -0.5852835178375244 0.21430209279060364 0 3
48.85980224609375 6.842031002044678 -0.6102142333984375 0.2055271863937378 0 3
46.476463317871094 -9.516035079956055 -0.5867994427680969 0.990979790687561 0 3
43.37852478027344 -9.288203239440918 -0.5487127304077148 0.9897363185882568 0 3
40.75572967529297 -9.109980583190918 -0.5165585279464722 0.15142737329006195 0 3
24.202733993530273 -5.638495922088623 -0.307381272315979 0.9809039831161499 170 12
24.21431541442871 -5.870800495147705 -0.3081870973110199 0.9262440204620361 170 12
32.62848663330078 -8.221640586853027 -0.4162011742591858 0.17798466980457306 0 3
31.01558494567871 -8.111952781677246 -0.39653852581977844 0.18680930137634277 0 3
29.548114776611328 -8.012187004089355 -0.3786807060241699 0.19561868906021118 0 3
28.206981658935547 -7.921034812927246 -0.362387090921402 0.2044128030538559 0 3
26.976346969604492 -7.837343692779541 -0.34746885299682617 0.21319055557250977 0 3
25.843055725097656 -7.760293006896973 -0.3337588310241699 0.22195026278495789 0 3
24.795604705810547 -7.689062118530273 -0.32110825181007385 0.23069332540035248 0 3
24.018251419067383 -7.684960842132568 -0.3119186460971832 0.970865786075592 0 3
29.46040916442871 -9.718632698059082 -0.3837130665779114 0.9686778783798218 0 3
9.075693130493164 -3.0845117568969727 -0.1185632273554802 0.9962257146835327 0 6
27.652557373046875 -9.676034927368164 -0.36236572265625 0.2654697299003601 0 3
26.69548797607422 -9.610937118530273 -0.3509472608566284 0.27411237359046936 0 3
25.79685401916504 -9.5498628616333 -0.3402467370033264 0.28273212909698486 0 3
24.951366424560547 -9.492362976074219 -0.3302046060562134 0.29132983088493347 0 3
23.872753143310547 -9.328203201293945 -0.31706908345222473 0.2999041676521301 0 3
23.31072235107422 -9.350605010986328 -0.31066450476646423 0.6649255156517029 0 3
22.3206729888916 -9.186874389648438 -0.29855620861053467 0.3169790804386139 0 3
24.113847732543945 -10.178964614868164 -0.32375165820121765 0.9454978704452515 0 3
24.096933364868164 -10.427656173706055 -0.32476621866226196 0.9425386190414429 0 3
24.079912185668945 -10.677870750427246 -0.32581526041030884 0.9395032525062561 0 3
24.062772750854492 -10.929804801940918 -0.32689955830574036 0.9363924860954285 0 3
24.0455265045166 -11.183359146118164 -0.3280160427093506 0.9332061409950256 0 3
24.02816390991211 -11.438769340515137 -0.32916519045829773 0.9299444556236267 0 3
24.01067352294922 -11.695918083190918 -0.330350786447525 0.9266079068183899 0 3
23.99305534362793 -11.95492172241211 -0.3315719664096832 0.9231970310211182 0 3
14.359101295471191 -7.316288948059082 -0.1993338018655777 0.3924736976623535 0 3
14.232880592346191 -7.413632869720459 -0.1984986811876297 0.9161401987075806 0 3
14.22216796875 -7.571093559265137 -0.1992916762828827 0.9125066995620728 0 3
17.631103515625 -9.589882850646973 -0.24824661016464233 0.9088112711906433 0 3
17.41812515258789 -9.67763614654541 -0.2464669793844223 0.4252334237098694 0 3
17.006366729736328 -9.649628639221191 -0.24185623228549957 0.4333396255970001 0 3
16.383867263793945 -9.491894721984863 -0.2342030256986618 0.8972522020339966 0 3
16.09184455871582 -9.5166015625 -0.23124296963214874 0.4494473338127136 0 3
15.725897789001465 -9.491718292236328 -0.22720244526863098 0.45744648575782776 0 3
15.372469902038574 -9.46767520904541 -0.22331435978412628 0.46540918946266174 0 3
15.030917167663574 -9.444453239440918 -0.2195751965045929 0.4733339846134186 0 3
14.700566291809082 -9.421992301940918 -0.21597594022750854 0.4812212884426117 0 3
10.825068473815918 -7.075995922088623 -0.1599656641483307 0.48906952142715454 0 3
10.614267349243164 -7.074921607971191 -0.1577812135219574 0.8677986860275269 0 3
10.605263710021973 -7.207324028015137 -0.15860122442245483 0.8633036017417908 0 3
10.596171379089355 -7.341034889221191 -0.15943434834480286 0.8587394952774048 0 3
13.19784164428711 -9.31982421875 -0.1998472511768341 0.5200620889663696 0 3
12.852313995361328 -9.249862670898438 -0.19585829973220825 0.5277060270309448 0 3
12.689257621765137 -9.30654239654541 -0.1946527063846588 0.5349668264389038 0 3
12.42959976196289 -9.288827896118164 -0.19193069636821747 0.5424456596374512 0 3
12.177021026611328 -9.271601676940918 -0.18930403888225555 0.5499553680419922 0 3
11.931259155273438 -9.254804611206055 -0.1867712289094925 0.5574257969856262 0 3
11.59853458404541 -9.1646089553833 -0.1828436255455017 0.5652804970741272 0 3
11.430487632751465 -9.199647903442383 -0.18148955702781677 0.5726619362831116 0 3
11.203954696655273 -9.18423843383789 -0.1791922003030777 0.5799959301948547 0 3
10.98305606842041 -9.169219017028809 -0.176970973610878 0.5872842073440552 0 3
10.767578125 -9.154570579528809 -0.17481718957424164 0.5945249795913696 0 3
10.557246208190918 -9.14029312133789 -0.17272399365901947 0.6017170548439026 0 3
10.3518648147583 -9.126327514648438 -0.1706971675157547 0.6088610887527466 0 3
10.265966415405273 -9.215742111206055 -0.17064087092876434 0.7877212762832642 0 3
10.255224227905273 -9.373652458190918 -0.171853169798851 0.7821611762046814 0 3
10.244336128234863 -9.53384780883789 -0.1730973720550537 0.7765379548072815 0 3
10.233271598815918 -9.696406364440918 -0.1743737757205963 0.7708519101142883 0 3
10.222050666809082 -9.86148452758789 -0.1756839007139206 0.7651035785675049 0 3
10.210634231567383 -10.028984069824219 -0.17702651023864746 0.7592940926551819 0 3
4.178554534912109 4.178613185882568 -0.12183257937431335 0.36678335070610046 161 14
4.167861461639404 4.093730449676514 -0.12044525146484375 0.37100887298583984 161 14
4.157402038574219 4.010820388793945 -0.11909759044647217 0.3752056360244751 161 14
4.115165710449219 3.8993358612060547 -0.11688171327114105 0.21992848813533783 161 14
4.079628944396973 3.7967381477355957 -0.114898681640625 0.5075187683105469 161 14
4.096562385559082 3.7444920539855957 -0.1144244372844696 0.5096230506896973 161 14
4.113339900970459 3.692578077316284 -0.11396178603172302 0.5116880536079407 161 14
4.129941463470459 3.6411328315734863 -0.11351317912340164 0.5137135982513428 161 14
4.138955116271973 3.58349609375 -0.11287108808755875 0.4677043557167053 161 14
4.141093730926514 3.5208396911621094 -0.11206359416246414 0.4710739254951477 161 14
4.143222332000732 3.459062337875366 -0.11127594113349915 0.4744076430797577 161 14
4.146464824676514 3.399121046066284 -0.11053985357284546 0.5591602921485901 161 14
4.160800457000732 3.348828077316284 -0.11011596769094467 0.5613136887550354 161 14
4.174999713897705 3.299023389816284 -0.1097036749124527 0.5634230971336365 161 14
4.189082145690918 3.249453067779541 -0.10930297523736954 0.5654892921447754 161 14
4.202470779418945 3.199843645095825 -0.10889831185340881 0.5661077499389648 161 14
4.215243816375732 3.150214672088623 -0.10849181562662125 0.5682253837585449 161 14
4.227920055389404 3.1008594036102295 -0.10809814184904099 0.5702988505363464 161 14
4.240498065948486 3.0519726276397705 -0.10771483927965164 0.5723277926445007 161 14
4.253017425537109 3.0033397674560547 -0.10734252631664276 0.5743118524551392 161 14
4.278476238250732 2.9641406536102295 -0.10730987042188644 0.6529726982116699 161 14
4.342919826507568 2.951484203338623 -0.10825805366039276 0.6472590565681458 161 14
4.417031288146973 2.9442577362060547 -0.10944091528654099 0.5846908688545227 161 14
4.494081974029541 2.937734365463257 -0.11069274693727493 0.5780799984931946 161 14
4.572890758514404 2.931035041809082 -0.11198242008686066 0.5714236497879028 161 14
4.653632640838623 2.924140453338623 -0.113311767578125 0.564720094203949 161 14
4.733388423919678 2.915332078933716 -0.11461181193590164 0.5936051607131958 161 14
4.813271522521973 2.9052538871765137 -0.11591064184904099 0.5869571566581726 161 14
4.894989967346191 2.894960880279541 -0.1172473132610321 0.5802612900733948 161 14
4.978632926940918 2.884394407272339 -0.11862609535455704 0.5735181570053101 161 14
5.064257621765137 2.87359356880188 -0.12004699558019638 0.5667311549186707 161 14
5.152929782867432 2.863085985183716 -0.12153442203998566 0.5181578993797302 161 14
5.250888347625732 2.856152296066284 -0.12323608249425888 0.5110036730766296 161 14
5.351669788360596 2.849003791809082 -0.1249958798289299 0.5038071870803833 161 14
5.455527305603027 2.841738224029541 -0.126820370554924 0.4913831949234009 161 14
5.563310623168945 2.8346874713897705 -0.12872940301895142 0.48409801721572876 161 14
5.674355506896973 2.827402353286743 -0.13070647418498993 0.4767746031284332 161 14
5.788886547088623 2.81988263130188 -0.1327563375234604 0.46941208839416504 161 14
5.907060623168945 2.812187433242798 -0.13488143682479858 0.462013840675354 161 14
6.029101371765137 2.8041601181030273 -0.13708831369876862 0.45457690954208374 161 14
6.152929782867432 2.7948436737060547 -0.1393284648656845 0.459207147359848 161 14
6.279580116271973 2.7846484184265137 -0.14162398874759674 0.4255773723125458 161 14
6.418154239654541 2.777421712875366 -0.14418120682239532 0.41802892088890076 161 14
6.561855316162109 2.7699217796325684 -0.14684569835662842 0.4079623222351074 161 14
6.712353229522705 2.7627344131469727 -0.14965087175369263 0.3945567011833191 161 14
6.870449066162109 2.7559568881988525 -0.1526200771331787 0.38688501715660095 161 14
7.05040979385376 2.754941463470459 -0.1560598760843277 0.30459362268447876 161 14
22.86807632446289 8.69986343383789 -0.5044412016868591 0.41805094480514526 0 3
23.402509689331055 8.663515090942383 -0.5144982933998108 0.4098825454711914 0 3
23.89832878112793 8.60400390625 -0.5236791968345642 0.4016813039779663 0 3
11.085272789001465 3.87896466255188 -0.24213270843029022 0.7628035545349121 156 14
11.065858840942383 3.760996103286743 -0.24096190929412842 0.7665120363235474 156 14
11.05126953125 3.645703077316284 -0.23992156982421875 0.7671874761581421 156 14
11.040878295898438 3.5327343940734863 -0.23899871110916138 0.7701530456542969 156 14
11.030527114868164 3.4205663204193115 -0.2381005734205246 0.773057222366333 156 14
11.021493911743164 3.30962872505188 -0.23725463449954987 0.7936300039291382 156 14
11.018017768859863 3.2010936737060547 -0.23655074834823608 0.7959877252578735 156 14
11.014540672302246 3.093144416809082 -0.2358711212873459 0.7982819080352783 156 14
11.011083602905273 2.9858007431030273 -0.23521406948566437 0.8005131483078003 156 14
11.012041091918945 2.880195140838623 -0.23467208445072174 0.8497154712677002 156 14
11.015975952148438 2.7758007049560547 -0.23421478271484375 0.8513724207878113 156 14
11.184814453125 2.711855411529541 -0.2372778207063675 0.5011455416679382 156 14
11.405243873596191 2.657109260559082 -0.24143798649311066 0.32488834857940674 156 14
11.704413414001465 2.616328001022339 -0.2472640872001648 0.36599013209342957 156 14
12.026689529418945 2.5752148628234863 -0.25357452034950256 0.33167794346809387 156 14
12.44051742553711 2.547245979309082 -0.26180756092071533 0.2707245945930481 156 14
15.809531211853027 3.089472532272339 -0.3321090638637543 0.35477983951568604 139 14
15.802363395690918 2.9410741329193115 -0.3313940465450287 0.35310864448547363 139 14
15.794111251831055 2.7930662631988525 -0.33068084716796875 0.4014100730419159 139 14
15.798046112060547 2.647773265838623 -0.3302508592605591 0.3971445560455322 139 14
15.82347583770752 2.5062694549560547 -0.3302983045578003 0.33748579025268555 139 14
16.306015014648438 2.4328320026397705 -0.339901864528656 0.19824542105197906 139 14
17.08464813232422 2.3924412727355957 -0.35567137598991394 0.25276947021484375 139 14
45.93629837036133 -9.405508041381836 -0.9667170643806458 0.13365662097930908 0 3
42.99106216430664 -9.205273628234863 -0.906440258026123 0.1425449252128601 0 3
40.391563415527344 -9.028573989868164 -0.8533044457435608 0.15142109990119934 0 3
24.285547256469727 -5.657812595367432 -0.5141046047210693 0.9693496823310852 170 12
24.263553619384766 -5.882773399353027 -0.5147348046302795 0.9247299432754517 170 12
32.45710754394531 -8.178476333618164 -0.6900852918624878 0.1779753714799881 0 3
30.852802276611328 -8.0693941116333 -0.6574884057044983 0.1867988258600235 0 3
29.39311408996582 -7.970195293426514 -0.6278823614120483 0.19560742378234863 0 3
28.059120178222656 -7.87951135635376 -0.6008709669113159 0.20440000295639038 0 3
26.83511734008789 -7.796288967132568 -0.5761378407478333 0.21317581832408905 0 3
25.707733154296875 -7.719667911529541 -0.5533953905105591 0.2219352126121521 0 3
24.6658878326416 -7.648847579956055 -0.5324230790138245 0.2306765764951706 0 3
24.017841339111328 -7.684823989868164 -0.519905686378479 0.9707506895065308 0 3
23.26457977294922 -7.674667835235596 -0.505072295665741 0.6829484105110168 0 3
9.075165748596191 -3.0843358039855957 -0.19761337339878082 0.9961487650871277 0 6
24.244197845458984 -8.483359336853027 -0.5295597910881042 0.963434100151062 0 3
24.2283878326416 -8.722695350646973 -0.530904233455658 0.9609960913658142 0 3
24.212499618530273 -8.963300704956055 -0.5322964191436768 0.9584805965423584 0 3
24.196523666381836 -9.205175399780273 -0.5337432622909546 0.9558880925178528 0 3
23.87158203125 -9.327733993530273 -0.5284931659698486 0.2998780310153961 0 3
23.103328704833984 -9.267382621765137 -0.5132131576538086 0.6708032488822937 0 3
22.319637298583984 -9.186464309692383 -0.49761533737182617 0.3169506788253784 0 3
24.113407135009766 -10.178789138793945 -0.5396243333816528 0.9453861713409424 0 3
24.09650421142578 -10.427480697631836 -0.5413171052932739 0.9424272775650024 0 3
24.07948112487793 -10.677695274353027 -0.5430715680122375 0.9393922686576843 0 3
24.06234359741211 -10.929609298706055 -0.544873058795929 0.9362821578979492 0 3
24.04509735107422 -11.183183670043945 -0.5467315316200256 0.9330959320068359 0 3
24.027734756469727 -11.438554763793945 -0.5486478805541992 0.9298352003097534 0 3
24.010244369506836 -11.695722579956055 -0.550626814365387 0.9264987111091614 0 3
23.99260711669922 -11.954726219177246 -0.5526584982872009 0.9230883121490479 0 3
14.358534812927246 -7.316015243530273 -0.33224090933799744 0.3924354612827301 0 3
14.23275375366211 -7.41357421875 -0.3308538794517517 0.9160235524177551 0 3
14.222041130065918 -7.571034908294678 -0.3321772813796997 0.912390410900116 0 3
17.52791976928711 -9.53384780883789 -0.41136884689331055 0.41705167293548584 0 3
17.107772827148438 -9.50527286529541 -0.4034979045391083 0.42519092559814453 0 3
16.703359603881836 -9.477753639221191 -0.3959493935108185 0.4332958459854126 0 3
16.383554458618164 -9.491679191589355 -0.39033064246177673 0.8971471786499023 0 3
16.091318130493164 -9.516347885131836 -0.3854296803474426 0.44940075278282166 0 3
15.725409507751465 -9.491464614868164 -0.3786889612674713 0.45739877223968506 0 3
15.371992111206055 -9.467421531677246 -0.37221112847328186 0.46536052227020264 0 3
15.030439376831055 -9.444198608398438 -0.3659786880016327 0.4732845723628998 0 3
14.700136184692383 -9.42177677154541 -0.3599807620048523 0.4811704158782959 0 3
10.824746131896973 -7.075780868530273 -0.2666241526603699 0.4890175759792328 0 3
10.613642692565918 -7.074511528015137 -0.2629704177379608 0.8677308559417725 0 3
10.60463809967041 -7.206894397735596 -0.264342337846756 0.8632367849349976 0 3
10.595537185668945 -7.340585708618164 -0.2657516300678253 0.8586735129356384 0 3
13.197460174560547 -9.319609642028809 -0.33310455083847046 0.5200060606002808 0 3
12.851972579956055 -9.249608993530273 -0.3264794945716858 0.5276489853858948 0 3
12.6929292678833 -9.30923843383789 -0.3245277404785156 0.5347388982772827 0 3
12.433144569396973 -9.291464805603027 -0.3200068473815918 0.5422118902206421 0 3
12.180468559265137 -9.274199485778809 -0.3156313896179199 0.5497251749038696 0 3
11.93455982208252 -9.2573823928833 -0.3113992214202881 0.5571953058242798 0 3
11.59823226928711 -9.164374351501465 -0.30475860834121704 0.5652183294296265 0 3
11.430204391479492 -9.199453353881836 -0.302501380443573 0.5725986957550049 0 3
11.2036714553833 -9.184042930603027 -0.29867368936538696 0.579931914806366 0 3
10.982772827148438 -9.169023513793945 -0.2949713170528412 0.5872193574905396 0 3
10.767324447631836 -9.154394149780273 -0.2913793921470642 0.5944584012031555 0 3
10.55697250366211 -9.14013671875 -0.28789275884628296 0.6016503572463989 0 3
10.351611137390137 -9.126172065734863 -0.2845187187194824 0.6087929010391235 0 3
10.265742301940918 -9.215546607971191 -0.28441816568374634 0.787631094455719 0 3
10.255000114440918 -9.373456954956055 -0.28644058108329773 0.7820717096328735 0 3
10.244101524353027 -9.533652305603027 -0.28851592540740967 0.7764490842819214 0 3
10.233046531677246 -9.696210861206055 -0.29064223170280457 0.7707636952400208 0 3
10.22182559967041 -9.86122989654541 -0.29282745718955994 0.7650166153907776 0 3
10.210410118103027 -10.028730392456055 -0.2950683534145355 0.7592077851295471 0 3
4.103906154632568 4.103925704956055 -0.16754119098186493 0.3733789622783661 161 14
4.084609508514404 4.011972427368164 -0.16527679562568665 0.2177256941795349 161 14
4.036113262176514 3.8937695026397705 -0.161895751953125 0.2222733199596405 161 14
4.007666110992432 3.797480344772339 -0.15937957167625427 0.5121886134147644 161 14
4.024745941162109 3.7457029819488525 -0.1587153524160385 0.5143325328826904 161 14
4.041698932647705 3.6942968368530273 -0.1580686867237091 0.516436755657196 161 14
4.058476448059082 3.6433591842651367 -0.15743987262248993 0.5185011625289917 161 14
4.075058460235596 3.5926952362060547 -0.15682753920555115 0.520526647567749 161 14
4.080751895904541 3.5331249237060547 -0.15581786632537842 0.47427794337272644 161 14
4.083261489868164 3.4717187881469727 -0.15471938252449036 0.4776470363140106 161 14
4.085761547088623 3.4111132621765137 -0.1536477655172348 0.4809793531894684 161 14
4.097870826721191 3.359257698059082 -0.1529623419046402 0.5656782388687134 161 14
4.112197399139404 3.3097264766693115 -0.15238219499588013 0.5678310394287109 161 14
4.126406192779541 3.2606053352355957 -0.1518179327249527 0.5699405670166016 161 14
4.140507698059082 3.2117576599121094 -0.15127044916152954 0.5720059871673584 161 14
4.154003620147705 3.162968635559082 -0.15072005987167358 0.5725948214530945 161 14
4.166816234588623 3.113964796066284 -0.15016509592533112 0.5747125148773193 161 14
4.179541110992432 3.0654101371765137 -0.1496252417564392 0.5767852067947388 161 14
4.192148208618164 3.01714825630188 -0.14910079538822174 0.5788136720657349 161 14
4.204638481140137 2.9691991806030273 -0.1485917568206787 0.5807974338531494 161 14
4.255478382110596 2.9482617378234863 -0.14944685995578766 0.6563690900802612 161 14
4.320116996765137 2.9359960556030273 -0.15078581869602203 0.5940817594528198 161 14
4.394853591918945 2.9294726848602295 -0.15247054398059845 0.5875177383422852 161 14
4.471259593963623 2.922792911529541 -0.15420424938201904 0.5809087753295898 161 14
4.549453258514404 2.9159374237060547 -0.15599197149276733 0.5742546319961548 161 14
4.629462718963623 2.908925771713257 -0.15783339738845825 0.5675545930862427 161 14
4.711376667022705 2.9017186164855957 -0.15973205864429474 0.5608075261116028 161 14
4.790878772735596 2.891718626022339 -0.16154159605503082 0.5895773768424988 161 14
4.871992111206055 2.8813281059265137 -0.1633981317281723 0.5828827619552612 161 14
4.954970359802246 2.8707029819488525 -0.16530883312225342 0.576141357421875 161 14
5.039902210235596 2.8597850799560547 -0.16727951169013977 0.569355309009552 161 14
5.126855373382568 2.8486132621765137 -0.16931121051311493 0.5625255703926086 161 14
5.22341775894165 2.8411717414855957 -0.17165008187294006 0.5135903358459473 161 14
