ply
format ascii 1.0
element vertex 579
property float32 x
property float32 y
property float32 z
property float32 CosAngle
property uint32 ObjIdx
property uint32 ObjTag
end_header
3.4130566120147705 -1.0854687690734863 -1.8202567100524902 0.44917282462120056 0 1
3.408134698867798 -1.100683569908142 -1.820235252380371 0.4491785764694214 0 1
3.403144359588623 -1.1158593893051147 -1.8202130794525146 0.4491842985153198 0 1
3.3980956077575684 -1.1310350894927979 -1.8201907873153687 0.44918906688690186 0 1
3.3929686546325684 -1.1461718082427979 -1.820168137550354 0.4491947591304779 0 1
3.387773275375366 -1.1612695455551147 -1.8201452493667603 0.4492010474205017 0 1
3.382519483566284 -1.176367163658142 -1.8201220035552979 0.4492064416408539 0 1
3.377197265625 -1.191445231437683 -1.8200984001159668 0.44921207427978516 0 1
3.3717968463897705 -1.2064647674560547 -1.820074439048767 0.4492189884185791 0 1
3.366337776184082 -1.2215038537979126 -1.8200503587722778 0.4492242932319641 0 1
3.3608105182647705 -1.2364842891693115 -1.82002592086792 0.44923025369644165 0 1
3.3552050590515137 -1.25146484375 -1.8200008869171143 0.4492364823818207 0 1
3.349540948867798 -1.2664257287979126 -1.8199758529663086 0.44924303889274597 0 1
3.34380841255188 -1.2813671827316284 -1.8199504613876343 0.44924890995025635 0 1
3.338017463684082 -1.2962499856948853 -1.8199247121810913 0.44925540685653687 0 1
3.332158088684082 -1.3111132383346558 -1.8198986053466797 0.44926100969314575 0 1
3.3262205123901367 -1.3259375095367432 -1.8198723793029785 0.4492681920528412 0 1
3.3202245235443115 -1.340761661529541 -1.8198456764221191 0.4492744207382202 0 1
3.314150333404541 -1.3555468320846558 -1.8198187351226807 0.4492815434932709 0 1
3.3080174922943115 -1.3702929019927979 -1.819791555404663 0.44928839802742004 0 1
3.301826000213623 -1.3850195407867432 -1.8197638988494873 0.4492952227592468 0 1
3.2955663204193115 -1.3997265100479126 -1.8197360038757324 0.4493010938167572 0 1
3.2892284393310547 -1.414394497871399 -1.8197078704833984 0.4493093192577362 0 1
3.282831907272339 -1.429042935371399 -1.8196793794631958 0.4493158459663391 0 1
3.276376962661743 -1.4436522722244263 -1.8196505308151245 0.44932302832603455 0 1
3.269853353500366 -1.4582226276397705 -1.8196215629577637 0.44933009147644043 0 1
3.263251781463623 -1.4727734327316284 -1.8195921182632446 0.4493379294872284 0 1
3.256591796875 -1.4873046875 -1.819562315940857 0.44934484362602234 0 1
3.249882698059082 -1.5018163919448853 -1.8195323944091797 0.44935154914855957 0 1
3.2431249618530273 -1.5162694454193115 -1.8195022344589233 0.44935986399650574 0 1
3.236269474029541 -1.530703067779541 -1.8194717168807983 0.4493672251701355 0 1
3.2293553352355957 -1.5450975894927979 -1.8194407224655151 0.4493744671344757 0 1
3.2223730087280273 -1.559472680091858 -1.8194096088409424 0.4493824243545532 0 1
3.215322256088257 -1.5738085508346558 -1.819378137588501 0.4493902623653412 0 1
3.2082128524780273 -1.5881054401397705 -1.819346308708191 0.4493979811668396 0 1
3.201044797897339 -1.602382779121399 -1.8193142414093018 0.44940558075904846 0 1
3.193798780441284 -1.6166210174560547 -1.8192819356918335 0.44941389560699463 0 1
3.1864941120147705 -1.6308202743530273 -1.8192492723464966 0.449422150850296 0 1
3.179140567779541 -1.64501953125 -1.819216251373291 0.44942933320999146 0 1
3.171699047088623 -1.6591601371765137 -1.8191829919815063 0.4494381546974182 0 1
3.1642088890075684 -1.6732616424560547 -1.8191496133804321 0.4494459927082062 0 1
3.1566503047943115 -1.6873241662979126 -1.8191157579421997 0.44945546984672546 0 1
3.1490330696105957 -1.7013671398162842 -1.8190816640853882 0.4494630694389343 0 1
3.141347646713257 -1.715371012687683 -1.819047212600708 0.4494714140892029 0 1
3.13360333442688 -1.729335904121399 -1.8190125226974487 0.44948050379753113 0 1
3.12579083442688 -1.7432812452316284 -1.8189775943756104 0.4494886100292206 0 1
3.117929697036743 -1.757167935371399 -1.8189424276351929 0.4494975209236145 0 1
3.109990119934082 -1.771035075187683 -1.8189067840576172 0.4495062530040741 0 1
3.102001905441284 -1.7848632335662842 -1.8188709020614624 0.44951486587524414 0 1
3.093935489654541 -1.7986522912979126 -1.8188347816467285 0.44952428340911865 0 1
3.085810422897339 -1.8124022483825684 -1.818798303604126 0.449533611536026 0 1
3.07763671875 -1.826113224029541 -1.8187617063522339 0.4495428204536438 0 1
3.06939435005188 -1.839785099029541 -1.8187247514724731 0.4495510160923004 0 1
3.06109356880188 -1.8534178733825684 -1.8186874389648438 0.44956091046333313 0 1
3.052724599838257 -1.867031216621399 -1.8186498880386353 0.4495697319507599 0 1
3.044306516647339 -1.8805859088897705 -1.8186122179031372 0.44957947731018066 0 1
1.579980492591858 -0.9857812523841858 -0.9464840292930603 0.4308631420135498 2915 14
1.58230459690094 -0.9970898032188416 -0.9505288600921631 0.4290306568145752 2915 14
1.584658145904541 -1.008457064628601 -0.9546371102333069 0.4271860122680664 2915 14
1.587060570716858 -1.019960880279541 -0.9588109850883484 0.425325870513916 2915 14
1.5894824266433716 -1.0315624475479126 -0.9630508422851562 0.42345181107521057 2915 14
1.5919530391693115 -1.043300747871399 -0.9673574566841125 0.4215673804283142 2915 14
1.5944530963897705 -1.0551562309265137 -0.9717327952384949 0.41966772079467773 2915 14
1.5970019102096558 -1.0671093463897705 -0.9761782884597778 0.41775691509246826 2915 14
1.5995995998382568 -1.079199194908142 -0.9806942343711853 0.4158356785774231 2915 14
1.6022264957427979 -1.091406226158142 -0.9852828979492188 0.4138972759246826 2915 14
1.6049022674560547 -1.1037499904632568 -0.989945650100708 0.4119463562965393 2915 14
1.6076269149780273 -1.1162304878234863 -0.9946832060813904 0.4099856913089752 2915 14
1.610390543937683 -1.128808617591858 -0.9994967579841614 0.4080123007297516 2915 14
1.6131932735443115 -1.1415624618530273 -1.0043898820877075 0.4060248136520386 2915 14
1.6160253286361694 -1.1544336080551147 -1.0093612670898438 0.4040234088897705 2915 14
1.61892569065094 -1.1674413681030273 -1.0144140720367432 0.40201032161712646 2915 14
1.621865153312683 -1.180605411529541 -1.0195492506027222 0.39998555183410645 2915 14
1.6248730421066284 -1.1939061880111694 -1.0247693061828613 0.39794987440109253 2915 14
1.6279101371765137 -1.207363247871399 -1.0300745964050293 0.3958987295627594 2915 14
1.6309961080551147 -1.2209765911102295 -1.0354686975479126 0.39383837580680847 2915 14
1.6341406106948853 -1.2347460985183716 -1.0409506559371948 0.39176371693611145 2915 14
1.6373437643051147 -1.2487304210662842 -1.0465258359909058 0.389675498008728 2915 14
1.6405761241912842 -1.2628124952316284 -1.0521937608718872 0.3875770568847656 2915 14
1.643886685371399 -1.2770898342132568 -1.0579556226730347 0.385466992855072 2915 14
1.647255778312683 -1.2915234565734863 -1.0638161897659302 0.38334202766418457 2915 14
1.6506543159484863 -1.3061327934265137 -1.069776177406311 0.38120517134666443 2915 14
2.7944629192352295 -2.2314844131469727 -1.817488193511963 0.4498580992221832 0 1
2.784414052963257 -2.243886709213257 -1.8174428939819336 0.44986867904663086 0 1
2.76611328125 -2.249570369720459 -1.8120205402374268 0.5635901689529419 0 2
2.741083860397339 -2.249589681625366 -1.8021825551986694 0.5666654109954834 0 2
2.716318368911743 -2.249628782272339 -1.7924859523773193 0.5697302222251892 0 2
2.6918163299560547 -2.2496678829193115 -1.7829275131225586 0.5727840662002563 0 2
2.6675877571105957 -2.2497265338897705 -1.7735048532485962 0.5758306980133057 0 2
2.643603563308716 -2.249765634536743 -1.7642185688018799 0.5788617730140686 0 2
2.619873046875 -2.249804735183716 -1.7550628185272217 0.5818809866905212 0 2
2.596376895904541 -2.2498435974121094 -1.7460356950759888 0.5848900079727173 0 2
2.573134660720825 -2.2498631477355957 -1.7371357679367065 0.5878828167915344 0 2
2.552363157272339 -2.251894474029541 -1.729885220527649 0.7407288551330566 0 2
2.533740282058716 -2.255664110183716 -1.7240740060806274 0.7432256937026978 0 2
2.515214681625366 -2.2593748569488525 -1.718324065208435 0.7457140684127808 0 2
2.497441291809082 -2.2635936737060547 -1.7130411863327026 0.4500204026699066 0 2
2.487246036529541 -2.274667978286743 -1.7129952907562256 0.4500320851802826 0 2
2.477001905441284 -2.2856640815734863 -1.7129489183425903 0.4500446319580078 0 2
2.4667088985443115 -2.296640634536743 -1.712902545928955 0.4500567317008972 0 2
2.4561424255371094 -2.3073437213897705 -1.7126935720443726 0.45006951689720154 0 2
2.445751905441284 -2.3182029724121094 -1.712646722793579 0.45008209347724915 0 2
1.3463671207427979 -1.2876561880111694 -0.9468276500701904 0.3186779022216797 2915 14
1.3383398056030273 -1.2914648056030273 -0.9452328085899353 0.31921684741973877 2915 14
1.330322265625 -1.2952343225479126 -0.9436361193656921 0.3197554349899292 2915 14
1.3222949504852295 -1.2989648580551147 -0.9420373439788818 0.32029756903648376 2915 14
1.3142383098602295 -1.302636742591858 -0.9404370188713074 0.3208432197570801 2915 14
2.5009765625 2.5009570121765137 -1.8159021139144897 0.45388439297676086 0 1
2.5121874809265137 2.4898436069488525 -1.8159539699554443 0.45387160778045654 0 1
2.5233397483825684 2.478632688522339 -1.8160054683685303 0.45385870337486267 0 1
2.5344433784484863 2.467421770095825 -1.816056728363037 0.45384645462036133 0 1
2.5455076694488525 2.4561522006988525 -1.8161081075668335 0.45383256673812866 0 1
2.556513547897339 2.4448437690734863 -1.8161588907241821 0.45382001996040344 0 1
2.5674705505371094 2.433476448059082 -1.8162096738815308 0.4538080096244812 0 1
2.578369140625 2.422050714492798 -1.8162599802017212 0.4537959098815918 0 1
2.589228391647339 2.4106054306030273 -1.8163104057312012 0.45378223061561584 0 1
2.600029230117798 2.3990819454193115 -1.8163601160049438 0.45376983284950256 0 1
2.610790967941284 2.387519359588623 -1.8164098262786865 0.45375800132751465 0 1
2.6214940547943115 2.375917911529541 -1.8164594173431396 0.45374536514282227 0 1
2.632138729095459 2.3642578125 -1.8165087699890137 0.4537326693534851 0 1
2.6427342891693115 2.3525586128234863 -1.8165578842163086 0.45372042059898376 0 1
2.6532812118530273 2.3407812118530273 -1.8166065216064453 0.45370879769325256 0 1
2.663759708404541 2.328984260559082 -1.8166552782058716 0.4536970853805542 0 1
2.674199104309082 2.317148447036743 -1.81670343875885 0.453684538602829 0 1
2.684580087661743 2.305234432220459 -1.8167517185211182 0.45367324352264404 0 1
2.6949217319488525 2.2933006286621094 -1.8167994022369385 0.45366042852401733 0 1
2.705195188522339 2.281327962875366 -1.8168470859527588 0.45364832878112793 0 1
2.7154197692871094 2.269277334213257 -1.816894292831421 0.45363670587539673 0 1
2.725595712661743 2.2571873664855957 -1.816941499710083 0.45362555980682373 0 1
2.735712766647339 2.2450780868530273 -1.816988468170166 0.4536130726337433 0 1
2.7457714080810547 2.23291015625 -1.8170350790023804 0.4536018967628479 0 1
2.7557811737060547 2.2206835746765137 -1.8170814514160156 0.45358988642692566 0 1
2.765742063522339 2.2084178924560547 -1.8171275854110718 0.45357832312583923 0 1
2.775624990463257 2.196113348007202 -1.8171733617782593 0.4535675346851349 0 1
2.785468578338623 2.1837499141693115 -1.8172190189361572 0.4535559415817261 0 1
2.7952635288238525 2.1713476181030273 -1.8172643184661865 0.4535447657108307 0 1
2.804999828338623 2.1589062213897705 -1.8173094987869263 0.4535335898399353 0 1
2.8146777153015137 2.146425724029541 -1.817354440689087 0.4535224139690399 0 1
2.824286937713623 2.1338865756988525 -1.8173991441726685 0.45351120829582214 0 1
2.833857297897339 2.121328115463257 -1.8174433708190918 0.4534992277622223 0 1
2.8433592319488525 2.108711004257202 -1.8174874782562256 0.4534892141819 0 1
2.8528125286102295 2.0960545539855957 -1.8175313472747803 0.4534783661365509 0 1
2.8622069358825684 2.0833396911621094 -1.8175749778747559 0.4534667730331421 0 1
2.8715429306030273 2.070605516433716 -1.8176183700561523 0.45345598459243774 0 1
2.8808300495147705 2.057812452316284 -1.8176614046096802 0.45344552397727966 0 1
2.8900487422943115 2.044999837875366 -1.8177040815353394 0.4534347355365753 0 1
2.8992090225219727 2.0321288108825684 -1.817746877670288 0.45342427492141724 0 1
2.908320188522339 2.019218683242798 -1.817789077758789 0.45341384410858154 0 1
0.7037792801856995 0.4840039014816284 -0.438544899225235 0.3470265567302704 2915 14
0.7056933641433716 0.48070311546325684 -0.4383978247642517 0.34714245796203613 2915 14
0.7075878977775574 0.4773828089237213 -0.4382484257221222 0.3472631573677063 2915 14
0.70947265625 0.47404295206069946 -0.43809691071510315 0.34738340973854065 2915 14
0.7113280892372131 0.470703125 -0.43794235587120056 0.3475080132484436 2915 14
0.7131640315055847 0.46736326813697815 -0.4377853274345398 0.3476320505142212 2915 14
0.71498042345047 0.4640234410762787 -0.43762555718421936 0.3477550745010376 2915 14
0.7167675495147705 0.46064451336860657 -0.4374633729457855 0.3478916883468628 2915 14
0.7185449004173279 0.45726561546325684 -0.43729889392852783 0.34801915287971497 2915 14
0.7203027009963989 0.4538867175579071 -0.4371316432952881 0.34815120697021484 2915 14
0.7220507860183716 0.45048826932907104 -0.4369621276855469 0.3482878804206848 2915 14
0.72376948595047 0.447089821100235 -0.4367901384830475 0.3484243154525757 2915 14
0.7254589796066284 0.443671852350235 -0.43661558628082275 0.348563551902771 2915 14
0.7271386384963989 0.440253883600235 -0.4364381432533264 0.348703533411026 2915 14
0.7288183569908142 0.43681639432907104 -0.4362591505050659 0.34884899854660034 2915 14
0.7304491996765137 0.43339842557907104 -0.43607696890830994 0.34899207949638367 2915 14
0.7320605516433716 0.4299413859844208 -0.43589264154434204 0.3491451144218445 2915 14
0.7336620688438416 0.4264843761920929 -0.4357057213783264 0.3492890000343323 2915 14
0.73524409532547 0.4230273365974426 -0.435516357421875 0.3494412899017334 2915 14
0.7367968559265137 0.4195507764816284 -0.43532469868659973 0.34959834814071655 2915 14
0.738330066204071 0.4160742163658142 -0.43513092398643494 0.34975528717041016 2915 14
0.7398437261581421 0.41259765625 -0.43493422865867615 0.34991174936294556 2915 14
0.7413378953933716 0.40910154581069946 -0.43473541736602783 0.3500680923461914 2915 14
0.74281245470047 0.405585914850235 -0.4345342814922333 0.3502342998981476 2915 14
0.7442578077316284 0.40208983421325684 -0.4343305826187134 0.35039904713630676 2915 14
0.7456933259963989 0.39857420325279236 -0.43412473797798157 0.3505648374557495 2915 14
0.7471093535423279 0.3950585722923279 -0.433916300535202 0.3507305383682251 2915 14
0.7484960556030273 0.39152342081069946 -0.43370604515075684 0.35090014338493347 2915 14
0.7498632669448853 0.38798826932907104 -0.4334931969642639 0.35107433795928955 2915 14
0.751220703125 0.3844531178474426 -0.4332778751850128 0.3512483835220337 2915 14
0.7525488138198853 0.3808984160423279 -0.43306028842926025 0.3514273166656494 2915 14
0.753857433795929 0.37736326456069946 -0.4328405559062958 0.35160183906555176 2915 14
0.7551464438438416 0.3737890422344208 -0.4326184093952179 0.3517857789993286 2915 14
0.7564160227775574 0.3702148497104645 -0.4323943853378296 0.3519652783870697 2915 14
0.7576757669448853 0.3666406273841858 -0.4321679472923279 0.3521532416343689 2915 14
0.7589062452316284 0.3630664050579071 -0.43193939328193665 0.3523378372192383 2915 14
0.7601073980331421 0.3594921827316284 -0.43170806765556335 0.3525259494781494 2915 14
0.7612890601158142 0.35591796040534973 -0.431474894285202 0.3527146875858307 2915 14
0.762451171875 0.3523242175579071 -0.43123960494995117 0.352908194065094 2915 14
0.7635937333106995 0.34871092438697815 -0.4310018718242645 0.3531021475791931 2915 14
0.7647168040275574 0.3450976610183716 -0.4307621717453003 0.3533010482788086 2915 14
0.7658300399780273 0.34150388836860657 -0.4305204749107361 0.353495717048645 2915 14
0.7669042944908142 0.337890625 -0.430276483297348 0.35369908809661865 2915 14
0.7679687142372131 0.33427733182907104 -0.43003049492836 0.3538992404937744 2915 14
0.7690038681030273 0.3306640684604645 -0.4297819435596466 0.35410332679748535 2915 14
0.77001953125 0.3270312547683716 -0.42953169345855713 0.3543127179145813 2915 14
0.7710155844688416 0.3233984410762787 -0.4292791783809662 0.35452237725257874 2915 14
0.7719921469688416 0.31974607706069946 -0.429024338722229 0.3547326326370239 2915 14
0.77294921875 0.31611326336860657 -0.4287678301334381 0.3549436926841736 2915 14
0.773876965045929 0.31248044967651367 -0.42850935459136963 0.35515931248664856 2915 14
0.77479487657547 0.30882811546325684 -0.42824843525886536 0.35537564754486084 2915 14
0.7757031321525574 0.30519530177116394 -0.4279855191707611 0.35559237003326416 2915 14
0.7765820026397705 0.3015429675579071 -0.4277210831642151 0.3558105230331421 2915 14
0.7774316072463989 0.2978906035423279 -0.4274542033672333 0.3560330271720886 2915 14
0.7782617211341858 0.29423826932907104 -0.42718520760536194 0.35625630617141724 2915 14
0.7790722250938416 0.29056641459465027 -0.42691466212272644 0.35648077726364136 2915 14
0.7798632383346558 0.2868945300579071 -0.4266418218612671 0.35670995712280273 2915 14
0.7806347608566284 0.28324219584465027 -0.4263673424720764 0.35693979263305664 2915 14
0.78138667345047 0.2795703113079071 -0.4260905385017395 0.35717061161994934 2915 14
0.7821093797683716 0.27589842677116394 -0.4258122146129608 0.35740670561790466 2915 14
0.7828124761581421 0.2722265422344208 -0.42553192377090454 0.35764360427856445 2915 14
0.783496081829071 0.2685546875 -0.425249308347702 0.35788148641586304 2915 14
0.7841699123382568 0.26488280296325684 -0.4249652028083801 0.35811635851860046 2915 14
0.78480464220047 0.26121091842651367 -0.4246792495250702 0.3583603501319885 2915 14
0.7854296565055847 0.25751951336860657 -0.42439115047454834 0.3586054742336273 2915 14
0.7860351204872131 0.2538476586341858 -0.424101859331131 0.3588480055332184 2915 14
0.78662109375 0.25013670325279236 -0.42380979657173157 0.35909488797187805 2915 14
0.7871972322463989 0.2464648336172104 -0.42351654171943665 0.3593434691429138 2915 14
0.78773432970047 0.24277342855930328 -0.4232214391231537 0.359597384929657 2915 14
0.78773432970047 0.23894530534744263 -0.4226457178592682 0.4312121868133545 2915 14
0.7877246141433716 0.23509764671325684 -0.42207062244415283 0.43179959058761597 2915 14
0.7876855134963989 0.23126952350139618 -0.42149657011032104 0.4323883056640625 2915 14
0.7876366972923279 0.22744140028953552 -0.42092376947402954 0.43297648429870605 2915 14
0.7875683307647705 0.22361327707767487 -0.42035186290740967 0.4335675537586212 2915 14
0.78749018907547 0.21980468928813934 -0.41978147625923157 0.43415313959121704 2915 14
0.787402331829071 0.21599608659744263 -0.4192120134830475 0.4347454607486725 2915 14
0.7872949242591858 0.2121874988079071 -0.4186438024044037 0.4353336691856384 2915 14
0.7873241901397705 0.2084375023841858 -0.4181649684906006 0.4553312659263611 2915 14
0.7876855134963989 0.20476561784744263 -0.41786864399909973 0.4556569755077362 2915 14
0.788037121295929 0.2011132836341858 -0.4175723195075989 0.4559761881828308 2915 14
0.7883593440055847 0.19746093451976776 -0.4172762930393219 0.45630067586898804 2915 14
0.7886816263198853 0.19380858540534973 -0.41698119044303894 0.45662349462509155 2915 14
0.7889843583106995 0.19013671576976776 -0.4166862368583679 0.4569471776485443 2915 14
0.7892675399780273 0.18648436665534973 -0.4163915812969208 0.45726901292800903 2915 14
0.7895312309265137 0.1828320324420929 -0.41609784960746765 0.45759251713752747 2915 14
0.7897753715515137 0.17917968332767487 -0.41580474376678467 0.4579179883003235 2915 14
0.7900097370147705 0.17554686963558197 -0.4155111610889435 0.45823681354522705 2915 14
0.7902441024780273 0.17189452052116394 -0.4152188003063202 0.45856142044067383 2915 14
0.7904492020606995 0.1682421863079071 -0.4149267375469208 0.4588835537433624 2915 14
0.7906347513198853 0.16458983719348907 -0.4146353006362915 0.459207683801651 2915 14
0.7908007502555847 0.16095702350139618 -0.41434401273727417 0.45952990651130676 2915 14
0.7909570336341858 0.15732420980930328 -0.4140530228614807 0.45984968543052673 2915 14
0.7910937070846558 0.15367187559604645 -0.41376280784606934 0.4601747393608093 2915 14
0.791210949420929 0.15003906190395355 -0.4134734869003296 0.46049854159355164 2915 14
0.7913183569908142 0.14640624821186066 -0.41318389773368835 0.46081966161727905 2915 14
0.7914062142372131 0.14277343451976776 -0.4128955006599426 0.4611431360244751 2915 14
0.7914843559265137 0.13914062082767487 -0.4126071035861969 0.461463987827301 2915 14
0.791552722454071 0.13550780713558197 -0.41231948137283325 0.4617868959903717 2915 14
0.7915917634963989 0.1318945288658142 -0.4120321571826935 0.4621083736419678 2915 14
0.7916210889816284 0.1282617151737213 -0.4117456078529358 0.46243101358413696 2915 14
0.7916308641433716 0.12464843690395355 -0.41145965456962585 0.4627523422241211 2915 14
0.7916308641433716 0.1210351511836052 -0.41117429733276367 0.46307173371315 2915 14
3.5076756477355957 0.520312488079071 -1.8206064701080322 0.4527117609977722 0 1
3.5099804401397705 0.5046679377555847 -1.82061767578125 0.4527093172073364 0 1
3.512216806411743 0.4889843761920929 -1.8206288814544678 0.45270684361457825 0 1
3.5143847465515137 0.4733203053474426 -1.8206396102905273 0.45270416140556335 0 1
3.516484260559082 0.4576367139816284 -1.8206499814987183 0.4527014195919037 0 1
3.5185155868530273 0.4419335722923279 -1.8206599950790405 0.45269837975502014 0 1
3.5204687118530273 0.42623046040534973 -1.8206696510314941 0.45269638299942017 0 1
3.522353410720825 0.4105273485183716 -1.8206793069839478 0.4526940584182739 0 1
3.524169921875 0.3948046863079071 -1.820688247680664 0.4526917636394501 0 1
3.5259180068969727 0.3790625035762787 -1.8206971883773804 0.45268914103507996 0 1
3.527587890625 0.3633398413658142 -1.820705533027649 0.4526872932910919 0 1
3.529189348220825 0.3475976586341858 -1.820713758468628 0.4526854157447815 0 1
3.5307226181030273 0.33183592557907104 -1.8207213878631592 0.4526834785938263 0 1
3.5321874618530273 0.3160937428474426 -1.8207290172576904 0.4526810944080353 0 1
3.533574104309082 0.30031248927116394 -1.820736050605774 0.45267966389656067 0 1
3.5348925590515137 0.2845507860183716 -1.8207430839538574 0.4526779353618622 0 1
3.536142587661743 0.2687695324420929 -1.8207495212554932 0.4526761770248413 0 1
3.5373144149780273 0.2529882788658142 -1.8207557201385498 0.4526751637458801 0 1
3.5384178161621094 0.23720702528953552 -1.8207616806030273 0.45267292857170105 0 1
3.539443254470825 0.22142577171325684 -1.8207671642303467 0.45267248153686523 0 1
3.540410041809082 0.2056249976158142 -1.820772409439087 0.4526708722114563 0 1
3.5412988662719727 0.18980468809604645 -1.8207772970199585 0.45267006754875183 0 1
3.542128801345825 0.17400389909744263 -1.8207818269729614 0.45266807079315186 0 1
3.5428807735443115 0.158203125 -1.8207861185073853 0.4526667892932892 0 1
3.5435545444488525 0.14238281548023224 -1.8207899332046509 0.45266643166542053 0 1
3.5441699028015137 0.12656249105930328 -1.8207937479019165 0.4526647925376892 0 1
3.5446972846984863 0.11076171696186066 -1.8207967281341553 0.4526648223400116 0 1
3.545166015625 0.0949414074420929 -1.8207998275756836 0.452663779258728 0 1
3.5455565452575684 0.07912109047174454 -1.8208022117614746 0.45266351103782654 0 1
3.5458788871765137 0.06330078095197678 -1.8208047151565552 0.45266297459602356 0 1
3.546132802963257 0.047480467706918716 -1.8208065032958984 0.45266228914260864 0 1
3.546318292617798 0.03164062276482582 -1.8208084106445312 0.4526613652706146 0 1
3.5464160442352295 0.01582031138241291 -1.8208096027374268 0.4526612460613251 0 1
3.546454906463623 -0.0 -1.8208105564117432 0.45266085863113403 0 1
3.5464160442352295 -0.01582031138241291 -1.8208112716674805 0.45266130566596985 0 1
3.546318292617798 -0.03166015446186066 -1.8208116292953491 0.4526605010032654 0 1
3.546142578125 -0.047480467706918716 -1.8208117485046387 0.4526605010032654 0 1
3.545888662338257 -0.06330078095197678 -1.8208112716674805 0.45266130566596985 0 1
3.5455760955810547 -0.07912109047174454 -1.8208106756210327 0.45266085863113403 0 1
3.5451855659484863 -0.09496093541383743 -1.8208096027374268 0.4526611566543579 0 1
3.5447263717651367 -0.1107812449336052 -1.8208084106445312 0.45266133546829224 0 1
3.544189453125 -0.12660156190395355 -1.820806860923767 0.45266225934028625 0 1
3.543583869934082 -0.14240233600139618 -1.8208048343658447 0.45266297459602356 0 1
3.542910099029541 -0.15822264552116394 -1.8208025693893433 0.45266348123550415 0 1
3.542167901992798 -0.17402343451976776 -1.8207999467849731 0.452663779258728 0 1
3.5413475036621094 -0.18984374403953552 -1.820797085762024 0.4526648223400116 0 1
3.5404491424560547 -0.20564453303813934 -1.8207937479019165 0.4526657164096832 0 1
3.539492130279541 -0.22142577171325684 -1.82079017162323 0.45266637206077576 0 1
3.538466691970825 -0.23722656071186066 -1.8207863569259644 0.4526667892932892 0 1
3.537363290786743 -0.25300779938697815 -1.8207820653915405 0.45266813039779663 0 1
3.53619122505188 -0.26878905296325684 -1.8207775354385376 0.452669233083725 0 1
3.5349512100219727 -0.2845703065395355 -1.820772647857666 0.4526701271533966 0 1
3.533632755279541 -0.3003515601158142 -1.8207675218582153 0.45267170667648315 0 1
3.5322461128234863 -0.31611326336860657 -1.820762038230896 0.4526732563972473 0 1
3.5307910442352295 -0.3318554759025574 -1.820756196975708 0.4526745676994324 0 1
3.5292675495147705 -0.34761717915534973 -1.8207498788833618 0.4526756703853607 0 1
3.527665853500366 -0.36335936188697815 -1.8207433223724365 0.4526776373386383 0 1
3.525995969772339 -0.37910154461860657 -1.8207366466522217 0.4526793956756592 0 1
3.5242576599121094 -0.394843727350235 -1.8207294940948486 0.45268088579177856 0 1
3.5224413871765137 -0.4105468690395355 -1.820721983909607 0.45268335938453674 0 1
3.52056622505188 -0.42626953125 -1.8207142353057861 0.45268452167510986 0 1
3.51861310005188 -0.44197264313697815 -1.8207061290740967 0.4526866674423218 0 1
3.516591787338257 -0.4576757848262787 -1.820697546005249 0.452688604593277 0 1
3.5144920349121094 -0.47333982586860657 -1.8206888437271118 0.4526914656162262 0 1
3.512324094772339 -0.4890234172344208 -1.8206799030303955 0.45269304513931274 0 1
3.510087728500366 -0.5047070384025574 -1.820670485496521 0.452695369720459 0 1
3.5077733993530273 -0.5203320384025574 -1.8206607103347778 0.45269888639450073 0 1
3.5054004192352295 -0.5359960794448853 -1.820650577545166 0.4527009129524231 0 1
3.5029590129852295 -0.5516406297683716 -1.820640206336975 0.45270296931266785 0 1
3.500439405441284 -0.5672656297683716 -1.8206294775009155 0.4527059495449066 0 1
3.4978513717651367 -0.5828515291213989 -1.8206185102462769 0.45270898938179016 0 1
3.495195150375366 -0.5984570384025574 -1.820607304573059 0.45271167159080505 0 1
3.4924609661102295 -0.614062488079071 -1.8205955028533936 0.45271506905555725 0 1
3.4896678924560547 -0.6296288967132568 -1.820583462715149 0.45271751284599304 0 1
3.4867968559265137 -0.6451953053474426 -1.8205713033676147 0.45272091031074524 0 1
3.4838671684265137 -0.6607226133346558 -1.8205585479736328 0.4527234435081482 0 1
3.4808592796325684 -0.67626953125 -1.8205455541610718 0.4527265429496765 0 1
3.477773427963257 -0.6917968392372131 -1.8205323219299316 0.4527307152748108 0 1
3.4746289253234863 -0.7073046565055847 -1.8205187320709229 0.45273351669311523 0 1
3.4714159965515137 -0.72279292345047 -1.8205050230026245 0.4527367651462555 0 1
3.4681248664855957 -0.7382616996765137 -1.8204907178878784 0.4527406692504883 0 1
3.4647655487060547 -0.7537304759025574 -1.8204761743545532 0.45274460315704346 0 1
3.4613378047943115 -0.7691991925239563 -1.8204612731933594 0.4527481496334076 0 1
3.457841634750366 -0.7846093773841858 -1.8204461336135864 0.45275217294692993 0 1
3.454277276992798 -0.8000390529632568 -1.8204305171966553 0.4527558386325836 0 1
3.4506444931030273 -0.8154296875 -1.820414662361145 0.4527595341205597 0 1
3.4469432830810547 -0.8308203220367432 -1.8203986883163452 0.45276331901550293 0 1
3.4431638717651367 -0.8461718559265137 -1.8203822374343872 0.45276808738708496 0 1
3.439335823059082 -0.8615429401397705 -1.8203654289245605 0.45277151465415955 0 1
3.435419797897339 -0.8768554329872131 -1.8203482627868652 0.45277640223503113 0 1
3.4314451217651367 -0.8921874761581421 -1.8203309774398804 0.4527798891067505 0 1
3.4273924827575684 -0.9074609279632568 -1.8203130960464478 0.4527849853038788 0 1
3.423271417617798 -0.9227538704872131 -1.8202952146530151 0.4527896046638489 0 1
3.4190917015075684 -0.9380077719688416 -1.8202768564224243 0.45279330015182495 0 1
3.4148340225219727 -0.95326167345047 -1.8202581405639648 0.4527980089187622 0 1
3.4105076789855957 -0.9684569835662842 -1.8202391862869263 0.4528033435344696 0 1
3.4061131477355957 -0.9836718440055847 -1.820219874382019 0.4528082311153412 0 1
3.4016504287719727 -0.9988476634025574 -1.8202002048492432 0.45281317830085754 0 1
3.3971190452575684 -1.014003872871399 -1.8201802968978882 0.4528181254863739 0 1
3.392529249191284 -1.029140591621399 -1.820160150527954 0.45282280445098877 0 1
3.3878612518310547 -1.0442577600479126 -1.8201395273208618 0.45282793045043945 0 1
3.383134603500366 -1.0593554973602295 -1.8201186656951904 0.4528336822986603 0 1
3.3783397674560547 -1.0744335651397705 -1.82009756565094 0.4528379738330841 0 1
3.373466730117798 -1.0894726514816284 -1.8200761079788208 0.45284390449523926 0 1
3.368535041809082 -1.1045117378234863 -1.820054292678833 0.452848881483078 0 1
3.363525390625 -1.1195117235183716 -1.8200323581695557 0.4528549015522003 0 1
3.35845685005188 -1.1344921588897705 -1.820009708404541 0.452860027551651 0 1
3.3533105850219727 -1.1494725942611694 -1.8199869394302368 0.45286616683006287 0 1
3.3481054306030273 -1.164394497871399 -1.819964051246643 0.452872097492218 0 1
3.342841625213623 -1.1793164014816284 -1.8199408054351807 0.45287737250328064 0 1
3.3374998569488525 -1.1942187547683716 -1.81991708278656 0.45288339257240295 0 1
3.332099437713623 -1.2090624570846558 -1.8198931217193604 0.45288917422294617 0 1
3.3266210556030273 -1.2239062786102295 -1.8198689222335815 0.45289531350135803 0 1
3.3210840225219727 -1.2387304306030273 -1.819844365119934 0.4529012143611908 0 1
3.3154783248901367 -1.253515601158142 -1.8198195695877075 0.45290809869766235 0 1
3.309804677963257 -1.2683203220367432 -1.8197942972183228 0.4529140889644623 0 1
3.3040623664855957 -1.2830663919448853 -1.8197689056396484 0.4529208242893219 0 1
3.2982616424560547 -1.2977733612060547 -1.819743037223816 0.45292675495147705 0 1
3.2923827171325684 -1.3124608993530273 -1.8197169303894043 0.45293352007865906 0 1
3.286454916000366 -1.3271093368530273 -1.819690465927124 0.4529401957988739 0 1
3.280449151992798 -1.3417577743530273 -1.8196640014648438 0.45294615626335144 0 1
3.2743847370147705 -1.3563671112060547 -1.8196370601654053 0.45295271277427673 0 1
3.268242120742798 -1.370937466621399 -1.8196096420288086 0.45296019315719604 0 1
3.2620506286621094 -1.3854882717132568 -1.819582223892212 0.4529667794704437 0 1
3.2557811737060547 -1.399999976158142 -1.819554090499878 0.45297420024871826 0 1
3.249453067779541 -1.4145116806030273 -1.8195260763168335 0.4529806673526764 0 1
3.243095636367798 -1.42898428440094 -1.8194974660873413 0.4529871344566345 0 1
3.236640453338623 -1.4434179067611694 -1.81946861743927 0.4529944360256195 0 1
3.230107307434082 -1.4578124284744263 -1.8194396495819092 0.4530025124549866 0 1
3.223515510559082 -1.4721875190734863 -1.8194102048873901 0.453009694814682 0 1
3.216865062713623 -1.4865233898162842 -1.8193806409835815 0.4530167877674103 0 1
3.210146427154541 -1.5008398294448853 -1.8193506002426147 0.4530247449874878 0 1
3.203359365463257 -1.51513671875 -1.8193203210830688 0.4530326724052429 0 1
3.1965136528015137 -1.529394507408142 -1.8192898035049438 0.45303961634635925 0 1
3.1896092891693115 -1.5436131954193115 -1.8192590475082397 0.45304736495018005 0 1
3.1826367378234863 -1.5578124523162842 -1.8192278146743774 0.453054279088974 0 1
3.17559552192688 -1.5719530582427979 -1.8191964626312256 0.4530628025531769 0 1
3.1684961318969727 -1.5860936641693115 -1.8191646337509155 0.45307043194770813 0 1
3.161328077316284 -1.6001757383346558 -1.819132685661316 0.45307889580726624 0 1
3.154101610183716 -1.6142382621765137 -1.819100260734558 0.45308732986450195 0 1
3.146806478500366 -1.6282812356948853 -1.8190675973892212 0.4530947804450989 0 1
3.139453172683716 -1.6422655582427979 -1.8190346956253052 0.45310309529304504 0 1
3.1320409774780273 -1.6562304496765137 -1.81900155544281 0.45311132073402405 0 1
3.124560594558716 -1.6701757907867432 -1.8189681768417358 0.45311951637268066 0 1
3.117021322250366 -1.68408203125 -1.8189343214035034 0.4531276822090149 0 1
3.1094141006469727 -1.6979296207427979 -1.818900465965271 0.4531366527080536 0 1
3.101738214492798 -1.711757779121399 -1.8188658952713013 0.4531456232070923 0 1
3.0940234661102295 -1.7255468368530273 -1.818831443786621 0.4531536400318146 0 1
3.086230516433716 -1.7393163442611694 -1.8187965154647827 0.4531615376472473 0 1
3.078378915786743 -1.753027319908142 -1.8187612295150757 0.4531712830066681 0 1
3.0704588890075684 -1.7667187452316284 -1.818725824356079 0.4531800150871277 0 1
3.062490224838257 -1.780371069908142 -1.8186901807785034 0.4531887173652649 0 1
3.054453134536743 -1.793984293937683 -1.818654179573059 0.4531974196434021 0 1
3.0463573932647705 -1.8075389862060547 -1.818617820739746 0.45320695638656616 0 1
3.0381932258605957 -1.82107412815094 -1.818581223487854 0.4532164931297302 0 1
1.5815625190734863 -0.9575976133346558 -0.9492400884628296 0.43307968974113464 2915 14
1.5838183164596558 -0.9686523079872131 -0.9531800746917725 0.4312906265258789 2915 14
1.5861327648162842 -0.9798046946525574 -0.9571830630302429 0.42948752641677856 2915 14
1.5884569883346558 -0.9910546541213989 -0.9612484574317932 0.42767030000686646 2915 14
1.5908300876617432 -1.00244140625 -0.9653787016868591 0.42584189772605896 2915 14
1.5932323932647705 -1.0139062404632568 -0.969573974609375 0.42399948835372925 2915 14
1.5956737995147705 -1.025488257408142 -0.9738358855247498 0.42214348912239075 2915 14
1.5981543064117432 -1.037207007408142 -0.9781652688980103 0.4202742278575897 2915 14
1.600673794746399 -1.0490233898162842 -0.982564389705658 0.4183914065361023 2915 14
1.6032421588897705 -1.0609569549560547 -0.9870328903198242 0.4164983034133911 2915 14
1.6058496236801147 -1.0730273723602295 -0.9915731549263 0.414591908454895 2915 14
1.6084765195846558 -1.0851953029632568 -0.9961858987808228 0.4126725196838379 2915 14
1.6111620664596558 -1.097499966621399 -1.0008734464645386 0.41073817014694214 2915 14
1.6138867139816284 -1.1099413633346558 -1.00563645362854 0.40879350900650024 2915 14
1.6166698932647705 -1.122499942779541 -1.0104753971099854 0.40683701634407043 2915 14
1.6194921731948853 -1.135195255279541 -1.0153942108154297 0.4048656225204468 2915 14
1.6223632097244263 -1.148046851158142 -1.0203927755355835 0.40288227796554565 2915 14
1.62527334690094 -1.1610156297683716 -1.0254724025726318 0.40088725090026855 2915 14
1.6282225847244263 -1.1741405725479126 -1.0306347608566284 0.3988787531852722 2915 14
1.6312304735183716 -1.1874217987060547 -1.0358823537826538 0.3968583941459656 2915 14
1.6342968940734863 -1.2008397579193115 -1.0412163734436035 0.39482468366622925 2915 14
1.6374120712280273 -1.2144140005111694 -1.0466387271881104 0.39277932047843933 2915 14
1.6405565738677979 -1.2281445264816284 -1.052150845527649 0.39072155952453613 2915 14
1.6437695026397705 -1.2420703172683716 -1.0577552318572998 0.3886522650718689 2915 14
1.6470409631729126 -1.2561132907867432 -1.0634536743164062 0.386568158864975 2915 14
1.6503515243530273 -1.2703319787979126 -1.0692470073699951 0.38447439670562744 2915 14
1.6537303924560547 -1.2847265005111694 -1.0751376152038574 0.38236793875694275 2915 14
1.6571776866912842 -1.2992968559265137 -1.0811290740966797 0.3802472949028015 2915 14
2.7759764194488525 -2.196523427963257 -1.8174020051956177 0.45351019501686096 0 1
2.7660839557647705 -2.2088475227355957 -1.8173574209213257 0.45352065563201904 0 1
2.7561328411102295 -2.2210936546325684 -1.817312479019165 0.45353227853775024 0 1
2.7461328506469727 -2.2333202362060547 -1.8172674179077148 0.45354315638542175 0 1
2.7360644340515137 -2.2455077171325684 -1.8172221183776855 0.45355477929115295 0 1
2.716318368911743 -2.249628782272339 -1.8107463121414185 0.568537175655365 0 2
2.6918163299560547 -2.2496678829193115 -1.8010914325714111 0.5715845227241516 0 2
2.6675779819488525 -2.2497265338897705 -1.7915747165679932 0.574623703956604 0 2
2.643613338470459 -2.249765634536743 -1.7821928262710571 0.5776483416557312 0 2
2.619873046875 -2.249804735183716 -1.772943377494812 0.5806623101234436 0 2
2.596376895904541 -2.2498435974121094 -1.7638239860534668 0.5836648941040039 0 2
2.573134660720825 -2.2498631477355957 -1.754833459854126 0.5866514444351196 0 2
2.550107479095459 -2.2499022483825684 -1.7459697723388672 0.5896307826042175 0 2
2.5273241996765137 -2.249941349029541 -1.737228512763977 0.5925983786582947 0 2
2.5067968368530273 -2.251757860183716 -1.7299810647964478 0.7466615438461304 0 2
2.488466739654541 -2.2554686069488525 -1.7242730855941772 0.7491356134414673 0 2
2.4702343940734863 -2.259101629257202 -1.7186245918273926 0.751598596572876 0 2
2.452158212661743 -2.2627344131469727 -1.7130367755889893 0.7540491819381714 0 2
1.403222680091858 -1.3065234422683716 -0.9843510389328003 0.018030673265457153 2915 14
1.3432226181030273 -1.2618944644927979 -0.9462020397186279 0.3214628994464874 2915 14
1.3353612422943115 -1.2657811641693115 -0.9446401596069336 0.3219950199127197 2915 14
1.3275097608566284 -1.269628882408142 -0.9430760145187378 0.32252854108810425 2915 14
1.3196288347244263 -1.2734179496765137 -0.9415099620819092 0.32306548953056335 2915 14
1.3117382526397705 -1.2771679162979126 -0.93994140625 0.32360386848449707 2915 14
1.303857445716858 -1.280859351158142 -0.9383714199066162 0.3241458535194397 2915 14
1.2959471940994263 -1.284511685371399 -0.9367992877960205 0.32468944787979126 2915 14
2.4757421016693115 2.4756834506988525 -1.8157882690429688 0.45753929018974304 0 1
2.4868359565734863 2.4646873474121094 -1.8158395290374756 0.4575263559818268 0 1
2.497880697250366 2.45361328125 -1.8158904314041138 0.4575140178203583 0 1
2.5088768005371094 2.442519426345825 -1.8159410953521729 0.45750167965888977 0 1
2.519824266433716 2.4313671588897705 -1.8159918785095215 0.4574892818927765 0 1
2.530712842941284 2.420156240463257 -1.8160423040390015 0.4574768543243408 0 1
2.541562557220459 2.408925771713257 -1.8160924911499023 0.4574629068374634 0 1
2.5523533821105957 2.397597551345825 -1.816142201423645 0.457451730966568 0 1
2.563105344772339 2.3862695693969727 -1.8161920309066772 0.4574376940727234 0 1
2.573789119720459 2.374882698059082 -1.8162413835525513 0.45742571353912354 0 1
2.5844335556030273 2.363417863845825 -1.8162907361984253 0.4574136435985565 0 1
2.595029354095459 2.351933479309082 -1.8163398504257202 0.4574008285999298 0 1
2.6055662631988525 2.340409994125366 -1.816388487815857 0.4573880732059479 0 1
2.6160545349121094 2.328808546066284 -1.816437005996704 0.4573758840560913 0 1
2.6264843940734863 2.3171679973602295 -1.8164854049682617 0.4573650062084198 0 1
2.6368749141693115 2.305488348007202 -1.8165334463119507 0.4573526978492737 0 1
2.647207021713257 2.293750047683716 -1.81658136844635 0.45734038949012756 0 1
2.6574902534484863 2.281972646713257 -1.8166289329528809 0.4573286175727844 0 1
2.667714834213257 2.270156145095825 -1.8166762590408325 0.45731690526008606 0 1
2.6778905391693115 2.2582812309265137 -1.8167234659194946 0.457304447889328 0 1
2.6880078315734863 2.2463672161102295 -1.816770315170288 0.4572933316230774 0 1
2.698076009750366 2.2344141006469727 -1.8168169260025024 0.4572814702987671 0 1
2.7080955505371094 2.222402334213257 -1.8168634176254272 0.45726892352104187 0 1
2.7180566787719727 2.2103514671325684 -1.8169094324111938 0.4572576582431793 0 1
2.727958917617798 2.1982617378234863 -1.816955327987671 0.45724642276763916 0 1
2.7378125190734863 2.1861326694488525 -1.8170009851455688 0.4572345018386841 0 1
2.747617244720459 2.1739256381988525 -1.8170465230941772 0.4572230577468872 0 1
2.7573437690734863 2.161699056625366 -1.8170915842056274 0.4572124779224396 0 1
2.767040967941284 2.1494336128234863 -1.817136526107788 0.45720043778419495 0 1
2.77666974067688 2.1371092796325684 -1.8171812295913696 0.4571891725063324 0 1
2.786249876022339 2.124746084213257 -1.8172255754470825 0.4571784436702728 0 1
2.795771360397339 2.1123437881469727 -1.8172698020935059 0.45716774463653564 0 1
2.805243968963623 2.099902391433716 -1.81731379032135 0.45715636014938354 0 1
2.814648389816284 2.0874218940734863 -1.8173574209213257 0.45714500546455383 0 1
2.8240039348602295 2.074882745742798 -1.8174008131027222 0.4571337103843689 0 1
2.83331036567688 2.062304735183716 -1.8174439668655396 0.4571228623390198 0 1
2.8425488471984863 2.049687385559082 -1.8174868822097778 0.4571129381656647 0 1
2.8517284393310547 2.0370311737060547 -1.817529559135437 0.4571022391319275 0 1
2.8608593940734863 2.0243358612060547 -1.817571997642517 0.45709162950515747 0 1
2.86993145942688 2.0115818977355957 -1.817613959312439 0.457081139087677 0 1
2.878955125808716 1.99880850315094 -1.8176559209823608 0.45706984400749207 0 1
2.8879003524780273 1.9859960079193115 -1.8176974058151245 0.45705950260162354 0 1
2.896806478500366 1.9731249809265137 -1.8177387714385986 0.4570494592189789 0 1
2.905654191970825 1.96023428440094 -1.8177798986434937 0.4570384621620178 0 1
2.914423704147339 1.947304606437683 -1.81782066822052 0.4570283591747284 0 1
2.92315411567688 1.9343163967132568 -1.8178613185882568 0.45701858401298523 0 1
2.931826114654541 1.9212695360183716 -1.817901611328125 0.4570089280605316 0 1
2.9404296875 1.9082225561141968 -1.8179415464401245 0.45699819922447205 0 1
2.948984384536743 1.895117163658142 -1.8179813623428345 0.456988662481308 0 1
2.9574804306030273 1.8819921016693115 -1.8180209398269653 0.45697811245918274 0 1
2.9659080505371094 1.8688085079193115 -1.8180601596832275 0.456968754529953 0 1
2.9742870330810547 1.8556054830551147 -1.818099021911621 0.4569583535194397 0 1
0.7143652439117432 0.44126951694488525 -0.4354763627052307 0.35226842761039734 2915 14
0.7160351276397705 0.43791013956069946 -0.4353042542934418 0.3524094223976135 2915 14
0.7176952958106995 0.43453124165534973 -0.4351302981376648 0.35254719853401184 2915 14
0.7193456888198853 0.43115234375 -0.43495360016822815 0.35268938541412354 2915 14
0.7209667563438416 0.42775389552116394 -0.4347744584083557 0.3528366684913635 2915 14
0.7225585579872131 0.4243749976158142 -0.43459272384643555 0.352981835603714 2915 14
0.7241405844688416 0.4209570288658142 -0.43440887331962585 0.35313379764556885 2915 14
0.7256933450698853 0.4175390601158142 -0.4342226982116699 0.3532840311527252 2915 14
0.7272363305091858 0.4141210913658142 -0.43403440713882446 0.353435754776001 2915 14
0.7287499904632568 0.4106835722923279 -0.43384307622909546 0.35359543561935425 2915 14
0.7302538752555847 0.40724608302116394 -0.4336497485637665 0.3537517189979553 2915 14
0.731738269329071 0.40380859375 -0.4334542751312256 0.3539118468761444 2915 14
0.7331933379173279 0.40035155415534973 -0.4332559108734131 0.3540714383125305 2915 14
0.7346289157867432 0.39689451456069946 -0.43305572867393494 0.35423630475997925 2915 14
0.7360546588897705 0.39341795444488525 -0.4328530728816986 0.3544023633003235 2915 14
0.7374511361122131 0.389960914850235 -0.4326481521129608 0.35456719994544983 2915 14
0.7388281226158142 0.3864843547344208 -0.4324410855770111 0.35473716259002686 2915 14
0.740185558795929 0.3829882740974426 -0.43223142623901367 0.3549119234085083 2915 14
0.7415331602096558 0.3794921934604645 -0.43201950192451477 0.3550856113433838 2915 14
0.7428515553474426 0.37599608302116394 -0.43180572986602783 0.3552609086036682 2915 14
0.7441504001617432 0.37248045206069946 -0.43158918619155884 0.35544100403785706 2915 14
0.7454296946525574 0.3689843714237213 -0.4313705265522003 0.35562020540237427 2915 14
0.7466894388198853 0.36546874046325684 -0.4311498999595642 0.3558008670806885 2915 14
0.7479199171066284 0.36195310950279236 -0.4309267997741699 0.3559854030609131 2915 14
0.7491406202316284 0.3583984375 -0.4307015836238861 0.356171190738678 2915 14
0.7503319978713989 0.3548632860183716 -0.43047454953193665 0.3563613295555115 2915 14
0.7515038847923279 0.3513281047344208 -0.4302453398704529 0.3565519154071808 2915 14
0.7526562213897705 0.34779295325279236 -0.4300132691860199 0.35674259066581726 2915 14
0.7537890672683716 0.34423828125 -0.4297793507575989 0.3569384217262268 2915 14
0.7549023032188416 0.34068357944488525 -0.4295434355735779 0.35713475942611694 2915 14
0.75599604845047 0.33710935711860657 -0.4293055534362793 0.3573317527770996 2915 14
0.7570703029632568 0.3335546851158142 -0.4290652275085449 0.3575289845466614 2915 14
0.7581250071525574 0.3299804627895355 -0.42882293462753296 0.35773515701293945 2915 14
0.7591601610183716 0.3264257609844208 -0.4285784959793091 0.3579336106777191 2915 14
0.7601659893989563 0.3228515684604645 -0.42833220958709717 0.3581412434577942 2915 14
0.7611523270606995 0.31925779581069946 -0.4280833303928375 0.3583539128303528 2915 14
0.7621484398841858 0.3156835734844208 -0.4278329312801361 0.35855892300605774 2915 14
0.7630956768989563 0.31208983063697815 -0.42758023738861084 0.358772873878479 2915 14
0.7640234231948853 0.3084960877895355 -0.4273257255554199 0.3589833080768585 2915 14
0.7649316191673279 0.3049023449420929 -0.42706891894340515 0.359198659658432 2915 14
0.7658105492591858 0.30128905177116394 -0.42681029438972473 0.3594233989715576 2915 14
0.7666796445846558 0.2976953089237213 -0.42654937505722046 0.35964030027389526 2915 14
0.767529308795929 0.2941015660762787 -0.42628660798072815 0.3598583936691284 2915 14
0.7683495879173279 0.29048827290534973 -0.4260220229625702 0.360085666179657 2915 14
0.7691601514816284 0.2868749797344208 -0.4257556200027466 0.3603098690509796 2915 14
0.7699511647224426 0.2832617163658142 -0.42548704147338867 0.3605388402938843 2915 14
0.7707128524780273 0.27964842319488525 -0.4252166748046875 0.3607688248157501 2915 14
0.7714648246765137 0.27601560950279236 -0.424944132566452 0.3609958291053772 2915 14
0.7721874713897705 0.2724023461341858 -0.42467010021209717 0.36122816801071167 2915 14
0.7728906273841858 0.2687695324420929 -0.4243939220905304 0.3614656329154968 2915 14
0.77357417345047 0.26515623927116394 -0.4241155982017517 0.3616996705532074 2915 14
0.7742285132408142 0.26152342557907104 -0.423836350440979 0.36194372177124023 2915 14
0.7748925685882568 0.25789061188697815 -0.42355436086654663 0.3621843755245209 2915 14
0.7755175828933716 0.25425779819488525 -0.4232708513736725 0.3624263405799866 2915 14
0.7761132717132568 0.25062498450279236 -0.4229855239391327 0.3626735806465149 2915 14
0.7766991853713989 0.2470117062330246 -0.42269864678382874 0.36291414499282837 2915 14
0.7772558331489563 0.24335937201976776 -0.42240965366363525 0.36316806077957153 2915 14
0.7778027057647705 0.23972655832767487 -0.42211851477622986 0.3634149432182312 2915 14
0.7783203125 0.23609374463558197 -0.42182615399360657 0.3636675775051117 2915 14
0.7788183689117432 0.23244139552116394 -0.4215322732925415 0.36392173171043396 2915 14
0.7793163657188416 0.22880858182907104 -0.4212362468242645 0.364173024892807 2915 14
0.7794042825698853 0.22505858540534973 -0.4207421839237213 0.43662646412849426 2915 14
0.7793554663658142 0.22128905355930328 -0.4201766848564148 0.43720921874046326 2915 14
0.7792773246765137 0.2175000011920929 -0.4196121096611023 0.43780431151390076 2915 14
0.7792089581489563 0.2137499898672104 -0.41904905438423157 0.4383884072303772 2915 14
0.7791113257408142 0.20998045802116394 -0.41848722100257874 0.43897712230682373 2915 14
0.7794433236122131 0.20634764432907104 -0.4181661903858185 0.45896562933921814 2915 14
0.7798046469688416 0.20271484553813934 -0.4178726077079773 0.45929113030433655 2915 14
