ply
format ascii 1.0
element vertex 1400
property float32 x
property float32 y
property float32 z
property float32 CosAngle
property uint32 ObjIdx
property uint32 ObjTag
end_header
1.6023 0.9139 -0.9853 0.4304 458 14
1.6034 0.9193 -0.9873 0.4295 458 14
1.6045 0.9248 -0.9893 0.4287 458 14
1.6057 0.9302 -0.9913 0.4278 458 14
1.6068 0.9357 -0.9933 0.4270 458 14
1.6080 0.9412 -0.9953 0.4261 458 14
1.6091 0.9468 -0.9973 0.4252 458 14
1.6103 0.9523 -0.9994 0.4244 458 14
1.6115 0.9579 -1.0014 0.4235 458 14
1.6127 0.9636 -1.0035 0.4226 458 14
1.6139 0.9692 -1.0056 0.4217 458 14
1.6151 0.9749 -1.0077 0.4208 458 14
1.6163 0.9805 -1.0099 0.4199 458 14
1.6176 0.9863 -1.0120 0.4191 458 14
1.6188 0.9920 -1.0142 0.4182 458 14
1.6201 0.9978 -1.0164 0.4173 458 14
1.6213 1.0036 -1.0186 0.4164 458 14
1.6226 1.0094 -1.0208 0.4155 458 14
1.6239 1.0153 -1.0230 0.4145 458 14
1.6252 1.0212 -1.0253 0.4136 458 14
1.6265 1.0271 -1.0276 0.4127 458 14
1.6278 1.0330 -1.0299 0.4118 458 14
1.6291 1.0390 -1.0322 0.4109 458 14
1.6304 1.0450 -1.0345 0.4100 458 14
1.6318 1.0511 -1.0368 0.4090 458 14
1.6331 1.0571 -1.0392 0.4081 458 14
1.6345 1.0632 -1.0416 0.4072 458 14
1.6359 1.0694 -1.0440 0.4062 458 14
1.6373 1.0755 -1.0464 0.4053 458 14
1.6387 1.0817 -1.0489 0.4043 458 14
1.6401 1.0879 -1.0513 0.4034 458 14
1.6415 1.0942 -1.0538 0.4024 458 14
1.6429 1.1005 -1.0563 0.4015 458 14
1.6444 1.1068 -1.0588 0.4005 458 14
1.6459 1.1131 -1.0614 0.3996 458 14
1.6473 1.1195 -1.0640 0.3986 458 14
1.6488 1.1260 -1.0665 0.3976 458 14
1.6503 1.1324 -1.0691 0.3967 458 14
1.6518 1.1389 -1.0718 0.3957 458 14
1.6533 1.1454 -1.0744 0.3947 458 14
1.6549 1.1520 -1.0771 0.3937 458 14
1.6564 1.1586 -1.0798 0.3928 458 14
1.6580 1.1653 -1.0825 0.3918 458 14
1.6596 1.1719 -1.0853 0.3908 458 14
1.6611 1.1787 -1.0880 0.3898 458 14
1.6627 1.1854 -1.0908 0.3888 458 14
1.6643 1.1922 -1.0936 0.3878 458 14
1.6659 1.1990 -1.0964 0.3868 458 14
1.6676 1.2059 -1.0993 0.3858 458 14
1.6693 1.2128 -1.1022 0.3848 458 14
1.6709 1.2197 -1.1051 0.3838 458 14
1.6726 1.2267 -1.1080 0.3827 458 14
1.6743 1.2337 -1.1110 0.3817 458 14
1.6760 1.2408 -1.1139 0.3807 458 14
1.6777 1.2479 -1.1169 0.3797 458 14
1.6794 1.2551 -1.1200 0.3787 458 14
1.6812 1.2623 -1.1230 0.3776 458 14
1.6830 1.2695 -1.1261 0.3766 458 14
1.6847 1.2768 -1.1292 0.3756 458 14
1.6865 1.2841 -1.1323 0.3745 458 14
1.6868 1.2904 -1.1345 0.6482 458 14
1.6871 1.2965 -1.1366 0.6470 458 14
1.6873 1.3027 -1.1387 0.6458 458 14
2.6783 2.0775 -1.8107 0.4695 0 1
2.6736 2.0835 -1.8107 0.4695 0 1
2.6689 2.0895 -1.8107 0.4695 0 1
2.6642 2.0955 -1.8106 0.4695 0 1
2.6595 2.1014 -1.8106 0.4695 0 1
2.6548 2.1074 -1.8106 0.4695 0 1
2.6500 2.1133 -1.8106 0.4695 0 1
2.6452 2.1193 -1.8106 0.4695 0 1
2.6405 2.1252 -1.8106 0.4695 0 1
2.6357 2.1311 -1.8106 0.4695 0 1
2.6309 2.1370 -1.8106 0.4695 0 1
2.6261 2.1429 -1.8105 0.4695 0 1
2.6212 2.1487 -1.8105 0.4695 0 1
2.6164 2.1546 -1.8105 0.4695 0 1
2.6115 2.1604 -1.8105 0.4695 0 1
2.6067 2.1663 -1.8105 0.4695 0 1
2.6018 2.1721 -1.8105 0.4695 0 1
2.5969 2.1779 -1.8105 0.4695 0 1
2.5920 2.1837 -1.8105 0.4695 0 1
1.4772 1.2503 -1.0338 0.0177 458 14
1.4175 1.2052 -0.9939 0.0184 458 14
1.3620 1.1633 -0.9568 0.0191 458 14
1.3448 1.1538 -0.9465 0.3315 458 14
1.3412 1.1559 -0.9458 0.3318 458 14
1.3375 1.1580 -0.9451 0.3320 458 14
1.3339 1.1602 -0.9443 0.3323 458 14
1.3303 1.1623 -0.9436 0.3325 458 14
1.3267 1.1644 -0.9429 0.3328 458 14
1.3230 1.1664 -0.9422 0.3330 458 14
1.3194 1.1685 -0.9415 0.3333 458 14
1.3158 1.1705 -0.9407 0.3336 458 14
1.3121 1.1726 -0.9400 0.3338 458 14
1.3085 1.1746 -0.9393 0.3341 458 14
1.3048 1.1767 -0.9386 0.3343 458 14
1.3012 1.1787 -0.9378 0.3346 458 14
1.2975 1.1807 -0.9371 0.3348 458 14
1.2939 1.1827 -0.9364 0.3351 458 14
1.2902 1.1846 -0.9357 0.3354 458 14
1.2865 1.1866 -0.9349 0.3356 458 14
1.2829 1.1886 -0.9342 0.3359 458 14
1.2792 1.1905 -0.9335 0.3361 458 14
1.2755 1.1924 -0.9327 0.3364 458 14
1.2719 1.1944 -0.9320 0.3367 458 14
1.2682 1.1963 -0.9313 0.3369 458 14
1.2645 1.1982 -0.9305 0.3372 458 14
1.2608 1.2001 -0.9298 0.3375 458 14
1.2571 1.2019 -0.9291 0.3377 458 14
1.2534 1.2038 -0.9283 0.3380 458 14
1.2497 1.2057 -0.9276 0.3383 458 14
1.2460 1.2075 -0.9269 0.3385 458 14
1.2423 1.2093 -0.9261 0.3388 458 14
1.2386 1.2112 -0.9254 0.3391 458 14
1.2349 1.2130 -0.9247 0.3393 458 14
1.2312 1.2148 -0.9239 0.3396 458 14
1.2275 1.2166 -0.9232 0.3399 458 14
1.2238 1.2183 -0.9224 0.3402 458 14
2.3490 -2.3489 -1.8099 0.4769 0 1
2.3542 -2.3436 -1.8099 0.4769 0 1
2.3595 -2.3383 -1.8099 0.4769 0 1
2.3648 -2.3331 -1.8099 0.4769 0 1
2.3700 -2.3278 -1.8099 0.4769 0 1
2.3752 -2.3224 -1.8099 0.4769 0 1
2.3805 -2.3171 -1.8099 0.4769 0 1
2.3857 -2.3118 -1.8100 0.4769 0 1
2.3909 -2.3065 -1.8100 0.4769 0 1
2.3961 -2.3011 -1.8100 0.4769 0 1
2.4012 -2.2957 -1.8100 0.4769 0 1
2.4064 -2.2904 -1.8100 0.4769 0 1
2.4115 -2.2850 -1.8100 0.4769 0 1
2.4167 -2.2796 -1.8100 0.4769 0 1
2.4218 -2.2742 -1.8100 0.4769 0 1
2.4269 -2.2687 -1.8101 0.4769 0 1
2.4320 -2.2633 -1.8101 0.4769 0 1
2.4371 -2.2579 -1.8101 0.4769 0 1
2.4422 -2.2524 -1.8101 0.4769 0 1
2.4473 -2.2469 -1.8101 0.4768 0 1
2.4523 -2.2414 -1.8101 0.4768 0 1
2.4574 -2.2359 -1.8101 0.4768 0 1
2.4624 -2.2304 -1.8101 0.4768 0 1
2.4674 -2.2249 -1.8102 0.4768 0 1
2.4724 -2.2194 -1.8102 0.4768 0 1
2.4774 -2.2138 -1.8102 0.4768 0 1
2.4824 -2.2083 -1.8102 0.4768 0 1
2.4873 -2.2028 -1.8102 0.4768 0 1
2.4923 -2.1972 -1.8102 0.4768 0 1
2.4972 -2.1916 -1.8102 0.4768 0 1
2.5022 -2.1860 -1.8102 0.4768 0 1
2.5071 -2.1804 -1.8103 0.4768 0 1
2.5120 -2.1748 -1.8103 0.4768 0 1
2.5169 -2.1691 -1.8103 0.4768 0 1
2.5217 -2.1635 -1.8103 0.4768 0 1
2.5266 -2.1579 -1.8103 0.4768 0 1
2.5315 -2.1522 -1.8103 0.4768 0 1
2.5363 -2.1465 -1.8103 0.4768 0 1
2.5411 -2.1408 -1.8103 0.4768 0 1
2.5459 -2.1351 -1.8104 0.4768 0 1
2.5507 -2.1294 -1.8104 0.4768 0 1
2.5555 -2.1237 -1.8104 0.4768 0 1
2.5603 -2.1180 -1.8104 0.4768 0 1
2.5651 -2.1123 -1.8104 0.4768 0 1
2.5698 -2.1065 -1.8104 0.4768 0 1
2.5746 -2.1007 -1.8104 0.4768 0 1
2.5793 -2.0950 -1.8104 0.4768 0 1
2.5840 -2.0892 -1.8104 0.4768 0 1
2.5887 -2.0834 -1.8105 0.4768 0 1
2.5934 -2.0776 -1.8105 0.4768 0 1
2.5980 -2.0718 -1.8105 0.4768 0 1
2.6027 -2.0660 -1.8105 0.4767 0 1
2.6074 -2.0602 -1.8105 0.4767 0 1
2.6120 -2.0543 -1.8105 0.4767 0 1
2.6166 -2.0484 -1.8105 0.4767 0 1
2.6212 -2.0426 -1.8105 0.4767 0 1
2.6258 -2.0367 -1.8105 0.4767 0 1
2.6304 -2.0308 -1.8106 0.4767 0 1
2.6350 -2.0249 -1.8106 0.4767 0 1
2.6395 -2.0190 -1.8106 0.4767 0 1
2.6441 -2.0131 -1.8106 0.4767 0 1
2.6486 -2.0072 -1.8106 0.4767 0 1
2.6531 -2.0013 -1.8106 0.4767 0 1
2.6576 -1.9953 -1.8106 0.4767 0 1
2.6621 -1.9894 -1.8106 0.4767 0 1
2.6666 -1.9834 -1.8106 0.4767 0 1
2.6710 -1.9774 -1.8107 0.4767 0 1
2.6755 -1.9714 -1.8107 0.4767 0 1
2.6799 -1.9654 -1.8107 0.4767 0 1
2.6843 -1.9594 -1.8107 0.4767 0 1
2.6887 -1.9534 -1.8107 0.4767 0 1
2.6931 -1.9474 -1.8107 0.4767 0 1
2.6975 -1.9413 -1.8107 0.4767 0 1
2.7019 -1.9353 -1.8107 0.4767 0 1
2.7062 -1.9292 -1.8107 0.4767 0 1
2.7105 -1.9231 -1.8108 0.4767 0 1
2.7149 -1.9171 -1.8108 0.4767 0 1
2.7192 -1.9110 -1.8108 0.4767 0 1
2.7235 -1.9049 -1.8108 0.4767 0 1
2.7278 -1.8988 -1.8108 0.4767 0 1
2.7320 -1.8927 -1.8108 0.4767 0 1
2.7363 -1.8865 -1.8108 0.4767 0 1
2.7405 -1.8804 -1.8108 0.4767 0 1
2.7448 -1.8743 -1.8108 0.4767 0 1
2.7490 -1.8681 -1.8108 0.4767 0 1
2.7532 -1.8620 -1.8109 0.4767 0 1
2.7574 -1.8558 -1.8109 0.4766 0 1
2.7615 -1.8496 -1.8109 0.4766 0 1
2.7657 -1.8434 -1.8109 0.4766 0 1
2.7698 -1.8372 -1.8109 0.4766 0 1
2.7740 -1.8310 -1.8109 0.4766 0 1
2.7781 -1.8248 -1.8109 0.4766 0 1
2.7822 -1.8186 -1.8109 0.4766 0 1
2.7863 -1.8123 -1.8109 0.4766 0 1
2.7904 -1.8061 -1.8109 0.4766 0 1
2.7944 -1.7998 -1.8110 0.4766 0 1
2.7985 -1.7936 -1.8110 0.4766 0 1
2.8025 -1.7873 -1.8110 0.4766 0 1
2.8065 -1.7810 -1.8110 0.4766 0 1
2.8105 -1.7747 -1.8110 0.4766 0 1
2.8145 -1.7684 -1.8110 0.4766 0 1
2.8185 -1.7621 -1.8110 0.4766 0 1
2.8225 -1.7558 -1.8110 0.4766 0 1
2.8264 -1.7495 -1.8110 0.4766 0 1
2.8303 -1.7431 -1.8110 0.4766 0 1
2.8342 -1.7368 -1.8111 0.4766 0 1
2.8382 -1.7304 -1.8111 0.4766 0 1
2.8421 -1.7240 -1.8111 0.4766 0 1
2.8459 -1.7177 -1.8111 0.4766 0 1
2.8498 -1.7113 -1.8111 0.4766 0 1
2.8536 -1.7049 -1.8111 0.4766 0 1
2.8575 -1.6985 -1.8111 0.4766 0 1
2.8613 -1.6921 -1.8111 0.4766 0 1
2.8651 -1.6857 -1.8111 0.4766 0 1
2.8689 -1.6792 -1.8111 0.4766 0 1
2.8727 -1.6728 -1.8111 0.4766 0 1
2.8764 -1.6664 -1.8112 0.4766 0 1
2.8802 -1.6599 -1.8112 0.4766 0 1
2.8839 -1.6535 -1.8112 0.4766 0 1
2.8876 -1.6470 -1.8112 0.4766 0 1
2.8913 -1.6405 -1.8112 0.4766 0 1
2.8950 -1.6340 -1.8112 0.4766 0 1
2.8987 -1.6275 -1.8112 0.4766 0 1
2.9023 -1.6210 -1.8112 0.4766 0 1
2.9060 -1.6145 -1.8112 0.4766 0 1
2.9096 -1.6080 -1.8112 0.4766 0 1
2.9132 -1.6015 -1.8112 0.4765 0 1
2.9168 -1.5950 -1.8113 0.4765 0 1
2.9204 -1.5884 -1.8113 0.4765 0 1
2.9240 -1.5819 -1.8113 0.4765 0 1
2.9275 -1.5753 -1.8113 0.4765 0 1
2.9311 -1.5687 -1.8113 0.4765 0 1
2.9346 -1.5621 -1.8113 0.4765 0 1
2.9381 -1.5556 -1.8113 0.4765 0 1
2.9416 -1.5490 -1.8113 0.4765 0 1
2.9451 -1.5424 -1.8113 0.4765 0 1
2.9486 -1.5358 -1.8113 0.4765 0 1
2.9520 -1.5292 -1.8113 0.4765 0 1
2.9555 -1.5225 -1.8113 0.4765 0 1
2.9589 -1.5159 -1.8114 0.4765 0 1
1.5973 -0.8139 -0.9767 0.4409 458 14
1.5963 -0.8089 -0.9750 0.4417 458 14
1.5954 -0.8039 -0.9733 0.4424 458 14
1.5944 -0.7989 -0.9716 0.4432 458 14
1.5935 -0.7940 -0.9700 0.4440 458 14
1.5925 -0.7890 -0.9683 0.4447 458 14
1.5916 -0.7841 -0.9667 0.4455 458 14
1.5906 -0.7792 -0.9650 0.4462 458 14
1.5897 -0.7744 -0.9634 0.4470 458 14
1.5888 -0.7695 -0.9618 0.4477 458 14
1.5879 -0.7647 -0.9602 0.4485 458 14
1.5870 -0.7598 -0.9586 0.4492 458 14
1.5861 -0.7550 -0.9570 0.4499 458 14
1.5852 -0.7503 -0.9555 0.4507 458 14
1.5843 -0.7455 -0.9539 0.4514 458 14
1.5834 -0.7408 -0.9524 0.4521 458 14
1.5825 -0.7360 -0.9509 0.4529 458 14
1.5817 -0.7313 -0.9494 0.4536 458 14
1.5808 -0.7266 -0.9479 0.4543 458 14
1.5800 -0.7219 -0.9464 0.4550 458 14
3.0273 -1.3750 -1.8115 0.4765 0 1
3.0304 -1.3682 -1.8115 0.4765 0 1
3.0335 -1.3614 -1.8115 0.4765 0 1
3.0365 -1.3546 -1.8115 0.4765 0 1
3.0396 -1.3478 -1.8116 0.4765 0 1
3.0426 -1.3410 -1.8116 0.4765 0 1
3.0456 -1.3341 -1.8116 0.4765 0 1
3.0486 -1.3273 -1.8116 0.4765 0 1
3.0516 -1.3204 -1.8116 0.4765 0 1
3.0546 -1.3136 -1.8116 0.4765 0 1
3.0575 -1.3068 -1.8116 0.4765 0 1
3.0604 -1.2999 -1.8116 0.4765 0 1
3.0634 -1.2930 -1.8116 0.4765 0 1
3.0663 -1.2862 -1.8116 0.4765 0 1
3.0692 -1.2793 -1.8116 0.4764 0 1
3.0720 -1.2724 -1.8116 0.4764 0 1
3.0749 -1.2655 -1.8116 0.4764 0 1
3.0777 -1.2586 -1.8116 0.4764 0 1
3.0806 -1.2517 -1.8117 0.4764 0 1
3.0834 -1.2448 -1.8117 0.4764 0 1
3.0862 -1.2379 -1.8117 0.4764 0 1
3.0890 -1.2310 -1.8117 0.4764 0 1
3.0917 -1.2240 -1.8117 0.4764 0 1
3.0945 -1.2171 -1.8117 0.4764 0 1
3.0972 -1.2101 -1.8117 0.4764 0 1
3.0999 -1.2032 -1.8117 0.4764 0 1
3.1026 -1.1963 -1.8117 0.4764 0 1
3.1053 -1.1894 -1.8117 0.4764 0 1
3.1080 -1.1824 -1.8117 0.4764 0 1
3.1107 -1.1754 -1.8117 0.4764 0 1
3.1133 -1.1684 -1.8117 0.4764 0 1
3.1159 -1.1615 -1.8117 0.4764 0 1
3.1185 -1.1545 -1.8117 0.4764 0 1
3.1211 -1.1475 -1.8118 0.4764 0 1
3.1237 -1.1405 -1.8118 0.4764 0 1
3.1263 -1.1335 -1.8118 0.4764 0 1
3.1288 -1.1264 -1.8118 0.4764 0 1
3.1313 -1.1194 -1.8118 0.4764 0 1
3.1338 -1.1124 -1.8118 0.4764 0 1
3.1363 -1.1054 -1.8118 0.4764 0 1
3.1388 -1.0983 -1.8118 0.4764 0 1
3.1413 -1.0913 -1.8118 0.4764 0 1
3.1437 -1.0842 -1.8118 0.4764 0 1
3.1462 -1.0772 -1.8118 0.4764 0 1
3.1486 -1.0701 -1.8118 0.4764 0 1
3.1510 -1.0630 -1.8118 0.4764 0 1
3.1534 -1.0560 -1.8118 0.4764 0 1
3.1558 -1.0489 -1.8118 0.4764 0 1
3.1581 -1.0418 -1.8118 0.4764 0 1
3.1605 -1.0347 -1.8118 0.4764 0 1
3.1628 -1.0277 -1.8119 0.4764 0 1
3.1651 -1.0205 -1.8119 0.4764 0 1
3.1674 -1.0135 -1.8119 0.4764 0 1
3.1697 -1.0063 -1.8119 0.4764 0 1
3.1719 -0.9992 -1.8119 0.4764 0 1
3.1742 -0.9921 -1.8119 0.4764 0 1
3.1764 -0.9850 -1.8119 0.4764 0 1
3.1786 -0.9779 -1.8119 0.4764 0 1
3.1808 -0.9707 -1.8119 0.4764 0 1
3.1830 -0.9636 -1.8119 0.4764 0 1
3.1851 -0.9565 -1.8119 0.4764 0 1
3.1873 -0.9493 -1.8119 0.4764 0 1
3.1894 -0.9421 -1.8119 0.4764 0 1
3.1915 -0.9350 -1.8119 0.4764 0 1
3.1936 -0.9278 -1.8119 0.4764 0 1
3.1957 -0.9207 -1.8119 0.4764 0 1
3.1978 -0.9135 -1.8119 0.4764 0 1
3.1998 -0.9063 -1.8119 0.4764 0 1
3.2019 -0.8991 -1.8120 0.4764 0 1
3.2039 -0.8920 -1.8120 0.4764 0 1
3.2059 -0.8848 -1.8120 0.4764 0 1
3.2079 -0.8776 -1.8120 0.4764 0 1
3.2099 -0.8704 -1.8120 0.4764 0 1
3.2118 -0.8632 -1.8120 0.4764 0 1
3.2137 -0.8560 -1.8120 0.4764 0 1
3.2157 -0.8487 -1.8120 0.4764 0 1
3.2176 -0.8415 -1.8120 0.4764 0 1
3.2195 -0.8343 -1.8120 0.4764 0 1
3.2213 -0.8271 -1.8120 0.4764 0 1
3.2232 -0.8199 -1.8120 0.4764 0 1
3.2250 -0.8126 -1.8120 0.4763 0 1
3.2268 -0.8054 -1.8120 0.4763 0 1
3.2287 -0.7982 -1.8120 0.4763 0 1
3.2304 -0.7909 -1.8120 0.4763 0 1
3.2322 -0.7837 -1.8120 0.4763 0 1
3.2340 -0.7764 -1.8120 0.4763 0 1
3.2357 -0.7692 -1.8120 0.4763 0 1
3.2374 -0.7619 -1.8120 0.4763 0 1
3.2392 -0.7546 -1.8120 0.4763 0 1
3.2408 -0.7473 -1.8120 0.4763 0 1
3.2425 -0.7401 -1.8120 0.4763 0 1
3.2442 -0.7328 -1.8121 0.4763 0 1
3.2458 -0.7255 -1.8121 0.4763 0 1
3.2475 -0.7182 -1.8121 0.4763 0 1
3.2491 -0.7110 -1.8121 0.4763 0 1
3.2507 -0.7037 -1.8121 0.4763 0 1
3.2522 -0.6964 -1.8121 0.4763 0 1
3.2538 -0.6891 -1.8121 0.4763 0 1
3.2553 -0.6818 -1.8121 0.4763 0 1
3.2569 -0.6745 -1.8121 0.4763 0 1
3.2584 -0.6672 -1.8121 0.4763 0 1
3.2599 -0.6599 -1.8121 0.4763 0 1
3.2614 -0.6525 -1.8121 0.4763 0 1
3.2628 -0.6452 -1.8121 0.4763 0 1
3.2643 -0.6379 -1.8121 0.4763 0 1
3.2657 -0.6306 -1.8121 0.4763 0 1
3.2671 -0.6232 -1.8121 0.4763 0 1
3.2685 -0.6159 -1.8121 0.4763 0 1
3.2699 -0.6086 -1.8121 0.4763 0 1
3.2712 -0.6012 -1.8121 0.4763 0 1
3.2726 -0.5939 -1.8121 0.4763 0 1
3.2739 -0.5865 -1.8121 0.4763 0 1
3.2752 -0.5792 -1.8121 0.4763 0 1
3.2765 -0.5719 -1.8121 0.4763 0 1
3.2778 -0.5645 -1.8121 0.4763 0 1
3.2791 -0.5571 -1.8121 0.4763 0 1
3.2803 -0.5498 -1.8121 0.4763 0 1
3.2816 -0.5424 -1.8121 0.4763 0 1
3.2828 -0.5351 -1.8121 0.4763 0 1
3.2840 -0.5277 -1.8122 0.4763 0 1
3.2852 -0.5203 -1.8122 0.4763 0 1
3.2863 -0.5129 -1.8122 0.4763 0 1
3.2875 -0.5056 -1.8122 0.4763 0 1
3.2886 -0.4982 -1.8122 0.4763 0 1
3.2897 -0.4908 -1.8122 0.4763 0 1
3.2908 -0.4834 -1.8122 0.4763 0 1
3.2919 -0.4760 -1.8122 0.4763 0 1
3.2930 -0.4687 -1.8122 0.4763 0 1
3.2940 -0.4613 -1.8122 0.4763 0 1
3.2950 -0.4539 -1.8122 0.4763 0 1
3.2961 -0.4465 -1.8122 0.4763 0 1
3.2970 -0.4391 -1.8122 0.4763 0 1
3.2980 -0.4317 -1.8122 0.4763 0 1
3.2990 -0.4243 -1.8122 0.4763 0 1
3.2999 -0.4169 -1.8122 0.4763 0 1
3.3009 -0.4095 -1.8122 0.4763 0 1
3.3018 -0.4021 -1.8122 0.4763 0 1
3.3027 -0.3947 -1.8122 0.4763 0 1
3.3036 -0.3872 -1.8122 0.4763 0 1
3.3044 -0.3798 -1.8122 0.4763 0 1
3.3053 -0.3724 -1.8122 0.4763 0 1
3.3061 -0.3650 -1.8122 0.4763 0 1
3.3069 -0.3576 -1.8122 0.4763 0 1
3.3077 -0.3501 -1.8122 0.4763 0 1
3.3085 -0.3427 -1.8122 0.4763 0 1
3.3093 -0.3353 -1.8122 0.4763 0 1
3.3100 -0.3279 -1.8122 0.4763 0 1
3.3107 -0.3204 -1.8122 0.4763 0 1
3.3115 -0.3130 -1.8122 0.4763 0 1
3.3122 -0.3056 -1.8122 0.4763 0 1
3.3128 -0.2981 -1.8122 0.4763 0 1
3.3135 -0.2907 -1.8122 0.4763 0 1
3.3141 -0.2833 -1.8122 0.4763 0 1
3.3148 -0.2758 -1.8122 0.4763 0 1
3.3154 -0.2684 -1.8122 0.4763 0 1
3.3160 -0.2610 -1.8122 0.4763 0 1
3.3166 -0.2535 -1.8122 0.4763 0 1
3.3171 -0.2461 -1.8122 0.4763 0 1
3.3177 -0.2386 -1.8122 0.4763 0 1
3.3182 -0.2312 -1.8122 0.4763 0 1
3.3187 -0.2237 -1.8122 0.4763 0 1
3.3192 -0.2163 -1.8122 0.4763 0 1
3.3197 -0.2088 -1.8122 0.4763 0 1
3.3202 -0.2014 -1.8122 0.4763 0 1
3.3206 -0.1939 -1.8122 0.4763 0 1
3.3210 -0.1865 -1.8122 0.4763 0 1
3.3214 -0.1790 -1.8122 0.4763 0 1
3.3218 -0.1716 -1.8122 0.4763 0 1
3.3222 -0.1641 -1.8122 0.4763 0 1
3.3226 -0.1567 -1.8122 0.4763 0 1
3.3229 -0.1492 -1.8122 0.4763 0 1
3.3233 -0.1418 -1.8122 0.4763 0 1
3.3236 -0.1343 -1.8122 0.4763 0 1
3.3239 -0.1269 -1.8122 0.4763 0 1
3.3241 -0.1194 -1.8122 0.4763 0 1
3.3244 -0.1119 -1.8122 0.4763 0 1
3.3246 -0.1045 -1.8123 0.4763 0 1
3.3249 -0.0970 -1.8123 0.4763 0 1
3.3251 -0.0896 -1.8123 0.4763 0 1
3.3253 -0.0821 -1.8123 0.4763 0 1
3.3254 -0.0746 -1.8123 0.4763 0 1
3.3256 -0.0672 -1.8123 0.4763 0 1
3.3258 -0.0597 -1.8123 0.4763 0 1
3.3259 -0.0522 -1.8123 0.4763 0 1
3.3260 -0.0448 -1.8123 0.4763 0 1
3.3261 -0.0373 -1.8123 0.4763 0 1
3.3262 -0.0299 -1.8123 0.4763 0 1
3.3262 -0.0224 -1.8123 0.4763 0 1
3.3263 -0.0149 -1.8123 0.4763 0 1
3.3263 -0.0075 -1.8123 0.4763 0 1
3.3263 0.0000 -1.8123 0.4763 0 1
3.3263 0.0075 -1.8123 0.4763 0 1
3.3263 0.0149 -1.8123 0.4763 0 1
3.3262 0.0224 -1.8123 0.4763 0 1
3.3262 0.0299 -1.8123 0.4763 0 1
3.3261 0.0373 -1.8123 0.4763 0 1
3.3260 0.0448 -1.8123 0.4763 0 1
3.3259 0.0522 -1.8123 0.4763 0 1
3.3258 0.0597 -1.8123 0.4763 0 1
3.3256 0.0672 -1.8123 0.4763 0 1
3.3254 0.0746 -1.8123 0.4763 0 1
3.3253 0.0821 -1.8123 0.4763 0 1
3.3251 0.0896 -1.8123 0.4763 0 1
3.3249 0.0970 -1.8123 0.4763 0 1
3.3246 0.1045 -1.8123 0.4763 0 1
3.3244 0.1120 -1.8122 0.4763 0 1
3.3241 0.1194 -1.8122 0.4763 0 1
3.3239 0.1269 -1.8122 0.4763 0 1
3.3236 0.1343 -1.8122 0.4763 0 1
3.3233 0.1418 -1.8122 0.4763 0 1
3.3229 0.1492 -1.8122 0.4763 0 1
3.3226 0.1567 -1.8122 0.4763 0 1
3.3222 0.1641 -1.8122 0.4763 0 1
3.3218 0.1716 -1.8122 0.4763 0 1
3.3214 0.1791 -1.8122 0.4763 0 1
3.3210 0.1865 -1.8122 0.4763 0 1
3.3206 0.1940 -1.8122 0.4763 0 1
3.3202 0.2014 -1.8122 0.4763 0 1
3.3197 0.2089 -1.8122 0.4763 0 1
3.3192 0.2163 -1.8122 0.4763 0 1
3.3187 0.2238 -1.8122 0.4763 0 1
3.3182 0.2312 -1.8122 0.4763 0 1
3.3177 0.2387 -1.8122 0.4763 0 1
3.3171 0.2461 -1.8122 0.4763 0 1
3.3166 0.2535 -1.8122 0.4763 0 1
3.3160 0.2610 -1.8122 0.4763 0 1
3.3154 0.2684 -1.8122 0.4763 0 1
3.3148 0.2759 -1.8122 0.4763 0 1
3.3142 0.2833 -1.8122 0.4763 0 1
3.3135 0.2907 -1.8122 0.4763 0 1
3.3128 0.2982 -1.8122 0.4763 0 1
3.3122 0.3056 -1.8122 0.4763 0 1
3.3115 0.3130 -1.8122 0.4763 0 1
3.3107 0.3205 -1.8122 0.4763 0 1
3.3100 0.3279 -1.8122 0.4763 0 1
3.3093 0.3353 -1.8122 0.4763 0 1
3.3085 0.3428 -1.8122 0.4763 0 1
3.3077 0.3502 -1.8122 0.4763 0 1
3.3069 0.3576 -1.8122 0.4763 0 1
3.3061 0.3650 -1.8122 0.4763 0 1
3.3053 0.3724 -1.8122 0.4763 0 1
3.3044 0.3798 -1.8122 0.4763 0 1
3.3036 0.3872 -1.8122 0.4763 0 1
3.3027 0.3946 -1.8122 0.4763 0 1
3.3018 0.4021 -1.8122 0.4763 0 1
3.3009 0.4095 -1.8122 0.4763 0 1
3.2999 0.4169 -1.8122 0.4763 0 1
3.2990 0.4243 -1.8122 0.4763 0 1
3.2980 0.4317 -1.8122 0.4763 0 1
3.2971 0.4391 -1.8122 0.4763 0 1
3.2960 0.4465 -1.8122 0.4763 0 1
3.2950 0.4539 -1.8122 0.4763 0 1
3.2940 0.4613 -1.8122 0.4763 0 1
3.2930 0.4687 -1.8122 0.4763 0 1
3.2919 0.4761 -1.8122 0.4763 0 1
3.2908 0.4834 -1.8122 0.4763 0 1
3.2897 0.4908 -1.8122 0.4763 0 1
3.2886 0.4982 -1.8122 0.4763 0 1
3.2875 0.5056 -1.8122 0.4763 0 1
3.2863 0.5130 -1.8122 0.4763 0 1
3.2852 0.5203 -1.8122 0.4763 0 1
3.2840 0.5277 -1.8122 0.4763 0 1
3.2828 0.5351 -1.8121 0.4763 0 1
3.2816 0.5424 -1.8121 0.4763 0 1
3.2803 0.5498 -1.8121 0.4763 0 1
3.2791 0.5571 -1.8121 0.4763 0 1
3.2778 0.5645 -1.8121 0.4763 0 1
3.2765 0.5719 -1.8121 0.4763 0 1
3.2752 0.5792 -1.8121 0.4763 0 1
3.2739 0.5865 -1.8121 0.4763 0 1
3.2726 0.5939 -1.8121 0.4763 0 1
3.2713 0.6012 -1.8121 0.4763 0 1
3.2699 0.6086 -1.8121 0.4763 0 1
3.2685 0.6159 -1.8121 0.4763 0 1
3.2671 0.6232 -1.8121 0.4763 0 1
3.2657 0.6306 -1.8121 0.4763 0 1
3.2643 0.6379 -1.8121 0.4763 0 1
3.2628 0.6452 -1.8121 0.4763 0 1
3.2614 0.6525 -1.8121 0.4763 0 1
3.2599 0.6599 -1.8121 0.4763 0 1
3.2584 0.6671 -1.8121 0.4763 0 1
3.2569 0.6745 -1.8121 0.4763 0 1
3.2553 0.6818 -1.8121 0.4763 0 1
3.2538 0.6891 -1.8121 0.4763 0 1
3.2522 0.6964 -1.8121 0.4763 0 1
3.2507 0.7037 -1.8121 0.4763 0 1
3.2491 0.7110 -1.8121 0.4763 0 1
3.2475 0.7183 -1.8121 0.4763 0 1
3.2458 0.7255 -1.8121 0.4763 0 1
3.2442 0.7328 -1.8121 0.4763 0 1
3.2425 0.7401 -1.8121 0.4763 0 1
3.2408 0.7474 -1.8120 0.4763 0 1
3.2392 0.7546 -1.8120 0.4763 0 1
3.2375 0.7619 -1.8120 0.4763 0 1
3.2357 0.7692 -1.8120 0.4763 0 1
3.2340 0.7764 -1.8120 0.4763 0 1
3.2322 0.7837 -1.8120 0.4763 0 1
3.2304 0.7909 -1.8120 0.4763 0 1
3.2287 0.7982 -1.8120 0.4763 0 1
3.2269 0.8054 -1.8120 0.4763 0 1
3.2250 0.8126 -1.8120 0.4763 0 1
3.2232 0.8199 -1.8120 0.4764 0 1
3.2213 0.8271 -1.8120 0.4764 0 1
3.2195 0.8343 -1.8120 0.4764 0 1
3.2176 0.8416 -1.8120 0.4764 0 1
3.2157 0.8488 -1.8120 0.4764 0 1
3.2137 0.8560 -1.8120 0.4764 0 1
3.2118 0.8632 -1.8120 0.4764 0 1
3.2099 0.8704 -1.8120 0.4764 0 1
3.2079 0.8776 -1.8120 0.4764 0 1
3.2059 0.8848 -1.8120 0.4764 0 1
3.2039 0.8920 -1.8120 0.4764 0 1
3.2019 0.8992 -1.8120 0.4764 0 1
3.1998 0.9063 -1.8119 0.4764 0 1
3.1978 0.9135 -1.8119 0.4764 0 1
3.1957 0.9207 -1.8119 0.4764 0 1
3.1936 0.9279 -1.8119 0.4764 0 1
3.1915 0.9350 -1.8119 0.4764 0 1
3.1894 0.9422 -1.8119 0.4764 0 1
3.1873 0.9493 -1.8119 0.4764 0 1
3.1852 0.9565 -1.8119 0.4764 0 1
3.1830 0.9636 -1.8119 0.4764 0 1
3.1808 0.9707 -1.8119 0.4764 0 1
3.1786 0.9779 -1.8119 0.4764 0 1
3.1764 0.9850 -1.8119 0.4764 0 1
3.1742 0.9921 -1.8119 0.4764 0 1
3.1719 0.9992 -1.8119 0.4764 0 1
3.1697 1.0064 -1.8119 0.4764 0 1
3.1674 1.0135 -1.8119 0.4764 0 1
3.1651 1.0206 -1.8119 0.4764 0 1
3.1628 1.0277 -1.8119 0.4764 0 1
3.1605 1.0347 -1.8119 0.4764 0 1
3.1581 1.0418 -1.8118 0.4764 0 1
3.1558 1.0489 -1.8118 0.4764 0 1
3.1534 1.0560 -1.8118 0.4764 0 1
3.1510 1.0631 -1.8118 0.4764 0 1
3.1486 1.0701 -1.8118 0.4764 0 1
3.1462 1.0772 -1.8118 0.4764 0 1
3.1437 1.0843 -1.8118 0.4764 0 1
3.1413 1.0913 -1.8118 0.4764 0 1
3.1388 1.0983 -1.8118 0.4764 0 1
3.1364 1.1054 -1.8118 0.4764 0 1
3.1339 1.1124 -1.8118 0.4764 0 1
3.1313 1.1194 -1.8118 0.4764 0 1
3.1288 1.1264 -1.8118 0.4764 0 1
3.1263 1.1335 -1.8118 0.4764 0 1
3.1237 1.1405 -1.8118 0.4764 0 1
3.1211 1.1475 -1.8118 0.4764 0 1
3.1185 1.1545 -1.8117 0.4764 0 1
3.1159 1.1615 -1.8117 0.4764 0 1
3.1133 1.1684 -1.8117 0.4764 0 1
3.1107 1.1754 -1.8117 0.4764 0 1
3.1080 1.1824 -1.8117 0.4764 0 1
3.1053 1.1894 -1.8117 0.4764 0 1
3.1026 1.1963 -1.8117 0.4764 0 1
3.0999 1.2033 -1.8117 0.4764 0 1
3.0972 1.2102 -1.8117 0.4764 0 1
3.0945 1.2172 -1.8117 0.4764 0 1
3.0917 1.2241 -1.8117 0.4764 0 1
3.0890 1.2310 -1.8117 0.4764 0 1
3.0862 1.2380 -1.8117 0.4764 0 1
3.0834 1.2449 -1.8117 0.4764 0 1
3.0806 1.2518 -1.8117 0.4764 0 1
3.0777 1.2587 -1.8116 0.4764 0 1
3.0749 1.2656 -1.8116 0.4764 0 1
3.0720 1.2725 -1.8116 0.4764 0 1
3.0692 1.2794 -1.8116 0.4764 0 1
3.0663 1.2862 -1.8116 0.4765 0 1
3.0634 1.2931 -1.8116 0.4765 0 1
3.0604 1.3000 -1.8116 0.4765 0 1
3.0575 1.3069 -1.8116 0.4765 0 1
3.0546 1.3137 -1.8116 0.4765 0 1
3.0516 1.3205 -1.8116 0.4765 0 1
3.0486 1.3274 -1.8116 0.4765 0 1
3.0456 1.3342 -1.8116 0.4765 0 1
3.0426 1.3410 -1.8116 0.4765 0 1
3.0396 1.3479 -1.8116 0.4765 0 1
3.0365 1.3547 -1.8115 0.4765 0 1
3.0335 1.3615 -1.8115 0.4765 0 1
3.0304 1.3683 -1.8115 0.4765 0 1
3.0273 1.3751 -1.8115 0.4765 0 1
3.0242 1.3819 -1.8115 0.4765 0 1
3.0211 1.3886 -1.8115 0.4765 0 1
3.0179 1.3954 -1.8115 0.4765 0 1
3.0148 1.4022 -1.8115 0.4765 0 1
3.0116 1.4089 -1.8115 0.4765 0 1
3.0084 1.4157 -1.8115 0.4765 0 1
3.0052 1.4224 -1.8115 0.4765 0 1
3.0020 1.4291 -1.8115 0.4765 0 1
2.9988 1.4359 -1.8115 0.4765 0 1
2.9956 1.4426 -1.8114 0.4765 0 1
2.9923 1.4493 -1.8114 0.4765 0 1
2.9890 1.4560 -1.8114 0.4765 0 1
2.9857 1.4627 -1.8114 0.4765 0 1
2.9824 1.4694 -1.8114 0.4765 0 1
2.9791 1.4761 -1.8114 0.4765 0 1
2.9758 1.4828 -1.8114 0.4765 0 1
2.9724 1.4894 -1.8114 0.4765 0 1
2.9691 1.4961 -1.8114 0.4765 0 1
2.9657 1.5027 -1.8114 0.4765 0 1
2.9623 1.5094 -1.8114 0.4765 0 1
2.9589 1.5160 -1.8114 0.4765 0 1
2.9555 1.5226 -1.8114 0.4765 0 1
2.9520 1.5293 -1.8113 0.4765 0 1
2.9486 1.5359 -1.8113 0.4765 0 1
1.6024 0.8392 -0.9855 0.4370 458 14
1.6034 0.8444 -0.9873 0.4362 458 14
1.6044 0.8495 -0.9891 0.4354 458 14
1.6055 0.8547 -0.9909 0.4346 458 14
1.6065 0.8599 -0.9928 0.4338 458 14
1.6076 0.8651 -0.9946 0.4330 458 14
1.6087 0.8703 -0.9965 0.4321 458 14
1.6098 0.8756 -0.9984 0.4313 458 14
1.6108 0.8809 -1.0003 0.4305 458 14
1.6119 0.8862 -1.0022 0.4297 458 14
1.6130 0.8915 -1.0041 0.4289 458 14
1.6142 0.8969 -1.0061 0.4280 458 14
1.6153 0.9022 -1.0080 0.4272 458 14
1.6164 0.9076 -1.0100 0.4264 458 14
1.6175 0.9130 -1.0120 0.4255 458 14
1.6187 0.9185 -1.0140 0.4247 458 14
1.6198 0.9239 -1.0160 0.4238 458 14
1.6210 0.9295 -1.0180 0.4230 458 14
1.6222 0.9350 -1.0201 0.4221 458 14
1.6234 0.9405 -1.0222 0.4213 458 14
1.6246 0.9461 -1.0243 0.4204 458 14
1.6258 0.9517 -1.0264 0.4196 458 14
1.6270 0.9573 -1.0285 0.4187 458 14
1.6282 0.9629 -1.0306 0.4178 458 14
1.6295 0.9686 -1.0328 0.4170 458 14
1.6307 0.9743 -1.0350 0.4161 458 14
1.6320 0.9800 -1.0371 0.4152 458 14
1.6332 0.9858 -1.0394 0.4143 458 14
1.6345 0.9916 -1.0416 0.4134 458 14
1.6358 0.9974 -1.0438 0.4125 458 14
1.6371 1.0032 -1.0461 0.4117 458 14
1.6384 1.0091 -1.0484 0.4108 458 14
1.6397 1.0150 -1.0507 0.4099 458 14
1.6410 1.0209 -1.0530 0.4090 458 14
1.6424 1.0269 -1.0553 0.4081 458 14
1.6437 1.0328 -1.0577 0.4071 458 14
1.6451 1.0388 -1.0600 0.4062 458 14
1.6465 1.0449 -1.0624 0.4053 458 14
1.6478 1.0510 -1.0648 0.4044 458 14
1.6492 1.0571 -1.0673 0.4035 458 14
1.6507 1.0632 -1.0697 0.4026 458 14
1.6521 1.0694 -1.0722 0.4016 458 14
1.6535 1.0755 -1.0747 0.4007 458 14
1.6549 1.0818 -1.0772 0.3998 458 14
1.6564 1.0880 -1.0797 0.3988 458 14
1.6578 1.0943 -1.0823 0.3979 458 14
1.6593 1.1007 -1.0848 0.3969 458 14
1.6608 1.1070 -1.0874 0.3960 458 14
1.6623 1.1134 -1.0900 0.3950 458 14
1.6638 1.1198 -1.0927 0.3941 458 14
1.6653 1.1263 -1.0953 0.3931 458 14
1.6669 1.1328 -1.0980 0.3922 458 14
1.6684 1.1393 -1.1007 0.3912 458 14
1.6700 1.1459 -1.1034 0.3903 458 14
1.6715 1.1525 -1.1062 0.3893 458 14
1.6731 1.1592 -1.1090 0.3883 458 14
1.6747 1.1658 -1.1118 0.3873 458 14
1.6763 1.1725 -1.1146 0.3864 458 14
1.6780 1.1793 -1.1174 0.3854 458 14
1.6796 1.1861 -1.1203 0.3844 458 14
1.6813 1.1929 -1.1232 0.3834 458 14
1.6829 1.1998 -1.1261 0.3824 458 14
1.6846 1.2067 -1.1290 0.3814 458 14
1.6863 1.2137 -1.1320 0.3804 458 14
1.6868 1.2198 -1.1341 0.6584 458 14
1.6870 1.2257 -1.1361 0.6572 458 14
1.6872 1.2316 -1.1381 0.6561 458 14
1.6874 1.2376 -1.1401 0.6549 458 14
1.6876 1.2436 -1.1421 0.6537 458 14
1.6878 1.2496 -1.1442 0.6526 458 14
1.6881 1.2556 -1.1462 0.6514 458 14
1.6883 1.2617 -1.1483 0.6502 458 14
1.6885 1.2678 -1.1504 0.6491 458 14
1.6887 1.2738 -1.1525 0.6479 458 14
1.6889 1.2800 -1.1546 0.6467 458 14
1.6891 1.2861 -1.1567 0.6455 458 14
1.6894 1.2923 -1.1588 0.6443 458 14
1.6896 1.2985 -1.1610 0.6431 458 14
2.6304 2.0309 -1.8106 0.4767 0 1
2.6258 2.0368 -1.8105 0.4767 0 1
2.6212 2.0427 -1.8105 0.4767 0 1
2.6166 2.0485 -1.8105 0.4767 0 1
2.6120 2.0544 -1.8105 0.4767 0 1
2.6074 2.0602 -1.8105 0.4767 0 1
2.6027 2.0661 -1.8105 0.4767 0 1
2.5981 2.0719 -1.8105 0.4768 0 1
2.5934 2.0777 -1.8105 0.4768 0 1
2.5887 2.0835 -1.8105 0.4768 0 1
1.4400 1.1643 -1.0089 0.0184 458 14
1.3856 1.1254 -0.9725 0.0191 458 14
1.3465 1.0987 -0.9469 0.3365 458 14
1.3431 1.1010 -0.9462 0.3367 458 14
1.3396 1.1032 -0.9455 0.3370 458 14
1.3362 1.1054 -0.9448 0.3372 458 14
1.3327 1.1076 -0.9441 0.3375 458 14
1.3292 1.1097 -0.9434 0.3377 458 14
1.3258 1.1119 -0.9427 0.3380 458 14
1.3223 1.1141 -0.9420 0.3382 458 14
1.3189 1.1162 -0.9414 0.3385 458 14
1.3154 1.1183 -0.9407 0.3387 458 14
1.3119 1.1205 -0.9400 0.3390 458 14
1.3084 1.1226 -0.9393 0.3392 458 14
1.3049 1.1247 -0.9386 0.3395 458 14
1.3014 1.1268 -0.9379 0.3397 458 14
1.2979 1.1289 -0.9372 0.3400 458 14
1.2944 1.1309 -0.9365 0.3402 458 14
1.2909 1.1330 -0.9358 0.3405 458 14
1.2874 1.1350 -0.9351 0.3407 458 14
1.2839 1.1371 -0.9344 0.3410 458 14
1.2804 1.1391 -0.9337 0.3412 458 14
1.2769 1.1411 -0.9330 0.3415 458 14
1.2734 1.1431 -0.9323 0.3418 458 14
1.2699 1.1451 -0.9316 0.3420 458 14
1.2663 1.1471 -0.9309 0.3423 458 14
1.2628 1.1491 -0.9302 0.3425 458 14
1.2593 1.1510 -0.9295 0.3428 458 14
1.2557 1.1530 -0.9288 0.3430 458 14
1.2522 1.1549 -0.9281 0.3433 458 14
1.2486 1.1569 -0.9274 0.3436 458 14
1.2451 1.1587 -0.9267 0.3438 458 14
1.2415 1.1607 -0.9260 0.3441 458 14
1.2380 1.1626 -0.9253 0.3444 458 14
1.2344 1.1645 -0.9246 0.3446 458 14
1.2309 1.1663 -0.9239 0.3449 458 14
1.2273 1.1682 -0.9231 0.3451 458 14
1.2238 1.1700 -0.9224 0.3454 458 14
1.2202 1.1719 -0.9217 0.3457 458 14
1.2166 1.1737 -0.9210 0.3459 458 14
1.2130 1.1755 -0.9203 0.3462 458 14
1.2095 1.1773 -0.9196 0.3465 458 14
1.2059 1.1791 -0.9189 0.3467 458 14
1.2023 1.1809 -0.9182 0.3470 458 14
1.1987 1.1827 -0.9175 0.3473 458 14
1.1951 1.1845 -0.9167 0.3476 458 14
1.1915 1.1862 -0.9160 0.3478 458 14
2.3034 -2.3033 -1.8098 0.4841 0 1
2.3086 -2.2981 -1.8098 0.4841 0 1
2.3137 -2.2930 -1.8098 0.4841 0 1
2.3189 -2.2878 -1.8098 0.4841 0 1
2.3240 -2.2826 -1.8098 0.4841 0 1
2.3292 -2.2774 -1.8098 0.4841 0 1
2.3343 -2.2722 -1.8098 0.4841 0 1
2.3394 -2.2670 -1.8098 0.4841 0 1
2.3445 -2.2617 -1.8099 0.4841 0 1
2.3496 -2.2565 -1.8099 0.4841 0 1
2.3547 -2.2512 -1.8099 0.4841 0 1
2.3597 -2.2459 -1.8099 0.4841 0 1
2.3648 -2.2406 -1.8099 0.4841 0 1
2.3698 -2.2354 -1.8099 0.4841 0 1
2.3748 -2.2301 -1.8099 0.4841 0 1
2.3798 -2.2247 -1.8099 0.4841 0 1
2.3849 -2.2194 -1.8100 0.4841 0 1
2.3898 -2.2141 -1.8100 0.4841 0 1
2.3948 -2.2087 -1.8100 0.4841 0 1
2.3998 -2.2033 -1.8100 0.4841 0 1
2.4047 -2.1979 -1.8100 0.4841 0 1
2.4097 -2.1926 -1.8100 0.4841 0 1
2.4146 -2.1872 -1.8100 0.4841 0 1
2.4195 -2.1818 -1.8100 0.4841 0 1
2.4244 -2.1763 -1.8101 0.4841 0 1
2.4293 -2.1709 -1.8101 0.4841 0 1
2.4342 -2.1655 -1.8101 0.4841 0 1
2.4391 -2.1600 -1.8101 0.4841 0 1
2.4439 -2.1546 -1.8101 0.4841 0 1
2.4488 -2.1491 -1.8101 0.4840 0 1
2.4536 -2.1436 -1.8101 0.4840 0 1
2.4584 -2.1381 -1.8101 0.4840 0 1
2.4633 -2.1326 -1.8101 0.4840 0 1
2.4680 -2.1271 -1.8102 0.4840 0 1
2.4728 -2.1215 -1.8102 0.4840 0 1
2.4776 -2.1160 -1.8102 0.4840 0 1
2.4824 -2.1104 -1.8102 0.4840 0 1
2.4871 -2.1049 -1.8102 0.4840 0 1
2.4918 -2.0993 -1.8102 0.4840 0 1
2.4966 -2.0937 -1.8102 0.4840 0 1
2.5013 -2.0881 -1.8102 0.4840 0 1
2.5060 -2.0825 -1.8103 0.4840 0 1
2.5106 -2.0769 -1.8103 0.4840 0 1
2.5153 -2.0713 -1.8103 0.4840 0 1
2.5200 -2.0656 -1.8103 0.4840 0 1
2.5246 -2.0600 -1.8103 0.4840 0 1
2.5292 -2.0543 -1.8103 0.4840 0 1
2.5339 -2.0487 -1.8103 0.4840 0 1
2.5385 -2.0430 -1.8103 0.4840 0 1
2.5431 -2.0373 -1.8103 0.4840 0 1
2.5476 -2.0316 -1.8104 0.4840 0 1
2.5522 -2.0259 -1.8104 0.4840 0 1
2.5568 -2.0202 -1.8104 0.4840 0 1
2.5613 -2.0145 -1.8104 0.4840 0 1
2.5658 -2.0087 -1.8104 0.4840 0 1
2.5704 -2.0029 -1.8104 0.4840 0 1
2.5749 -1.9972 -1.8104 0.4840 0 1
2.5794 -1.9914 -1.8104 0.4840 0 1
2.5838 -1.9856 -1.8104 0.4840 0 1
2.5883 -1.9799 -1.8105 0.4840 0 1
2.5927 -1.9740 -1.8105 0.4840 0 1
2.5972 -1.9682 -1.8105 0.4840 0 1
2.6016 -1.9624 -1.8105 0.4839 0 1
2.6060 -1.9566 -1.8105 0.4839 0 1
2.6104 -1.9507 -1.8105 0.4839 0 1
2.6148 -1.9449 -1.8105 0.4839 0 1
2.6192 -1.9390 -1.8105 0.4839 0 1
2.6235 -1.9331 -1.8105 0.4839 0 1
2.6279 -1.9273 -1.8106 0.4839 0 1
2.6322 -1.9214 -1.8106 0.4839 0 1
2.6365 -1.9155 -1.8106 0.4839 0 1
2.6409 -1.9096 -1.8106 0.4839 0 1
2.6451 -1.9037 -1.8106 0.4839 0 1
2.6494 -1.8977 -1.8106 0.4839 0 1
2.6537 -1.8918 -1.8106 0.4839 0 1
2.6579 -1.8858 -1.8106 0.4839 0 1
2.6622 -1.8799 -1.8106 0.4839 0 1
2.6664 -1.8739 -1.8106 0.4839 0 1
2.6706 -1.8679 -1.8107 0.4839 0 1
2.6748 -1.8620 -1.8107 0.4839 0 1
2.6790 -1.8560 -1.8107 0.4839 0 1
2.6832 -1.8500 -1.8107 0.4839 0 1
2.6874 -1.8439 -1.8107 0.4839 0 1
2.6915 -1.8379 -1.8107 0.4839 0 1
2.6956 -1.8319 -1.8107 0.4839 0 1
2.6998 -1.8258 -1.8107 0.4839 0 1
2.7039 -1.8198 -1.8107 0.4839 0 1
2.7079 -1.8137 -1.8107 0.4839 0 1
2.7120 -1.8076 -1.8108 0.4839 0 1
2.7161 -1.8016 -1.8108 0.4839 0 1
2.7201 -1.7955 -1.8108 0.4839 0 1
2.7242 -1.7894 -1.8108 0.4839 0 1
2.7282 -1.7833 -1.8108 0.4839 0 1
2.7322 -1.7771 -1.8108 0.4839 0 1
2.7362 -1.7710 -1.8108 0.4839 0 1
2.7402 -1.7649 -1.8108 0.4839 0 1
2.7442 -1.7587 -1.8108 0.4839 0 1
2.7481 -1.7526 -1.8108 0.4839 0 1
2.7521 -1.7464 -1.8109 0.4839 0 1
2.7560 -1.7403 -1.8109 0.4838 0 1
2.7599 -1.7341 -1.8109 0.4838 0 1
2.7638 -1.7279 -1.8109 0.4838 0 1
2.7677 -1.7217 -1.8109 0.4838 0 1
2.7716 -1.7155 -1.8109 0.4838 0 1
2.7754 -1.7093 -1.8109 0.4838 0 1
2.7793 -1.7030 -1.8109 0.4838 0 1
2.7831 -1.6968 -1.8109 0.4838 0 1
2.7869 -1.6906 -1.8109 0.4838 0 1
2.7907 -1.6843 -1.8109 0.4838 0 1
2.7945 -1.6781 -1.8110 0.4838 0 1
2.7983 -1.6718 -1.8110 0.4838 0 1
2.8020 -1.6655 -1.8110 0.4838 0 1
2.8058 -1.6592 -1.8110 0.4838 0 1
2.8095 -1.6529 -1.8110 0.4838 0 1
2.8132 -1.6466 -1.8110 0.4838 0 1
2.8169 -1.6403 -1.8110 0.4838 0 1
2.8206 -1.6340 -1.8110 0.4838 0 1
2.8243 -1.6277 -1.8110 0.4838 0 1
2.8279 -1.6214 -1.8110 0.4838 0 1
2.8316 -1.6150 -1.8110 0.4838 0 1
2.8352 -1.6087 -1.8111 0.4838 0 1
2.8388 -1.6023 -1.8111 0.4838 0 1
2.8424 -1.5960 -1.8111 0.4838 0 1
2.8460 -1.5896 -1.8111 0.4838 0 1
2.8496 -1.5832 -1.8111 0.4838 0 1
2.8531 -1.5768 -1.8111 0.4838 0 1
2.8567 -1.5704 -1.8111 0.4838 0 1
2.8602 -1.5640 -1.8111 0.4838 0 1
2.8637 -1.5576 -1.8111 0.4838 0 1
2.8672 -1.5512 -1.8111 0.4838 0 1
2.8707 -1.5447 -1.8111 0.4838 0 1
2.8742 -1.5383 -1.8112 0.4838 0 1
2.8777 -1.5318 -1.8112 0.4838 0 1
2.8811 -1.5254 -1.8112 0.4838 0 1
2.8845 -1.5189 -1.8112 0.4838 0 1
2.8879 -1.5124 -1.8112 0.4838 0 1
2.8913 -1.5060 -1.8112 0.4838 0 1
2.8947 -1.4995 -1.8112 0.4838 0 1
2.8981 -1.4930 -1.8112 0.4838 0 1
2.9015 -1.4865 -1.8112 0.4838 0 1
2.9048 -1.4800 -1.8112 0.4838 0 1
2.9081 -1.4735 -1.8112 0.4837 0 1
1.6125 -0.8125 -1.0031 0.4358 458 14
1.6115 -0.8075 -1.0014 0.4365 458 14
1.6105 -0.8024 -0.9996 0.4373 458 14
1.6095 -0.7974 -0.9979 0.4380 458 14
1.6085 -0.7925 -0.9962 0.4388 458 14
1.6075 -0.7875 -0.9945 0.4395 458 14
1.6066 -0.7826 -0.9928 0.4403 458 14
1.6056 -0.7777 -0.9911 0.4410 458 14
1.6047 -0.7728 -0.9895 0.4418 458 14
1.6037 -0.7679 -0.9878 0.4425 458 14
1.6028 -0.7630 -0.9862 0.4432 458 14
1.6018 -0.7582 -0.9846 0.4440 458 14
1.6009 -0.7533 -0.9830 0.4447 458 14
1.6000 -0.7485 -0.9814 0.4454 458 14
1.5991 -0.7437 -0.9798 0.4461 458 14
1.5982 -0.7389 -0.9782 0.4469 458 14
1.5973 -0.7342 -0.9767 0.4476 458 14
1.5964 -0.7295 -0.9751 0.4483 458 14
1.5955 -0.7247 -0.9736 0.4490 458 14
1.5947 -0.7200 -0.9721 0.4497 458 14
1.5938 -0.7153 -0.9706 0.4504 458 14
1.5929 -0.7106 -0.9691 0.4511 458 14
1.5921 -0.7060 -0.9676 0.4518 458 14
1.5913 -0.7013 -0.9661 0.4525 458 14
1.5904 -0.6967 -0.9646 0.4531 458 14
1.5896 -0.6921 -0.9632 0.4538 458 14
1.5888 -0.6875 -0.9618 0.4545 458 14
1.5879 -0.6829 -0.9603 0.4552 458 14
1.5871 -0.6784 -0.9589 0.4558 458 14
1.5863 -0.6738 -0.9575 0.4565 458 14
1.5855 -0.6693 -0.9561 0.4572 458 14
1.5847 -0.6647 -0.9548 0.4578 458 14
1.5840 -0.6603 -0.9534 0.4585 458 14
1.5832 -0.6558 -0.9520 0.4591 458 14
1.5824 -0.6513 -0.9507 0.4598 458 14
1.5817 -0.6468 -0.9494 0.4604 458 14
1.5809 -0.6424 -0.9480 0.4611 458 14
1.5801 -0.6379 -0.9467 0.4617 458 14
3.0263 -1.2138 -1.8115 0.4837 0 1
3.0290 -1.2071 -1.8115 0.4837 0 1
3.0317 -1.2003 -1.8115 0.4837 0 1
3.0344 -1.1935 -1.8115 0.4837 0 1
3.0371 -1.1867 -1.8115 0.4837 0 1
3.0398 -1.1799 -1.8116 0.4837 0 1
3.0424 -1.1731 -1.8116 0.4837 0 1
3.0450 -1.1662 -1.8116 0.4837 0 1
3.0477 -1.1594 -1.8116 0.4837 0 1
3.0503 -1.1526 -1.8116 0.4837 0 1
3.0529 -1.1457 -1.8116 0.4837 0 1
3.0554 -1.1389 -1.8116 0.4837 0 1
3.0580 -1.1321 -1.8116 0.4837 0 1
3.0605 -1.1252 -1.8116 0.4836 0 1
3.0631 -1.1183 -1.8116 0.4836 0 1
3.0656 -1.1115 -1.8116 0.4836 0 1
3.0681 -1.1046 -1.8116 0.4836 0 1
3.0705 -1.0977 -1.8116 0.4836 0 1
3.0730 -1.0908 -1.8116 0.4836 0 1
3.0755 -1.0839 -1.8116 0.4836 0 1
3.0779 -1.0770 -1.8116 0.4836 0 1
3.0803 -1.0701 -1.8117 0.4836 0 1
3.0827 -1.0632 -1.8117 0.4836 0 1
3.0851 -1.0563 -1.8117 0.4836 0 1
3.0875 -1.0494 -1.8117 0.4836 0 1
3.0898 -1.0424 -1.8117 0.4836 0 1
3.0922 -1.0355 -1.8117 0.4836 0 1
3.0945 -1.0285 -1.8117 0.4836 0 1
3.0968 -1.0216 -1.8117 0.4836 0 1
3.0991 -1.0146 -1.8117 0.4836 0 1
3.1014 -1.0077 -1.8117 0.4836 0 1
3.1037 -1.0007 -1.8117 0.4836 0 1
3.1059 -0.9938 -1.8117 0.4836 0 1
3.1081 -0.9868 -1.8117 0.4836 0 1
3.1103 -0.9798 -1.8117 0.4836 0 1
3.1125 -0.9729 -1.8117 0.4836 0 1
3.1147 -0.9659 -1.8117 0.4836 0 1
3.1169 -0.9589 -1.8117 0.4836 0 1
3.1190 -0.9519 -1.8117 0.4836 0 1
3.1212 -0.9449 -1.8118 0.4836 0 1
3.1233 -0.9379 -1.8118 0.4836 0 1
3.1254 -0.9309 -1.8118 0.4836 0 1
3.1275 -0.9239 -1.8118 0.4836 0 1
3.1296 -0.9169 -1.8118 0.4836 0 1
3.1316 -0.9098 -1.8118 0.4836 0 1
3.1337 -0.9028 -1.8118 0.4836 0 1
3.1357 -0.8958 -1.8118 0.4836 0 1
3.1377 -0.8887 -1.8118 0.4836 0 1
3.1397 -0.8817 -1.8118 0.4836 0 1
3.1417 -0.8746 -1.8118 0.4836 0 1
3.1436 -0.8676 -1.8118 0.4836 0 1
3.1456 -0.8605 -1.8118 0.4836 0 1
3.1475 -0.8535 -1.8118 0.4836 0 1
3.1494 -0.8464 -1.8118 0.4836 0 1
3.1513 -0.8394 -1.8118 0.4836 0 1
3.1532 -0.8323 -1.8118 0.4836 0 1
3.1551 -0.8252 -1.8118 0.4836 0 1
3.1569 -0.8181 -1.8118 0.4836 0 1
3.1588 -0.8110 -1.8118 0.4836 0 1
3.1606 -0.8039 -1.8118 0.4836 0 1
3.1624 -0.7969 -1.8119 0.4836 0 1
3.1642 -0.7898 -1.8119 0.4836 0 1
3.1660 -0.7827 -1.8119 0.4836 0 1
3.1677 -0.7755 -1.8119 0.4836 0 1
3.1695 -0.7684 -1.8119 0.4836 0 1
3.1712 -0.7613 -1.8119 0.4836 0 1
3.1729 -0.7542 -1.8119 0.4836 0 1
3.1746 -0.7471 -1.8119 0.4836 0 1
3.1763 -0.7400 -1.8119 0.4836 0 1
3.1779 -0.7329 -1.8119 0.4836 0 1
3.1796 -0.7257 -1.8119 0.4836 0 1
3.1812 -0.7186 -1.8119 0.4836 0 1
3.1828 -0.7114 -1.8119 0.4836 0 1
3.1844 -0.7043 -1.8119 0.4836 0 1
3.1860 -0.6972 -1.8119 0.4836 0 1
3.1875 -0.6900 -1.8119 0.4836 0 1
3.1891 -0.6829 -1.8119 0.4836 0 1
3.1906 -0.6757 -1.8119 0.4836 0 1
3.1921 -0.6685 -1.8119 0.4836 0 1
3.1936 -0.6614 -1.8119 0.4836 0 1
3.1951 -0.6542 -1.8119 0.4836 0 1
3.1966 -0.6470 -1.8119 0.4836 0 1
3.1980 -0.6399 -1.8119 0.4836 0 1
3.1995 -0.6327 -1.8119 0.4836 0 1
3.2009 -0.6255 -1.8119 0.4836 0 1
3.2023 -0.6183 -1.8120 0.4836 0 1
3.2037 -0.6111 -1.8120 0.4836 0 1
3.2050 -0.6039 -1.8120 0.4836 0 1
3.2064 -0.5968 -1.8120 0.4836 0 1
3.2077 -0.5896 -1.8120 0.4836 0 1
3.2090 -0.5824 -1.8120 0.4836 0 1
3.2104 -0.5752 -1.8120 0.4836 0 1
3.2116 -0.5679 -1.8120 0.4836 0 1
3.2129 -0.5607 -1.8120 0.4836 0 1
3.2142 -0.5535 -1.8120 0.4835 0 1
3.2154 -0.5463 -1.8120 0.4835 0 1
3.2166 -0.5391 -1.8120 0.4835 0 1
3.2178 -0.5319 -1.8120 0.4835 0 1
3.2190 -0.5247 -1.8120 0.4835 0 1
3.2202 -0.5174 -1.8120 0.4835 0 1
3.2214 -0.5102 -1.8120 0.4835 0 1
3.2225 -0.5030 -1.8120 0.4835 0 1
3.2236 -0.4957 -1.8120 0.4835 0 1
3.2247 -0.4885 -1.8120 0.4835 0 1
3.2258 -0.4813 -1.8120 0.4835 0 1
3.2269 -0.4740 -1.8120 0.4835 0 1
3.2280 -0.4668 -1.8120 0.4835 0 1
3.2290 -0.4596 -1.8120 0.4835 0 1
3.2300 -0.4523 -1.8120 0.4835 0 1
3.2310 -0.4451 -1.8120 0.4835 0 1
3.2320 -0.4378 -1.8120 0.4835 0 1
3.2330 -0.4306 -1.8120 0.4835 0 1
3.2340 -0.4233 -1.8120 0.4835 0 1
3.2349 -0.4161 -1.8120 0.4835 0 1
3.2359 -0.4088 -1.8120 0.4835 0 1
3.2368 -0.4015 -1.8120 0.4835 0 1
3.2377 -0.3943 -1.8120 0.4835 0 1
3.2386 -0.3870 -1.8120 0.4835 0 1
3.2394 -0.3797 -1.8120 0.4835 0 1
3.2403 -0.3724 -1.8120 0.4835 0 1
3.2411 -0.3652 -1.8120 0.4835 0 1
3.2419 -0.3579 -1.8120 0.4835 0 1
3.2427 -0.3506 -1.8121 0.4835 0 1
3.2435 -0.3434 -1.8121 0.4835 0 1
3.2443 -0.3361 -1.8121 0.4835 0 1
3.2450 -0.3288 -1.8121 0.4835 0 1
3.2457 -0.3215 -1.8121 0.4835 0 1
3.2465 -0.3142 -1.8121 0.4835 0 1
3.2472 -0.3069 -1.8121 0.4835 0 1
3.2478 -0.2996 -1.8121 0.4835 0 1
3.2485 -0.2924 -1.8121 0.4835 0 1
3.2492 -0.2851 -1.8121 0.4835 0 1
3.2498 -0.2778 -1.8121 0.4835 0 1
3.2504 -0.2705 -1.8121 0.4835 0 1
3.2510 -0.2632 -1.8121 0.4835 0 1
3.2516 -0.2559 -1.8121 0.4835 0 1
3.2522 -0.2486 -1.8121 0.4835 0 1
3.2527 -0.2413 -1.8121 0.4835 0 1
3.2533 -0.2340 -1.8121 0.4835 0 1
3.2538 -0.2267 -1.8121 0.4835 0 1
3.2543 -0.2194 -1.8121 0.4835 0 1
3.2548 -0.2121 -1.8121 0.4835 0 1
3.2552 -0.2048 -1.8121 0.4835 0 1
3.2557 -0.1975 -1.8121 0.4835 0 1
3.2561 -0.1902 -1.8121 0.4835 0 1
3.2565 -0.1829 -1.8121 0.4835 0 1
3.2569 -0.1756 -1.8121 0.4835 0 1
3.2573 -0.1683 -1.8121 0.4835 0 1
3.2577 -0.1610 -1.8121 0.4835 0 1
3.2581 -0.1537 -1.8121 0.4835 0 1
3.2584 -0.1463 -1.8121 0.4835 0 1
3.2587 -0.1390 -1.8121 0.4835 0 1
3.2590 -0.1317 -1.8121 0.4835 0 1
3.2593 -0.1244 -1.8121 0.4835 0 1
3.2596 -0.1171 -1.8121 0.4835 0 1
3.2598 -0.1097 -1.8121 0.4835 0 1
3.2601 -0.1024 -1.8121 0.4835 0 1
3.2603 -0.0951 -1.8121 0.4835 0 1
3.2605 -0.0878 -1.8121 0.4835 0 1
3.2607 -0.0805 -1.8121 0.4835 0 1
3.2609 -0.0732 -1.8121 0.4835 0 1
3.2610 -0.0659 -1.8121 0.4835 0 1
3.2612 -0.0585 -1.8121 0.4835 0 1
3.2613 -0.0512 -1.8121 0.4835 0 1
3.2614 -0.0439 -1.8121 0.4835 0 1
3.2615 -0.0366 -1.8121 0.4835 0 1
3.2616 -0.0293 -1.8121 0.4835 0 1
3.2616 -0.0220 -1.8121 0.4835 0 1
3.2617 -0.0146 -1.8121 0.4835 0 1
3.2617 -0.0073 -1.8121 0.4835 0 1
3.2617 0.0000 -1.8121 0.4835 0 1
3.2617 0.0073 -1.8121 0.4835 0 1
3.2617 0.0146 -1.8121 0.4835 0 1
3.2616 0.0220 -1.8121 0.4835 0 1
3.2616 0.0293 -1.8121 0.4835 0 1
3.2615 0.0366 -1.8121 0.4835 0 1
3.2614 0.0439 -1.8121 0.4835 0 1
3.2613 0.0512 -1.8121 0.4835 0 1
3.2612 0.0586 -1.8121 0.4835 0 1
3.2610 0.0659 -1.8121 0.4835 0 1
3.2609 0.0732 -1.8121 0.4835 0 1
3.2607 0.0805 -1.8121 0.4835 0 1
3.2605 0.0878 -1.8121 0.4835 0 1
3.2603 0.0952 -1.8121 0.4835 0 1
3.2601 0.1025 -1.8121 0.4835 0 1
3.2598 0.1098 -1.8121 0.4835 0 1
3.2596 0.1171 -1.8121 0.4835 0 1
3.2593 0.1244 -1.8121 0.4835 0 1
3.2590 0.1317 -1.8121 0.4835 0 1
3.2587 0.1390 -1.8121 0.4835 0 1
3.2584 0.1463 -1.8121 0.4835 0 1
3.2581 0.1536 -1.8121 0.4835 0 1
3.2577 0.1610 -1.8121 0.4835 0 1
3.2573 0.1683 -1.8121 0.4835 0 1
3.2569 0.1756 -1.8121 0.4835 0 1
3.2565 0.1829 -1.8121 0.4835 0 1
3.2561 0.1902 -1.8121 0.4835 0 1
3.2557 0.1975 -1.8121 0.4835 0 1
3.2552 0.2048 -1.8121 0.4835 0 1
3.2548 0.2121 -1.8121 0.4835 0 1
3.2543 0.2194 -1.8121 0.4835 0 1
3.2538 0.2267 -1.8121 0.4835 0 1
3.2533 0.2340 -1.8121 0.4835 0 1
3.2527 0.2413 -1.8121 0.4835 0 1
3.2522 0.2486 -1.8121 0.4835 0 1
3.2516 0.2559 -1.8121 0.4835 0 1
3.2510 0.2632 -1.8121 0.4835 0 1
3.2504 0.2705 -1.8121 0.4835 0 1
3.2498 0.2778 -1.8121 0.4835 0 1
3.2492 0.2851 -1.8121 0.4835 0 1
3.2485 0.2924 -1.8121 0.4835 0 1
3.2478 0.2997 -1.8121 0.4835 0 1
3.2472 0.3070 -1.8121 0.4835 0 1
3.2465 0.3142 -1.8121 0.4835 0 1
3.2457 0.3215 -1.8121 0.4835 0 1
3.2450 0.3288 -1.8121 0.4835 0 1
3.2443 0.3361 -1.8121 0.4835 0 1
3.2435 0.3434 -1.8121 0.4835 0 1
3.2427 0.3506 -1.8121 0.4835 0 1
3.2419 0.3579 -1.8120 0.4835 0 1
3.2411 0.3652 -1.8120 0.4835 0 1
3.2403 0.3725 -1.8120 0.4835 0 1
3.2394 0.3797 -1.8120 0.4835 0 1
3.2385 0.3870 -1.8120 0.4835 0 1
3.2377 0.3943 -1.8120 0.4835 0 1
3.2368 0.4015 -1.8120 0.4835 0 1
3.2359 0.4088 -1.8120 0.4835 0 1
3.2349 0.4160 -1.8120 0.4835 0 1
3.2340 0.4233 -1.8120 0.4835 0 1
3.2330 0.4306 -1.8120 0.4835 0 1
3.2320 0.4378 -1.8120 0.4835 0 1
3.2310 0.4451 -1.8120 0.4835 0 1
3.2300 0.4523 -1.8120 0.4835 0 1
3.2290 0.4596 -1.8120 0.4835 0 1
3.2280 0.4668 -1.8120 0.4835 0 1
3.2269 0.4740 -1.8120 0.4835 0 1
3.2258 0.4813 -1.8120 0.4835 0 1
3.2247 0.4885 -1.8120 0.4835 0 1
3.2236 0.4958 -1.8120 0.4835 0 1
3.2225 0.5030 -1.8120 0.4835 0 1
3.2214 0.5102 -1.8120 0.4835 0 1
3.2202 0.5175 -1.8120 0.4835 0 1
3.2190 0.5247 -1.8120 0.4835 0 1
3.2178 0.5319 -1.8120 0.4835 0 1
3.2166 0.5391 -1.8120 0.4835 0 1
3.2154 0.5463 -1.8120 0.4835 0 1
3.2142 0.5536 -1.8120 0.4835 0 1
3.2129 0.5608 -1.8120 0.4836 0 1
3.2116 0.5680 -1.8120 0.4836 0 1
3.2104 0.5752 -1.8120 0.4836 0 1
3.2090 0.5824 -1.8120 0.4836 0 1
3.2077 0.5896 -1.8120 0.4836 0 1
3.2064 0.5968 -1.8120 0.4836 0 1
3.2050 0.6039 -1.8120 0.4836 0 1
3.2037 0.6111 -1.8120 0.4836 0 1
3.2023 0.6183 -1.8120 0.4836 0 1
3.2009 0.6255 -1.8119 0.4836 0 1
3.1995 0.6327 -1.8119 0.4836 0 1
3.1980 0.6399 -1.8119 0.4836 0 1
3.1966 0.6471 -1.8119 0.4836 0 1
3.1951 0.6542 -1.8119 0.4836 0 1
3.1936 0.6614 -1.8119 0.4836 0 1
3.1921 0.6686 -1.8119 0.4836 0 1
3.1906 0.6757 -1.8119 0.4836 0 1
3.1891 0.6829 -1.8119 0.4836 0 1
3.1875 0.6900 -1.8119 0.4836 0 1
3.1860 0.6971 -1.8119 0.4836 0 1
3.1844 0.7043 -1.8119 0.4836 0 1
3.1828 0.7114 -1.8119 0.4836 0 1
3.1812 0.7186 -1.8119 0.4836 0 1
3.1796 0.7257 -1.8119 0.4836 0 1
3.1779 0.7329 -1.8119 0.4836 0 1
3.1763 0.7400 -1.8119 0.4836 0 1
3.1746 0.7471 -1.8119 0.4836 0 1
3.1729 0.7542 -1.8119 0.4836 0 1
3.1712 0.7613 -1.8119 0.4836 0 1
3.1695 0.7685 -1.8119 0.4836 0 1
3.1677 0.7756 -1.8119 0.4836 0 1
3.1660 0.7827 -1.8119 0.4836 0 1
3.1642 0.7898 -1.8119 0.4836 0 1
3.1624 0.7969 -1.8119 0.4836 0 1
3.1606 0.8039 -1.8119 0.4836 0 1
3.1588 0.8110 -1.8118 0.4836 0 1
3.1569 0.8181 -1.8118 0.4836 0 1
3.1551 0.8252 -1.8118 0.4836 0 1
3.1532 0.8323 -1.8118 0.4836 0 1
3.1513 0.8394 -1.8118 0.4836 0 1
3.1494 0.8464 -1.8118 0.4836 0 1
3.1475 0.8535 -1.8118 0.4836 0 1
3.1456 0.8605 -1.8118 0.4836 0 1
3.1437 0.8676 -1.8118 0.4836 0 1
3.1417 0.8747 -1.8118 0.4836 0 1
3.1397 0.8817 -1.8118 0.4836 0 1
3.1377 0.8887 -1.8118 0.4836 0 1
3.1357 0.8958 -1.8118 0.4836 0 1
3.1337 0.9028 -1.8118 0.4836 0 1
3.1316 0.9098 -1.8118 0.4836 0 1
3.1296 0.9169 -1.8118 0.4836 0 1
3.1275 0.9239 -1.8118 0.4836 0 1
3.1254 0.9309 -1.8118 0.4836 0 1
3.1233 0.9379 -1.8118 0.4836 0 1
3.1212 0.9449 -1.8118 0.4836 0 1
3.1190 0.9519 -1.8117 0.4836 0 1
3.1169 0.9589 -1.8117 0.4836 0 1
3.1147 0.9659 -1.8117 0.4836 0 1
3.1125 0.9729 -1.8117 0.4836 0 1
3.1103 0.9798 -1.8117 0.4836 0 1
3.1081 0.9868 -1.8117 0.4836 0 1
3.1059 0.9938 -1.8117 0.4836 0 1
3.1036 1.0007 -1.8117 0.4836 0 1
3.1014 1.0077 -1.8117 0.4836 0 1
3.0991 1.0147 -1.8117 0.4836 0 1
3.0968 1.0216 -1.8117 0.4836 0 1
3.0945 1.0286 -1.8117 0.4836 0 1
3.0922 1.0355 -1.8117 0.4836 0 1
3.0898 1.0424 -1.8117 0.4836 0 1
3.0875 1.0494 -1.8117 0.4836 0 1
3.0851 1.0563 -1.8117 0.4836 0 1
3.0827 1.0632 -1.8117 0.4836 0 1
3.0803 1.0701 -1.8117 0.4836 0 1
3.0779 1.0770 -1.8116 0.4836 0 1
3.0755 1.0839 -1.8116 0.4836 0 1
3.0730 1.0908 -1.8116 0.4836 0 1
3.0705 1.0977 -1.8116 0.4836 0 1
3.0681 1.1046 -1.8116 0.4836 0 1
3.0656 1.1114 -1.8116 0.4836 0 1
3.0631 1.1183 -1.8116 0.4836 0 1
3.0605 1.1252 -1.8116 0.4836 0 1
3.0580 1.1321 -1.8116 0.4837 0 1
3.0554 1.1389 -1.8116 0.4837 0 1
3.0529 1.1458 -1.8116 0.4837 0 1
3.0503 1.1526 -1.8116 0.4837 0 1
3.0477 1.1595 -1.8116 0.4837 0 1
3.0450 1.1663 -1.8116 0.4837 0 1
3.0424 1.1731 -1.8116 0.4837 0 1
3.0398 1.1799 -1.8116 0.4837 0 1
3.0371 1.1867 -1.8115 0.4837 0 1
3.0344 1.1935 -1.8115 0.4837 0 1
3.0317 1.2004 -1.8115 0.4837 0 1
3.0290 1.2071 -1.8115 0.4837 0 1
3.0263 1.2139 -1.8115 0.4837 0 1
3.0235 1.2207 -1.8115 0.4837 0 1
3.0208 1.2275 -1.8115 0.4837 0 1
3.0180 1.2343 -1.8115 0.4837 0 1
3.0152 1.2410 -1.8115 0.4837 0 1
3.0124 1.2478 -1.8115 0.4837 0 1
3.0096 1.2545 -1.8115 0.4837 0 1
3.0068 1.2613 -1.8115 0.4837 0 1
3.0039 1.2680 -1.8115 0.4837 0 1
3.0010 1.2748 -1.8115 0.4837 0 1
2.9982 1.2815 -1.8115 0.4837 0 1
2.9953 1.2882 -1.8114 0.4837 0 1
2.9924 1.2949 -1.8114 0.4837 0 1
2.9894 1.3016 -1.8114 0.4837 0 1
2.9865 1.3083 -1.8114 0.4837 0 1
2.9835 1.3150 -1.8114 0.4837 0 1
2.9806 1.3217 -1.8114 0.4837 0 1
2.9776 1.3284 -1.8114 0.4837 0 1
2.9746 1.3351 -1.8114 0.4837 0 1
2.9716 1.3417 -1.8114 0.4837 0 1
2.9685 1.3484 -1.8114 0.4837 0 1
2.9655 1.3550 -1.8114 0.4837 0 1
2.9624 1.3617 -1.8114 0.4837 0 1
2.9594 1.3683 -1.8114 0.4837 0 1
2.9563 1.3749 -1.8114 0.4837 0 1
2.9532 1.3816 -1.8113 0.4837 0 1
2.9500 1.3882 -1.8113 0.4837 0 1
2.9469 1.3948 -1.8113 0.4837 0 1
2.9437 1.4014 -1.8113 0.4837 0 1
2.9406 1.4080 -1.8113 0.4837 0 1
2.9374 1.4146 -1.8113 0.4837 0 1
2.9342 1.4212 -1.8113 0.4837 0 1
2.9310 1.4278 -1.8113 0.4837 0 1
2.9278 1.4343 -1.8113 0.4837 0 1
2.9245 1.4409 -1.8113 0.4837 0 1
2.9213 1.4474 -1.8113 0.4837 0 1
2.9180 1.4540 -1.8113 0.4837 0 1
2.9147 1.4605 -1.8113 0.4837 0 1
2.9114 1.4670 -1.8112 0.4837 0 1
2.9081 1.4736 -1.8112 0.4837 0 1
2.9048 1.4801 -1.8112 0.4838 0 1
2.9015 1.4866 -1.8112 0.4838 0 1
2.8981 1.4931 -1.8112 0.4838 0 1
1.6176 0.8380 -1.0121 0.4319 458 14
1.6187 0.8432 -1.0140 0.4311 458 14
1.6198 0.8483 -1.0158 0.4303 458 14
1.6208 0.8535 -1.0177 0.4295 458 14
1.6219 0.8587 -1.0196 0.4287 458 14
1.6230 0.8640 -1.0215 0.4279 458 14
1.6241 0.8693 -1.0234 0.4271 458 14
1.6252 0.8746 -1.0253 0.4263 458 14
1.6263 0.8799 -1.0273 0.4255 458 14
1.6275 0.8852 -1.0292 0.4247 458 14
1.6286 0.8906 -1.0312 0.4239 458 14
1.6297 0.8959 -1.0332 0.4231 458 14
1.6309 0.9013 -1.0352 0.4222 458 14
1.6320 0.9068 -1.0373 0.4214 458 14
1.6332 0.9122 -1.0393 0.4206 458 14
1.6344 0.9177 -1.0414 0.4198 458 14
1.6356 0.9232 -1.0434 0.4189 458 14
1.6368 0.9287 -1.0455 0.4181 458 14
