ply
format ascii 1.0
element vertex 596
property float32 x
property float32 y
property float32 z
property float32 CosAngle
property uint32 ObjIdx
property uint32 ObjTag
end_header
16.67400360107422 -8.87636661529541 0.1569976806640625 0.8373172283172607 0 3
16.5855655670166 -8.925078392028809 0.15654006600379944 0.839762270450592 0 3
16.497617721557617 -8.97347640991211 0.1560899317264557 0.8421907424926758 0 3
16.410234451293945 -9.021581649780273 0.1556449830532074 0.8446016311645508 0 3
16.323301315307617 -9.069433212280273 0.15520384907722473 0.8469959497451782 0 3
16.236854553222656 -9.117011070251465 0.1547686755657196 0.8493732213973999 0 3
16.150897979736328 -9.164316177368164 0.15434050559997559 0.8517332077026367 0 3
16.06538963317871 -9.211405754089355 0.1539170742034912 0.8540761470794678 0 3
15.980429649353027 -9.258183479309082 0.15349867939949036 0.8564016222953796 0 3
15.89583969116211 -9.304726600646973 0.1530877649784088 0.8587100505828857 0 3
15.811738014221191 -9.351015090942383 0.15267883241176605 0.8610010743141174 0 3
15.728046417236328 -9.397089958190918 0.15227660536766052 0.8632751107215881 0 3
15.644824028015137 -9.442910194396973 0.1518814116716385 0.8655315041542053 0 3
15.5620698928833 -9.488456726074219 0.1514868140220642 0.8677700757980347 0 3
15.479686737060547 -9.533788681030273 0.15110275149345398 0.8699918985366821 0 3
15.397733688354492 -9.578906059265137 0.1507185399532318 0.8721959590911865 0 3
15.316171646118164 -9.623788833618164 0.15034164488315582 0.8743823170661926 0 3
15.235077857971191 -9.66845703125 0.14997008442878723 0.8765509724617004 0 3
15.154315948486328 -9.712890625 0.1496017426252365 0.87870192527771 0 3
15.073984146118164 -9.757108688354492 0.1492408663034439 0.8808355927467346 0 3
14.994003295898438 -9.801152229309082 0.1488824486732483 0.8829511404037476 0 3
14.91445255279541 -9.844922065734863 0.14853088557720184 0.8850489854812622 0 3
14.835253715515137 -9.888554573059082 0.14818236231803894 0.8871291875839233 0 3
9.575780868530273 -6.44509744644165 0.09593535959720612 0.6468233466148376 0 3
9.4966402053833 -6.453906059265137 0.09543181955814362 0.6502388119697571 0 3
9.41830062866211 -6.462636470794678 0.09493102878332138 0.653641402721405 0 3
9.340742111206055 -6.471288681030273 0.09444808959960938 0.6570309400558472 0 3
9.26400375366211 -6.479824066162109 0.09396377205848694 0.6604079008102417 0 3
9.188417434692383 -6.488574028015137 0.09349029511213303 0.6954004764556885 0 3
9.11703109741211 -6.499667644500732 0.09305953979492188 0.6986181735992432 0 3
9.04628849029541 -6.510663986206055 0.09263305366039276 0.7018219232559204 0 3
8.976171493530273 -6.521562576293945 0.09221450239419937 0.705012321472168 0 3
8.906679153442383 -6.532362937927246 0.09180236607789993 0.7081876993179321 0 3
8.837831497192383 -6.543066024780273 0.09139449894428253 0.711349368095398 0 3
8.769570350646973 -6.553652286529541 0.09099197387695312 0.7144958972930908 0 3
8.701933860778809 -6.564140319824219 0.09059325605630875 0.7176291346549988 0 3
8.634862899780273 -6.574570178985596 0.09019988775253296 0.7207471132278442 0 3
8.457987785339355 -6.500097274780273 0.08865737915039062 0.7238692045211792 0 3
8.392949104309082 -6.510195255279541 0.08828262239694595 0.7269579172134399 0 3
8.328359603881836 -6.520175457000732 0.08791686594486237 0.7295438051223755 0 3
8.264335632324219 -6.530117034912109 0.0875466912984848 0.7326056957244873 0 3
8.236699104309082 -6.568515300750732 0.08755630254745483 0.6768219470977783 0 3
8.247519493103027 -6.637870788574219 0.08800476044416428 0.67351233959198 0 3
8.192733764648438 -6.654628753662109 0.08772490918636322 0.742163896560669 0 3
8.129921913146973 -6.664394378662109 0.08737090975046158 0.7451648712158203 0 3
8.067617416381836 -6.674062252044678 0.0870233103632927 0.7481496334075928 0 3
8.005781173706055 -6.683671951293945 0.08667755126953125 0.7511203289031982 0 3
7.94445276260376 -6.693202972412109 0.08633849769830704 0.7540748715400696 0 3
7.883613109588623 -6.702656269073486 0.08600463718175888 0.7570147514343262 0 3
7.823203086853027 -6.712069988250732 0.08567306399345398 0.7599399089813232 0 3
7.763280868530273 -6.721366882324219 0.08534591645002365 0.7628487944602966 0 3
7.703808307647705 -6.730605125427246 0.0850244089961052 0.7657431960105896 0 3
7.644784927368164 -6.739785194396973 0.08470351994037628 0.7686218619346619 0 3
7.58621072769165 -6.748886585235596 0.08439132571220398 0.7714848518371582 0 3
7.528046607971191 -6.757909774780273 0.08408080786466599 0.7743330001831055 0 3
7.363456726074219 -6.670077800750732 0.08257675170898438 0.7772324085235596 0 3
7.306972503662109 -6.678866863250732 0.08227737247943878 0.7800483703613281 0 3
7.250878810882568 -6.687578201293945 0.08198272436857224 0.7828490138053894 0 3
7.195175647735596 -6.696230411529541 0.08169113099575043 0.7855235934257507 0 3
7.13992166519165 -6.704823970794678 0.08140502870082855 0.7882923483848572 0 3
7.149882793426514 -6.774824142456055 0.08186538517475128 0.6116698384284973 0 3
7.122284889221191 -6.809609413146973 0.0818980410695076 0.7938253283500671 0 3
7.067421913146973 -6.818124771118164 0.0816192626953125 0.7965470552444458 0 3
7.012948989868164 -6.826581954956055 0.08134185522794724 0.799251914024353 0 3
6.958808422088623 -6.835000038146973 0.08106964081525803 0.8019412755966187 0 3
6.905077934265137 -6.843339920043945 0.08079864084720612 0.8046140074729919 0 3
28.787986755371094 28.787967681884766 -0.33836716413497925 0.5768346786499023 0 3
28.857011795043945 28.599140167236328 -0.33767515420913696 0.5323508381843567 0 3
29.245662689208984 28.725311279296875 -0.3407079875469208 0.5287237763404846 0 3
29.58769416809082 28.80156135559082 -0.3431854248046875 0.5254880785942078 0 3
29.93486213684082 28.878944396972656 -0.34570401906967163 0.5202144384384155 0 3
30.287675857543945 28.95796775817871 -0.3482723832130432 0.5163760781288147 0 3
30.41288948059082 28.81751823425293 -0.34822219610214233 0.8575055599212646 0 3
28.97087860107422 27.205448150634766 -0.3303118944168091 0.5105859041213989 0 3
29.009374618530273 26.997636795043945 -0.32936155796051025 0.5890461802482605 0 3
29.202070236206055 26.93343734741211 -0.33017852902412415 0.590633749961853 0 3
29.572500228881836 27.03044891357422 -0.3329896330833435 0.4979152977466583 0 3
29.927734375 27.109609603881836 -0.3356216251850128 0.494608998298645 0 3
30.28857421875 27.190019607543945 -0.3382870554924011 0.48922380805015564 0 3
30.655858993530273 27.27230453491211 -0.34102126955986023 0.4853052794933319 0 3
30.782987594604492 27.13884735107422 -0.3410784900188446 0.4851388931274414 0 3
30.83005714416504 26.935428619384766 -0.3402520716190338 0.8775781989097595 0 3
29.50992202758789 25.549413681030273 -0.32438933849334717 0.599720299243927 0 3
29.735408782958984 25.51205062866211 -0.32563337683677673 0.47275400161743164 0 3
30.101932525634766 25.592870712280273 -0.3283834755420685 0.4679903984069824 0 3
30.47441291809082 25.674842834472656 -0.33119216561317444 0.46575066447257996 0 3
30.852733612060547 25.757713317871094 -0.3340386748313904 0.46177467703819275 0 3
31.048105239868164 25.685253143310547 -0.33490630984306335 0.8901612758636475 0 3
31.092304229736328 25.48759651184082 -0.3341419994831085 0.8932831287384033 0 3
30.30095672607422 24.612382888793945 -0.3244521915912628 0.31579041481018066 0 3
30.1392765045166 24.257343292236328 -0.32154861092567444 0.5971826314926147 0 3
30.06687355041504 23.97749900817871 -0.3196246325969696 0.6007765531539917 0 3
29.980018615722656 23.68892478942871 -0.3175729215145111 0.8209394216537476 0 3
29.992713928222656 23.4810733795166 -0.3165856897830963 0.8234935998916626 0 3
30.02079963684082 23.286483764648438 -0.315775603055954 0.9597765803337097 0 3
30.085819244384766 23.12140655517578 -0.31535980105400085 0.9610263109207153 0 3
30.15068244934082 22.956756591796875 -0.31495848298072815 0.9622570872306824 0 3
30.281288146972656 22.84226417541504 -0.31525084376335144 0.9990538358688354 0 3
30.389726638793945 22.71076202392578 -0.3153121769428253 0.9988507032394409 0 3
30.4981632232666 22.579179763793945 -0.3153884708881378 0.998627245426178 0 3
30.597675323486328 22.440996170043945 -0.31536924839019775 0.932047426700592 0 3
30.752031326293945 22.342636108398438 -0.3159264922142029 0.9304120540618896 0 3
30.911678314208984 22.24738311767578 -0.31654006242752075 0.7687907814979553 0 3
31.12773323059082 22.191484451293945 -0.31772369146347046 0.765912652015686 0 3
31.345409393310547 22.135156631469727 -0.31892502307891846 0.7630177736282349 0 3
31.747127532958984 22.20601463317871 -0.32199522852897644 0.5220405459403992 0 3
32.166229248046875 22.28480339050293 -0.32523345947265625 0.37812885642051697 0 3
32.62476348876953 22.386444091796875 -0.328848272562027 0.3739672303199768 0 3
33.093475341796875 22.490291595458984 -0.33254989981651306 0.36980167031288147 0 3
33.572967529296875 22.596561431884766 -0.33634519577026367 0.3656279742717743 0 3
34.063533782958984 22.705312728881836 -0.340240478515625 0.3614489436149597 0 3
34.565643310546875 22.81658172607422 -0.3442268371582031 0.3572606146335602 0 3
35.079551696777344 22.930448532104492 -0.3483198583126068 0.35306164622306824 0 3
35.60597610473633 23.047109603881836 -0.35251280665397644 0.34886449575424194 0 3
31.329959869384766 20.08039093017578 -0.3092869520187378 0.8306978940963745 0 3
31.418241500854492 19.93863296508789 -0.30927062034606934 0.8331878781318665 0 3
31.414159774780273 19.738826751708984 -0.30835479497909546 0.8356612324714661 0 3
31.410097122192383 19.54019546508789 -0.30744993686676025 0.8381174206733704 0 3
31.40605354309082 19.342754364013672 -0.30655744671821594 0.8405566811561584 0 3
31.402050018310547 19.146425247192383 -0.30568021535873413 0.8429791331291199 0 3
31.39808464050293 18.951210021972656 -0.3048074245452881 0.8453847765922546 0 3
31.394121170043945 18.75712776184082 -0.30394697189331055 0.8477731347084045 0 3
31.297908782958984 18.509511947631836 -0.302236944437027 0.8501461744308472 0 3
31.410722732543945 18.386484146118164 -0.30250120162963867 0.9724034070968628 0 3
31.713125228881836 18.37289047241211 -0.30461835861206055 0.5188559889793396 0 3
32.03242111206055 18.36634635925293 -0.30688735842704773 0.5150141716003418 0 3
32.111717224121094 18.220800399780273 -0.3068621754646301 0.8594595789909363 0 3
32.107791900634766 18.028554916381836 -0.3060517907142639 0.86174476146698 0 3
32.103904724121094 17.837343215942383 -0.3052430748939514 0.8640127182006836 0 3
32.099998474121094 17.6470890045166 -0.3044531047344208 0.8662633299827576 0 3
32.09613037109375 17.457870483398438 -0.3036630153656006 0.8684960603713989 0 3
32.09230422973633 17.269569396972656 -0.3028927445411682 0.8707116842269897 0 3
32.08847427368164 17.082244873046875 -0.3021356165409088 0.8729098439216614 0 3
32.19843673706055 16.955760955810547 -0.3024436831474304 0.8750901818275452 0 3
32.19464874267578 16.7696475982666 -0.30170074105262756 0.8772527575492859 0 3
32.19085693359375 16.58443260192871 -0.30096128582954407 0.879397988319397 0 3
32.18710708618164 16.400156021118164 -0.3002404570579529 0.881525456905365 0 3
32.18337631225586 16.216699600219727 -0.29951828718185425 0.883635401725769 0 3
32.17960739135742 16.03413963317871 -0.29881423711776733 0.8857272267341614 0 3
32.17593765258789 15.85244083404541 -0.2981142997741699 0.8878012895584106 0 3
32.17222595214844 15.671562194824219 -0.29742491245269775 0.8898577690124512 0 3
32.16855239868164 15.49154281616211 -0.29675018787384033 0.8918957710266113 0 3
32.16488265991211 15.31234359741211 -0.29607725143432617 0.8939160704612732 0 3
32.16127014160156 15.133925437927246 -0.29541441798210144 0.8959184885025024 0 3
32.15763473510742 14.956308364868164 -0.29476088285446167 0.8979028463363647 0 3
32.154022216796875 14.779472351074219 -0.2941169738769531 0.899868905544281 0 3
32.036834716796875 14.551796913146973 -0.29244887828826904 0.9018169045448303 0 3
32.033260345458984 14.377089500427246 -0.2918218970298767 0.9037469625473022 0 3
32.02970504760742 14.203144073486328 -0.2912066578865051 0.9056587219238281 0 3
32.02619171142578 14.029921531677246 -0.2905970811843872 0.9075512290000916 0 3
32.02263641357422 13.857401847839355 -0.2900012135505676 0.9094264507293701 0 3
32.01913833618164 13.685585975646973 -0.2894088625907898 0.9112834930419922 0 3
31.18880844116211 13.165507316589355 -0.28136900067329407 0.9131222367286682 0 3
31.277381896972656 13.037812232971191 -0.2816334366798401 0.9149426221847534 0 3
31.273983001708984 12.871953010559082 -0.28107908368110657 0.9167444705963135 0 3
31.270605087280273 12.706757545471191 -0.28053587675094604 0.9185276031494141 0 3
31.267284393310547 12.542206764221191 -0.27999556064605713 0.9202921986579895 0 3
25.696054458618164 10.173768997192383 -0.22969909012317657 0.8408205509185791 0 3
12.110273361206055 4.732011795043945 -0.10806197673082352 0.2822814881801605 593 13
12.075859069824219 4.656210899353027 -0.10756683349609375 0.9188933968544006 593 13
12.097108840942383 4.602168083190918 -0.10757187008857727 0.9130865335464478 593 13
12.178515434265137 4.570663928985596 -0.10811278969049454 0.21810008585453033 593 13
25.55515480041504 9.460390090942383 -0.22648222744464874 0.8527532815933228 0 3
25.5274600982666 9.320077896118164 -0.2258634865283966 0.855088472366333 0 3
25.499940872192383 9.180546760559082 -0.2252551168203354 0.8574064373970032 0 3
25.47249984741211 9.041718482971191 -0.22465072572231293 0.8597071170806885 0 3
25.44527244567871 8.903691291809082 -0.2240559309720993 0.8619905114173889 0 3
25.41812515258789 8.766327857971191 -0.22346557676792145 0.8642566204071045 0 3
25.391151428222656 8.62972640991211 -0.22288574278354645 0.8665053248405457 0 3
25.364315032958984 8.493827819824219 -0.22231215238571167 0.8687363862991333 0 3
25.337615966796875 8.358593940734863 -0.2217518538236618 0.8709501028060913 0 3
25.311054229736328 8.224061965942383 -0.2211921662092209 0.8731463551521301 0 3
25.28462791442871 8.09017562866211 -0.22063903510570526 0.8753247857093811 0 3
25.258319854736328 7.957011699676514 -0.22009871900081635 0.8774855732917786 0 3
25.232147216796875 7.824413776397705 -0.21956419944763184 0.8796290755271912 0 3
25.206092834472656 7.692538738250732 -0.21903106570243835 0.8817543387413025 0 3
25.18017578125 7.561249732971191 -0.21851271390914917 0.8838621973991394 0 3
25.154375076293945 7.430624961853027 -0.21799513697624207 0.8859520554542542 0 3
25.128671646118164 7.300546646118164 -0.21748687326908112 0.8880241513252258 0 3
25.1031436920166 7.171113014221191 -0.21698135137557983 0.8900783658027649 0 3
25.077714920043945 7.042304515838623 -0.2164887934923172 0.8921145796775818 0 3
25.0523624420166 6.914023399353027 -0.21599853038787842 0.8941330909729004 0 3
25.02716827392578 6.786327838897705 -0.2155175805091858 0.8961334228515625 0 3
25.0020694732666 6.659218788146973 -0.21504241228103638 0.8981156349182129 0 3
24.977069854736328 6.532656192779541 -0.21457640826702118 0.9000798463821411 0 3
24.952186584472656 6.406640529632568 -0.21410812437534332 0.9020259976387024 0 3
24.92742156982422 6.281152248382568 -0.21364882588386536 0.9039539098739624 0 3
24.902713775634766 6.156210899353027 -0.21320372819900513 0.9058635830879211 0 3
24.878183364868164 6.031816482543945 -0.21276092529296875 0.9077550172805786 0 3
24.853729248046875 5.907909870147705 -0.21232008934020996 0.9096280932426453 0 3
24.829355239868164 5.784492015838623 -0.2118847668170929 0.9114829897880554 0 3
24.805057525634766 5.661581993103027 -0.21146133542060852 0.91331946849823 0 3
24.78091812133789 5.539198875427246 -0.21104414761066437 0.9151374697685242 0 3
24.7568359375 5.41726541519165 -0.21062591671943665 0.9169371128082275 0 3
24.732851028442383 5.295800685882568 -0.21021956205368042 0.9187182188034058 0 3
24.70894432067871 5.174824237823486 -0.20981597900390625 0.9204809665679932 0 3
24.6851749420166 5.054335594177246 -0.20942015945911407 0.9222249984741211 0 3
24.66144561767578 4.934218406677246 -0.2090296894311905 0.923950731754303 0 3
24.6378116607666 4.814589500427246 -0.20864470303058624 0.9256576299667358 0 3
24.614336013793945 4.695429801940918 -0.2082647681236267 0.927345871925354 0 3
24.590877532958984 4.576679706573486 -0.20789016783237457 0.929015576839447 0 3
24.5674991607666 4.458359241485596 -0.2075207531452179 0.9306663870811462 0 3
24.544198989868164 4.340410232543945 -0.20715148746967316 0.9322986602783203 0 3
24.521015167236328 4.222909927368164 -0.20680007338523865 0.9339120984077454 0 3
24.49789047241211 4.105820178985596 -0.2064460664987564 0.9355066418647766 0 3
24.474843978881836 3.9891209602355957 -0.20609968900680542 0.9370822906494141 0 3
24.451854705810547 3.872792959213257 -0.20575149357318878 0.9386391639709473 0 3
24.428983688354492 3.7568747997283936 -0.2054174691438675 0.9401772022247314 0 3
24.406171798706055 3.641308546066284 -0.20508849620819092 0.9416961669921875 0 3
24.3834171295166 3.526113271713257 -0.20476089417934418 0.9431962370872498 0 3
24.360742568969727 3.411308526992798 -0.20444472134113312 0.9446772933006287 0 3
24.338144302368164 3.296816349029541 -0.20412932336330414 0.9461392164230347 0 3
24.31558609008789 3.1827147006988525 -0.2038174420595169 0.9475821852684021 0 3
24.29314422607422 3.0689451694488525 -0.2035134881734848 0.9490060806274414 0 3
24.25095558166504 2.9530858993530273 -0.20304489135742188 0.5091726183891296 0 3
24.22150421142578 2.8392577171325684 -0.20269103348255157 0.9517985582351685 0 3
24.199237823486328 2.7265820503234863 -0.20239867269992828 0.9531649947166443 0 3
24.17708969116211 2.6142773628234863 -0.2021133303642273 0.9545122385025024 0 3
24.15494155883789 2.5022265911102295 -0.20182983577251434 0.9558382034301758 0 3
24.132909774780273 2.3905272483825684 -0.201556995511055 0.9571470618247986 0 3
24.110918045043945 2.2791404724121094 -0.20128311216831207 0.9584364295005798 0 3
24.088945388793945 2.168027400970459 -0.20101943612098694 0.9597066044807434 0 3
24.067108154296875 2.0572264194488525 -0.20076094567775726 0.9609575271606445 0 3
24.045272827148438 1.9466991424560547 -0.20049956440925598 0.962186872959137 0 3
24.023475646972656 1.83642578125 -0.20024673640727997 0.9633990526199341 0 3
23.95066261291504 1.7227929830551147 -0.1995808333158493 0.9645941853523254 0 3
24.00552749633789 1.618496060371399 -0.19996826350688934 0.8968696594238281 0 3
13.354843139648438 0.8402148485183716 -0.11121536046266556 0.7185699939727783 0 6
13.335878372192383 0.7789257764816284 -0.11102660745382309 0.9998541474342346 0 6
23.94202995300293 1.2906835079193115 -0.1992781013250351 0.9691701531410217 0 3
23.92054557800293 1.1818749904632568 -0.19905073940753937 0.9702655673027039 0 3
23.89910125732422 1.0733007192611694 -0.19883209466934204 0.9713413715362549 0 3
23.877695083618164 0.9649999737739563 -0.19861404597759247 0.9723975658416748 0 3
23.856348037719727 0.8569140434265137 -0.198403462767601 0.9734341502189636 0 3
23.835058212280273 0.7490429282188416 -0.19819702208042145 0.9744511842727661 0 3
23.820234298706055 0.6415820121765137 -0.1980467140674591 0.8413500189781189 0 3
23.754629135131836 0.5331445336341858 -0.19747817516326904 0.8437668681144714 0 3
23.689393997192383 0.42531248927116394 -0.19692489504814148 0.8461666107177734 0 3
23.624549865722656 0.3180859386920929 -0.1963706910610199 0.848549485206604 0 3
23.56003761291504 0.21146483719348907 -0.1958209127187729 0.8509151339530945 0 3
23.49589729309082 0.10544921457767487 -0.19528213143348694 0.8532638549804688 0 3
23.43210792541504 -1.9531249563442543e-05 -0.19475005567073822 0.8555952310562134 0 3
23.368671417236328 -0.10490234196186066 -0.19422514736652374 0.8579094409942627 0 3
23.305566787719727 -0.2091992199420929 -0.19370634853839874 0.8602063059806824 0 3
23.24281120300293 -0.31296873092651367 -0.19319488108158112 0.8624858260154724 0 3
23.180370330810547 -0.4161718785762787 -0.1926892101764679 0.8647480607032776 0 3
23.118261337280273 -0.518847644329071 -0.1921902447938919 0.8669925928115845 0 3
23.056425094604492 -0.6210351586341858 -0.19169768691062927 0.8692198991775513 0 3
22.994979858398438 -0.7226366996765137 -0.19121429324150085 0.8714296817779541 0 3
22.933807373046875 -0.8237695097923279 -0.19072875380516052 0.8736220598220825 0 3
22.872968673706055 -0.9243749976158142 -0.19025802612304688 0.8757964968681335 0 3
22.812381744384766 -1.0244921445846558 -0.18979065120220184 0.8779535889625549 0 3
22.75210952758789 -1.124121069908142 -0.18933150172233582 0.8800929188728333 0 3
22.692129135131836 -1.2232812643051147 -0.18887390196323395 0.8822144865989685 0 3
22.63245964050293 -1.3219726085662842 -0.18842406570911407 0.8843182325363159 0 3
22.57304573059082 -1.4201757907867432 -0.18798094987869263 0.8864042162895203 0 3
22.513906478881836 -1.5179296731948853 -0.18754318356513977 0.8884724378585815 0 3
22.45505714416504 -1.6152148246765137 -0.18711166083812714 0.8905227184295654 0 3
22.39646339416504 -1.7120897769927979 -0.1866883784532547 0.8925550580024719 0 3
22.338144302368164 -1.8084959983825684 -0.1862657070159912 0.8945692777633667 0 3
22.280057907104492 -1.9044921398162842 -0.18584899604320526 0.8965656757354736 0 3
22.2222843170166 -2.0000195503234863 -0.18544219434261322 0.8985439538955688 0 3
22.16472625732422 -2.0951952934265137 -0.18503905832767487 0.9005042314529419 0 3
22.107421875 -2.1899023056030273 -0.1846391260623932 0.9024462103843689 0 3
22.050390243530273 -2.284238338470459 -0.1842465102672577 0.9043699502944946 0 3
21.993515014648438 -2.3782031536102295 -0.18385985493659973 0.906275749206543 0 3
21.936952590942383 -2.4717187881469727 -0.18348082900047302 0.9081630110740662 0 3
21.880624771118164 -2.5648632049560547 -0.18309752643108368 0.9100320935249329 0 3
21.82451057434082 -2.6576170921325684 -0.18272735178470612 0.911882758140564 0 3
21.768632888793945 -2.75 -0.1823664754629135 0.9137152433395386 0 3
21.712947845458984 -2.842031240463257 -0.18199783563613892 0.9155291318893433 0 3
21.657480239868164 -2.933710813522339 -0.1816459596157074 0.9173247218132019 0 3
21.602264404296875 -3.025019407272339 -0.18129974603652954 0.9191018342971802 0 3
21.547245025634766 -3.115976572036743 -0.18095092475414276 0.9208604097366333 0 3
21.492422103881836 -3.20660138130188 -0.1806071400642395 0.9226003885269165 0 3
21.43783187866211 -3.296875 -0.18026885390281677 0.9243218898773193 0 3
21.3834171295166 -3.3868162631988525 -0.17993682622909546 0.9260245561599731 0 3
21.3292179107666 -3.4764256477355957 -0.17961272597312927 0.9277087450027466 0 3
21.27521514892578 -3.5657031536102295 -0.17929092049598694 0.9293742775917053 0 3
21.221385955810547 -3.6546874046325684 -0.178973987698555 0.9310210347175598 0 3
21.167734146118164 -3.743339776992798 -0.17865920066833496 0.9326490759849548 0 3
21.114295959472656 -3.831718683242798 -0.17835433781147003 0.934258222579956 0 3
21.061016082763672 -3.9197654724121094 -0.1780494600534439 0.9358487129211426 0 3
21.00796890258789 -4.007499694824219 -0.17775237560272217 0.937420129776001 0 3
20.95503807067871 -4.094960689544678 -0.17745666205883026 0.9389728307723999 0 3
20.902324676513672 -4.182148456573486 -0.17716887593269348 0.9405065774917603 0 3
20.84976577758789 -4.269023418426514 -0.17688293755054474 0.942021369934082 0 3
20.797382354736328 -4.355644226074219 -0.17660385370254517 0.9435172080993652 0 3
20.745136260986328 -4.441972732543945 -0.17632538080215454 0.9449940323829651 0 3
20.693084716796875 -4.528046607971191 -0.17605376243591309 0.946451723575592 0 3
20.641170501708984 -4.613867282867432 -0.17578856647014618 0.9478906393051147 0 3
20.589412689208984 -4.699413776397705 -0.17552398145198822 0.9493100643157959 0 3
20.537832260131836 -4.784707069396973 -0.17526854574680328 0.950710654258728 0 3
20.486366271972656 -4.869784832000732 -0.17501327395439148 0.9520919919013977 0 3
20.435077667236328 -4.954570293426514 -0.17476455867290497 0.9534542560577393 0 3
20.38392448425293 -5.039140701293945 -0.174518421292305 0.9547972083091736 0 3
20.332948684692383 -5.123456954956055 -0.17427505552768707 0.9561209082603455 0 3
20.282011032104492 -5.207558631896973 -0.17403563857078552 0.9574254751205444 0 3
20.23128890991211 -5.291425704956055 -0.17380447685718536 0.9587106108665466 0 3
20.180702209472656 -5.375078201293945 -0.17357298731803894 0.9599764347076416 0 3
20.130252838134766 -5.45849609375 -0.173350527882576 0.9612231254577637 0 3
20.07992172241211 -5.541698932647705 -0.1731310933828354 0.9624500870704651 0 3
19.954530715942383 -5.603613376617432 -0.17225982248783112 0.963657557964325 0 3
19.95390510559082 -5.7001953125 -0.1724775731563568 0.9648482799530029 0 3
19.904022216796875 -5.782656192779541 -0.1722680628299713 0.9660171270370483 0 3
19.854238510131836 -5.864960670471191 -0.1720626801252365 0.9671666622161865 0 3
19.804569244384766 -5.947070121765137 -0.1718609631061554 0.9682949781417847 0 3
19.75503921508789 -6.028964519500732 -0.17166458070278168 0.9694052934646606 0 3
19.70556640625 -6.110722541809082 -0.17147231101989746 0.970496416091919 0 3
19.656288146972656 -6.192206859588623 -0.171284019947052 0.9715677499771118 0 3
19.6070499420166 -6.273612976074219 -0.17109771072864532 0.9726197123527527 0 3
19.55790901184082 -6.354784965515137 -0.1709144562482834 0.9736520648002625 0 3
19.50894546508789 -6.435781002044678 -0.17073944211006165 0.9746628403663635 0 3
19.460018157958984 -6.516640663146973 -0.17056533694267273 0.9756559729576111 0 3
19.411230087280273 -6.597323894500732 -0.17039550840854645 0.976629376411438 0 3
19.33769416809082 -6.669296741485596 -0.17000915110111237 0.8734607696533203 0 3
19.338769912719727 -6.766933441162109 -0.17028532922267914 0.9785189032554626 0 3
19.29019546508789 -6.847265243530273 -0.170124813914299 0.9794331789016724 0 3
19.241680145263672 -6.927460670471191 -0.1699713170528412 0.9803277850151062 0 3
19.193300247192383 -7.007460594177246 -0.16981978714466095 0.9812024831771851 0 3
19.144922256469727 -7.087363243103027 -0.16967177391052246 0.9820576310157776 0 3
19.0966796875 -7.167128562927246 -0.16952544450759888 0.9828929901123047 0 3
19.048534393310547 -7.246757507324219 -0.16938887536525726 0.9837085008621216 0 3
19.000469207763672 -7.326230525970459 -0.16924834251403809 0.9845041036605835 0 3
18.95246124267578 -7.405605316162109 -0.16911421716213226 0.98527991771698 0 3
18.904531478881836 -7.484824180603027 -0.16898925602436066 0.9860361814498901 0 3
18.856639862060547 -7.563945293426514 -0.16886337101459503 0.9867721796035767 0 3
18.87089729309082 -7.668144226074219 -0.16929107904434204 0.7764843702316284 0 3
18.768125534057617 -7.724706649780273 -0.16868194937705994 0.7793040871620178 0 3
18.666112899780273 -7.780858993530273 -0.16808120906352997 0.7821083068847656 0 3
18.564804077148438 -7.836601257324219 -0.16747558116912842 0.7848966121673584 0 3
18.464237213134766 -7.891972541809082 -0.1668882668018341 0.7876691818237305 0 3
18.364336013793945 -7.946972370147705 -0.1663072109222412 0.7904257774353027 0 3
18.265174865722656 -8.001562118530273 -0.16573089361190796 0.7931666374206543 0 3
18.1666202545166 -8.055781364440918 -0.1651652455329895 0.795891523361206 0 3
18.06880760192871 -8.109628677368164 -0.1646047979593277 0.7986000776290894 0 3
17.97163963317871 -8.163105010986328 -0.16405120491981506 0.801292896270752 0 3
17.8751163482666 -8.216230392456055 -0.1635061651468277 0.8039692640304565 0 3
17.77925682067871 -8.269022941589355 -0.16296812891960144 0.8066296577453613 0 3
17.684003829956055 -8.321425437927246 -0.1624322533607483 0.8092734813690186 0 3
17.58935546875 -8.373554229736328 -0.16190871596336365 0.8119012713432312 0 3
17.49529266357422 -8.425312042236328 -0.16138778626918793 0.8145129084587097 0 3
17.401893615722656 -8.476698875427246 -0.16087844967842102 0.8171079158782959 0 3
17.309062957763672 -8.527812004089355 -0.1603715419769287 0.8196865320205688 0 3
17.216777801513672 -8.578593254089355 -0.159870907664299 0.8222486972808838 0 3
17.125097274780273 -8.629081726074219 -0.15937744081020355 0.824794352054596 0 3
17.03398323059082 -8.67919921875 -0.15889114141464233 0.8273231983184814 0 3
16.943418502807617 -8.7290620803833 -0.15840880572795868 0.8298352956771851 0 3
16.853378295898438 -8.778632164001465 -0.1579330414533615 0.8323307037353516 0 3
16.763925552368164 -8.827871322631836 -0.15746642649173737 0.834809422492981 0 3
16.6749210357666 -8.87685489654541 -0.15700362622737885 0.8372713327407837 0 3
16.586463928222656 -8.925546646118164 -0.1565452516078949 0.8397165536880493 0 3
16.498554229736328 -8.973925590515137 -0.15609526634216309 0.8421444892883301 0 3
16.4111328125 -9.022050857543945 -0.1556471288204193 0.8445557355880737 0 3
16.32417869567871 -9.069902420043945 -0.15520751476287842 0.8469501733779907 0 3
16.237733840942383 -9.117499351501465 -0.154774010181427 0.8493273258209229 0 3
16.151737213134766 -9.164824485778809 -0.15434448421001434 0.8516876697540283 0 3
16.066287994384766 -9.211874961853027 -0.15392088890075684 0.8540301322937012 0 3
15.981249809265137 -9.258671760559082 -0.153502956032753 0.8563555479049683 0 3
15.896678924560547 -9.305214881896973 -0.15309111773967743 0.8586643934249878 0 3
15.812578201293945 -9.351523399353027 -0.15268509089946747 0.8609553575515747 0 3
15.728886604309082 -9.397558212280273 -0.15228240191936493 0.8632292747497559 0 3
15.645663261413574 -9.443398475646973 -0.15188567340373993 0.865485668182373 0 3
15.562870979309082 -9.488965034484863 -0.15148422122001648 0.8677244186401367 0 3
15.480487823486328 -9.534296989440918 -0.15110793709754944 0.8699457049369812 0 3
15.398554801940918 -9.579413414001465 -0.1507255584001541 0.8721499443054199 0 3
15.316991806030273 -9.624316215515137 -0.1503448486328125 0.874336302280426 0 3
15.235858917236328 -9.668964385986328 -0.14997604489326477 0.8765050172805786 0 3
15.15511703491211 -9.71337890625 -0.1496041864156723 0.8786562085151672 0 3
15.074785232543945 -9.757636070251465 -0.1492462158203125 0.8807895183563232 0 3
14.994784355163574 -9.801640510559082 -0.14888885617256165 0.8829052448272705 0 3
14.915233612060547 -9.845449447631836 -0.14852873980998993 0.8850032091140747 0 3
14.836034774780273 -9.889042854309082 -0.14818786084651947 0.8870830535888672 0 3
9.576601028442383 -6.44558572769165 -0.09594237804412842 0.6467697620391846 0 3
9.497421264648438 -6.454413890838623 -0.09543807804584503 0.6501854658126831 0 3
9.419081687927246 -6.463144302368164 -0.09494689851999283 0.6535885334014893 0 3
9.341504096984863 -6.471776962280273 -0.09445251524448395 0.6569784879684448 0 3
9.264745712280273 -6.480331897735596 -0.09396865963935852 0.660355806350708 0 3
9.18912124633789 -6.48904275894165 -0.09349517524242401 0.69534832239151 0 3
9.1177339553833 -6.500175476074219 -0.09306427091360092 0.698565661907196 0 3
9.046953201293945 -6.511152267456055 -0.09263976663351059 0.7017699480056763 0 3
8.976836204528809 -6.522031307220459 -0.09222076088190079 0.7049598097801208 0 3
8.907343864440918 -6.532851219177246 -0.09180938452482224 0.708135724067688 0 3
8.838496208190918 -6.543515682220459 -0.09140075743198395 0.7112962007522583 0 3
8.770234107971191 -6.554121017456055 -0.09099548310041428 0.7144432663917542 0 3
8.70253849029541 -6.564667701721191 -0.09060149639844894 0.717576265335083 0 3
8.635468482971191 -6.575058460235596 -0.09020568430423737 0.7206946611404419 0 3
8.45914077758789 -6.5009765625 -0.08866943418979645 0.7237724661827087 0 3
8.394022941589355 -6.511054515838623 -0.08828811347484589 0.726373016834259 0 3
8.32943344116211 -6.521054744720459 -0.08791533857584 0.7294490933418274 0 3
8.265429496765137 -6.530956745147705 -0.08754852414131165 0.7325109839439392 0 3
8.236601829528809 -6.568437576293945 -0.08755248785018921 0.6768324375152588 0 3
8.247344017028809 -6.63781213760376 -0.0879804939031601 0.6735221743583679 0 3
8.193281173706055 -6.655117034912109 -0.08773071318864822 0.7421118021011353 0 3
8.130468368530273 -6.664882659912109 -0.08737686276435852 0.7451118230819702 0 3
8.068163871765137 -6.674550533294678 -0.08702697604894638 0.7480968832969666 0 3
8.006327629089355 -6.684160232543945 -0.08668243139982224 0.7510675191879272 0 3
7.944980144500732 -6.693710803985596 -0.0863436907529831 0.7540227174758911 0 3
7.884140491485596 -6.703125 -0.08600860089063644 0.7569628357887268 0 3
7.823710918426514 -6.712538719177246 -0.08567657321691513 0.7598870396614075 0 3
7.763808250427246 -6.721855163574219 -0.08535156399011612 0.7627965211868286 0 3
7.704335689544678 -6.731093406677246 -0.08502914011478424 0.7656903266906738 0 3
7.645312309265137 -6.740253925323486 -0.08470947295427322 0.7685691714286804 0 3
7.586718559265137 -6.749316215515137 -0.08439483493566513 0.7714324593544006 0 3
7.528534889221191 -6.758398056030273 -0.08408431708812714 0.7742803692817688 0 3
7.364335536956787 -6.6708984375 -0.08258422464132309 0.7771381139755249 0 3
7.307870864868164 -6.679667949676514 -0.08228591829538345 0.7799535393714905 0 3
7.251757621765137 -6.688398361206055 -0.08199188113212585 0.7827545404434204 0 3
7.19607400894165 -6.697031021118164 -0.08170104771852493 0.7854282259941101 0 3
7.140761375427246 -6.705605506896973 -0.08141433447599411 0.7881973385810852 0 3
7.149706840515137 -6.774726390838623 -0.08186157047748566 0.6116796731948853 0 3
7.122773170471191 -6.810039043426514 -0.08190246671438217 0.7937726974487305 0 3
7.06787109375 -6.818593502044678 -0.08162353187799454 0.7964943647384644 0 3
7.013398170471191 -6.827011585235596 -0.08134658634662628 0.7991998195648193 0 3
6.959296703338623 -6.835410118103027 -0.08107452094554901 0.801888108253479 0 3
6.905507564544678 -6.843789100646973 -0.08080489933490753 0.8045614957809448 0 3
28.573280334472656 28.573299407958984 -1.0077329874038696 0.5354272127151489 0 3
28.905818939208984 28.647539138793945 -1.014913558959961 0.532429575920105 0 3
29.13913917541504 28.620662689208984 -1.0185874700546265 0.8500624895095825 0 3
29.18650245666504 28.410995483398438 -1.0157734155654907 0.8524152040481567 0 3
28.07406234741211 27.083768844604492 -0.9728156328201294 0.8500435948371887 0 3
28.117870330810547 26.8834171295166 -0.9701467752456665 0.8574479222297668 0 3
28.16277313232422 26.685409545898438 -0.9675449728965759 0.8598932027816772 0 3
28.480819702148438 26.7452335357666 -0.9743409752845764 0.5092712640762329 0 3
28.87533187866211 26.87287139892578 -0.9836968779563904 0.5047769546508789 0 3
29.21990203857422 26.94988250732422 -0.9913102388381958 0.501712441444397 0 3
29.509334564208984 26.972734451293945 -0.9970137476921082 0.864335298538208 0 3
29.553300857543945 26.77048683166504 -0.9944325089454651 0.8665809631347656 0 3
29.59701156616211 26.569217681884766 -0.9918760657310486 0.8688094019889832 0 3
28.464101791381836 25.32244110107422 -0.9500935077667236 0.8705984354019165 0 3
28.60982322692871 25.22294807434082 -0.9511697292327881 0.4845167398452759 0 3
28.957576751708984 25.29949188232422 -0.9589475989341736 0.4809132218360901 0 3
29.372108459472656 25.430116653442383 -0.9688817858695984 0.47662195563316345 0 3
29.73224449157715 25.509355545043945 -0.9769822359085083 0.47267311811447144 0 3
30.098514556884766 25.59000015258789 -0.9852355122566223 0.46871495246887207 0 3
30.47103500366211 25.671972274780273 -0.9936466813087463 0.46474677324295044 0 3
30.849863052368164 25.755292892456055 -1.0022155046463013 0.461690217256546 0 3
31.04814338684082 25.685253143310547 -1.0049062967300415 0.889914333820343 0 3
31.092010498046875 25.487382888793945 -1.0026103258132935 0.8919491767883301 0 3
30.65281105041504 24.898183822631836 -0.9848336577415466 0.9997140169143677 0 3
30.139842987060547 24.2578125 -0.9648432731628418 0.5970060229301453 0 3
30.067480087280273 23.97798728942871 -0.9590763449668884 0.6005988121032715 0 3
29.987890243530273 23.69511604309082 -0.9531433582305908 0.5708715915679932 0 3
30.107421875 23.570858001708984 -0.9535637497901917 0.9022645950317383 0 3
30.148632049560547 23.385644912719727 -0.9515318274497986 0.9041875600814819 0 3
30.189706802368164 23.201229095458984 -0.9495310187339783 0.9060921669006348 0 3
30.15005874633789 22.956268310546875 -0.9450356960296631 0.9620115160942078 0 3
30.2802734375 22.84148406982422 -0.9458954334259033 0.9988131523132324 0 3
30.388671875 22.709980010986328 -0.9460870027542114 0.9986101388931274 0 3
30.497108459472656 22.578397750854492 -0.9462997317314148 0.9983866810798645 0 3
30.678241729736328 22.500078201293945 -0.9487771391868591 0.868500828742981 0 3
30.85808563232422 22.41972541809082 -0.9512196183204651 0.8662700653076172 0 3
31.039003372192383 22.33900260925293 -0.9536920189857483 0.864021360874176 0 3
31.2208194732666 22.257850646972656 -0.9561999440193176 0.8617554903030396 0 3
31.34324073791504 22.133651733398438 -0.9569180011749268 0.7628594040870667 0 3
31.74394416809082 22.20374870300293 -0.9660784006118774 0.5219495296478271 0 3
32.16177749633789 22.281757354736328 -0.9757432341575623 0.37807542085647583 0 3
32.620155334472656 22.383319854736328 -0.9865954518318176 0.37391769886016846 0 3
33.19937515258789 22.562284469604492 -1.0010371208190918 0.3812660574913025 0 3
33.80681610107422 22.753963470458984 -1.0162638425827026 0.36557817459106445 0 3
34.300682067871094 22.863378524780273 -1.028019666671753 0.361398845911026 0 3
34.439571380615234 22.7333984375 -1.029096007347107 0.35721009969711304 0 3
35.074432373046875 22.92708969116211 -1.044987440109253 0.3530157804489136 0 3
35.60068130493164 23.043691635131836 -1.0575811862945557 0.34882014989852905 0 3
31.32992172241211 20.08039093017578 -0.9280198216438293 0.8304685950279236 0 3
31.418203353881836 19.93861198425293 -0.9279810786247253 0.8329584002494812 0 3
31.414119720458984 19.738807678222656 -0.9252347946166992 0.8354308605194092 0 3
31.410097122192383 19.54021453857422 -0.9225219488143921 0.8378863334655762 0 3
31.40605354309082 19.34273338317871 -0.9198386669158936 0.8403253555297852 0 3
31.402050018310547 19.146406173706055 -0.9172044396400452 0.8427470922470093 0 3
31.3980655670166 18.951190948486328 -0.9145893454551697 0.8451518416404724 0 3
31.394100189208984 18.757108688354492 -0.9120166301727295 0.8475396037101746 0 3
31.297889709472656 18.509511947631836 -0.9068357348442078 0.8499118685722351 0 3
31.40951156616211 18.385761260986328 -0.907627522945404 0.9721728563308716 0 3
31.709842681884766 18.370996475219727 -0.9139216542243958 0.5187661051750183 0 3
32.02907943725586 18.36443328857422 -0.920738935470581 0.5149253606796265 0 3
32.11167907714844 18.220781326293945 -0.920746922492981 0.8592226505279541 0 3
31.19580078125 17.516504287719727 -0.89222651720047 0.8615064024925232 0 3
31.191991806030273 17.33070182800293 -0.8898863792419434 0.8637741208076477 0 3
31.188241958618164 17.145877838134766 -0.887570321559906 0.8660240173339844 0 3
31.311269760131836 17.030956268310547 -0.8888915777206421 0.49556833505630493 0 3
31.636484146118164 17.024295806884766 -0.8959440588951111 0.4916665256023407 0 3
31.966894149780273 17.017518997192383 -0.9031257629394531 0.48775479197502136 0 3
32.19839859008789 16.955760955810547 -0.907512366771698 0.8748487234115601 0 3
32.19460678100586 16.769628524780273 -0.9052736759185791 0.8770110011100769 0 3
32.19083786010742 16.584413528442383 -0.903063178062439 0.8791555762290955 0 3
32.187068939208984 16.400096893310547 -0.900884211063385 0.8812826871871948 0 3
32.183319091796875 16.216678619384766 -0.8987334966659546 0.8833916783332825 0 3
32.179569244384766 16.034120559692383 -0.8966096043586731 0.8854829668998718 0 3
32.175899505615234 15.85244083404541 -0.8945125937461853 0.8875566124916077 0 3
32.17220687866211 15.671562194824219 -0.8924500942230225 0.8896123766899109 0 3
32.16853332519531 15.49154281616211 -0.8904063701629639 0.8916500210762024 0 3
32.16486358642578 15.312323570251465 -0.8883972764015198 0.8936699032783508 0 3
31.1373233795166 14.652148246765137 -0.8581929802894592 0.8956714868545532 0 3
31.133808135986328 14.480155944824219 -0.8562925457954407 0.8976553082466125 0 3
31.13033103942871 14.308944702148438 -0.8544213175773621 0.8996208906173706 0 3
31.1748046875 14.160253524780273 -0.8538917899131775 0.4320014715194702 0 3
31.53365135192871 14.152871131896973 -0.8619756102561951 0.4279467463493347 0 3
31.899433135986328 14.145390510559082 -0.8702267408370972 0.4238876700401306 0 3
32.02617263793945 14.02994155883789 -0.8719519376754761 0.9073025584220886 0 3
32.02263641357422 13.857440948486328 -0.8701596856117249 0.9091758131980896 0 3
32.019100189208984 13.685625076293945 -0.868388831615448 0.9110322594642639 0 3
31.18878746032715 13.165468215942383 -0.8442517518997192 0.9128706455230713 0 3
31.27734375 13.037792205810547 -0.8450618386268616 0.9146906137466431 0 3
31.273944854736328 12.871953010559082 -0.8433966636657715 0.9164918065071106 0 3
31.270586013793945 12.706738471984863 -0.841761589050293 0.9182745218276978 0 3
31.2672061920166 12.542187690734863 -0.8401492238044739 0.920038640499115 0 3
25.6962890625 10.1738862991333 -0.6892160177230835 0.8405797481536865 0 3
11.877655982971191 4.641171932220459 -0.3180200159549713 0.8154348731040955 593 13
11.89443302154541 4.586288928985596 -0.3179147243499756 0.879875659942627 593 13
12.015273094177246 4.571034908294678 -0.3205920457839966 0.5747080445289612 593 13
12.01650333404541 4.509863376617432 -0.32008346915245056 0.6925967335700989 593 13
12.045292854309082 4.459082126617432 -0.32031357288360596 0.6391086578369141 593 13
12.113808631896973 4.422753810882568 -0.3216056823730469 0.34136641025543213 593 13
12.209101676940918 4.395546913146973 -0.3236062526702881 0.918877363204956 593 13
25.472753524780273 9.04183578491211 -0.6740826368331909 0.8594608902931213 0 3
25.44548797607422 8.903769493103027 -0.6722978353500366 0.861743688583374 0 3
25.418397903442383 8.766464233398438 -0.6705354452133179 0.8640092015266418 0 3
25.39144515991211 8.629843711853027 -0.6687951683998108 0.8662572503089905 0 3
25.36457061767578 8.493906021118164 -0.6670759320259094 0.8684878945350647 0 3
25.33785057067871 8.358672142028809 -0.6653785705566406 0.8707008957862854 0 3
25.311288833618164 8.224140167236328 -0.663706362247467 0.8728963732719421 0 3
25.284862518310547 8.090272903442383 -0.6620551943778992 0.8750743865966797 0 3
25.25859260559082 7.957089900970459 -0.660425066947937 0.877234697341919 0 3
25.232362747192383 7.824511528015137 -0.658814549446106 0.8793772459030151 0 3
25.206327438354492 7.692616939544678 -0.6572253108024597 0.8815021514892578 0 3
25.180410385131836 7.561327934265137 -0.6556593179702759 0.8836092948913574 0 3
25.15462875366211 7.430703163146973 -0.6541132926940918 0.885698676109314 0 3
25.128963470458984 7.300624847412109 -0.6525841951370239 0.887770414352417 0 3
25.103378295898438 7.171191215515137 -0.6510807871818542 0.8898239135742188 0 3
25.07794952392578 7.042343616485596 -0.6495968699455261 0.891859769821167 0 3
25.052616119384766 6.914082050323486 -0.6481289267539978 0.8938775658607483 0 3
25.027421951293945 6.78640604019165 -0.6466802954673767 0.8958771228790283 0 3
25.002323150634766 6.65929651260376 -0.6452620029449463 0.8978589177131653 0 3
24.977323532104492 6.53271484375 -0.6438453793525696 0.8998227119445801 0 3
24.95244026184082 6.406718730926514 -0.6424626111984253 0.9017682075500488 0 3
24.927656173706055 6.281230449676514 -0.6410828828811646 0.9036955237388611 0 3
24.90296745300293 6.156289100646973 -0.639739990234375 0.9056046605110168 0 3
24.878437042236328 6.031874656677246 -0.6384007334709167 0.9074956774711609 0 3
24.85396385192871 5.907968521118164 -0.6370909214019775 0.9093682765960693 0 3
24.82958984375 5.784570217132568 -0.6357915997505188 0.9112224578857422 0 3
24.80533218383789 5.661660194396973 -0.6345141530036926 0.9130584597587585 0 3
24.781131744384766 5.539257526397705 -0.6332505941390991 0.9148760437965393 0 3
24.757049560546875 5.417304515838623 -0.632009744644165 0.9166750907897949 0 3
24.733123779296875 5.295878887176514 -0.6307841539382935 0.9184558391571045 0 3
24.709197998046875 5.174882888793945 -0.6295742392539978 0.9202181696891785 0 3
24.685409545898438 5.054374694824219 -0.6283851265907288 0.9219616651535034 0 3
24.661699295043945 4.934277057647705 -0.6272117495536804 0.9236867427825928 0 3
24.638046264648438 4.814667701721191 -0.6260586380958557 0.925393283367157 0 3
24.614511489868164 4.695468425750732 -0.624915599822998 0.9270810484886169 0 3
24.591073989868164 4.576699256896973 -0.623789370059967 0.928750216960907 0 3
24.567752838134766 4.458398342132568 -0.6226855516433716 0.9304007887840271 0 3
24.544471740722656 4.340487957000732 -0.6215997338294983 0.9320324659347534 0 3
24.521230697631836 4.222968578338623 -0.6205216646194458 0.933645486831665 0 3
24.498144149780273 4.105878829956055 -0.6194654703140259 0.9352394938468933 0 3
24.47507667541504 3.9891600608825684 -0.6184223890304565 0.9368148446083069 0 3
24.45212745666504 3.872870922088623 -0.6174009442329407 0.9383711814880371 0 3
24.42919921875 3.75689435005188 -0.6163888573646545 0.9399088621139526 0 3
24.40638542175293 3.6413280963897705 -0.6153930425643921 0.9414273500442505 0 3
24.383651733398438 3.5261716842651367 -0.6144166588783264 0.9429269433021545 0 3
24.3609561920166 3.411308526992798 -0.6134518384933472 0.9444076418876648 0 3
24.33835792541504 3.2968358993530273 -0.612504243850708 0.9458693265914917 0 3
24.315839767456055 3.182753801345825 -0.6115707159042358 0.9473117589950562 0 3
24.293378829956055 3.0689451694488525 -0.6106542944908142 0.9487354159355164 0 3
24.2529296875 2.953320264816284 -0.6092968583106995 0.5089909434318542 0 3
24.221717834472656 2.8392772674560547 -0.6081875562667847 0.951526939868927 0 3
24.199491500854492 2.726621150970459 -0.6073168516159058 0.9528930187225342 0 3
24.177284240722656 2.6142773628234863 -0.6064600944519043 0.9542379379272461 0 3
24.155195236206055 2.502265453338623 -0.6056124567985535 0.9555656909942627 0 3
24.13312530517578 2.3905467987060547 -0.604787290096283 0.9568740129470825 0 3
24.11113166809082 2.279179573059082 -0.603973388671875 0.9581630825996399 0 3
24.08919906616211 2.168046712875366 -0.6031720042228699 0.95943284034729 0 3
24.067304611206055 2.0572264194488525 -0.6023890376091003 0.9606833457946777 0 3
24.045448303222656 1.946718692779541 -0.6016169786453247 0.9619124531745911 0 3
24.02372932434082 1.8364452123641968 -0.6008620858192444 0.9631243348121643 0 3
23.95085906982422 1.7227929830551147 -0.5988423228263855 0.9643190503120422 0 3
24.004745483398438 1.61843740940094 -0.5999990701675415 0.8966501355171204 0 3
13.35400390625 0.840136706829071 -0.3336862027645111 0.7184174656867981 0 6
13.334784507751465 0.7788866758346558 -0.3331143260002136 0.9996626973152161 0 6
23.94222640991211 1.2906835079193115 -0.5979437232017517 0.968893826007843 0 3
23.92074203491211 1.1818749904632568 -0.5972735285758972 0.9699888229370117 0 3
23.899295806884766 1.0733202695846558 -0.5966114401817322 0.9710642695426941 0 3
23.87790870666504 0.96498042345047 -0.5959644913673401 0.9721202850341797 0 3
23.856542587280273 0.8568944931030273 -0.5953303575515747 0.9731566905975342 0 3
23.83529281616211 0.7490429282188416 -0.594708263874054 0.9741734266281128 0 3
23.82093620300293 0.6415820121765137 -0.5942702889442444 0.8410914540290833 0 3
23.75537109375 0.5331835746765137 -0.5925706624984741 0.8435074090957642 0 3
23.690135955810547 0.4253320097923279 -0.5908886790275574 0.8459067344665527 0 3
23.625272750854492 0.3181249797344208 -0.589228630065918 0.848288893699646 0 3
23.560760498046875 0.21150390803813934 -0.5875904560089111 0.8506540656089783 0 3
23.496620178222656 0.10544921457767487 -0.585976243019104 0.8530018329620361 0 3
23.432811737060547 -0.0 -0.5843783617019653 0.8553326725959778 0 3
23.369375228881836 -0.10490234196186066 -0.5828004479408264 0.8576462864875793 0 3
23.3062686920166 -0.2091992199420929 -0.5812443494796753 0.8599425554275513 0 3
23.243515014648438 -0.31296873092651367 -0.5797082185745239 0.8622213006019592 0 3
23.181093215942383 -0.4161913990974426 -0.5781940817832947 0.8644828796386719 0 3
