ply
format ascii 1.0
element vertex 594
property float32 x
property float32 y
property float32 z
property float32 CosAngle
property uint32 ObjIdx
property uint32 ObjTag
end_header
20.254823684692383 3.488212823867798 -1.884247064590454 0.08742398768663406 0 1
20.270898818969727 3.397392511367798 -1.8843047618865967 0.08742125332355499 0 1
20.286561965942383 3.3064939975738525 -1.884360671043396 0.08741869032382965 0 1
20.301776885986328 3.2154979705810547 -1.8844149112701416 0.0874161496758461 0 1
20.31656265258789 3.124443292617798 -1.8844674825668335 0.08741378039121628 0 1
20.33089828491211 3.0333104133605957 -1.8845183849334717 0.08741141855716705 0 1
20.34488296508789 2.9420995712280273 -1.8845678567886353 0.08740897476673126 0 1
20.358379364013672 2.8508496284484863 -1.884615182876587 0.08740696310997009 0 1
20.371463775634766 2.7595019340515137 -1.8846611976623535 0.08740469813346863 0 1
20.384140014648438 2.6681151390075684 -1.8847051858901978 0.08740267902612686 0 1
20.396347045898438 2.576669931411743 -1.8847476243972778 0.08740074187517166 0 1
20.40816307067871 2.4851465225219727 -1.8847885131835938 0.08739881217479706 0 1
20.419511795043945 2.393603563308716 -1.8848274946212769 0.08739703893661499 0 1
20.43048858642578 2.3019824028015137 -1.8848650455474854 0.08739527314901352 0 1
20.440975189208984 2.2103025913238525 -1.8849005699157715 0.08739373832941055 0 1
20.451074600219727 2.1185643672943115 -1.884934663772583 0.08739203959703445 0 1
20.46074104309082 2.026806592941284 -1.8849669694900513 0.08739057928323746 0 1
20.469940185546875 1.9350097179412842 -1.8849977254867554 0.08738919347524643 0 1
20.47869110107422 1.8431347608566284 -1.885026454925537 0.08738788962364197 0 1
20.487070083618164 1.751220703125 -1.8850536346435547 0.08738657832145691 0 1
20.494979858398438 1.6592870950698853 -1.885079264640808 0.08738549798727036 0 1
20.502498626708984 1.5672948360443115 -1.8851031064987183 0.08738432079553604 0 1
20.50959014892578 1.4753026962280273 -1.8851253986358643 0.0873832255601883 0 1
20.516210556030273 1.3832519054412842 -1.8851457834243774 0.08738227188587189 0 1
20.522441864013672 1.2911815643310547 -1.8851646184921265 0.08738140016794205 0 1
20.528202056884766 1.199072241783142 -1.8851815462112427 0.08738059550523758 0 1
20.53353500366211 1.1069433689117432 -1.8851968050003052 0.08737993985414505 0 1
20.538476943969727 1.0147753953933716 -1.885210633277893 0.08737917989492416 0 1
20.542909622192383 0.922607421875 -1.8852224349975586 0.08737882226705551 0 1
20.546972274780273 0.8304003477096558 -1.8852328062057495 0.08737821131944656 0 1
20.55058479309082 0.73817378282547 -1.885241150856018 0.08737791329622269 0 1
20.553730010986328 0.645947277545929 -1.885248064994812 0.08737767487764359 0 1
20.556522369384766 0.5537011623382568 -1.8852533102035522 0.08737733960151672 0 1
20.558847427368164 0.4614355266094208 -1.8852566480636597 0.0873771607875824 0 1
20.56070327758789 0.3691699206829071 -1.885258436203003 0.08737712353467941 0 1
20.56214714050293 0.2768652141094208 -1.885258436203003 0.08737707138061523 0 1
20.563182830810547 0.1845996081829071 -1.8852567672729492 0.087377168238163 0 1
20.56376838684082 0.0923144519329071 -1.8852534294128418 0.08737732470035553 0 1
20.563886642456055 2.9296874345163815e-05 -1.8852481842041016 0.0873776376247406 0 1
10.890507698059082 -0.048857420682907104 -0.9984250664710999 0.3102305829524994 593 13
10.824687004089355 -0.09715820103883743 -0.9924183487892151 0.3768366575241089 593 13
10.694296836853027 -0.14399413764476776 -0.9805152416229248 0.29602915048599243 593 13
10.652050971984863 -0.19124023616313934 -0.9767088294029236 0.5564683675765991 593 13
10.645155906677246 -0.23891600966453552 -0.9761685729026794 0.5936144590377808 593 13
10.66455078125 -0.28721678256988525 -0.978053867816925 0.4643697142601013 593 13
10.836601257324219 -0.34053710103034973 -0.9939614534378052 0.3984120190143585 593 13
10.9194917678833 -0.3922168016433716 -1.0017169713974 0.26472023129463196 593 13
20.545801162719727 -0.8303027153015137 -1.885125994682312 0.08738324791193008 0 1
20.5416202545166 -0.9225097298622131 -1.8851038217544556 0.08738431334495544 0 1
20.537031173706055 -1.0146971940994263 -1.8850802183151245 0.08738535642623901 0 1
20.531972885131836 -1.1068261861801147 -1.8850547075271606 0.08738655596971512 0 1
20.5264835357666 -1.1989550590515137 -1.8850274085998535 0.08738791197538376 0 1
20.5206241607666 -1.2910254001617432 -1.8849986791610718 0.08738916367292404 0 1
20.51429557800293 -1.3831151723861694 -1.8849681615829468 0.0873904898762703 0 1
20.507558822631836 -1.47512686252594 -1.8849358558654785 0.08739197254180908 0 1
20.50033187866211 -1.5671191215515137 -1.884902000427246 0.0873936116695404 0 1
20.492713928222656 -1.6590722799301147 -1.8848662376403809 0.08739524334669113 0 1
20.484647750854492 -1.7509863376617432 -1.8848289251327515 0.0873970240354538 0 1
20.476152420043945 -1.8428808450698853 -1.8847899436950684 0.0873987153172493 0 1
20.46724510192871 -1.9347167015075684 -1.8847492933273315 0.08740057796239853 0 1
20.45785140991211 -2.026494026184082 -1.884706735610962 0.08740275353193283 0 1
20.448144912719727 -2.118232488632202 -1.8846627473831177 0.08740459382534027 0 1
20.075252532958984 -2.170732259750366 -1.8511784076690674 0.11030227690935135 0 2
19.353124618530273 -2.180556535720825 -1.7854708433151245 0.14386104047298431 0 2
19.249765396118164 -2.2564549446105957 -1.7768505811691284 0.08741124719381332 0 2
19.23890495300293 -2.3427441120147705 -1.776802659034729 0.08741364628076553 0 2
19.2276554107666 -2.4289941787719727 -1.7767529487609863 0.0874161571264267 0 2
19.216014862060547 -2.515185594558716 -1.7767019271850586 0.08741859346628189 0 2
19.203964233398438 -2.601318359375 -1.7766491174697876 0.0874212235212326 0 2
19.1915225982666 -2.6874120235443115 -1.776595115661621 0.08742380142211914 0 2
19.178632736206055 -2.773427724838257 -1.7765390872955322 0.08742665499448776 0 2
19.16537094116211 -2.859365224838257 -1.7764816284179688 0.08742954581975937 0 2
19.151718139648438 -2.9452831745147705 -1.7764227390289307 0.087432362139225 0 2
19.137636184692383 -3.03106427192688 -1.7763619422912598 0.08743539452552795 0 2
19.12318229675293 -3.116826057434082 -1.7762998342514038 0.08743845671415329 0 2
19.108320236206055 -3.202509641647339 -1.7762361764907837 0.08744155615568161 0 2
19.09306526184082 -3.2881152629852295 -1.7761709690093994 0.08744475245475769 0 2
14.77415943145752 -2.612665891647339 -1.3754738569259644 0.34884753823280334 0 6
14.722108840942383 -2.6716504096984863 -1.3717318773269653 0.9987609386444092 0 6
14.741718292236328 -2.743603467941284 -1.3746910095214844 0.9823434948921204 0 6
14.741913795471191 -2.8121776580810547 -1.3758705854415894 0.9815015196800232 0 6
14.72240161895752 -2.8769824504852295 -1.375235915184021 0.9999223351478577 0 6
18.993066787719727 -3.8000876903533936 -1.7757461071014404 0.08746562153100967 0 2
18.975000381469727 -3.885126829147339 -1.775669813156128 0.08746947348117828 0 2
18.95654296875 -3.970087766647339 -1.7755919694900513 0.08747328817844391 0 2
18.93767547607422 -4.054931640625 -1.7755126953125 0.08747715502977371 0 2
18.91845703125 -4.139697074890137 -1.775431752204895 0.0874810665845871 0 2
18.898807525634766 -4.224365234375 -1.7753493785858154 0.08748511224985123 0 2
18.87873077392578 -4.308935642242432 -1.7752652168273926 0.08748941123485565 0 2
18.858320236206055 -4.393408298492432 -1.7751797437667847 0.08749349415302277 0 2
18.837499618530273 -4.477802753448486 -1.7750927209854126 0.08749773353338242 0 2
18.81624984741211 -4.562060356140137 -1.7750039100646973 0.08750220388174057 0 2
18.794628143310547 -4.646220684051514 -1.7749137878417969 0.08750665932893753 0 2
18.77263641357422 -4.730263710021973 -1.7748219966888428 0.08751127868890762 0 2
18.750194549560547 -4.814228534698486 -1.7747286558151245 0.08751586079597473 0 2
18.727441787719727 -4.898076057434082 -1.7746340036392212 0.08752036094665527 0 2
18.70423698425293 -4.981806755065918 -1.7745375633239746 0.08752518892288208 0 2
18.680644989013672 -5.065419673919678 -1.7744396924972534 0.08753009885549545 0 2
18.656679153442383 -5.148896217346191 -1.774340271949768 0.08753500133752823 0 2
18.632343292236328 -5.232295036315918 -1.774239420890808 0.087539903819561 0 2
18.60759735107422 -5.315556526184082 -1.7741369009017944 0.0875449925661087 0 2
18.58247947692871 -5.398681640625 -1.7740331888198853 0.08755006641149521 0 2
18.55693244934082 -5.481728553771973 -1.7739275693893433 0.08755533397197723 0 2
18.531034469604492 -5.564599514007568 -1.7738206386566162 0.08756061643362045 0 2
18.50470733642578 -5.647353172302246 -1.773711919784546 0.0875660628080368 0 2
18.478086471557617 -5.729990005493164 -1.7736021280288696 0.08757134526968002 0 2
18.451034545898438 -5.812509536743164 -1.77349054813385 0.08757682144641876 0 2
18.423534393310547 -5.894873142242432 -1.773377537727356 0.08758261799812317 0 2
18.395742416381836 -5.977138519287109 -1.7732632160186768 0.08758804202079773 0 2
18.36750030517578 -6.059228420257568 -1.7731471061706543 0.08759386837482452 0 2
18.338945388793945 -6.141181468963623 -1.7730295658111572 0.08759962022304535 0 2
18.827518463134766 -6.398915767669678 -1.8230254650115967 0.0876055359840393 0 2
18.797344207763672 -6.482919692993164 -1.822901725769043 0.08761145174503326 0 2
18.766796112060547 -6.56676721572876 -1.8227763175964355 0.087617427110672 0 2
18.735742568969727 -6.650439262390137 -1.8226492404937744 0.08762378245592117 0 2
18.70443344116211 -6.733994007110596 -1.8225208520889282 0.0876297578215599 0 2
18.672714233398438 -6.817392349243164 -1.8223910331726074 0.08763591945171356 0 2
18.64058494567871 -6.900615215301514 -1.8222594261169434 0.08764233440160751 0 2
18.60806655883789 -6.983701229095459 -1.8221263885498047 0.08764877170324326 0 2
18.575136184692383 -7.066591739654541 -1.8219918012619019 0.08765531331300735 0 2
18.541854858398438 -7.149364948272705 -1.821855902671814 0.08766185492277145 0 2
18.508203506469727 -7.23196268081665 -1.821718454360962 0.08766833692789078 0 2
18.47412109375 -7.314404010772705 -1.8215793371200562 0.08767510205507278 0 2
18.439706802368164 -7.396669864654541 -1.8214390277862549 0.08768180757761002 0 2
18.404882431030273 -7.478779315948486 -1.8212969303131104 0.0876886323094368 0 2
18.369707107543945 -7.560673713684082 -1.8211535215377808 0.08769557625055313 0 2
18.33411979675293 -7.64245080947876 -1.821008563041687 0.08770254254341125 0 2
18.239042282104492 -7.699071884155273 -1.8149771690368652 0.5318653583526611 0 3
18.078027725219727 -7.726884365081787 -1.8023921251296997 0.5355799794197083 0 3
17.919296264648438 -7.754306316375732 -1.7900131940841675 0.5392832159996033 0 3
17.762676239013672 -7.781376838684082 -1.7778396606445312 0.5429759621620178 0 3
17.608163833618164 -7.808095455169678 -1.7658681869506836 0.5466572046279907 0 3
17.455780029296875 -7.834443092346191 -1.7540936470031738 0.5503270626068115 0 3
17.305389404296875 -7.860478401184082 -1.7425085306167603 0.5539858341217041 0 3
17.156991958618164 -7.886122703552246 -1.7311100959777832 0.5576329827308655 0 3
17.010507583618164 -7.911454677581787 -1.7198940515518188 0.5612695217132568 0 3
16.86589813232422 -7.936474323272705 -1.7088602781295776 0.5648936629295349 0 3
15.050995826721191 -7.165126800537109 -1.5282162427902222 0.9541275501251221 0 3
15.039081573486328 -7.242431640625 -1.5302902460098267 0.9528343081474304 0 3
12.42626953125 -6.053037166595459 -1.2671833038330078 0.43988099694252014 0 3
12.289101600646973 -6.05456018447876 -1.2559466361999512 0.8911829590797424 0 3
12.28945255279541 -6.123466491699219 -1.258780837059021 0.8891751766204834 0 3
12.289843559265137 -6.192646503448486 -1.2616571187973022 0.88714998960495 0 3
12.290253639221191 -6.262157917022705 -1.2645680904388428 0.88510662317276 0 3
12.290624618530273 -6.332021236419678 -1.267520546913147 0.8830457925796509 0 3
12.291152000427246 -6.402255535125732 -1.2705235481262207 0.8792272210121155 0 3
12.291776657104492 -6.472861289978027 -1.2735779285430908 0.8783547878265381 0 3
12.292245864868164 -6.543740272521973 -1.2766575813293457 0.8762375116348267 0 3
12.292695045471191 -6.614970684051514 -1.279775857925415 0.8741026520729065 0 3
12.293164253234863 -6.686532974243164 -1.282930850982666 0.8719505071640015 0 3
12.29361343383789 -6.758447170257568 -1.2861323356628418 0.869780421257019 0 3
10.897069931030273 -6.054541110992432 -1.1428643465042114 0.47871923446655273 0 3
10.781991958618164 -6.054091453552246 -1.1336307525634766 0.4826178252696991 0 3
10.670682907104492 -6.054755687713623 -1.124779224395752 0.494999498128891 0 3
10.564374923706055 -6.057255744934082 -1.1164218187332153 0.8614645600318909 0 3
10.564745903015137 -6.120595455169678 -1.1193506717681885 0.8592102527618408 0 3
10.565058708190918 -6.184345722198486 -1.122316598892212 0.8569384813308716 0 3
10.5654296875 -6.248388767242432 -1.1253221035003662 0.8546498417854309 0 3
10.565780639648438 -6.312763690948486 -1.1283668279647827 0.8523437976837158 0 3
10.566171646118164 -6.377509593963623 -1.1314506530761719 0.8500206470489502 0 3
10.566523551940918 -6.442626953125 -1.1345776319503784 0.8457416892051697 0 3
10.567011833190918 -6.508134841918945 -1.1377546787261963 0.8447651863098145 0 3
10.567401885986328 -6.574013710021973 -1.1409634351730347 0.8423877358436584 0 3
10.56787109375 -6.640224456787109 -1.144216537475586 0.8399941325187683 0 3
10.56826114654541 -6.706845760345459 -1.1475107669830322 0.8375829458236694 0 3
10.56869125366211 -6.773837566375732 -1.1508450508117676 0.835155189037323 0 3
9.303183555603027 -6.021767616271973 -1.0159690380096436 0.5407765507698059 0 3
9.21484375 -6.023447036743164 -1.0092633962631226 0.0872761681675911 0 3
9.18667984008789 -6.064052581787109 -1.0091509819030762 0.08733093738555908 0 3
9.158339500427246 -6.10452127456665 -1.0090372562408447 0.08786579966545105 0 3
9.129921913146973 -6.144950866699219 -1.0089346170425415 0.0872439369559288 0 3
9.101249694824219 -6.185185432434082 -1.0088244676589966 0.08725347369909286 0 3
9.072402000427246 -6.225283145904541 -1.0087136030197144 0.08726305514574051 0 3
9.04335880279541 -6.265263557434082 -1.008601188659668 0.08721742779016495 0 3
9.014179229736328 -6.305087566375732 -1.008492350578308 0.08764441311359406 0 3
9.013554573059082 -6.365068435668945 -1.0116064548492432 0.8121362328529358 0 3
9.0137300491333 -6.426005840301514 -1.0148522853851318 0.8095134496688843 0 3
9.013847351074219 -6.48733377456665 -1.0181357860565186 0.8071227669715881 0 3
9.052557945251465 -6.577079772949219 -1.025833010673523 0.804227352142334 0 3
9.052773475646973 -6.639462947845459 -1.0292202234268188 0.8015819787979126 0 3
9.052909851074219 -6.702294826507568 -1.0326496362686157 0.798919677734375 0 3
9.053085327148438 -6.765536785125732 -1.036122441291809 0.7962414026260376 0 3
9.053261756896973 -6.829208850860596 -1.0396400690078735 0.7935479879379272 0 3
9.053437232971191 -6.893310546875 -1.0432013273239136 0.7908375263214111 0 3
9.053632736206055 -6.957841873168945 -1.0468100309371948 0.7881115078926086 0 3
9.053828239440918 -7.022841453552246 -1.0504660606384277 0.7853701710700989 0 3
9.053984642028809 -7.088290691375732 -1.0541672706604004 0.7826122045516968 0 3
9.054179191589355 -7.154189109802246 -1.0579155683517456 0.7798388004302979 0 3
9.05435562133789 -7.220595359802246 -1.0617133378982544 0.7770495414733887 0 3
9.05453109741211 -7.28747034072876 -1.0655590295791626 0.7742446064949036 0 3
9.054726600646973 -7.354833602905273 -1.0694550275802612 0.7714247107505798 0 3
9.054922103881836 -7.422685146331787 -1.0734014511108398 0.7685890197753906 0 3
9.055116653442383 -7.491025447845459 -1.0773977041244507 0.7657373547554016 0 3
9.055293083190918 -7.559892177581787 -1.0814464092254639 0.7628707885742188 0 3
9.05550765991211 -7.62926721572876 -1.0855480432510376 0.7599887847900391 0 3
9.055703163146973 -7.699189186096191 -1.089702844619751 0.7570910453796387 0 3
9.055878639221191 -7.769658088684082 -1.0939112901687622 0.7541776895523071 0 3
9.056074142456055 -7.840653896331787 -1.0981742143630981 0.7512498497962952 0 3
9.056269645690918 -7.912236213684082 -1.1024940013885498 0.7483069896697998 0 3
9.056464195251465 -7.984345436096191 -1.1068689823150635 0.7453493475914001 0 3
9.056679725646973 -8.05704116821289 -1.1113024950027466 0.7423762679100037 0 3
9.056894302368164 -8.130361557006836 -1.1157972812652588 0.7388412952423096 0 3
9.057168006896973 -8.204286575317383 -1.1203533411026 0.7358359098434448 0 3
9.057440757751465 -8.278857231140137 -1.124971628189087 0.7328149676322937 0 3
9.057578086853027 -8.353896141052246 -1.1296318769454956 0.7310100197792053 0 3
9.057714462280273 -8.429560661315918 -1.1343519687652588 0.7279667854309082 0 3
9.057851791381836 -8.505849838256836 -1.1391419172286987 0.7249077558517456 0 3
9.057988166809082 -8.582802772521973 -1.1439900398254395 0.7218354344367981 0 3
7.763730525970459 -7.422861099243164 -0.9847317337989807 0.9959083795547485 0 3
7.661698818206787 -7.391416072845459 -0.9759878516197205 0.2947371304035187 0 3
7.519628524780273 -7.319814205169678 -0.9620639085769653 0.2990019619464874 0 3
7.29788064956665 -7.167978286743164 -0.9377987384796143 0.581572413444519 0 3
7.228154182434082 -7.163544654846191 -0.9329655170440674 0.8060423135757446 0 3
11.374608993530273 11.37459945678711 -1.7448065280914307 0.1050252616405487 0 2
11.42691421508789 11.324774742126465 -1.7450090646743774 0.10501301288604736 0 2
11.47890567779541 11.274658203125 -1.7452105283737183 0.10500099509954453 0 2
11.530702590942383 11.224306106567383 -1.7454111576080322 0.1049889475107193 0 2
11.582304000854492 11.17374038696289 -1.7456109523773193 0.10497690737247467 0 2
11.633671760559082 11.122920036315918 -1.7458099126815796 0.10496492683887482 0 2
11.684784889221191 11.071845054626465 -1.7460078001022339 0.10495307296514511 0 2
11.735702514648438 11.020556449890137 -1.7462048530578613 0.10494107753038406 0 2
11.78636646270752 10.968994140625 -1.7464008331298828 0.1049293726682663 0 2
11.83675765991211 10.917216300964355 -1.7465959787368774 0.10491780936717987 0 2
11.886972427368164 10.865185737609863 -1.7467902898788452 0.10490605235099792 0 2
11.936933517456055 10.812919616699219 -1.7469834089279175 0.1048944741487503 0 2
11.986679077148438 10.760419845581055 -1.7471758127212524 0.10488282144069672 0 2
12.036171913146973 10.707685470581055 -1.747367262840271 0.10487132519483566 0 2
12.085410118103027 10.654716491699219 -1.7475576400756836 0.10486003756523132 0 2
12.134413719177246 10.601513862609863 -1.7477471828460693 0.10484861582517624 0 2
12.183222770690918 10.548095703125 -1.7479357719421387 0.10483712702989578 0 2
12.231718063354492 10.4944429397583 -1.748123288154602 0.10482598096132278 0 2
12.280038833618164 10.440556526184082 -1.748309850692749 0.10481478273868561 0 2
12.328065872192383 10.386435508728027 -1.7484954595565796 0.10480373352766037 0 2
12.37587833404541 10.33211898803711 -1.7486802339553833 0.1047925278544426 0 2
12.423378944396973 10.277509689331055 -1.7488638162612915 0.10478169471025467 0 2
12.470722198486328 10.22274398803711 -1.7490465641021729 0.10477057099342346 0 2
12.517753601074219 10.167724609375 -1.7492281198501587 0.10475974529981613 0 2
12.564550399780273 10.112470626831055 -1.7494088411331177 0.10474908351898193 0 2
11.756464958190918 9.375478744506836 -1.6310168504714966 0.02943834662437439 0 20
11.725448608398438 9.264931678771973 -1.620931625366211 0.9939230680465698 0 20
12.703436851501465 9.945439338684082 -1.7499446868896484 0.10471698641777039 0 2
12.749277114868164 9.889345169067383 -1.7501215934753418 0.10470626503229141 0 2
12.794804573059082 9.832998275756836 -1.7502970695495605 0.1046958714723587 0 2
12.84007740020752 9.77645492553711 -1.7504717111587524 0.10468540340662003 0 2
12.885077476501465 9.719696998596191 -1.7506452798843384 0.10467508435249329 0 2
12.943182945251465 9.6726655960083 -1.7526198625564575 0.1046646386384964 0 2
12.987753868103027 9.615439414978027 -1.7527917623519897 0.10465437173843384 0 2
13.032031059265137 9.557978630065918 -1.752962350845337 0.10464419424533844 0 2
13.076054573059082 9.500322341918945 -1.7531319856643677 0.10463408380746841 0 2
13.119843482971191 9.442431449890137 -1.753300428390503 0.10462399572134018 0 2
13.163300514221191 9.38436508178711 -1.7534680366516113 0.10461415350437164 0 2
13.206582069396973 9.326064109802246 -1.7536345720291138 0.10460405051708221 0 2
13.249530792236328 9.267587661743164 -1.7537999153137207 0.10459432005882263 0 2
12.334569931030273 8.545419692993164 -1.6275980472564697 0.9898504018783569 0 20
12.37831974029541 8.493759155273438 -1.6283233165740967 0.9894098043441772 0 20
13.376835823059082 9.09090805053711 -1.7542898654937744 0.1045651063323021 0 2
13.418729782104492 9.031611442565918 -1.7544509172439575 0.10455546528100967 0 2
13.46035099029541 8.972099304199219 -1.7546108961105347 0.10454602539539337 0 2
13.501718521118164 8.9124116897583 -1.7547698020935059 0.10453639924526215 0 2
13.54281234741211 8.852529525756836 -1.7549277544021606 0.10452697426080704 0 2
13.583613395690918 8.792450904846191 -1.7550846338272095 0.1045176163315773 0 2
13.624120712280273 8.732157707214355 -1.7552400827407837 0.10450854897499084 0 2
13.66439437866211 8.671709060668945 -1.7553948163986206 0.10449927300214767 0 2
13.704374313354492 8.611044883728027 -1.755548357963562 0.10449016094207764 0 2
13.74404239654541 8.550185203552246 -1.7557005882263184 0.10448107123374939 0 2
13.783514976501465 8.48917007446289 -1.7558519840240479 0.10447201877832413 0 2
13.82265567779541 8.427919387817383 -1.7560023069381714 0.10446298122406006 0 2
13.86148452758789 8.366494178771973 -1.7561511993408203 0.10445437580347061 0 2
13.900096893310547 8.304931640625 -1.7562992572784424 0.10444535315036774 0 2
13.938398361206055 8.243154525756836 -1.7564462423324585 0.10443662852048874 0 2
13.97640609741211 8.181181907653809 -1.756591796875 0.1044280007481575 0 2
14.014121055603027 8.119032859802246 -1.756736397743225 0.10441936552524567 0 2
14.051542282104492 8.05672836303711 -1.7568796873092651 0.10441097617149353 0 2
14.088690757751465 7.994228363037109 -1.7570219039916992 0.10440254956483841 0 2
14.125585556030273 7.931532859802246 -1.7571630477905273 0.10439413040876389 0 2
14.1621675491333 7.868700981140137 -1.7573031187057495 0.10438580811023712 0 2
14.19847583770752 7.805654048919678 -1.7574419975280762 0.10437757521867752 0 2
14.234472274780273 7.742490291595459 -1.7575798034667969 0.1043693870306015 0 2
14.270195007324219 7.679111003875732 -1.7577162981033325 0.10436131060123444 0 2
14.305604934692383 7.61559534072876 -1.7578517198562622 0.10435318201780319 0 2
14.340761184692383 7.551904201507568 -1.757986068725586 0.10434509813785553 0 2
14.375585556030273 7.488017559051514 -1.758118987083435 0.10433734953403473 0 2
14.410097122192383 7.423974514007568 -1.7582509517669678 0.10432951152324677 0 2
14.4443941116333 7.359775066375732 -1.758381724357605 0.1043216660618782 0 2
14.478339195251465 7.295419692993164 -1.7585113048553467 0.1043139398097992 0 2
14.511972427368164 7.230888366699219 -1.7586398124694824 0.10430639237165451 0 2
14.545351028442383 7.166220664978027 -1.7587668895721436 0.1042989045381546 0 2
14.578397750854492 7.101357460021973 -1.7588928937911987 0.10429143160581589 0 2
14.611151695251465 7.036357402801514 -1.7590177059173584 0.10428411513566971 0 2
14.643593788146973 6.971200942993164 -1.7591413259506226 0.10427679866552353 0 2
14.675800323486328 6.905927658081055 -1.7592638731002808 0.10426925867795944 0 2
14.707636833190918 6.840439319610596 -1.7593852281570435 0.10426227003335953 0 2
14.739218711853027 6.774833679199219 -1.759505271911621 0.10425501316785812 0 2
14.770429611206055 6.709052562713623 -1.7596241235733032 0.10424812883138657 0 2
14.801386833190918 6.643154144287109 -1.7597417831420898 0.10424114018678665 0 2
14.832050323486328 6.577099323272705 -1.7598583698272705 0.10423414409160614 0 2
14.862401962280273 6.510869026184082 -1.7599735260009766 0.10422738641500473 0 2
14.892440795898438 6.444521427154541 -1.760087490081787 0.10422062128782272 0 2
14.922147750854492 6.378056526184082 -1.7602005004882812 0.10421392321586609 0 2
14.951581954956055 6.31139612197876 -1.7603119611740112 0.1042073667049408 0 2
14.980683326721191 6.244638442993164 -1.7604223489761353 0.10420090705156326 0 2
15.009491920471191 6.177724361419678 -1.7605315446853638 0.10419440269470215 0 2
15.038007736206055 6.110693454742432 -1.7606396675109863 0.10418786108493805 0 2
15.066190719604492 6.04348611831665 -1.7607462406158447 0.104181669652462 0 2
15.094042778015137 5.976161956787109 -1.7608517408370972 0.10417541861534119 0 2
15.1216402053833 5.90872049331665 -1.760956048965454 0.10416913777589798 0 2
15.148886680603027 5.841142654418945 -1.761059045791626 0.1041630432009697 0 2
15.319140434265137 5.827939510345459 -1.7777947187423706 0.349945068359375 0 2
15.524453163146973 5.826435565948486 -1.7985693216323853 0.3452179431915283 0 2
15.741405487060547 5.827392578125 -1.820654273033142 0.3410302698612213 0 2
15.963749885559082 5.828369140625 -1.8433266878128052 0.33683592081069946 0 2
16.191679000854492 5.829365253448486 -1.8666080236434937 0.3326345682144165 0 2
16.234804153442383 5.76272439956665 -1.8685767650604248 0.10412808507680893 0 1
16.26136589050293 5.690107345581055 -1.8686766624450684 0.10412262380123138 0 1
16.287578582763672 5.617353439331055 -1.868775486946106 0.10411710292100906 0 1
16.313495635986328 5.544482231140137 -1.8688727617263794 0.10411159694194794 0 1
16.33904266357422 5.471494197845459 -1.8689687252044678 0.10410626977682114 0 1
16.3642578125 5.398407936096191 -1.869063377380371 0.10410108417272568 0 1
16.389141082763672 5.325165748596191 -1.8691569566726685 0.10409580916166306 0 1
16.4136905670166 5.251826286315918 -1.869248867034912 0.10409066826105118 0 1
16.437870025634766 5.178349494934082 -1.8693395853042603 0.10408569872379303 0 1
16.46175765991211 5.104794979095459 -1.8694289922714233 0.10408060252666473 0 1
16.485273361206055 5.031084060668945 -1.8695168495178223 0.10407577455043793 0 1
16.50843620300293 4.957275390625 -1.8696035146713257 0.10407096147537231 0 1
16.531328201293945 4.883368968963623 -1.869688868522644 0.1040661409497261 0 1
16.553770065307617 4.809326171875 -1.8697725534439087 0.10406158119440079 0 1
16.575937271118164 4.735205173492432 -1.869855284690857 0.10405690968036652 0 1
16.597734451293945 4.660966873168945 -1.8699363470077515 0.10405246913433075 0 1
16.619199752807617 4.586630821228027 -1.87001633644104 0.10404789447784424 0 1
16.64031219482422 4.512177467346191 -1.870094656944275 0.10404355823993683 0 1
16.661113739013672 4.437646389007568 -1.8701717853546143 0.10403922200202942 0 1
16.681503295898438 4.362978458404541 -1.870247483253479 0.10403510183095932 0 1
16.701581954956055 4.288251876831055 -1.8703218698501587 0.10403097420930862 0 1
16.7213077545166 4.213427543640137 -1.8703948259353638 0.1040269210934639 0 1
16.740703582763672 4.138486385345459 -1.8704665899276733 0.10402289777994156 0 1
16.75972557067871 4.063486099243164 -1.8705368041992188 0.10401906073093414 0 1
16.778417587280273 3.9883689880371094 -1.8706055879592896 0.10401517897844315 0 1
16.796756744384766 3.9131736755371094 -1.8706731796264648 0.1040114238858223 0 1
16.81474494934082 3.837880849838257 -1.870739221572876 0.10400773584842682 0 1
16.832382202148438 3.76250958442688 -1.870803952217102 0.1040041446685791 0 1
16.849668502807617 3.6870603561401367 -1.8708672523498535 0.10400059074163437 0 1
16.866601943969727 3.611513614654541 -1.87092924118042 0.10399717837572098 0 1
16.883182525634766 3.535888671875 -1.8709897994995117 0.10399381816387177 0 1
16.899433135986328 3.4601855278015137 -1.871049165725708 0.10399053990840912 0 1
16.915292739868164 3.384404182434082 -1.8711068630218506 0.10398733615875244 0 1
16.93083953857422 3.308583974838257 -1.871163249015808 0.10398418456315994 0 1
16.946014404296875 3.2326464653015137 -1.871218204498291 0.1039811223745346 0 1
16.960819244384766 3.1566503047943115 -1.8712717294692993 0.1039782240986824 0 1
16.975311279296875 3.0805957317352295 -1.871324062347412 0.10397516936063766 0 1
16.98943328857422 3.004462718963623 -1.8713750839233398 0.1039724051952362 0 1
17.003183364868164 2.9282519817352295 -1.8714243173599243 0.10396971553564072 0 1
17.0166015625 2.851982355117798 -1.8714724779129028 0.10396694391965866 0 1
17.02962875366211 2.7756543159484863 -1.8715190887451172 0.10396447777748108 0 1
17.042343139648438 2.6992480754852295 -1.871564269065857 0.10396195203065872 0 1
17.0546875 2.622802734375 -1.8716082572937012 0.10395947843790054 0 1
17.066659927368164 2.5462987422943115 -1.8716506958007812 0.1039571613073349 0 1
17.07828140258789 2.469716787338257 -1.8716915845870972 0.10395488888025284 0 1
17.089590072631836 2.3930957317352295 -1.8717314004898071 0.1039525642991066 0 1
17.100488662719727 2.316416025161743 -1.8717695474624634 0.10395051538944244 0 1
17.111053466796875 2.239697217941284 -1.871806263923645 0.10394851863384247 0 1
17.12122917175293 2.162900447845459 -1.8718416690826416 0.10394655913114548 0 1
17.131093978881836 2.0861034393310547 -1.8718757629394531 0.10394464433193207 0 1
17.140605926513672 2.0092480182647705 -1.87190842628479 0.10394275188446045 0 1
17.14972686767578 1.9323339462280273 -1.8719395399093628 0.10394103080034256 0 1
17.15849494934082 1.8553613424301147 -1.871969223022461 0.1039394810795784 0 1
17.166894912719727 1.77834951877594 -1.871997594833374 0.10393794625997543 0 1
17.17498016357422 1.7013182640075684 -1.872024655342102 0.10393622517585754 0 1
17.182636260986328 1.6242480278015137 -1.872050166130066 0.10393499583005905 0 1
17.190000534057617 1.547119140625 -1.8720742464065552 0.10393356531858444 0 1
17.196971893310547 1.4699902534484863 -1.8720970153808594 0.10393229126930237 0 1
17.203594207763672 1.3928027153015137 -1.8721182346343994 0.10393117368221283 0 1
17.209842681884766 1.315615177154541 -1.8721380233764648 0.10393007099628448 0 1
17.21578025817871 1.238369107246399 -1.8721566200256348 0.10392890125513077 0 1
17.221288681030273 1.1610839366912842 -1.872173547744751 0.1039280965924263 0 1
17.226484298706055 1.0837987661361694 -1.8721891641616821 0.10392720997333527 0 1
17.231307983398438 1.006494164466858 -1.8722034692764282 0.10392633825540543 0 1
17.235761642456055 0.9291503429412842 -1.8722161054611206 0.10392574965953827 0 1
17.2398624420166 0.851806640625 -1.8722275495529175 0.10392504930496216 0 1
17.243574142456055 0.7744238376617432 -1.8722375631332397 0.10392462462186813 0 1
17.246973037719727 0.6970409750938416 -1.8722460269927979 0.10392410308122635 0 1
17.25 0.6196191310882568 -1.8722530603408813 0.1039237231016159 0 1
17.252676010131836 0.5421972274780273 -1.8722590208053589 0.1039232537150383 0 1
17.254961013793945 0.4647558629512787 -1.8722633123397827 0.10392303019762039 0 1
17.256874084472656 0.38731443881988525 -1.8722660541534424 0.10392297059297562 0 1
17.258495330810547 0.3098730444908142 -1.8722676038742065 0.10392279922962189 0 1
17.259706497192383 0.23241209983825684 -1.8722676038742065 0.1039227768778801 0 1
17.260526657104492 0.15493163466453552 -1.8722660541534424 0.1039230078458786 0 1
17.26105499267578 0.07747070491313934 -1.8722633123397827 0.10392303019762039 0 1
17.261171340942383 9.765624781721272e-06 -1.8722591400146484 0.10392331331968307 0 1
10.9873046875 -0.04930663853883743 -1.1917673349380493 0.6137993931770325 593 13
10.970975875854492 -0.09846679121255875 -1.1900337934494019 0.7749217748641968 593 13
11.498886108398438 -0.1548144519329071 -1.2473574876785278 0.9345777034759521 593 19
10.846132278442383 -0.1947363168001175 -1.1766324043273926 0.899161159992218 593 19
10.8462495803833 -0.24342772364616394 -1.1767526865005493 0.8990691900253296 593 19
11.129687309265137 -0.29975584149360657 -1.207635760307312 0.6269620656967163 593 13
11.107733726501465 -0.34907224774360657 -1.205411434173584 0.9616531133651733 593 13
11.1489839553833 -0.40043944120407104 -1.210070013999939 0.26868101954460144 593 13
17.246171951293945 -0.6969628930091858 -1.8721572160720825 0.10392892360687256 0 1
17.242713928222656 -0.7743456959724426 -1.8721389770507812 0.10392992198467255 0 1
17.238847732543945 -0.8517089486122131 -1.8721189498901367 0.10393117368221283 0 1
17.23466682434082 -0.9290722608566284 -1.8720977306365967 0.10393234342336655 0 1
17.2300968170166 -1.0063964128494263 -1.8720749616622925 0.1039336621761322 0 1
17.225175857543945 -1.0837011337280273 -1.8720510005950928 0.1039348766207695 0 1
17.219940185546875 -1.1609667539596558 -1.8720256090164185 0.10393625497817993 0 1
17.21431541442871 -1.2382323741912842 -1.8719985485076904 0.10393776744604111 0 1
17.20832061767578 -1.3154590129852295 -1.871970295906067 0.10393931716680527 0 1
17.20197296142578 -1.3926464319229126 -1.8719406127929688 0.10394090414047241 0 1
17.195253372192383 -1.469814419746399 -1.871909499168396 0.10394274443387985 0 1
17.188201904296875 -1.5469433069229126 -1.8718769550323486 0.10394451767206192 0 1
17.180742263793945 -1.6240332126617432 -1.871842861175537 0.10394643992185593 0 1
17.1729679107666 -1.7011034488677979 -1.8718076944351196 0.10394838452339172 0 1
17.164823532104492 -1.778115153312683 -1.8717708587646484 0.10395049303770065 0 1
17.156328201293945 -1.8550878763198853 -1.8717327117919922 0.10395253449678421 0 1
17.147441864013672 -1.9320409297943115 -1.8716930150985718 0.10395482927560806 0 1
17.138242721557617 -2.0089354515075684 -1.8716521263122559 0.10395707190036774 0 1
17.128652572631836 -2.085771322250366 -1.8716095685958862 0.10395946353673935 0 1
17.118730545043945 -2.1625683307647705 -1.8715659379959106 0.1039617732167244 0 1
16.669706344604492 -2.1819238662719727 -1.823532223701477 0.13226105272769928 0 2
16.184843063354492 -2.192392587661743 -1.7715455293655396 0.17221671342849731 0 2
16.11052703857422 -2.2559666633605957 -1.7645045518875122 0.1039697527885437 0 2
16.099843978881836 -2.3282127380371094 -1.7644579410552979 0.10397226363420486 0 2
16.088808059692383 -2.4003612995147705 -1.7644102573394775 0.1039750874042511 0 2
16.077402114868164 -2.4725096225738525 -1.7643609046936035 0.10397810488939285 0 2
16.065702438354492 -2.5445408821105957 -1.764310598373413 0.10398092120885849 0 2
16.053613662719727 -2.6165525913238525 -1.7642585039138794 0.10398416966199875 0 2
16.041250228881836 -2.688466787338257 -1.7642054557800293 0.10398724675178528 0 2
14.999687194824219 -2.5832128524780273 -1.6509143114089966 0.39588847756385803 0 6
14.715038299560547 -2.6022167205810547 -1.6208535432815552 0.7115577459335327 0 6
14.694062232971191 -2.666572093963623 -1.6198468208312988 0.9296917915344238 0 6
14.714765548706055 -2.738603353500366 -1.6234667301177979 0.9825072288513184 0 6
14.714921951293945 -2.807021379470825 -1.624857783317566 0.9816665649414062 0 6
14.696991920471191 -2.872001886367798 -1.6242811679840088 0.9999768137931824 0 6
14.709843635559082 -2.943115234375 -1.6271557807922363 0.6753597259521484 0 6
15.930155754089355 -3.2616894245147705 -1.763733148574829 0.1040150374174118 0 2
15.914745330810547 -3.3330371379852295 -1.763668179512024 0.10401887446641922 0 2
15.899023056030273 -3.404306650161743 -1.7636021375656128 0.10402281582355499 0 2
15.882987976074219 -3.475478410720825 -1.763534665107727 0.10402671992778778 0 2
15.86660099029541 -3.5465917587280273 -1.7634658813476562 0.10403081774711609 0 2
15.849921226501465 -3.617626905441284 -1.7633957862854004 0.104034923017025 0 2
15.832870483398438 -3.6885643005371094 -1.7633243799209595 0.10403921455144882 0 2
15.815507888793945 -3.7594432830810547 -1.763251781463623 0.10404348373413086 0 2
15.797831535339355 -3.8302245140075684 -1.7631778717041016 0.10404772311449051 0 2
15.77978515625 -3.9009082317352295 -1.7631025314331055 0.10405232012271881 0 2
15.761425018310547 -3.971513509750366 -1.7630261182785034 0.10405678302049637 0 2
15.742773056030273 -4.04202127456665 -1.7629482746124268 0.10406146943569183 0 2
15.723750114440918 -4.112470626831055 -1.7628692388534546 0.10406602174043655 0 2
15.70443344116211 -4.182802677154541 -1.762789011001587 0.10407081991434097 0 2
15.684764862060547 -4.253056526184082 -1.762707233428955 0.10407558083534241 0 2
15.664804458618164 -4.323193073272705 -1.7626245021820068 0.10408036410808563 0 2
15.644492149353027 -4.393232345581055 -1.7625401020050049 0.1040855199098587 0 2
15.623827934265137 -4.463193416595459 -1.7624547481536865 0.10409054160118103 0 2
15.602890014648438 -4.533056735992432 -1.762368083000183 0.10409556329250336 0 2
15.581621170043945 -4.602783203125 -1.7622801065444946 0.10410086065530777 0 2
15.560019493103027 -4.672431468963623 -1.762190818786621 0.10410603880882263 0 2
15.5380859375 -4.741982460021973 -1.762100338935852 0.10411147773265839 0 2
15.515839576721191 -4.811396598815918 -1.7620086669921875 0.10411694645881653 0 2
15.493281364440918 -4.880751609802246 -1.7619155645370483 0.10412230342626572 0 2
15.470390319824219 -4.949951171875 -1.7618212699890137 0.10412793606519699 0 2
15.447206497192383 -5.01907205581665 -1.7617257833480835 0.10413344949483871 0 2
15.423651695251465 -5.088056564331055 -1.7616289854049683 0.1041392832994461 0 2
15.39980411529541 -5.156943321228027 -1.7615309953689575 0.10414513945579529 0 2
15.375643730163574 -5.225732326507568 -1.7614318132400513 0.10415089875459671 0 2
15.351171493530273 -5.294364929199219 -1.76133131980896 0.10415681451559067 0 2
15.326366424560547 -5.362900257110596 -1.7612295150756836 0.10416293144226074 0 2
15.301230430603027 -5.431298732757568 -1.7611263990402222 0.1041690781712532 0 2
15.275819778442383 -5.499619007110596 -1.7610223293304443 0.10417504608631134 0 2
15.250039100646973 -5.567763328552246 -1.7609167098999023 0.10418156534433365 0 2
15.223944664001465 -5.635810375213623 -1.7608098983764648 0.10418789833784103 0 2
15.197636604309082 -5.703720569610596 -1.760702133178711 0.1041940450668335 0 2
15.170917510986328 -5.771552562713623 -1.760593056678772 0.10420050472021103 0 2
15.143925666809082 -5.839189529418945 -1.7604827880859375 0.10420703887939453 0 2
15.11660099029541 -5.906728267669678 -1.7603710889816284 0.10421368479728699 0 2
15.088984489440918 -5.974130630493164 -1.7602583169937134 0.10422037541866302 0 2
15.06103515625 -6.041396141052246 -1.7601443529129028 0.10422717034816742 0 2
15.032793045043945 -6.108525276184082 -1.7600289583206177 0.10423392057418823 0 2
15.00423812866211 -6.175517559051514 -1.7599127292633057 0.1042407751083374 0 2
15.398652076721191 -6.418857097625732 -1.8095391988754272 0.10424786061048508 0 2
15.368671417236328 -6.487431526184082 -1.8094168901443481 0.10425484925508499 0 2
15.33837890625 -6.555908203125 -1.809293508529663 0.10426188260316849 0 2
15.307714462280273 -6.624228477478027 -1.809168815612793 0.10426920652389526 0 2
15.27675724029541 -6.692372798919678 -1.8090429306030273 0.10427648574113846 0 2
15.245488166809082 -6.760400295257568 -1.808915615081787 0.10428380966186523 0 2
15.213945388793945 -6.828271389007568 -1.80878746509552 0.10429110378026962 0 2
15.182050704956055 -6.895986080169678 -1.8086577653884888 0.10429861396551132 0 2
15.149863243103027 -6.963544845581055 -1.8085269927978516 0.1043061688542366 0 2
15.117342948913574 -7.030947208404541 -1.8083950281143188 0.10431382805109024 0 2
15.0845308303833 -7.098212718963623 -1.8082619905471802 0.1043214499950409 0 2
15.051386833190918 -7.165283203125 -1.8081274032592773 0.10432930290699005 0 2
14.682089805603027 -7.070497989654541 -1.7675573825836182 0.5698503851890564 0 3
12.447772979736328 -6.06350564956665 -1.5018422603607178 0.4383789598941803 0 3
12.30859375 -6.064189434051514 -1.4882986545562744 0.442363440990448 0 3
12.28824234008789 -6.122841835021973 -1.4891555309295654 0.8877858519554138 0 3
12.2886323928833 -6.192021369934082 -1.4925562143325806 0.8857637047767639 0 3
12.289042472839355 -6.261552810668945 -1.4960005283355713 0.8819866180419922 0 3
12.289668083190918 -6.331513404846191 -1.4995237588882446 0.8799154162406921 0 3
12.290331840515137 -6.401806354522705 -1.5030937194824219 0.8778266310691833 0 3
12.290956497192383 -6.472431659698486 -1.5067073106765747 0.8757200837135315 0 3
12.291483879089355 -6.54332971572876 -1.5103555917739868 0.8748362064361572 0 3
12.291913986206055 -6.614541053771973 -1.5140444040298462 0.8727046251296997 0 3
12.292363166809082 -6.686103343963623 -1.5177819728851318 0.8705557584762573 0 3
12.292792320251465 -6.757997989654541 -1.521562933921814 0.8688894510269165 0 3
10.914413452148438 -6.064169883728027 -1.354309320449829 0.4771645665168762 0 3
10.799003601074219 -6.063662052154541 -1.3433489799499512 0.4810561239719391 0 3
10.6870698928833 -6.064052581787109 -1.3328064680099487 0.49338752031326294 0 3
10.5772066116333 -6.064619064331055 -1.322482705116272 0.4972386658191681 0 3
10.563652038574219 -6.11998987197876 -1.3242014646530151 0.8578705191612244 0 3
10.564003944396973 -6.183681488037109 -1.3277132511138916 0.8556026816368103 0 3
10.564315795898438 -6.247724533081055 -1.3312679529190063 0.8533176779747009 0 3
10.564706802368164 -6.312099456787109 -1.334868311882019 0.8510156273841858 0 3
10.565195083618164 -6.376923561096191 -1.3385350704193115 0.8467460870742798 0 3
10.565800666809082 -6.442177772521973 -1.3422592878341675 0.8443968892097473 0 3
10.566328048706055 -6.507724285125732 -1.3460235595703125 0.8434160351753235 0 3
10.56673812866211 -6.573583602905273 -1.3498210906982422 0.8410429954528809 0 3
10.567148208618164 -6.639794826507568 -1.353668451309204 0.8386523723602295 0 3
10.567597389221191 -6.706396102905273 -1.3575663566589355 0.8362459540367126 0 3
10.56802749633789 -6.773388385772705 -1.3615118265151978 0.8338217735290527 0 3
10.568398475646973 -6.840751647949219 -1.365503191947937 0.831937849521637 0 3
10.568769454956055 -6.908486366271973 -1.3695417642593384 0.8294841051101685 0 3
9.187850952148438 -6.064833641052246 -1.1941105127334595 0.5420411229133606 0 3
9.098183631896973 -6.064443111419678 -1.1859828233718872 0.5457553267478943 0 3
9.050527572631836 -6.091533184051514 -1.1833248138427734 0.8252454400062561 0 3
9.050585746765137 -6.150790691375732 -1.186930775642395 0.8210711479187012 0 3
9.050761222839355 -6.210458755493164 -1.190596342086792 0.8185437917709351 0 3
9.05093765258789 -6.270478248596191 -1.1943074464797974 0.8160005211830139 0 3
9.051093101501465 -6.330908298492432 -1.1980667114257812 0.8134397268295288 0 3
9.051249504089355 -6.391708850860596 -1.2018741369247437 0.8108638525009155 0 3
9.05142593383789 -6.452900409698486 -1.2057292461395264 0.8082708120346069 0 3
9.051581382751465 -6.514501571655273 -1.2096322774887085 0.8054969310760498 0 3
9.051776885986328 -6.576494216918945 -1.2135908603668213 0.8028706312179565 0 3
9.051972389221191 -6.638916015625 -1.2175968885421753 0.8002286553382874 0 3
9.05214786529541 -6.701728343963623 -1.2216556072235107 0.7975699305534363 0 3
9.052343368530273 -6.764970779418945 -1.2257670164108276 0.7948952317237854 0 3
9.052538871765137 -6.82864236831665 -1.229929804801941 0.7922042608261108 0 3
9.052714347839355 -6.892744064331055 -1.2341456413269043 0.7895867228507996 0 3
9.052909851074219 -6.957294940948486 -1.238415002822876 0.786865770816803 0 3
9.053085327148438 -7.022275447845459 -1.2427364587783813 0.7841283082962036 0 3
9.053261756896973 -7.087705135345459 -1.2471156120300293 0.7813753485679626 0 3
9.053457260131836 -7.153623104095459 -1.2515501976013184 0.7786059379577637 0 3
9.053632736206055 -7.220009803771973 -1.2560431957244873 0.7758220434188843 0 3
9.053808212280273 -7.286865234375 -1.2605928182601929 0.773021936416626 0 3
9.053984642028809 -7.354189395904541 -1.2652013301849365 0.7702062129974365 0 3
9.054160118103027 -7.422040939331055 -1.2698687314987183 0.7673748135566711 0 3
9.05435562133789 -7.490400314331055 -1.2745978832244873 0.7645281553268433 0 3
9.054570198059082 -7.559247970581055 -1.2793867588043213 0.7616662383079529 0 3
9.0547456741333 -7.628642559051514 -1.2842376232147217 0.7587891221046448 0 3
9.054922103881836 -7.698564052581787 -1.2891515493392944 0.7558962106704712 0 3
9.055116653442383 -7.768993854522705 -1.2941317558288574 0.7529886364936829 0 3
9.055312156677246 -7.839970588684082 -1.2991749048233032 0.7500656247138977 0 3
9.05550765991211 -7.911532878875732 -1.3042829036712646 0.747127115726471 0 3
9.055683135986328 -7.983662128448486 -1.3094592094421387 0.7441738247871399 0 3
9.055917739868164 -8.056357383728027 -1.3147027492523193 0.7412059903144836 0 3
9.056113243103027 -8.129638671875 -1.320016622543335 0.7382230162620544 0 3
9.05630874633789 -8.203505516052246 -1.3253977298736572 0.735224723815918 0 3
9.056503295898438 -8.277997970581055 -1.3308522701263428 0.7322124242782593 0 3
9.056757926940918 -8.353154182434082 -1.3363851308822632 0.7286430597305298 0 3
9.056991577148438 -8.428876876831055 -1.3419866561889648 0.7268136739730835 0 3
9.05712890625 -8.5051851272583 -1.3476476669311523 0.723760724067688 0 3
9.057265281677246 -8.58211898803711 -1.3533821105957031 0.72069251537323 0 3
7.763378620147705 -7.422509670257568 -1.1650007963180542 0.994299590587616 0 3
7.662480354309082 -7.392177581787109 -1.1548420190811157 0.29421618580818176 0 3
7.520410060882568 -7.320537090301514 -1.1383672952651978 0.2984740436077118 0 3
7.297997951507568 -7.168115139007568 -1.1095584630966187 0.5805942416191101 0 3
7.227578163146973 -7.16295862197876 -1.1037256717681885 0.8047673106193542 0 3
9.809941291809082 9.80996036529541 -1.7385567426681519 0.12154027819633484 0 2
9.854863166809082 9.766806602478027 -1.738730788230896 0.12152810394763947 0 2
9.899589538574219 9.7234468460083 -1.7389038801193237 0.12151601910591125 0 2
9.944120407104492 9.679892539978027 -1.7390763759613037 0.12150385975837708 0 2
9.998730659484863 9.646024703979492 -1.741038203239441 0.12149184942245483 0 2
10.042890548706055 9.602002143859863 -1.7412092685699463 0.12147999554872513 0 2
10.086894035339355 9.55776309967041 -1.7413794994354248 0.12146810442209244 0 2
10.130643844604492 9.51332950592041 -1.7415488958358765 0.1214563250541687 0 2
10.17421817779541 9.468681335449219 -1.7417174577713013 0.12144457548856735 0 2
10.217636108398438 9.423856735229492 -1.7418855428695679 0.12143267691135406 0 2
10.260781288146973 9.378798484802246 -1.742052435874939 0.12142111361026764 0 2
10.303750038146973 9.333525657653809 -1.7422186136245728 0.12140966206789017 0 2
10.34652328491211 9.288076400756836 -1.7423839569091797 0.12139805406332016 0 2
10.38906192779541 9.242431640625 -1.7425484657287598 0.12138666212558746 0 2
10.431445121765137 9.196572303771973 -1.742712378501892 0.12137521058320999 0 2
10.473573684692383 9.150517463684082 -1.742875337600708 0.12136393040418625 0 2
10.515507698059082 9.104267120361328 -1.7430373430252075 0.1213526576757431 0 2
10.55728530883789 9.057802200317383 -1.7431986331939697 0.12134125083684921 0 2
10.59878921508789 9.011181831359863 -1.743359088897705 0.1213301420211792 0 2
10.640077590942383 8.964325904846191 -1.743518590927124 0.12131913751363754 0 2
10.681191444396973 8.917314529418945 -1.7436774969100952 0.12130800634622574 0 2
10.72206974029541 8.870087623596191 -1.743835210800171 0.12129707634449005 0 2
10.7627534866333 8.82266616821289 -1.7439923286437988 0.12128613144159317 0 2
10.80322265625 8.77504825592041 -1.7441484928131104 0.12127520143985748 0 2
10.843437194824219 8.727255821228027 -1.744303822517395 0.12126446515321732 0 2
10.883476257324219 8.679266929626465 -1.7444583177566528 0.12125376611948013 0 2
10.923261642456055 8.631103515625 -1.7446117401123047 0.12124309688806534 0 2
10.962851524353027 8.582743644714355 -1.7447646856307983 0.12123244255781174 0 2
11.002206802368164 8.534189224243164 -1.7449164390563965 0.12122184783220291 0 2
11.041366577148438 8.485458374023438 -1.7450673580169678 0.12121140956878662 0 2
11.080273628234863 8.436553001403809 -1.7452175617218018 0.12120098620653152 0 2
