ply
format ascii 1.0
element vertex 594
property float32 x
property float32 y
property float32 z
property float32 CosAngle
property uint32 ObjIdx
property uint32 ObjTag
end_header
13.120741844177246 2.932792901992798 -1.727730393409729 0.12584851682186127 0 2
13.134687423706055 2.812382698059082 -1.7261710166931152 0.12596218287944794 0 2
13.1475191116333 2.691953182220459 -1.7246133089065552 0.1260758638381958 0 2
13.159257888793945 2.571484327316284 -1.7230565547943115 0.12618988752365112 0 2
13.169901847839355 2.4510741233825684 -1.7215015888214111 0.12630391120910645 0 2
13.179471969604492 2.3306639194488525 -1.7199478149414062 0.12641797959804535 0 2
13.187968254089355 2.210253953933716 -1.718395709991455 0.12653204798698425 0 2
13.1953706741333 2.089902400970459 -1.7168456315994263 0.12664635479450226 0 2
13.201679229736328 1.9695898294448853 -1.7152972221374512 0.12676067650318146 0 2
13.206913948059082 1.8493750095367432 -1.7137508392333984 0.12687502801418304 0 2
13.211054801940918 1.7291991710662842 -1.7122069597244263 0.1269894540309906 0 2
13.214139938354492 1.6091015338897705 -1.710664987564087 0.12710385024547577 0 2
13.216132164001465 1.4890819787979126 -1.7091256380081177 0.12721845507621765 0 2
13.217089653015137 1.3691601753234863 -1.707588791847229 0.1273328810930252 0 2
13.21695327758789 1.249355435371399 -1.7060543298721313 0.12744738161563873 0 2
13.215781211853027 1.1296288967132568 -1.704522967338562 0.12756182253360748 0 2
13.213496208190918 1.010097622871399 -1.7029943466186523 0.12767651677131653 0 2
13.21019458770752 0.8906444907188416 -1.701468825340271 0.1277908831834793 0 2
13.205839157104492 0.7713280916213989 -1.6999460458755493 0.12790529429912567 0 2
13.200389862060547 0.6521874666213989 -1.6984267234802246 0.12801992893218994 0 2
13.193944931030273 0.5331835746765137 -1.6969108581542969 0.12813419103622437 0 2
13.186445236206055 0.414374977350235 -1.695398211479187 0.1282484084367752 0 2
13.177870750427246 0.2957421839237213 -1.6938891410827637 0.1283627599477768 0 2
13.168280601501465 0.1773046851158142 -1.6923836469650269 0.12847691774368286 0 2
13.157675743103027 0.05902343615889549 -1.6908820867538452 0.12859097123146057 0 2
13.14599609375 -0.05902343615889549 -1.6893844604492188 0.12870511412620544 0 2
13.133339881896973 -0.17687499523162842 -1.6878904104232788 0.1288187950849533 0 2
13.297245979309082 -0.2984375059604645 -1.7092269659042358 0.12893228232860565 0 0
13.282304763793945 -0.41740232706069946 -1.7077211141586304 0.12904606759548187 0 0
13.266366958618164 -0.5361523032188416 -1.7062197923660278 0.12915953993797302 0 0
13.24941349029541 -0.6546288728713989 -1.7047228813171387 0.12927274405956268 0 0
13.231386184692383 -0.7728320360183716 -1.7032305002212524 0.12938618659973145 0 0
13.212343215942383 -0.8908007740974426 -1.701743483543396 0.1294993907213211 0 0
13.192343711853027 -1.0084764957427979 -1.7002604007720947 0.12961222231388092 0 0
13.171308517456055 -1.1258593797683716 -1.6987823247909546 0.12972494959831238 0 0
13.14925765991211 -1.2429686784744263 -1.6973097324371338 0.1298375278711319 0 0
12.737753868103027 -1.3195312023162842 -1.64566171169281 0.9292517900466919 0 20
12.683711051940918 -1.429140567779541 -1.6402721405029297 0.9323054552078247 0 20
12.630019187927246 -1.537988305091858 -1.6350468397140503 0.9352840781211853 0 20
12.57666015625 -1.6461718082427979 -1.6299896240234375 0.9381870627403259 0 20
12.523633003234863 -1.7537304162979126 -1.6250909566879272 0.9410145282745361 0 20
12.47093677520752 -1.86062490940094 -1.6203533411026 0.9437658786773682 0 20
12.4185152053833 -1.9669140577316284 -1.6157727241516113 0.9464414119720459 0 20
12.36708927154541 -2.0727343559265137 -1.6114376783370972 0.6503009796142578 0 20
12.318944931030273 -2.1784961223602295 -1.607646107673645 0.6518352627754211 0 20
12.27083969116211 -2.283769369125366 -1.603977918624878 0.6533252596855164 0 20
12.222792625427246 -2.3885154724121094 -1.6004360914230347 0.6547709703445435 0 20
12.179784774780273 -2.493847608566284 -1.59767484664917 0.13117127120494843 0 20
12.146796226501465 -2.600898265838623 -1.5963436365127563 0.13128052651882172 0 20
12.112910270690918 -2.7075586318969727 -1.5950182676315308 0.1313895285129547 0 20
12.078125 -2.813847541809082 -1.5936990976333618 0.1314983069896698 0 20
12.042460441589355 -2.919745922088623 -1.5923861265182495 0.1316068321466446 0 20
12.005898475646973 -3.0252342224121094 -1.5910793542861938 0.13171491026878357 0 20
11.968476295471191 -3.1303319931030273 -1.5897786617279053 0.13182257115840912 0 20
11.93017578125 -3.234999895095825 -1.588484764099121 0.13192999362945557 0 20
11.890995979309082 -3.339238166809082 -1.587196946144104 0.1320372074842453 0 20
12.284257888793945 -3.568925619125366 -1.6438959836959839 0.9757969975471497 0 20
12.232772827148438 -3.6733593940734863 -1.641353726387024 0.9773085117340088 0 20
12.181445121765137 -3.7774412631988525 -1.6389511823654175 0.9787409901618958 0 20
12.13027286529541 -3.8812694549560547 -1.6366873979568481 0.9800947308540344 0 20
12.07925796508789 -3.984804630279541 -1.6345610618591309 0.9813694953918457 0 20
12.0283203125 -4.088105201721191 -1.6325733661651611 0.9825650453567505 0 20
11.9775390625 -4.191132545471191 -1.6307207345962524 0.983681321144104 0 20
11.926875114440918 -4.293925762176514 -1.6290034055709839 0.9847183227539062 0 20
11.876288414001465 -4.396543025970459 -1.6274218559265137 0.9856759905815125 0 20
11.825819969177246 -4.498964786529541 -1.6259710788726807 0.9865540862083435 0 20
11.775429725646973 -4.601211071014404 -1.6246569156646729 0.9873525500297546 0 20
11.725116729736328 -4.703300476074219 -1.62347412109375 0.9880715608596802 0 20
11.674882888793945 -4.805253982543945 -1.6224241256713867 0.9887108206748962 0 20
11.624687194824219 -4.907050609588623 -1.6215078830718994 0.9892703294754028 0 20
11.574569702148438 -5.008769512176514 -1.6207226514816284 0.9897501468658447 0 20
11.524492263793945 -5.110410213470459 -1.6200670003890991 0.9901500940322876 0 20
11.47445297241211 -5.211953163146973 -1.6195428371429443 0.9904701709747314 0 20
11.424452781677246 -5.313457012176514 -1.6191504001617432 0.9907103776931763 0 20
11.374452590942383 -5.414902210235596 -1.6188896894454956 0.9908707141876221 0 20
11.324472427368164 -5.516327857971191 -1.6187583208084106 0.9909512400627136 0 20
11.274492263793945 -5.617773532867432 -1.618756651878357 0.9909517765045166 0 20
10.820683479309082 -5.513417720794678 -1.5606462955474854 0.1342833936214447 0 20
10.76302719116211 -5.606308460235596 -1.5595266819000244 0.13438008725643158 0 20
10.7046480178833 -5.698632717132568 -1.5584146976470947 0.1344759166240692 0 20
11.194453239440918 -6.088925838470459 -1.6376113891601562 0.13457123935222626 0 0
11.131523132324219 -6.184823989868164 -1.6364591121673584 0.1346658617258072 0 0
11.067811965942383 -6.280097484588623 -1.6353157758712769 0.13475999236106873 0 0
11.003358840942383 -6.374745845794678 -1.6341817378997803 0.13485370576381683 0 0
10.938163757324219 -6.468789100646973 -1.6330560445785522 0.13494651019573212 0 0
10.872187614440918 -6.562206745147705 -1.6319396495819092 0.13503910601139069 0 0
10.805526733398438 -6.655038833618164 -1.630831241607666 0.1351306438446045 0 0
10.73812484741211 -6.747226238250732 -1.629732370376587 0.13522161543369293 0 0
10.6699800491333 -6.838730335235596 -1.6286427974700928 0.1353122740983963 0 0
10.6011323928833 -6.929628849029541 -1.6275615692138672 0.13540196418762207 0 0
10.531600952148438 -7.019882678985596 -1.6264901161193848 0.13549117743968964 0 0
10.461288452148438 -7.10949182510376 -1.62542724609375 0.13557985424995422 0 0
10.3457612991333 -7.167577743530273 -1.6174066066741943 0.14482302963733673 0 20
9.914921760559082 -7.001620769500732 -1.5598171949386597 0.9787598252296448 0 20
9.866093635559082 -7.100722312927246 -1.5621005296707153 0.9773283004760742 0 20
9.817129135131836 -7.200136661529541 -1.5645190477371216 0.9758177995681763 0 20
9.768027305603027 -7.299843788146973 -1.5670711994171143 0.9742287993431091 0 20
6.867323875427246 -5.228808403015137 -1.109200358390808 0.6557015776634216 0 6
6.663398265838623 -5.168691158294678 -1.0837113857269287 0.9998152852058411 0 6
6.639374732971191 -5.246152400970459 -1.0874220132827759 0.977780282497406 0 6
6.604745864868164 -5.315781116485596 -1.0895211696624756 0.9758957028388977 0 6
6.564433574676514 -5.38113260269165 -1.0907920598983765 0.7043853998184204 0 6
9.469589233398438 -7.905800819396973 -1.5852607488632202 0.963049590587616 0 20
9.419140815734863 -8.008222579956055 -1.5887850522994995 0.9609134793281555 0 20
9.368456840515137 -8.111132621765137 -1.5924530029296875 0.9587000608444214 0 20
9.31753921508789 -8.214530944824219 -1.5962685346603394 0.956409215927124 0 20
9.266366958618164 -8.318437576293945 -1.6002287864685059 0.9540413022041321 0 20
9.214941024780273 -8.422870635986328 -1.6043413877487183 0.9515965580940247 0 20
9.042089462280273 -8.4150390625 -1.5873314142227173 0.1369796097278595 0 2
8.961249351501465 -8.491190910339355 -1.5864537954330444 0.13705530762672424 0 2
8.879823684692383 -8.566601753234863 -1.5855867862701416 0.1371302455663681 0 2
8.797792434692383 -8.64126968383789 -1.584729552268982 0.13720466196537018 0 2
9.93994140625 9.939902305603027 -1.9244109392166138 0.12749801576137543 0 1
10.021777153015137 9.843457221984863 -1.9230767488479614 0.1275864839553833 0 1
10.102675437927246 9.746289253234863 -1.9217345714569092 0.1276755928993225 0 1
10.182597160339355 9.6484375 -1.9203848838806152 0.12776532769203186 0 1
10.261523246765137 9.549901962280273 -1.9190276861190796 0.12785568833351135 0 1
10.339472770690918 9.45068359375 -1.9176629781723022 0.12794670462608337 0 1
10.416425704956055 9.350800514221191 -1.916290521621704 0.12803833186626434 0 1
10.492383003234863 9.250273704528809 -1.914911150932312 0.12813051044940948 0 1
10.567343711853027 9.149101257324219 -1.9135249853134155 0.12822334468364716 0 1
10.641288757324219 9.047285079956055 -1.912131667137146 0.1283167153596878 0 1
10.714179039001465 8.944863319396973 -1.9107317924499512 0.12841090559959412 0 1
10.786112785339355 8.841815948486328 -1.9093252420425415 0.1285054236650467 0 1
10.857011795043945 8.738163948059082 -1.907912254333496 0.1286005675792694 0 1
10.926836013793945 8.63394546508789 -1.9064931869506836 0.12869635224342346 0 1
10.995702743530273 8.52914047241211 -1.9050676822662354 0.12879253923892975 0 1
11.063456535339355 8.423749923706055 -1.90363609790802 0.1288895606994629 0 1
11.130233764648438 8.317831993103027 -1.9021987915039062 0.12898682057857513 0 1
11.19595718383789 8.211366653442383 -1.9007558822631836 0.12908469140529633 0 1
11.260624885559082 8.10433578491211 -1.8993072509765625 0.12918326258659363 0 1
11.32421875 7.996796607971191 -1.8978530168533325 0.12928232550621033 0 1
11.386796951293945 7.888769149780273 -1.8963940143585205 0.12938162684440613 0 1
11.448281288146973 7.780253887176514 -1.8949297666549683 0.12948165833950043 0 1
11.508729934692383 7.671191215515137 -1.8934603929519653 0.12958210706710815 0 1
11.568124771118164 7.561718463897705 -1.8919862508773804 0.1296830177307129 0 1
11.626425743103027 7.451757431030273 -1.890507459640503 0.12978443503379822 0 1
11.683711051940918 7.341328144073486 -1.889024019241333 0.12988631427288055 0 1
11.739863395690918 7.23046875 -1.8875365257263184 0.12998878955841064 0 1
11.794960975646973 7.119160175323486 -1.8860442638397217 0.1300916224718094 0 1
11.848944664001465 7.00744104385376 -1.8845484256744385 0.13019491732120514 0 1
11.9019136428833 6.895312309265137 -1.883048415184021 0.13029861450195312 0 1
11.953749656677246 6.782773494720459 -1.881544589996338 0.1304028332233429 0 1
12.004530906677246 6.669863224029541 -1.8800368309020996 0.1305074393749237 0 1
11.937460899353027 6.493066310882568 -1.8603330850601196 0.5714598298072815 0 2
11.845293045043945 6.305819988250732 -1.8370721340179443 0.5786951184272766 0 2
11.755390167236328 6.123183250427246 -1.8145318031311035 0.5858837962150574 0 2
11.667655944824219 5.94494104385376 -1.7926796674728394 0.5930255651473999 0 2
11.593886375427246 5.776894569396973 -1.773308277130127 0.5741478204727173 0 2
11.586133003234863 5.643769264221191 -1.7643035650253296 0.1311432272195816 0 2
11.626815795898438 5.535038948059082 -1.762861728668213 0.13125041127204895 0 2
11.666483879089355 5.425995826721191 -1.7614176273345947 0.13135796785354614 0 2
11.705078125 5.31667947769165 -1.759971022605896 0.13146591186523438 0 2
11.742655754089355 5.207109451293945 -1.7585222721099854 0.131574347615242 0 2
11.77919864654541 5.097304344177246 -1.757071614265442 0.13168297708034515 0 2
11.814706802368164 4.987246036529541 -1.7556195259094238 0.13179178535938263 0 2
11.8491792678833 4.876933574676514 -1.7541650533676147 0.13190101087093353 0 2
11.882616996765137 4.766445159912109 -1.7527096271514893 0.13201063871383667 0 2
11.914999961853027 4.655703067779541 -1.7512524127960205 0.13212043046951294 0 2
11.946367263793945 4.544785022735596 -1.7497936487197876 0.1322304904460907 0 2
11.976679801940918 4.433671951293945 -1.748334288597107 0.13234087824821472 0 2
12.005937576293945 4.322402477264404 -1.7468737363815308 0.13245166838169098 0 2
12.0341796875 4.210917949676514 -1.745411992073059 0.13256250321865082 0 2
12.06136703491211 4.099296569824219 -1.7439496517181396 0.13267368078231812 0 2
12.087538719177246 3.9875195026397705 -1.7424862384796143 0.13278494775295258 0 2
12.112655639648438 3.875605344772339 -1.7410227060317993 0.1328967809677124 0 2
12.136737823486328 3.763554573059082 -1.7395588159561157 0.13300859928131104 0 2
12.159804344177246 3.6514060497283936 -1.738094449043274 0.13312052190303802 0 2
12.18179702758789 3.5391016006469727 -1.7366299629211426 0.13323286175727844 0 2
12.202773094177246 3.4267382621765137 -1.7351654767990112 0.13334526121616364 0 2
12.222695350646973 3.314277172088623 -1.7337011098861694 0.13345801830291748 0 2
12.241621017456055 3.20171856880188 -1.7322367429733276 0.1335708498954773 0 2
12.25951099395752 3.089121103286743 -1.730772614479065 0.1336836814880371 0 2
12.2763671875 2.9764256477355957 -1.7293095588684082 0.1337967813014984 0 2
12.29214859008789 2.8636913299560547 -1.7278465032577515 0.13391029834747314 0 2
12.306952476501465 2.750917911529541 -1.7263842821121216 0.1340235471725464 0 2
12.32070255279541 2.6381053924560547 -1.7249228954315186 0.1341371089220047 0 2
12.333436965942383 2.525273323059082 -1.7234628200531006 0.13425087928771973 0 2
12.345175743103027 2.412402391433716 -1.7220031023025513 0.13436445593833923 0 2
12.355819702148438 2.299550771713257 -1.7205450534820557 0.1344785839319229 0 2
12.365507125854492 2.186699151992798 -1.719088077545166 0.13459230959415436 0 2
12.374140739440918 2.0738866329193115 -1.71763277053833 0.13470657169818878 0 2
12.381757736206055 1.9610546827316284 -1.7161785364151 0.13482066988945007 0 2
12.388379096984863 1.8482617139816284 -1.7147260904312134 0.13493475317955017 0 2
12.393964767456055 1.7355272769927979 -1.7132755517959595 0.13504914939403534 0 2
12.398554801940918 1.62283194065094 -1.7118268013000488 0.1351633220911026 0 2
12.402148246765137 1.5102148056030273 -1.7103800773620605 0.13527756929397583 0 2
12.40468692779541 1.3976562023162842 -1.7089354991912842 0.13539205491542816 0 2
12.406289100646973 1.2851758003234863 -1.7074930667877197 0.13550622761249542 0 2
12.406835556030273 1.1727733612060547 -1.7060531377792358 0.13562080264091492 0 2
12.40640640258789 1.0604686737060547 -1.7046151161193848 0.13573500514030457 0 2
12.404999732971191 0.9482616782188416 -1.7031798362731934 0.13584928214550018 0 2
12.402539253234863 0.8361718654632568 -1.7017476558685303 0.13596397638320923 0 2
12.399101257324219 0.7242187261581421 -1.700317621231079 0.136078342795372 0 2
12.39468765258789 0.6123632788658142 -1.6988908052444458 0.13619264960289001 0 2
12.38931655883789 0.5006640553474426 -1.6974669694900513 0.1363067477941513 0 2
12.382929801940918 0.38912108540534973 -1.696045994758606 0.13642096519470215 0 2
12.375566482543945 0.2777148485183716 -1.6946282386779785 0.13653498888015747 0 2
12.367226600646973 0.16650390625 -1.6932138204574585 0.1366492062807083 0 2
12.357929229736328 0.055449217557907104 -1.691802740097046 0.13676302134990692 0 2
12.347636222839355 -0.055449217557907104 -1.6903949975967407 0.13687700033187866 0 2
12.336405754089355 -0.16613280773162842 -1.6889911890029907 0.1369907408952713 0 2
12.324179649353027 -0.2766406238079071 -1.6875909566879272 0.13710440695285797 0 2
12.310996055603027 -0.3869335949420929 -1.6861944198608398 0.13721801340579987 0 2
12.296875 -0.4969726502895355 -1.6848019361495972 0.13733133673667908 0 2
12.2817964553833 -0.6068554520606995 -1.683413028717041 0.13744454085826874 0 2
12.265742301940918 -0.7164648175239563 -1.6820284128189087 0.13755781948566437 0 2
12.24876880645752 -0.8258593678474426 -1.6806482076644897 0.13767078518867493 0 2
12.230839729309082 -0.9350000023841858 -1.679272174835205 0.13778360188007355 0 2
12.211953163146973 -1.0439062118530273 -1.6779003143310547 0.13789628446102142 0 2
12.192148208618164 -1.1525194644927979 -1.6765332221984863 0.13800880312919617 0 2
12.1714448928833 -1.2608789205551147 -1.6751704216003418 0.13812093436717987 0 2
12.149765014648438 -1.3689647912979126 -1.6738123893737793 0.13823311030864716 0 2
12.127167701721191 -1.4767773151397705 -1.6724587678909302 0.1383448839187622 0 2
12.103652000427246 -1.5842968225479126 -1.6711105108261108 0.13845646381378174 0 2
12.079237937927246 -1.691503882408142 -1.669766902923584 0.13856784999370575 0 2
12.05386734008789 -1.7983983755111694 -1.668428659439087 0.13867926597595215 0 2
12.027636528015137 -1.9049999713897705 -1.6670949459075928 0.1387900412082672 0 2
12.00048828125 -2.0112695693969727 -1.6657668352127075 0.13890062272548676 0 2
11.972460746765137 -2.1172266006469727 -1.6644439697265625 0.1390109807252884 0 2
11.943495750427246 -2.222851514816284 -1.6631262302398682 0.1391211301088333 0 2
11.913652420043945 -2.3281445503234863 -1.6618139743804932 0.13923107087612152 0 2
11.882929801940918 -2.4330663681030273 -1.6605074405670166 0.1393405944108963 0 2
11.85130786895752 -2.5376172065734863 -1.6592063903808594 0.13944989442825317 0 2
11.818827629089355 -2.641835927963257 -1.6579110622406006 0.13955877721309662 0 2
11.785468101501465 -2.745683431625366 -1.6566214561462402 0.13966745138168335 0 2
11.751230239868164 -2.8491406440734863 -1.6553378105163574 0.13977570831775665 0 2
11.71615219116211 -2.952226400375366 -1.6540600061416626 0.13988351821899414 0 2
11.68017578125 -3.054921865463257 -1.652788519859314 0.1399913877248764 0 2
11.643359184265137 -3.1572070121765137 -1.6515227556228638 0.14009861648082733 0 2
11.60570240020752 -3.259101390838623 -1.6502634286880493 0.14020566642284393 0 2
11.567167282104492 -3.360585927963257 -1.6490105390548706 0.1403122991323471 0 2
11.66244125366211 -3.502070188522339 -1.6670068502426147 0.9761836528778076 0 20
11.613534927368164 -3.6013476848602295 -1.6645660400390625 0.9776146411895752 0 20
11.564725875854492 -3.700312376022339 -1.6622670888900757 0.9789668917655945 0 20
11.516054153442383 -3.799003839492798 -1.6601083278656006 0.9802402257919312 0 20
11.467538833618164 -3.8974804878234863 -1.6580883264541626 0.9814344048500061 0 20
11.41910171508789 -3.995722532272339 -1.656205415725708 0.9825495481491089 0 20
11.370780944824219 -4.093769550323486 -1.6544610261917114 0.9835854172706604 0 20
11.32259750366211 -4.191581726074219 -1.6528534889221191 0.9845420122146606 0 20
11.274453163146973 -4.289218425750732 -1.6513832807540894 0.9854191541671753 0 20
11.226425170898438 -4.386699199676514 -1.6500478982925415 0.9862167835235596 0 20
11.17845630645752 -4.484023571014404 -1.6488468647003174 0.9869349598884583 0 20
11.130546569824219 -4.581210613250732 -1.6477793455123901 0.987573504447937 0 20
11.082715034484863 -4.678300857543945 -1.6468491554260254 0.9881324172019958 0 20
11.034940719604492 -4.775253772735596 -1.6460500955581665 0.9886116981506348 0 20
10.987167358398438 -4.872128963470459 -1.645384430885315 0.9890111684799194 0 20
10.939472198486328 -4.968945026397705 -1.644853949546814 0.9893309473991394 0 20
10.891797065734863 -5.06570291519165 -1.6444543600082397 0.9895709156990051 0 20
10.844120979309082 -5.162441253662109 -1.6441885232925415 0.9897310733795166 0 20
10.796464920043945 -5.259140491485596 -1.6440554857254028 0.9898114204406738 0 20
10.748827934265137 -5.355820178985596 -1.6440539360046387 0.9898119568824768 0 20
10.701171875 -5.452538967132568 -1.6441848278045654 0.9897326827049255 0 20
10.653515815734863 -5.549257755279541 -1.644449234008789 0.98957359790802 0 20
10.459062576293945 -5.567890644073486 -1.6220815181732178 0.14264151453971863 0 2
10.401718139648438 -5.657793045043945 -1.6209996938705444 0.14273670315742493 0 2
10.343671798706055 -5.747089862823486 -1.619925856590271 0.14283119142055511 0 2
10.284882545471191 -5.835859298706055 -1.618860125541687 0.1429254710674286 0 2
10.225409507751465 -5.924042701721191 -1.6178025007247925 0.14301887154579163 0 2
10.165234565734863 -6.01171875 -1.6167526245117188 0.14311163127422333 0 2
10.10433578491211 -6.098788738250732 -1.6157113313674927 0.14320403337478638 0 2
10.042773246765137 -6.185253620147705 -1.6146780252456665 0.14329539239406586 0 2
9.980507850646973 -6.271171569824219 -1.6136530637741089 0.14338666200637817 0 2
9.917558670043945 -6.356503963470459 -1.6126363277435303 0.1434769332408905 0 2
9.853944778442383 -6.441230297088623 -1.6116281747817993 0.14356672763824463 0 2
9.789648056030273 -6.525390625 -1.610628366470337 0.14365580677986145 0 2
9.724687576293945 -6.608906269073486 -1.6096371412277222 0.14374446868896484 0 2
9.659062385559082 -6.691835880279541 -1.608654260635376 0.14383220672607422 0 2
9.5928316116333 -6.774179458618164 -1.607679843902588 0.14391914010047913 0 2
9.525897979736328 -6.855898380279541 -1.6067144870758057 0.1440057009458542 0 2
9.458358764648438 -6.936992168426514 -1.6057573556900024 0.14409148693084717 0 2
9.39013671875 -7.017441272735596 -1.6048094034194946 0.14417676627635956 0 2
6.86257791519165 -5.225195407867432 -1.180808424949646 0.6543064117431641 0 6
6.656796932220459 -5.16357421875 -1.1533290147781372 0.9997124671936035 0 6
6.634101390838623 -5.242011547088623 -1.1575006246566772 0.9774909019470215 0 6
6.599452972412109 -5.311542987823486 -1.1597346067428589 0.9756084680557251 0 6
6.554023265838623 -5.372597694396973 -1.1601769924163818 0.9040143489837646 0 6
8.96792984008789 -7.486991882324219 -1.599306344985962 0.14467278122901917 0 2
8.895429611206055 -7.562968730926514 -1.5984207391738892 0.14475294947624207 0 2
8.822343826293945 -7.638319969177246 -1.5975441932678223 0.14483238756656647 0 2
8.748671531677246 -7.71300745010376 -1.5966769456863403 0.14491115510463715 0 2
8.674452781677246 -7.787070274353027 -1.5958181619644165 0.14498896896839142 0 2
8.599628448486328 -7.860410213470459 -1.5949691534042358 0.14506621658802032 0 2
8.524218559265137 -7.93310546875 -1.5941293239593506 0.14514264464378357 0 2
8.448261260986328 -8.005136489868164 -1.5932989120483398 0.14521823823451996 0 2
8.371757507324219 -8.076464653015137 -1.5924776792526245 0.14529314637184143 0 2
8.294687271118164 -8.14712905883789 -1.5916657447814941 0.1453673094511032 0 2
9.33023452758789 9.330214500427246 -1.917339563369751 0.13567164540290833 0 1
9.407480239868164 9.24007797241211 -1.9160919189453125 0.13576002418994904 0 1
9.483808517456055 9.149276733398438 -1.9148368835449219 0.13584887981414795 0 1
9.559257507324219 9.057792663574219 -1.913573980331421 0.13593854010105133 0 1
9.633749961853027 8.96566390991211 -1.9123042821884155 0.1360289305448532 0 1
9.70736312866211 8.872909545898438 -1.9110273122787476 0.1361197680234909 0 1
9.780038833618164 8.779511451721191 -1.9097436666488647 0.13621121644973755 0 1
9.851758003234863 8.685507774353027 -1.9084527492523193 0.13630352914333344 0 1
9.922616958618164 8.5908784866333 -1.9071553945541382 0.13639603555202484 0 1
9.992480278015137 8.495683670043945 -1.9058516025543213 0.13648934662342072 0 1
10.061406135559082 8.399863243103027 -1.904541015625 0.13658320903778076 0 1
10.12939453125 8.303476333618164 -1.9032244682312012 0.1366777867078781 0 1
10.196425437927246 8.206503868103027 -1.9019014835357666 0.13677288591861725 0 1
10.262499809265137 8.108983993530273 -1.9005728960037231 0.13686837255954742 0 1
10.327616691589355 8.01089859008789 -1.899238109588623 0.13696464896202087 0 1
10.39175796508789 7.912304401397705 -1.8978979587554932 0.13706141710281372 0 1
10.45492172241211 7.813163757324219 -1.8965519666671753 0.13715866208076477 0 1
10.5171480178833 7.713515281677246 -1.895200252532959 0.1372564733028412 0 1
10.578378677368164 7.613320350646973 -1.8938435316085815 0.13735482096672058 0 1
10.638632774353027 7.512656211853027 -1.8924816846847534 0.13745363056659698 0 1
10.69791030883789 7.411503791809082 -1.891114592552185 0.13755308091640472 0 1
10.756171226501465 7.309882640838623 -1.889742374420166 0.13765299320220947 0 1
10.813495635986328 7.20779275894165 -1.8883657455444336 0.1377531886100769 0 1
10.86978530883789 7.10525369644165 -1.8869844675064087 0.13785405457019806 0 1
10.925097465515137 7.002265453338623 -1.8855984210968018 0.1379554122686386 0 1
10.979413986206055 6.898808479309082 -1.884208083152771 0.138057142496109 0 1
11.03271484375 6.794941425323486 -1.882813572883606 0.13815951347351074 0 1
11.0850191116333 6.690663814544678 -1.8814148902893066 0.13826221227645874 0 1
11.136308670043945 6.585996150970459 -1.8800122737884521 0.13836535811424255 0 1
11.186620712280273 6.480898380279541 -1.8786057233810425 0.1384689211845398 0 1
11.235918045043945 6.375449180603027 -1.8771957159042358 0.13857275247573853 0 1
11.2841796875 6.269629001617432 -1.8757821321487427 0.13867726922035217 0 1
11.331405639648438 6.163437366485596 -1.8743648529052734 0.1387823224067688 0 1
11.37767505645752 6.056874752044678 -1.8729444742202759 0.13888739049434662 0 1
11.422870635986328 5.94998025894165 -1.8715206384658813 0.13899308443069458 0 1
11.467069625854492 5.842753887176514 -1.8700940608978271 0.13909918069839478 0 1
11.51025390625 5.735214710235596 -1.8686645030975342 0.1392054706811905 0 1
11.49941349029541 5.601542949676514 -1.8586677312850952 0.606401801109314 0 2
11.417655944824219 5.435449123382568 -1.8374935388565063 0.6133901476860046 0 2
11.33773422241211 5.273085594177246 -1.8169406652450562 0.6203283071517944 0 2
11.259570121765137 5.114336013793945 -1.7969857454299927 0.6272172331809998 0 2
11.183085441589355 4.959003925323486 -1.77760648727417 0.6340551972389221 0 2
11.120429039001465 4.812226295471191 -1.760705828666687 0.6130923628807068 0 2
11.112245559692383 4.690683364868164 -1.7526707649230957 0.13996033370494843 0 2
11.145215034484863 4.58718729019165 -1.7513052225112915 0.14006948471069336 0 2
11.187792778015137 4.487714767456055 -1.7515978813171387 0.6248780488967896 0 2
11.208203315734863 4.379531383514404 -1.7485696077346802 0.14028862118721008 0 2
11.238261222839355 4.275410175323486 -1.7471997737884521 0.14039859175682068 0 2
11.267343521118164 4.171073913574219 -1.7458285093307495 0.14050878584384918 0 2
11.295429229736328 4.066581726074219 -1.74445641040802 0.1406194269657135 0 2
11.322577476501465 3.9619140625 -1.743083119392395 0.14073018729686737 0 2
11.3486909866333 3.8570897579193115 -1.7417089939117432 0.14084124565124512 0 2
11.373886108398438 3.752089738845825 -1.740334153175354 0.1409524530172348 0 2
11.39810562133789 3.6469531059265137 -1.7389583587646484 0.14106397330760956 0 2
11.421308517456055 3.5417187213897705 -1.7375823259353638 0.14117571711540222 0 2
11.44359302520752 3.4363279342651367 -1.7362060546875 0.14128752052783966 0 2
11.464862823486328 3.330820322036743 -1.734829068183899 0.14139977097511292 0 2
11.485175132751465 3.225234270095825 -1.7334520816802979 0.14151208102703094 0 2
11.504530906677246 3.1195311546325684 -1.7320752143859863 0.14162449538707733 0 2
11.522890090942383 3.013749837875366 -1.7306982278823853 0.14173708856105804 0 2
11.54027271270752 2.907890558242798 -1.7293212413787842 0.14185018837451935 0 2
11.556718826293945 2.801953077316284 -1.7279446125030518 0.14196309447288513 0 2
11.572187423706055 2.695937395095825 -1.726568579673767 0.14207623898983002 0 2
11.586679458618164 2.589902400970459 -1.7251927852630615 0.14218953251838684 0 2
11.600194931030273 2.4838085174560547 -1.723818063735962 0.14230284094810486 0 2
11.612772941589355 2.377695322036743 -1.7224438190460205 0.1424165815114975 0 2
11.624374389648438 2.271543025970459 -1.7210705280303955 0.14253000915050507 0 2
11.63499927520752 2.165410041809082 -1.719698190689087 0.14264380931854248 0 2
11.644667625427246 2.0592381954193115 -1.7183266878128052 0.14275775849819183 0 2
11.6533784866333 1.9530858993530273 -1.7169567346572876 0.1428716629743576 0 2
11.661151885986328 1.8469140529632568 -1.715587854385376 0.14298564195632935 0 2
11.667948722839355 1.7408007383346558 -1.7142205238342285 0.14309963583946228 0 2
11.673768997192383 1.6346874237060547 -1.7128546237945557 0.14321379363536835 0 2
11.678671836853027 1.5286327600479126 -1.7114903926849365 0.14332802593708038 0 2
11.6826171875 1.4225976467132568 -1.710127830505371 0.14344219863414764 0 2
11.685625076293945 1.3166406154632568 -1.7087671756744385 0.1435564011335373 0 2
11.68765640258789 1.2107421159744263 -1.7074083089828491 0.1436707079410553 0 2
11.688749313354492 1.1049022674560547 -1.7060515880584717 0.14378495514392853 0 2
11.688905715942383 0.9991406202316284 -1.7046968936920166 0.14389920234680176 0 2
11.68814468383789 0.8934569954872131 -1.703344702720642 0.1440134346485138 0 2
11.68642520904541 0.787890613079071 -1.701994776725769 0.14412756264209747 0 2
11.683769226074219 0.6824414134025574 -1.700647234916687 0.1442417949438095 0 2
11.680194854736328 0.5770507454872131 -1.6993021965026855 0.14435572922229767 0 2
11.675663948059082 0.4718359410762787 -1.6979600191116333 0.14447014033794403 0 2
11.670214653015137 0.36671873927116394 -1.6966204643249512 0.14458394050598145 0 2
11.663827896118164 0.26175782084465027 -1.6952837705612183 0.14469803869724274 0 2
11.656522750854492 0.15691405534744263 -1.6939501762390137 0.14481207728385925 0 2
11.648320198059082 0.052265625447034836 -1.6926195621490479 0.14492586255073547 0 2
11.639179229736328 -0.052265625447034836 -1.6912920475006104 0.1450396478176117 0 2
11.629120826721191 -0.15660156309604645 -1.6899678707122803 0.14515338838100433 0 2
11.6181640625 -0.2608007788658142 -1.688646912574768 0.1452668160200119 0 2
11.606307983398438 -0.36476561427116394 -1.687329649925232 0.1453801393508911 0 2
11.593554496765137 -0.46855467557907104 -1.6860157251358032 0.14549332857131958 0 2
11.579843521118164 -0.5721679329872131 -1.6847056150436401 0.1456066519021988 0 2
11.56527328491211 -0.6755468845367432 -1.683398962020874 0.14571957290172577 0 2
11.5498046875 -0.7787304520606995 -1.6820964813232422 0.1458325982093811 0 2
11.53343677520752 -0.8816796541213989 -1.6807976961135864 0.1459452211856842 0 2
11.5161714553833 -0.9844140410423279 -1.6795029640197754 0.14605765044689178 0 2
11.498026847839355 -1.0868749618530273 -1.6782125234603882 0.14617015421390533 0 2
11.478983879089355 -1.1891405582427979 -1.6769258975982666 0.14628221094608307 0 2
11.459120750427246 -1.2911523580551147 -1.6756435632705688 0.1463940143585205 0 2
11.43832015991211 -1.3928905725479126 -1.6743659973144531 0.14650584757328033 0 2
11.416679382324219 -1.4943749904632568 -1.6730923652648926 0.14661723375320435 0 2
11.394140243530273 -1.5955663919448853 -1.6718237400054932 0.14672860503196716 0 2
11.370741844177246 -1.6964843273162842 -1.6705594062805176 0.14683973789215088 0 2
11.34652328491211 -1.7971289157867432 -1.6692997217178345 0.1469503790140152 0 2
11.321406364440918 -1.8974609375 -1.668045163154602 0.14706100523471832 0 2
11.295449256896973 -1.997499942779541 -1.666795253753662 0.14717136323451996 0 2
11.268651962280273 -2.097245931625366 -1.6655502319335938 0.147281214594841 0 2
11.240995407104492 -2.1966795921325684 -1.6643105745315552 0.14739103615283966 0 2
11.212499618530273 -2.2958006858825684 -1.663075566291809 0.14750036597251892 0 2
11.183183670043945 -2.394589900970459 -1.6618461608886719 0.1476094275712967 0 2
11.153007507324219 -2.4930076599121094 -1.6606218814849854 0.14771844446659088 0 2
11.121992111206055 -2.5910937786102295 -1.6594030857086182 0.14782695472240448 0 2
11.090194702148438 -2.6888670921325684 -1.658189296722412 0.14793497323989868 0 2
11.057538986206055 -2.786269426345825 -1.6569814682006836 0.1480429619550705 0 2
11.024062156677246 -2.88330078125 -1.6557791233062744 0.14815042912960052 0 2
10.9898042678833 -2.9800000190734863 -1.6545825004577637 0.14825764298439026 0 2
10.954726219177246 -3.076288938522339 -1.6533913612365723 0.1483643800020218 0 2
10.918828010559082 -3.1722264289855957 -1.6522061824798584 0.14847086369991302 0 2
10.882147789001465 -3.267773389816284 -1.6510270833969116 0.14857684075832367 0 2
10.844667434692383 -3.362929582595825 -1.6498538255691528 0.1486826092004776 0 2
10.806386947631836 -3.457695245742798 -1.6486865282058716 0.14878787100315094 0 2
10.767343521118164 -3.5520505905151367 -1.6475253105163574 0.14889271557331085 0 2
10.727499961853027 -3.6459765434265137 -1.6463701725006104 0.14899706840515137 0 2
10.686874389648438 -3.7395312786102295 -1.64522123336792 0.14910097420215607 0 2
10.645487785339355 -3.832636594772339 -1.6440789699554443 0.14920471608638763 0 2
10.603320121765137 -3.9253125190734863 -1.642943024635315 0.1493077576160431 0 2
10.560429573059082 -4.017578125 -1.6418132781982422 0.1494103968143463 0 2
10.516698837280273 -4.109375 -1.640690565109253 0.1495128870010376 0 2
10.472265243530273 -4.200722694396973 -1.6395742893218994 0.14961475133895874 0 2
10.427069664001465 -4.291679382324219 -1.638464331626892 0.14971598982810974 0 2
10.381152153015137 -4.382128715515137 -1.6373610496520996 0.1498168706893921 0 2
10.33447265625 -4.47216796875 -1.6362649202346802 0.1499171406030655 0 2
10.287070274353027 -4.561698913574219 -1.6351754665374756 0.15001711249351501 0 2
10.238905906677246 -4.650742053985596 -1.634093165397644 0.15011651813983917 0 2
10.190058708190918 -4.739355564117432 -1.6330174207687378 0.15021537244319916 0 2
10.14046859741211 -4.827460765838623 -1.6319489479064941 0.15031372010707855 0 2
10.090155601501465 -4.915097713470459 -1.6308873891830444 0.15041154623031616 0 2
10.039140701293945 -5.002245903015137 -1.6298333406448364 0.15050889551639557 0 2
9.987421989440918 -5.088886737823486 -1.628786325454712 0.15060552954673767 0 2
9.934999465942383 -5.174980163574219 -1.62774658203125 0.15070171654224396 0 2
9.881875038146973 -5.260605335235596 -1.6267141103744507 0.15079748630523682 0 2
9.828065872192383 -5.345742225646973 -1.6256890296936035 0.15089260041713715 0 2
9.773554801940918 -5.430331707000732 -1.6246715784072876 0.15098707377910614 0 2
9.718379020690918 -5.51443338394165 -1.6236615180969238 0.1510809361934662 0 2
9.662538528442383 -5.597988128662109 -1.6226589679718018 0.15117424726486206 0 2
9.605996131896973 -5.680956840515137 -1.62166428565979 0.15126696228981018 0 2
9.548789024353027 -5.76345682144165 -1.620676875114441 0.15135915577411652 0 2
9.490937232971191 -5.845409870147705 -1.6196975708007812 0.15145084261894226 0 2
9.432421684265137 -5.926796913146973 -1.6187258958816528 0.1515417993068695 0 2
9.373281478881836 -6.007656097412109 -1.6177619695663452 0.15163177251815796 0 2
9.313456535339355 -6.087929725646973 -1.6168060302734375 0.15172158181667328 0 2
9.253007888793945 -6.167675495147705 -1.6158578395843506 0.15181048214435577 0 2
9.1919527053833 -6.24685525894165 -1.6149178743362427 0.15189875662326813 0 2
9.13021469116211 -6.325429439544678 -1.6139858961105347 0.15198668837547302 0 2
9.06787109375 -6.403495788574219 -1.613061785697937 0.15207380056381226 0 2
9.004921913146973 -6.480917930603027 -1.612146258354187 0.15216012299060822 0 2
8.941328048706055 -6.557792663574219 -1.611238718032837 0.1522459238767624 0 2
8.877167701721191 -6.634081840515137 -1.6103390455245972 0.15233100950717926 0 2
6.857812404632568 -5.221581935882568 -1.252475380897522 0.6540007591247559 0 6
6.650253772735596 -5.158495903015137 -1.2229740619659424 0.9991852641105652 0 6
6.628788948059082 -5.23779296875 -1.2276256084442139 0.9771350622177124 0 6
6.594179630279541 -5.307304382324219 -1.2299935817718506 0.9752545356750488 0 6
6.546601295471191 -5.366523265838623 -1.230051875114441 0.9234404563903809 0 6
8.479609489440918 -7.079296588897705 -1.6051177978515625 0.15282636880874634 0 2
8.411308288574219 -7.151386737823486 -1.60427725315094 0.15290649235248566 0 2
8.34244155883789 -7.222831726074219 -1.603445291519165 0.15298588573932648 0 2
8.273027420043945 -7.293691158294678 -1.6026216745376587 0.1530643254518509 0 2
8.203046798706055 -7.36388635635376 -1.6018072366714478 0.15314237773418427 0 2
8.132538795471191 -7.433495998382568 -1.601001262664795 0.1532193124294281 0 2
8.061484336853027 -7.50244140625 -1.6002039909362793 0.15329566597938538 0 2
7.98986291885376 -7.57080078125 -1.5994154214859009 0.15337122976779938 0 2
7.917734146118164 -7.63845682144165 -1.5986357927322388 0.1534460484981537 0 2
7.845077991485596 -7.705488204956055 -1.5978649854660034 0.1535198986530304 0 2
8.789785385131836 8.789765357971191 -1.91107177734375 0.14383581280708313 0 1
8.862890243530273 8.705175399780273 -1.9099000692367554 0.14392416179180145 0 1
8.935155868530273 8.61996078491211 -1.9087209701538086 0.14401300251483917 0 1
9.006562232971191 8.53408145904541 -1.9075353145599365 0.14410249888896942 0 1
9.077128410339355 8.447616577148438 -1.9063427448272705 0.144192636013031 0 1
9.14681625366211 8.360566139221191 -1.905143141746521 0.1442834585905075 0 1
9.21566390991211 8.272871017456055 -1.9039369821548462 0.14437483251094818 0 1
9.283632278442383 8.184609413146973 -1.9027247428894043 0.144466832280159 0 1
9.35074234008789 8.095742225646973 -1.9015055894851685 0.14455948770046234 0 1
9.416953086853027 8.00634765625 -1.9002807140350342 0.14465253055095673 0 1
9.482284545898438 7.916386604309082 -1.8990492820739746 0.1447463482618332 0 1
9.546737670898438 7.825839519500732 -1.897812008857727 0.14484086632728577 0 1
9.610292434692383 7.734745979309082 -1.8965685367584229 0.1449357569217682 0 1
9.672948837280273 7.643163681030273 -1.895319938659668 0.14503122866153717 0 1
9.73470687866211 7.550995826721191 -1.894065022468567 0.14512743055820465 0 1
9.795585632324219 7.458378791809082 -1.8928050994873047 0.14522387087345123 0 1
9.855546951293945 7.365214824676514 -1.8915395736694336 0.1453211009502411 0 1
9.914589881896973 7.271581649780273 -1.890269160270691 0.14541882276535034 0 1
9.972734451293945 7.177441120147705 -1.8889933824539185 0.14551697671413422 0 1
10.029960632324219 7.082831859588623 -1.8877124786376953 0.14561565220355988 0 1
10.086230278015137 6.987753868103027 -1.8864269256591797 0.14571505784988403 0 1
10.1416015625 6.892226219177246 -1.885136365890503 0.1458146870136261 0 1
10.196073532104492 6.796230316162109 -1.8838415145874023 0.1459149271249771 0 1
10.249589920043945 6.69982385635376 -1.8825420141220093 0.1460156887769699 0 1
10.302167892456055 6.603007793426514 -1.8812382221221924 0.14611686766147614 0 1
10.353808403015137 6.505742073059082 -1.879930019378662 0.14621856808662415 0 1
10.404531478881836 6.408066272735596 -1.8786180019378662 0.14632056653499603 0 1
10.454297065734863 6.309980392456055 -1.8773019313812256 0.14642316102981567 0 1
10.503125190734863 6.211503982543945 -1.8759816884994507 0.14652633666992188 0 1
10.551015853881836 6.112656116485596 -1.8746581077575684 0.1466296911239624 0 1
10.597929000854492 6.013476371765137 -1.8733309507369995 0.14673352241516113 0 1
10.643905639648438 5.913886547088623 -1.8720000982284546 0.14683793485164642 0 1
10.688944816589355 5.81396484375 -1.8706661462783813 0.14694255590438843 0 1
10.733046531677246 5.713691234588623 -1.8693286180496216 0.14704765379428864 0 1
10.776132583618164 5.613105297088623 -1.8679882287979126 0.14715321362018585 0 1
10.818300247192383 5.512187480926514 -1.8666448593139648 0.1472591757774353 0 1
10.859492301940918 5.410956859588623 -1.8652987480163574 0.1473654806613922 0 1
10.89974594116211 5.309433460235596 -1.8639498949050903 0.14747212827205658 0 1
10.9390230178833 5.207597732543945 -1.862597942352295 0.1475791335105896 0 1
10.977343559265137 5.105507850646973 -1.8612442016601562 0.1476864367723465 0 1
11.014687538146973 5.003105163574219 -1.8598878383636475 0.1477941870689392 0 1
11.051074028015137 4.900449275970459 -1.8585293292999268 0.147902250289917 0 1
11.0864839553833 4.797538757324219 -1.8571685552597046 0.14801068603992462 0 1
11.035468101501465 4.658320426940918 -1.8415429592132568 0.6452723145484924 0 2
10.963261604309082 4.512324333190918 -1.8226574659347534 0.6519591212272644 0 2
10.89247989654541 4.369257926940918 -1.8043001890182495 0.6585918068885803 0 2
10.823124885559082 4.229062557220459 -1.786452293395996 0.6651722192764282 0 2
10.755136489868164 4.091601371765137 -1.769092321395874 0.6716992259025574 0 2
10.697187423706055 3.96001935005188 -1.7536444664001465 0.6491706967353821 0 2
10.66292953491211 3.8388671875 -1.7423043251037598 0.14877742528915405 0 2
10.688983917236328 3.7402148246765137 -1.7410098314285278 0.1488882154226303 0 2
10.714139938354492 3.6414060592651367 -1.7397140264511108 0.14899910986423492 0 2
10.738398551940918 3.542421817779541 -1.7384172677993774 0.14911013841629028 0 2
10.76171875 3.4433398246765137 -1.7371199131011963 0.14922158420085907 0 2
10.784101486206055 3.3441405296325684 -1.7358219623565674 0.14933326840400696 0 2
10.805644035339355 3.244745969772339 -1.7345232963562012 0.1494448333978653 0 2
10.826190948486328 3.1452929973602295 -1.7332247495651245 0.14955686032772064 0 2
10.84585952758789 3.045703172683716 -1.7319256067276 0.1496691107749939 0 2
10.864608764648438 2.9460155963897705 -1.7306264638900757 0.1497815102338791 0 2
10.882402420043945 2.8462305068969727 -1.7293270826339722 0.149894118309021 0 2
10.899335861206055 2.746386766433716 -1.728027582168579 0.15000663697719574 0 2
10.915350914001465 2.646425724029541 -1.7267284393310547 0.15011967718601227 0 2
10.930429458618164 2.5464258193969727 -1.7254292964935303 0.15023259818553925 0 2
10.944589614868164 2.4463865756988525 -1.7241311073303223 0.1503458321094513 0 2
10.957870483398438 2.346269369125366 -1.7228329181671143 0.15045911073684692 0 2
10.970194816589355 2.2461328506469727 -1.721535563468933 0.15057246387004852 0 2
10.981640815734863 2.1459765434265137 -1.7202389240264893 0.15068590641021729 0 2
10.9921875 2.0457615852355957 -1.718942642211914 0.1507994681596756 0 2
11.00179672241211 1.9455468654632568 -1.7176480293273926 0.15091323852539062 0 2
11.010526657104492 1.8453320264816284 -1.7163538932800293 0.15102696418762207 0 2
11.018339157104492 1.7451171875 -1.7150609493255615 0.15114085376262665 0 2
11.02523422241211 1.6449023485183716 -1.7137693166732788 0.15125495195388794 0 2
11.03125 1.5447264909744263 -1.7124788761138916 0.1513688564300537 0 2
11.036367416381836 1.4445507526397705 -1.711189866065979 0.15148277580738068 0 2
11.040566444396973 1.3443944454193115 -1.7099026441574097 0.151596799492836 0 2
11.043906211853027 1.2443358898162842 -1.7086167335510254 0.15171077847480774 0 2
11.04628849029541 1.1442968845367432 -1.7073326110839844 0.1518249809741974 0 2
11.047831535339355 1.0443164110183716 -1.7060503959655762 0.1519390493631363 0 2
11.048437118530273 0.9444140195846558 -1.7047702074050903 0.15205328166484833 0 2
11.048202514648438 0.8445507884025574 -1.7034918069839478 0.15216736495494843 0 2
11.04703140258789 0.7448046803474426 -1.702215552330017 0.15228156745433807 0 2
11.045039176940918 0.6451171636581421 -1.7009414434432983 0.1523953080177307 0 2
11.042089462280273 0.5455273389816284 -1.6996697187423706 0.15250957012176514 0 2
11.038300514221191 0.4460742175579071 -1.6984004974365234 0.1526235193014145 0 2
11.033613204956055 0.3467382788658142 -1.6971337795257568 0.15273751318454742 0 2
11.028085708618164 0.2474999874830246 -1.6958695650100708 0.1528511494398117 0 2
11.02164077758789 0.1483789086341858 -1.6946080923080444 0.15296493470668793 0 2
11.014355659484863 0.04941406100988388 -1.6933493614196777 0.15307864546775818 0 2
11.00619125366211 -0.049433592706918716 -1.6920936107635498 0.1531922072172165 0 2
10.997148513793945 -0.1481054723262787 -1.690840721130371 0.15330585837364197 0 2
10.987265586853027 -0.24662108719348907 -1.6895909309387207 0.1534191071987152 0 2
10.976484298706055 -0.3449804484844208 -1.6883443593978882 0.15353240072727203 0 2
10.9649019241333 -0.44316405057907104 -1.6871007680892944 0.15364545583724976 0 2
10.952402114868164 -0.5411523580551147 -1.6858609914779663 0.15375857055187225 0 2
10.939082145690918 -0.6389843821525574 -1.6846243143081665 0.15387140214443207 0 2
10.924882888793945 -0.736621081829071 -1.6833912134170532 0.15398423373699188 0 2
10.909863471984863 -0.8340038657188416 -1.682161808013916 0.1540967971086502 0 2
10.893983840942383 -0.9312304258346558 -1.6809359788894653 0.15420906245708466 0 2
10.877264976501465 -1.028222680091858 -1.6797139644622803 0.15432123839855194 0 2
10.859725952148438 -1.125 -1.6784957647323608 0.15443336963653564 0 2
10.8413667678833 -1.2215429544448853 -1.6772817373275757 0.1545451581478119 0 2
10.822148323059082 -1.3178515434265137 -1.6760716438293457 0.15465660393238068 0 2
10.80208969116211 -1.413906216621399 -1.674865484237671 0.1547682285308838 0 2
10.781229972839355 -1.5097460746765137 -1.6736634969711304 0.15487919747829437 0 2
10.759531021118164 -1.6052929162979126 -1.6724660396575928 0.1549900621175766 0 2
10.737030982971191 -1.7005858421325684 -1.671272873878479 0.15510079264640808 0 2
10.71371078491211 -1.7956445217132568 -1.6700838804244995 0.1552111655473709 0 2
10.689570426940918 -1.8903710842132568 -1.6688997745513916 0.1553213745355606 0 2
10.6646089553833 -1.9848437309265137 -1.6677199602127075 0.15543116629123688 0 2
10.638886451721191 -2.0790038108825684 -1.666545033454895 0.1555408090353012 0 2
10.612323760986328 -2.1728906631469727 -1.6653748750686646 0.1556500792503357 0 2
10.5849609375 -2.2664647102355957 -1.6642093658447266 0.15575915575027466 0 2
10.556855201721191 -2.3597655296325684 -1.6630489826202393 0.1558678299188614 0 2
10.527929306030273 -2.452714681625366 -1.661893367767334 0.1559761017560959 0 2
10.498222351074219 -2.5453319549560547 -1.6607428789138794 0.15608420968055725 0 2
10.467734336853027 -2.6376562118530273 -1.659597635269165 0.15619191527366638 0 2
10.436445236206055 -2.729628801345825 -1.6584573984146118 0.1562991887331009 0 2
10.404414176940918 -2.8212695121765137 -1.6573225259780884 0.15640631318092346 0 2
10.371621131896973 -2.9125585556030273 -1.6561932563781738 0.15651275217533112 0 2
10.337987899780273 -3.00347638130188 -1.655069351196289 0.1566193401813507 0 2
10.303671836853027 -3.094062328338623 -1.653950810432434 0.1567249745130539 0 2
10.268573760986328 -3.184277296066284 -1.6528377532958984 0.15683048963546753 0 2
10.232733726501465 -3.2741405963897705 -1.6517302989959717 0.15693561732769012 0 2
10.196112632751465 -3.3636131286621094 -1.650628924369812 0.15704064071178436 0 2
10.1587495803833 -3.45269513130188 -1.6495331525802612 0.15714500844478607 0 2
10.1206636428833 -3.5414061546325684 -1.6484431028366089 0.15724872052669525 0 2
10.081835746765137 -3.629706859588623 -1.647359013557434 0.15735208988189697 0 2
10.042264938354492 -3.7176170349121094 -1.6462807655334473 0.15745511651039124 0 2
10.001992225646973 -3.805117130279541 -1.6452089548110962 0.15755780041217804 0 2
9.960976600646973 -3.8922460079193115 -1.644142985343933 0.15765990316867828 0 2
9.919238090515137 -3.9789061546325684 -1.6430835723876953 0.15776169300079346 0 2
9.87679672241211 -4.065175533294678 -1.642030119895935 0.15786291658878326 0 2
