ply
format ascii 1.0
element vertex 596
property float32 x
property float32 y
property float32 z
property float32 CosAngle
property uint32 ObjIdx
property uint32 ObjTag
end_header
7.848124980926514 7.109111309051514 -1.6861978769302368 0.15858691930770874 0 2
7.879677772521973 7.073583602905273 -1.686137080192566 0.1585926115512848 0 2
7.911054611206055 7.037890434265137 -1.6860766410827637 0.15859836339950562 0 2
7.942275047302246 7.002050399780273 -1.686016321182251 0.1586039662361145 0 2
7.973330020904541 6.966084003448486 -1.685956358909607 0.15860971808433533 0 2
8.004228591918945 6.929999828338623 -1.685896873474121 0.1586153656244278 0 2
8.034979820251465 6.893759727478027 -1.6858375072479248 0.1586209088563919 0 2
8.065546989440918 6.857382774353027 -1.6857784986495972 0.1586264818906784 0 2
8.095966339111328 6.820878982543945 -1.685719609260559 0.15863202512264252 0 2
8.126230239868164 6.784238338470459 -1.6856613159179688 0.15863747894763947 0 2
8.156298637390137 6.747480392456055 -1.6856030225753784 0.1586429625749588 0 2
8.186220169067383 6.71056604385376 -1.6855452060699463 0.15864844620227814 0 2
8.21597671508789 6.673534870147705 -1.6854876279830933 0.1586536467075348 0 2
8.245566368103027 6.636376857757568 -1.6854304075241089 0.15865907073020935 0 2
8.274980545043945 6.599071979522705 -1.6853735446929932 0.15866465866565704 0 2
8.304238319396973 6.561650276184082 -1.6853166818618774 0.15866981446743011 0 2
8.333319664001465 6.524091720581055 -1.685260534286499 0.15867525339126587 0 2
8.362236022949219 6.486415863037109 -1.6852043867111206 0.15868046879768372 0 2
8.390975952148438 6.448593616485596 -1.6851487159729004 0.15868571400642395 0 2
8.419569969177246 6.410664081573486 -1.6850934028625488 0.15869101881980896 0 2
8.447968482971191 6.372597694396973 -1.6850382089614868 0.15869614481925964 0 2
8.476210594177246 6.334423542022705 -1.684983491897583 0.15870121121406555 0 2
8.50429630279541 6.296123027801514 -1.6849290132522583 0.15870638191699982 0 2
8.532187461853027 6.257695198059082 -1.6848748922348022 0.15871138870716095 0 2
8.55990219116211 6.219130516052246 -1.6848210096359253 0.1587165743112564 0 2
8.587470054626465 6.180459022521973 -1.6847673654556274 0.15872150659561157 0 2
8.614843368530273 6.141679763793945 -1.6847143173217773 0.1587265431880951 0 2
8.642050743103027 6.102744102478027 -1.6846615076065063 0.158731609582901 0 2
8.669081687927246 6.063710689544678 -1.6846089363098145 0.15873651206493378 0 2
8.695918083190918 6.024550437927246 -1.684556484222412 0.15874150395393372 0 2
8.727890014648438 5.988915920257568 -1.68552565574646 0.5767573714256287 0 2
8.749101638793945 5.945888519287109 -1.6844531297683716 0.15875130891799927 0 2
8.775458335876465 5.906396389007568 -1.6844018697738647 0.15875592827796936 0 2
8.80160140991211 5.866757869720459 -1.684350848197937 0.15876078605651855 0 2
8.827577590942383 5.827031135559082 -1.684300184249878 0.15876556932926178 0 2
8.856035232543945 5.788925647735596 -1.6847561597824097 0.5587514042854309 0 2
8.939687728881836 5.78649377822876 -1.6957125663757324 0.555146336555481 0 2
9.0244140625 5.784042835235596 -1.7068419456481934 0.5515261888504028 0 2
9.110243797302246 5.781533241271973 -1.7181527614593506 0.5478956699371338 0 2
9.197216987609863 5.779003620147705 -1.7296466827392578 0.5442517399787903 0 2
9.288622856140137 5.778456687927246 -1.7419418096542358 0.5173817276954651 0 2
9.383036613464355 5.778935432434082 -1.7547640800476074 0.5136010050773621 0 2
9.478827476501465 5.779423713684082 -1.7678130865097046 0.5098100900650024 0 2
9.57607364654541 5.779911994934082 -1.7810925245285034 0.506009042263031 0 2
9.628642082214355 5.752851486206055 -1.7860510349273682 0.1588118076324463 0 1
9.6541109085083 5.709423542022705 -1.7860010862350464 0.1588161587715149 0 1
9.679365158081055 5.66588830947876 -1.7859514951705933 0.15882056951522827 0 1
9.704423904418945 5.622226238250732 -1.7859023809432983 0.1588248908519745 0 1
9.729315757751465 5.578476428985596 -1.7858537435531616 0.15882916748523712 0 1
9.753984451293945 5.534599304199219 -1.785805344581604 0.1588335931301117 0 1
9.77846622467041 5.490624904632568 -1.785757064819336 0.15883764624595642 0 1
9.802743911743164 5.446542739868164 -1.7857095003128052 0.15884193778038025 0 1
9.826826095581055 5.402333736419678 -1.7856621742248535 0.15884621441364288 0 1
9.850712776184082 5.358046531677246 -1.7856152057647705 0.15885032713413239 0 1
9.874403953552246 5.313632488250732 -1.7855684757232666 0.15885458886623383 0 1
9.897900581359863 5.269130706787109 -1.785522222518921 0.1588587760925293 0 1
9.921171188354492 5.224521160125732 -1.7854763269424438 0.15886281430721283 0 1
9.944276809692383 5.179814338684082 -1.785430908203125 0.15886692702770233 0 1
9.96718692779541 5.135009765625 -1.7853857278823853 0.15887080132961273 0 1
9.989863395690918 5.090087890625 -1.7853410243988037 0.15887485444545746 0 1
10.01236343383789 5.045068264007568 -1.7852965593338013 0.15887880325317383 0 1
10.034658432006836 4.999970436096191 -1.7852524518966675 0.1588827520608902 0 1
10.056737899780273 4.954755783081055 -1.785208821296692 0.1588865965604782 0 1
10.078632354736328 4.909443378448486 -1.785165548324585 0.1588904708623886 0 1
10.100332260131836 4.864062309265137 -1.7851226329803467 0.15889430046081543 0 1
10.121816635131836 4.818564414978027 -1.785080075263977 0.1588980108499527 0 1
10.143115043640137 4.772988319396973 -1.7850377559661865 0.15890173614025116 0 1
10.164179801940918 4.727284908294678 -1.7849960327148438 0.15890556573867798 0 1
10.18505859375 4.681523323059082 -1.7849546670913696 0.15890924632549286 0 1
10.20572280883789 4.635653972625732 -1.7849135398864746 0.1589130163192749 0 1
10.226191520690918 4.589706897735596 -1.7848728895187378 0.158916637301445 0 1
10.246474266052246 4.543671607971191 -1.7848325967788696 0.1589200794696808 0 1
10.266532897949219 4.497529029846191 -1.7847927808761597 0.15892364084720612 0 1
10.286367416381836 4.451308727264404 -1.7847530841827393 0.15892727673053741 0 1
10.306035041809082 4.404999732971191 -1.7847139835357666 0.15893058478832245 0 1
10.325468063354492 4.358603477478027 -1.7846752405166626 0.1589341163635254 0 1
10.344696998596191 4.312138557434082 -1.7846368551254272 0.15893757343292236 0 1
10.363720893859863 4.265566349029541 -1.784598708152771 0.15894083678722382 0 1
10.382548332214355 4.218935489654541 -1.7845611572265625 0.1589442789554596 0 1
10.401162147521973 4.172197341918945 -1.784523844718933 0.15894754230976105 0 1
10.419560432434082 4.125390529632568 -1.784487009048462 0.15895085036754608 0 1
10.437772750854492 4.078515529632568 -1.7844505310058594 0.15895406901836395 0 1
10.455732345581055 4.031542778015137 -1.784414529800415 0.15895746648311615 0 1
10.473525047302246 3.984492063522339 -1.7843786478042603 0.1589605063199997 0 1
10.491103172302246 3.937382698059082 -1.7843433618545532 0.15896359086036682 0 1
10.50845718383789 3.8901755809783936 -1.7843084335327148 0.1589668244123459 0 1
10.525605201721191 3.842900276184082 -1.7842739820480347 0.1589699536561966 0 1
10.542548179626465 3.7955565452575684 -1.7842397689819336 0.1589728146791458 0 1
10.559267044067383 3.748124837875366 -1.7842059135437012 0.15897586941719055 0 1
10.575790405273438 3.700634717941284 -1.7841726541519165 0.15897877514362335 0 1
10.592089653015137 3.653066396713257 -1.784139633178711 0.15898196399211884 0 1
10.608182907104492 3.605419874191284 -1.784106969833374 0.15898476541042328 0 1
10.6240816116333 3.5577147006988525 -1.7840747833251953 0.15898755192756653 0 1
10.639745712280273 3.5099315643310547 -1.7840429544448853 0.15899035334587097 0 1
10.655204772949219 3.462089776992798 -1.7840114831924438 0.15899325907230377 0 1
10.670449256896973 3.4141697883605957 -1.7839804887771606 0.1589958816766739 0 1
10.685487747192383 3.3661913871765137 -1.783949851989746 0.158998504281044 0 1
10.700292587280273 3.3181445598602295 -1.7839196920394897 0.15900138020515442 0 1
10.714892387390137 3.270029306411743 -1.7838897705078125 0.1590040922164917 0 1
10.7293062210083 3.221874952316284 -1.783860445022583 0.15900664031505585 0 1
10.7434663772583 3.1736230850219727 -1.783831238746643 0.15900929272174835 0 1
10.757431030273438 3.125322103500366 -1.7838027477264404 0.15901178121566772 0 1
10.771181106567383 3.076972484588623 -1.7837743759155273 0.15901421010494232 0 1
10.784696578979492 3.0285449028015137 -1.783746600151062 0.1590169072151184 0 1
10.798027038574219 2.9800779819488525 -1.7837191820144653 0.15901939570903778 0 1
10.811132431030273 2.931523323059082 -1.7836921215057373 0.15902170538902283 0 1
10.824013710021973 2.882939338684082 -1.783665418624878 0.1590239703655243 0 1
10.836688995361328 2.834296703338623 -1.7836391925811768 0.15902629494667053 0 1
10.849140167236328 2.785595655441284 -1.7836132049560547 0.15902870893478394 0 1
10.861367225646973 2.736826181411743 -1.78358793258667 0.15903107821941376 0 1
10.873397827148438 2.6880176067352295 -1.7835628986358643 0.15903322398662567 0 1
10.885194778442383 2.63916015625 -1.7835382223129272 0.15903545916080475 0 1
10.896796226501465 2.5902538299560547 -1.7835139036178589 0.15903745591640472 0 1
10.908154487609863 2.5412793159484863 -1.7834900617599487 0.1590396910905838 0 1
10.919306755065918 2.4922752380371094 -1.7834665775299072 0.15904182195663452 0 1
10.930243492126465 2.4432029724121094 -1.783443570137024 0.15904387831687927 0 1
10.940937042236328 2.394091844558716 -1.7834210395812988 0.1590459942817688 0 1
10.951455116271973 2.3449413776397705 -1.7833987474441528 0.15904785692691803 0 1
10.9617280960083 2.2957420349121094 -1.7833770513534546 0.15904994308948517 0 1
10.971796989440918 2.2464940547943115 -1.783355474472046 0.15905165672302246 0 1
10.981630325317383 2.197197198867798 -1.783334493637085 0.15905354917049408 0 1
10.991259574890137 2.1478710174560547 -1.7833138704299927 0.15905547142028809 0 1
11.000673294067383 2.0984959602355957 -1.7832937240600586 0.159057155251503 0 1
11.00985336303711 2.049082040786743 -1.7832739353179932 0.15905901789665222 0 1
11.018817901611328 1.9996289014816284 -1.7832545042037964 0.15906065702438354 0 1
11.027558326721191 1.9501268863677979 -1.7832355499267578 0.1590624451637268 0 1
11.036084175109863 1.9006054401397705 -1.7832170724868774 0.15906411409378052 0 1
11.044404029846191 1.8510448932647705 -1.7831988334655762 0.15906570851802826 0 1
11.052480697631836 1.8014354705810547 -1.783181071281433 0.159067302942276 0 1
11.060351371765137 1.751796841621399 -1.7831636667251587 0.1590687781572342 0 1
11.067997932434082 1.7021191120147705 -1.7831469774246216 0.15907028317451477 0 1
11.075419425964355 1.6524120569229126 -1.7831302881240845 0.15907181799411774 0 1
11.082616806030273 1.6026757955551147 -1.7831143140792847 0.15907320380210876 0 1
11.089609146118164 1.5529003143310547 -1.783098578453064 0.15907461941242218 0 1
11.096376419067383 1.503115177154541 -1.7830833196640015 0.15907591581344604 0 1
11.102919578552246 1.4532909393310547 -1.7830685377120972 0.1590772271156311 0 1
11.109237670898438 1.4034374952316284 -1.7830538749694824 0.15907853841781616 0 1
11.11532211303711 1.3535449504852295 -1.7830398082733154 0.15907998383045197 0 1
11.121211051940918 1.3036327362060547 -1.7830262184143066 0.15908104181289673 0 1
11.12686538696289 1.253701090812683 -1.7830129861831665 0.15908223390579224 0 1
11.132304191589355 1.203759789466858 -1.783000111579895 0.159083291888237 0 1
11.137490272521973 1.1537597179412842 -1.7829879522323608 0.15908464789390564 0 1
11.142499923706055 1.103759765625 -1.7829759120941162 0.15908557176589966 0 1
11.147284507751465 1.0537304878234863 -1.7829642295837402 0.15908649563789368 0 1
11.151806831359863 1.0036816596984863 -1.782953143119812 0.15908755362033844 0 1
11.156142234802246 0.9536327719688416 -1.7829424142837524 0.1590886116027832 0 1
11.160234451293945 0.9035351276397705 -1.7829320430755615 0.15908952057361603 0 1
11.164130210876465 0.8534374833106995 -1.7829220294952393 0.1590903103351593 0 1
11.167773246765137 0.8033202886581421 -1.7829127311706543 0.15909133851528168 0 1
11.171210289001465 0.7531836032867432 -1.7829035520553589 0.15909211337566376 0 1
11.174443244934082 0.7030468583106995 -1.7828948497772217 0.1590927392244339 0 1
11.177412033081055 0.6528710722923279 -1.7828866243362427 0.15909361839294434 0 1
11.180185317993164 0.6027050614356995 -1.7828788757324219 0.1590941995382309 0 1
11.182734489440918 0.5525195002555847 -1.7828713655471802 0.1590949445962906 0 1
11.185068130493164 0.5023242235183716 -1.7828643321990967 0.1590953767299652 0 1
11.18715763092041 0.45212888717651367 -1.7828577756881714 0.15909609198570251 0 1
11.189032554626465 0.40190428495407104 -1.7828515768051147 0.15909665822982788 0 1
11.190692901611328 0.3516894578933716 -1.7828458547592163 0.1590973287820816 0 1
11.192118644714355 0.30146482586860657 -1.7828404903411865 0.15909773111343384 0 1
11.193329811096191 0.2512304484844208 -1.782835602760315 0.15909811854362488 0 1
11.194315910339355 0.2009863257408142 -1.782831072807312 0.15909847617149353 0 1
11.195077896118164 0.15073241293430328 -1.7828269004821777 0.15909898281097412 0 1
11.195634841918945 0.10050781071186066 -1.7828233242034912 0.15909919142723083 0 1
11.19594669342041 0.05025390535593033 -1.7828201055526733 0.1590995192527771 0 1
11.196015357971191 9.765624781721272e-06 -1.7828172445297241 0.1590999811887741 0 1
11.195927619934082 -0.05023437365889549 -1.782814621925354 0.15909987688064575 0 1
11.195556640625 -0.10048827528953552 -1.7828127145767212 0.15910016000270844 0 1
11.194990158081055 -0.15073241293430328 -1.7828110456466675 0.15910030901432037 0 1
11.194189071655273 -0.20097655057907104 -1.782809853553772 0.15910030901432037 0 1
10.6248140335083 -0.23845702409744263 -1.6922844648361206 0.4200851321220398 593 19
11.191933631896973 -0.30143553018569946 -1.782808780670166 0.15910039842128754 0 1
11.190458297729492 -0.35166990756988525 -1.782808780670166 0.1591004878282547 0 1
11.188769340515137 -0.4018847644329071 -1.7828093767166138 0.15910042822360992 0 1
11.186864852905273 -0.45209959149360657 -1.7828103303909302 0.15910036861896515 0 1
11.18471622467041 -0.5023046731948853 -1.7828115224838257 0.15910030901432037 0 1
11.182382583618164 -0.5525000095367432 -1.7828131914138794 0.15910007059574127 0 1
11.179794311523438 -0.6026757955551147 -1.7828153371810913 0.15909986197948456 0 1
11.17699146270752 -0.65283203125 -1.7828179597854614 0.159099742770195 0 1
11.17397403717041 -0.7029980421066284 -1.7828210592269897 0.1590995043516159 0 1
11.170732498168945 -0.7531347274780273 -1.7828243970870972 0.15909911692142487 0 1
11.167264938354492 -0.8032616972923279 -1.7828282117843628 0.15909872949123383 0 1
11.16356372833252 -0.8533788919448853 -1.7828325033187866 0.15909847617149353 0 1
11.159647941589355 -0.9034667611122131 -1.7828370332717896 0.15909793972969055 0 1
11.15550708770752 -0.9535546898841858 -1.7828420400619507 0.15909768640995026 0 1
11.151142120361328 -1.0036132335662842 -1.78284752368927 0.15909713506698608 0 1
11.146562576293945 -1.053652286529541 -1.7828534841537476 0.1590965986251831 0 1
11.141786575317383 -1.103671908378601 -1.7828598022460938 0.15909592807292938 0 1
11.136737823486328 -1.1536718606948853 -1.7828664779663086 0.1590954065322876 0 1
11.13149356842041 -1.2036426067352295 -1.7828736305236816 0.15909473598003387 0 1
11.1260347366333 -1.2535936832427979 -1.782881259918213 0.15909406542778015 0 1
11.12035083770752 -1.3035253286361694 -1.7828892469406128 0.15909342467784882 0 1
11.114442825317383 -1.353417992591858 -1.7828975915908813 0.15909263491630554 0 1
11.10830020904541 -1.4033007621765137 -1.782906413078308 0.15909187495708466 0 1
11.101943016052246 -1.4531445503234863 -1.7829155921936035 0.15909111499786377 0 1
11.09537124633789 -1.502968668937683 -1.7829252481460571 0.1590901017189026 0 1
11.088583946228027 -1.55276358127594 -1.7829352617263794 0.1590890884399414 0 1
11.081562042236328 -1.6025195121765137 -1.7829456329345703 0.1590883880853653 0 1
11.074325561523438 -1.6522459983825684 -1.7829564809799194 0.15908728539943695 0 1
11.06689453125 -1.70193350315094 -1.7829678058624268 0.159086212515831 0 1
11.059199333190918 -1.7516015768051147 -1.7829794883728027 0.15908516943454742 0 1
11.051308631896973 -1.8012206554412842 -1.782991647720337 0.15908414125442505 0 1
11.043192863464355 -1.8508203029632568 -1.7830041646957397 0.15908300876617432 0 1
11.034833908081055 -1.9003808498382568 -1.7830172777175903 0.15908202528953552 0 1
11.026288986206055 -1.949892520904541 -1.7830305099487305 0.15908081829547882 0 1
11.017518997192383 -1.999365210533142 -1.7830442190170288 0.15907952189445496 0 1
11.008524894714355 -2.048818349838257 -1.7830584049224854 0.15907824039459229 0 1
10.999306678771973 -2.098222494125366 -1.7830730676651 0.15907686948776245 0 1
10.989882469177246 -2.147578001022339 -1.7830880880355835 0.1590755432844162 0 1
10.980215072631836 -2.196894407272339 -1.7831034660339355 0.15907424688339233 0 1
10.970351219177246 -2.246171712875366 -1.7831192016601562 0.15907275676727295 0 1
10.790712356567383 -2.2599120140075684 -1.755555510520935 0.2073507308959961 0 2
10.56991195678711 -2.263242244720459 -1.7212698459625244 0.24208761751651764 0 2
10.378934860229492 -2.2710936069488525 -1.6918081045150757 0.24630489945411682 0 2
10.304052352905273 -2.30322265625 -1.6812708377838135 0.1590668112039566 0 2
10.293710708618164 -2.3494627475738525 -1.6812876462936401 0.1590651273727417 0 2
10.283154487609863 -2.3956639766693115 -1.681304931640625 0.15906353294849396 0 2
10.320907592773438 -2.4533495903015137 -1.6892592906951904 0.2638755738735199 0 2
10.261465072631836 -2.487929582595825 -1.6813405752182007 0.15906013548374176 0 2
10.2503023147583 -2.5339746475219727 -1.6813589334487915 0.15905846655368805 0 2
10.238935470581055 -2.5799901485443115 -1.681377649307251 0.1590566337108612 0 2
10.22738265991211 -2.6259472370147705 -1.6813969612121582 0.1590549200773239 0 2
10.215595245361328 -2.6718456745147705 -1.681416392326355 0.15905319154262543 0 2
10.203632354736328 -2.717705011367798 -1.6814364194869995 0.15905117988586426 0 2
10.191484451293945 -2.763505697250366 -1.6814565658569336 0.1590491086244583 0 2
10.17910099029541 -2.8092479705810547 -1.6814773082733154 0.1590472161769867 0 2
10.166513442993164 -2.8549413681030273 -1.681498408317566 0.15904517471790314 0 2
10.15371036529541 -2.900585889816284 -1.681519865989685 0.15904326736927032 0 2
10.140731811523438 -2.9461522102355957 -1.6815416812896729 0.15904110670089722 0 2
10.127538681030273 -2.9916796684265137 -1.6815639734268188 0.15903908014297485 0 2
10.114150047302246 -3.0371484756469727 -1.6815866231918335 0.1590367704629898 0 2
10.100546836853027 -3.0825390815734863 -1.6816095113754272 0.15903477370738983 0 2
10.086748123168945 -3.1278905868530273 -1.6816327571868896 0.15903253853321075 0 2
10.072763442993164 -3.173163890838623 -1.6816564798355103 0.15903030335903168 0 2
10.058564186096191 -3.218388557434082 -1.681680679321289 0.159028097987175 0 2
10.044169425964355 -3.2635350227355957 -1.681705117225647 0.159025639295578 0 2
10.029560089111328 -3.3086328506469727 -1.681730031967163 0.15902334451675415 0 2
10.014765739440918 -3.3536620140075684 -1.6817553043365479 0.15902096033096313 0 2
9.999774932861328 -3.398632764816284 -1.6817809343338013 0.15901848673820496 0 2
9.984560012817383 -3.443535089492798 -1.6818069219589233 0.15901605784893036 0 2
9.969160079956055 -3.488359212875366 -1.681833267211914 0.15901365876197815 0 2
9.953554153442383 -3.5331249237060547 -1.6818599700927734 0.1590110808610916 0 2
9.937772750854492 -3.577812433242798 -1.681887149810791 0.15900851786136627 0 2
9.92178726196289 -3.622441291809082 -1.6819146871566772 0.15900574624538422 0 2
9.9055757522583 -3.6669921875 -1.6819425821304321 0.15900331735610962 0 2
9.889208793640137 -3.7114744186401367 -1.6819708347320557 0.159000426530838 0 2
9.872607231140137 -3.7558887004852295 -1.6819994449615479 0.15899775922298431 0 2
9.855830192565918 -3.8002147674560547 -1.6820284128189087 0.15899503231048584 0 2
9.838828086853027 -3.844482421875 -1.6820577383041382 0.15899237990379333 0 2
9.821660041809082 -3.888662099838257 -1.6820875406265259 0.15898951888084412 0 2
9.80428695678711 -3.9327635765075684 -1.6821175813674927 0.1589866429567337 0 2
9.78670883178711 -3.976806640625 -1.6821480989456177 0.15898387134075165 0 2
9.768925666809082 -4.020771503448486 -1.6821790933609009 0.15898089110851288 0 2
9.7509765625 -4.064648151397705 -1.6822102069854736 0.1589779108762741 0 2
9.732831954956055 -4.10842752456665 -1.6822417974472046 0.1589750498533249 0 2
9.714472770690918 -4.152158260345459 -1.6822738647460938 0.1589718610048294 0 2
9.695918083190918 -4.19580078125 -1.682306170463562 0.15896885097026825 0 2
9.677177429199219 -4.239355564117432 -1.682338833808899 0.15896578133106232 0 2
9.658242225646973 -4.282822132110596 -1.682371735572815 0.15896274149417877 0 2
9.639111518859863 -4.326210975646973 -1.6824053525924683 0.15895968675613403 0 2
9.619804382324219 -4.369511604309082 -1.6824390888214111 0.1589563488960266 0 2
9.600282669067383 -4.412734508514404 -1.682473063468933 0.1589532196521759 0 2
9.580575942993164 -4.455859184265137 -1.6825077533721924 0.15894991159439087 0 2
9.56069278717041 -4.498916149139404 -1.6825425624847412 0.15894649922847748 0 2
9.540595054626465 -4.541874885559082 -1.6825777292251587 0.15894323587417603 0 2
9.5203218460083 -4.58474588394165 -1.682613492012024 0.1589398980140686 0 2
9.499853134155273 -4.627519607543945 -1.6826493740081787 0.15893645584583282 0 2
9.479199409484863 -4.670205116271973 -1.6826856136322021 0.15893305838108063 0 2
9.458349227905273 -4.712812423706055 -1.6827224493026733 0.15892942249774933 0 2
9.4373140335083 -4.755312442779541 -1.682759404182434 0.15892599523067474 0 2
9.416083335876465 -4.797734260559082 -1.6827969551086426 0.1589224636554718 0 2
9.394667625427246 -4.840048789978027 -1.6828343868255615 0.15891887247562408 0 2
9.373037338256836 -4.882275104522705 -1.6828727722167969 0.15891553461551666 0 2
9.351269721984863 -4.924394607543945 -1.6829110383987427 0.15891170501708984 0 2
9.329286575317383 -4.966435432434082 -1.6829499006271362 0.15890809893608093 0 2
9.307119369506836 -5.008368968963623 -1.6829891204833984 0.1589042991399765 0 2
9.284774780273438 -5.050214767456055 -1.6830286979675293 0.15890055894851685 0 2
9.262216567993164 -5.091952800750732 -1.6830685138702393 0.15889696776866913 0 2
9.239511489868164 -5.133593559265137 -1.6831088066101074 0.15889306366443634 0 2
9.216571807861328 -5.175136566162109 -1.6831493377685547 0.15888939797878265 0 2
9.19350528717041 -5.21658182144165 -1.6831902265548706 0.15888521075248718 0 2
9.1702241897583 -5.257900238037109 -1.6832314729690552 0.15888138115406036 0 2
9.146758079528809 -5.299120903015137 -1.6832733154296875 0.15887761116027832 0 2
9.1231050491333 -5.340263366699219 -1.6833152770996094 0.15887363255023956 0 2
9.099257469177246 -5.381298542022705 -1.6833574771881104 0.158869668841362 0 2
9.0752534866333 -5.422226428985596 -1.683400273323059 0.15886560082435608 0 2
9.051064491271973 -5.463027000427246 -1.683443307876587 0.15886156260967255 0 2
9.026679039001465 -5.503740310668945 -1.6834865808486938 0.15885746479034424 0 2
9.002138137817383 -5.544335842132568 -1.6835302114486694 0.15885330736637115 0 2
8.977401733398438 -5.58483362197876 -1.6835743188858032 0.1588490605354309 0 2
8.952470779418945 -5.625205039978027 -1.6836187839508057 0.1588449627161026 0 2
8.927372932434082 -5.665488243103027 -1.6836636066436768 0.15884070098400116 0 2
8.902099609375 -5.705644607543945 -1.683708667755127 0.15883640944957733 0 2
8.876640319824219 -5.745693206787109 -1.6837539672851562 0.15883216261863708 0 2
8.851025581359863 -5.785624980926514 -1.6837997436523438 0.1588277518749237 0 2
8.825204849243164 -5.825459003448486 -1.6838457584381104 0.1588234156370163 0 2
8.799199104309082 -5.865156173706055 -1.6838923692703247 0.1588192880153656 0 2
8.77303695678711 -5.904765605926514 -1.6839392185211182 0.15881480276584625 0 2
8.746699333190918 -5.944238185882568 -1.6839861869812012 0.1588103473186493 0 2
8.720166206359863 -5.983593463897705 -1.6840336322784424 0.15880587697029114 0 2
8.693486213684082 -6.022851467132568 -1.6840814352035522 0.15880130231380463 0 2
8.666610717773438 -6.061972618103027 -1.6841295957565308 0.15879681706428528 0 2
8.639570236206055 -6.100986003875732 -1.6841779947280884 0.1587921530008316 0 2
8.612353324890137 -6.139882564544678 -1.684226632118225 0.15878763794898987 0 2
8.584970474243164 -6.178652286529541 -1.68427574634552 0.15878283977508545 0 2
8.557392120361328 -6.217294692993164 -1.6843252182006836 0.1587783396244049 0 2
8.529638290405273 -6.255829811096191 -1.6843749284744263 0.15877361595630646 0 2
8.742148399353027 -6.472216606140137 -1.7320564985275269 0.15876898169517517 0 2
8.713271141052246 -6.511562347412109 -1.732108473777771 0.15876421332359314 0 2
8.684218406677246 -6.55081033706665 -1.7321605682373047 0.1587594896554947 0 2
8.654990196228027 -6.589921951293945 -1.7322131395339966 0.15875466167926788 0 2
8.625595092773438 -6.628896236419678 -1.7322659492492676 0.1587497591972351 0 2
8.59603500366211 -6.66775369644165 -1.7323189973831177 0.15874479711055756 0 2
8.566279411315918 -6.706474304199219 -1.732372522354126 0.15873996913433075 0 2
8.536367416381836 -6.745058536529541 -1.732426404953003 0.15873496234416962 0 2
8.50625991821289 -6.783515453338623 -1.732480525970459 0.15873007476329803 0 2
8.476005554199219 -6.821835994720459 -1.7325350046157837 0.1587250679731369 0 2
8.445556640625 -6.860019207000732 -1.7325899600982666 0.15872015058994293 0 2
8.41495132446289 -6.898076057434082 -1.732645034790039 0.15871509909629822 0 2
8.384169578552246 -6.936005592346191 -1.7327004671096802 0.15871000289916992 0 2
8.353232383728027 -6.973788738250732 -1.73275625705719 0.15870486199855804 0 2
8.322128295898438 -7.011415958404541 -1.7328124046325684 0.15869975090026855 0 2
8.29085922241211 -7.048935413360596 -1.7328687906265259 0.15869444608688354 0 2
8.259404182434082 -7.08629846572876 -1.7329256534576416 0.15868929028511047 0 2
8.227792739868164 -7.12353515625 -1.7329827547073364 0.15868405997753143 0 2
8.196015357971191 -7.160624980926514 -1.7330400943756104 0.15867872536182404 0 2
8.1640625 -7.197577953338623 -1.733097791671753 0.15867356956005096 0 2
8.131933212280273 -7.23440408706665 -1.7331557273864746 0.15866820514202118 0 2
8.099658012390137 -7.271073818206787 -1.733214020729065 0.1586628407239914 0 2
8.06722640991211 -7.307578086853027 -1.7332727909088135 0.15865758061408997 0 2
8.034608840942383 -7.343974590301514 -1.7333316802978516 0.15865209698677063 0 2
8.00186538696289 -7.380204677581787 -1.7333910465240479 0.15864653885364532 0 2
7.968915939331055 -7.416298866271973 -1.7334505319595337 0.1586412638425827 0 2
7.935859203338623 -7.452245712280273 -1.7335104942321777 0.15863557159900665 0 2
7.902587890625 -7.488027095794678 -1.7335706949234009 0.15863022208213806 0 2
7.86916971206665 -7.523691177368164 -1.7336312532424927 0.15862472355365753 0 2
7.835615158081055 -7.559208869934082 -1.733691930770874 0.15861894190311432 0 2
7.801865100860596 -7.594570159912109 -1.7337532043457031 0.15861369669437408 0 2
7.767997741699219 -7.629775047302246 -1.7338147163391113 0.15860778093338013 0 2
7.733935356140137 -7.664843559265137 -1.733876347541809 0.1586022973060608 0 2
6.769999980926514 6.769999980926514 -1.6881937980651855 0.17491158843040466 0 2
6.80007791519165 6.739306449890137 -1.6881359815597534 0.17491772770881653 0 2
6.830039024353027 6.708486080169678 -1.6880784034729004 0.1749235838651657 0 2
6.859824180603027 6.677558422088623 -1.6880210638046265 0.1749296486377716 0 2
6.889501571655273 6.646474361419678 -1.6879639625549316 0.1749354749917984 0 2
6.919033050537109 6.61526346206665 -1.6879072189331055 0.17494136095046997 0 2
6.948408126831055 6.583915710449219 -1.6878505945205688 0.17494720220565796 0 2
6.977665901184082 6.552470684051514 -1.6877943277359009 0.17495304346084595 0 2
7.006767272949219 6.52086877822876 -1.687738299369812 0.17495882511138916 0 2
7.035712718963623 6.48913049697876 -1.6876825094223022 0.17496457695960999 0 2
7.064550399780273 6.457275390625 -1.6876269578933716 0.17497029900550842 0 2
7.093222618103027 6.42529296875 -1.68757164478302 0.1749761402606964 0 2
7.121757507324219 6.393202781677246 -1.687516689300537 0.17498186230659485 0 2
7.150146484375 6.360966682434082 -1.6874618530273438 0.17498739063739777 0 2
7.178388595581055 6.328603267669678 -1.6874074935913086 0.17499326169490814 0 2
7.206493854522705 6.296123027801514 -1.6873531341552734 0.17499877512454987 0 2
7.234443187713623 6.263505935668945 -1.687299132347107 0.1750042587518692 0 2
7.262246131896973 6.230771541595459 -1.6872456073760986 0.1750101000070572 0 2
7.289902210235596 6.197919845581055 -1.6871922016143799 0.17501549422740936 0 2
7.317421913146973 6.164960861206055 -1.6871389150619507 0.1750209629535675 0 2
7.344785213470459 6.131855487823486 -1.6870861053466797 0.17502644658088684 0 2
7.372001647949219 6.098642349243164 -1.6870336532592773 0.17503198981285095 0 2
7.399072170257568 6.065321922302246 -1.6869813203811646 0.1750374585390091 0 2
7.425986289978027 6.03185510635376 -1.6869291067123413 0.17504282295703888 0 2
7.45275354385376 5.998271465301514 -1.6868773698806763 0.1750481277704239 0 2
7.500741958618164 5.981640338897705 -1.6916470527648926 0.6345778703689575 0 2
7.505820274353027 5.93078088760376 -1.6867746114730835 0.17505882680416107 0 2
7.532157897949219 5.896855354309082 -1.6867235898971558 0.1750641018152237 0 2
7.558310508728027 5.862832069396973 -1.6866729259490967 0.17506931722164154 0 2
7.584316253662109 5.828671932220459 -1.6866226196289062 0.1750747114419937 0 2
7.610175609588623 5.794394493103027 -1.686572551727295 0.1750798523426056 0 2
7.664169788360596 5.781357288360596 -1.6927727460861206 0.6140777468681335 0 2
7.733329772949219 5.779247760772705 -1.7022969722747803 0.6106417179107666 0 2
7.803232192993164 5.777089595794678 -1.711961269378662 0.6071931719779968 0 2
7.873925685882568 5.77490234375 -1.7217684984207153 0.6037342548370361 0 2
7.945419788360596 5.772685527801514 -1.73172128200531 0.6002679467201233 0 2
8.019902229309082 5.771992206573486 -1.7422902584075928 0.5712011456489563 0 2
8.09683609008789 5.772382736206055 -1.7533596754074097 0.5675948858261108 0 2
8.174765586853027 5.772773265838623 -1.764606237411499 0.5639774799346924 0 2
8.253691673278809 5.773163795471191 -1.7760344743728638 0.5603485107421875 0 2
8.333662033081055 5.773583889007568 -1.7876479625701904 0.5567079782485962 0 2
8.363085746765137 5.738584041595459 -1.7884142398834229 0.17513507604599 0 1
8.38851547241211 5.700829982757568 -1.7883646488189697 0.17513993382453918 0 1
8.413788795471191 5.662978172302246 -1.7883154153823853 0.17514470219612122 0 1
8.438886642456055 5.625009536743164 -1.7882665395736694 0.17514950037002563 0 1
8.463818550109863 5.5869140625 -1.7882180213928223 0.17515428364276886 0 1
8.488593101501465 5.548730373382568 -1.7881696224212646 0.17515890300273895 0 1
8.513163566589355 5.510429382324219 -1.7881217002868652 0.17516377568244934 0 1
8.537588119506836 5.472031116485596 -1.788074016571045 0.17516830563545227 0 1
8.561835289001465 5.433505535125732 -1.7880266904830933 0.17517288029193878 0 1
8.585898399353027 5.394882678985596 -1.7879797220230103 0.17517779767513275 0 1
8.609794616699219 5.356162071228027 -1.7879329919815063 0.17518223822116852 0 1
8.633535385131836 5.317324161529541 -1.787886619567871 0.17518667876720428 0 1
8.657089233398438 5.278388500213623 -1.787840485572815 0.1751914620399475 0 1
8.680468559265137 5.239355564117432 -1.7877947092056274 0.175195574760437 0 1
8.703680992126465 5.2001953125 -1.7877492904663086 0.17520000040531158 0 1
8.726698875427246 5.160966873168945 -1.7877042293548584 0.1752045452594757 0 1
8.749550819396973 5.12161111831665 -1.7876595258712769 0.17520907521247864 0 1
8.772235870361328 5.082167625427246 -1.7876150608062744 0.17521339654922485 0 1
8.794745445251465 5.042626857757568 -1.7875707149505615 0.17521768808364868 0 1
8.817070007324219 5.002978324890137 -1.787527084350586 0.17522189021110535 0 1
8.839228630065918 4.963232517242432 -1.7874834537506104 0.17522621154785156 0 1
8.861181259155273 4.923398494720459 -1.7874404191970825 0.17523044347763062 0 1
8.882987976074219 4.883466720581055 -1.7873976230621338 0.1752346158027649 0 1
8.9045991897583 4.843437194824219 -1.7873549461364746 0.17523887753486633 0 1
8.926044464111328 4.803310394287109 -1.7873128652572632 0.17524288594722748 0 1
8.947284698486328 4.763075828552246 -1.7872710227966309 0.17524713277816772 0 1
8.968379020690918 4.722773551940918 -1.7872295379638672 0.1752510964870453 0 1
8.989287376403809 4.682363033294678 -1.7871884107589722 0.17525510489940643 0 1
9.010000228881836 4.641865253448486 -1.7871475219726562 0.17525917291641235 0 1
9.030527114868164 4.601288795471191 -1.7871068716049194 0.17526307702064514 0 1
9.050878524780273 4.560605525970459 -1.7870668172836304 0.1752670705318451 0 1
9.071063995361328 4.519843578338623 -1.7870268821716309 0.17527088522911072 0 1
9.091054916381836 4.478984355926514 -1.7869874238967896 0.17527493834495544 0 1
9.110849380493164 4.438036918640137 -1.7869482040405273 0.17527879774570465 0 1
9.130477905273438 4.397011756896973 -1.7869094610214233 0.17528268694877625 0 1
9.149921417236328 4.355888366699219 -1.7868708372116089 0.1752863973379135 0 1
9.169179916381836 4.314687252044678 -1.7868326902389526 0.1752900928258896 0 1
9.188271522521973 4.273407936096191 -1.786794900894165 0.17529380321502686 0 1
9.207158088684082 4.232040882110596 -1.786757469177246 0.17529749870300293 0 1
9.225878715515137 4.190585613250732 -1.7867202758789062 0.1753009855747223 0 1
9.244403839111328 4.149052619934082 -1.7866833209991455 0.17530480027198792 0 1
9.262734413146973 4.107441425323486 -1.7866469621658325 0.17530837655067444 0 1
9.280888557434082 4.065742015838623 -1.7866108417510986 0.17531193792819977 0 1
9.298857688903809 4.023984432220459 -1.7865749597549438 0.17531543970108032 0 1
9.316630363464355 3.982119083404541 -1.7865395545959473 0.1753188967704773 0 1
9.334228515625 3.940195322036743 -1.7865045070648193 0.17532230913639069 0 1
9.351640701293945 3.898183584213257 -1.7864696979522705 0.17532582581043243 0 1
9.368866920471191 3.856093645095825 -1.7864353656768799 0.17532892525196075 0 1
9.38588809967041 3.8139355182647705 -1.7864012718200684 0.1753324419260025 0 1
9.402724266052246 3.7716991901397705 -1.786367654800415 0.17533573508262634 0 1
9.419394493103027 3.7293944358825684 -1.7863341569900513 0.17533892393112183 0 1
9.4358491897583 3.687021493911743 -1.7863012552261353 0.1753423660993576 0 1
9.452138900756836 3.6445605754852295 -1.7862685918807983 0.1753455549478531 0 1
9.468241691589355 3.60205078125 -1.78623628616333 0.1753484308719635 0 1
9.484121322631836 3.559453010559082 -1.786204218864441 0.17535173892974854 0 1
9.499853134155273 3.5168066024780273 -1.78617262840271 0.1753547638654709 0 1
9.515351295471191 3.474052667617798 -1.786141276359558 0.175357848405838 0 1
9.53067398071289 3.4312596321105957 -1.786110520362854 0.17536109685897827 0 1
9.545829772949219 3.3883886337280273 -1.7860798835754395 0.1753639280796051 0 1
9.560781478881836 3.345468759536743 -1.786049723625183 0.17536695301532745 0 1
9.575536727905273 3.3024706840515137 -1.7860198020935059 0.1753700077533722 0 1
9.590116500854492 3.259404182434082 -1.7859902381896973 0.17537260055541992 0 1
9.604482650756836 3.2162792682647705 -1.7859611511230469 0.1753755360841751 0 1
9.618661880493164 3.173095703125 -1.7859323024749756 0.1753784716129303 0 1
9.63265609741211 3.1298534870147705 -1.7859039306640625 0.17538130283355713 0 1
9.646454811096191 3.0865330696105957 -1.7858757972717285 0.17538392543792725 0 1
9.66006851196289 3.0431737899780273 -1.7858480215072632 0.17538656294345856 0 1
9.673476219177246 2.9997265338897705 -1.7858208417892456 0.175389364361763 0 1
9.68667984008789 2.956240177154541 -1.7857937812805176 0.17539215087890625 0 1
9.699716567993164 2.9126951694488525 -1.7857671976089478 0.17539477348327637 0 1
9.71254825592041 2.869091749191284 -1.7857407331466675 0.17539720237255096 0 1
9.72518539428711 2.825439453125 -1.7857149839401245 0.17539982497692108 0 1
9.737627029418945 2.7817187309265137 -1.785689353942871 0.17540237307548523 0 1
9.749873161315918 2.7379491329193115 -1.7856640815734863 0.17540474236011505 0 1
9.761923789978027 2.6941308975219727 -1.7856392860412598 0.17540724575519562 0 1
9.773788452148438 2.6502537727355957 -1.7856148481369019 0.17540957033634186 0 1
9.785449028015137 2.606328010559082 -1.7855907678604126 0.17541199922561646 0 1
9.796914100646973 2.5623533725738525 -1.7855669260025024 0.17541439831256866 0 1
9.808183670043945 2.5183300971984863 -1.785543441772461 0.1754167526960373 0 1
9.819267272949219 2.474247932434082 -1.7855204343795776 0.175418883562088 0 1
9.830145835876465 2.430117130279541 -1.7854976654052734 0.1754211187362671 0 1
9.840829849243164 2.385937452316284 -1.7854756116867065 0.17542330920696259 0 1
9.851327896118164 2.341738224029541 -1.7854535579681396 0.1754254549741745 0 1
9.861611366271973 2.2974705696105957 -1.7854321002960205 0.17542769014835358 0 1
9.871699333190918 2.2531542778015137 -1.785410761833191 0.17542967200279236 0 1
9.881610870361328 2.208808660507202 -1.785390019416809 0.17543162405490875 0 1
9.891308784484863 2.1644139289855957 -1.7853693962097168 0.17543365061283112 0 1
9.900800704956055 2.1199705600738525 -1.7853493690490723 0.17543575167655945 0 1
9.910117149353027 2.075498104095459 -1.7853295803070068 0.17543764412403107 0 1
9.919208526611328 2.0309765338897705 -1.78531014919281 0.17543959617614746 0 1
9.92812442779541 1.986415982246399 -1.785291075706482 0.17544147372245789 0 1
9.936835289001465 1.9418163299560547 -1.785272479057312 0.17544324696063995 0 1
9.945341110229492 1.8971874713897705 -1.7852541208267212 0.17544513940811157 0 1
9.953661918640137 1.8525097370147705 -1.7852364778518677 0.17544689774513245 0 1
9.961776733398438 1.807802677154541 -1.7852187156677246 0.17544858157634735 0 1
9.969696998596191 1.7630566358566284 -1.7852016687393188 0.17545032501220703 0 1
9.977421760559082 1.71829092502594 -1.7851848602294922 0.17545178532600403 0 1
9.984930992126465 1.6734765768051147 -1.7851684093475342 0.17545349895954132 0 1
9.9922456741333 1.6286327838897705 -1.7851524353027344 0.17545509338378906 0 1
9.999384880065918 1.5837597846984863 -1.7851366996765137 0.17545661330223083 0 1
10.006288528442383 1.53884756565094 -1.7851214408874512 0.1754581481218338 0 1
10.013017654418945 1.4939062595367432 -1.7851064205169678 0.17545942962169647 0 1
10.019550323486328 1.4489452838897705 -1.7850918769836426 0.17546093463897705 0 1
10.025858879089355 1.4039453268051147 -1.7850775718688965 0.17546246945858002 0 1
10.031982421875 1.3589354753494263 -1.7850637435913086 0.17546388506889343 0 1
10.0378999710083 1.3138866424560547 -1.7850502729415894 0.1754651963710785 0 1
10.043622970581055 1.2688086032867432 -1.7850371599197388 0.175466388463974 0 1
10.04916000366211 1.223720669746399 -1.7850245237350464 0.1754675954580307 0 1
10.054471969604492 1.1785937547683716 -1.785012125968933 0.17546887695789337 0 1
10.059598922729492 1.133457064628601 -1.7850003242492676 0.1754700094461441 0 1
10.064520835876465 1.088281273841858 -1.7849886417388916 0.17547103762626648 0 1
10.069228172302246 1.0430957078933716 -1.7849774360656738 0.17547224462032318 0 1
10.073740005493164 0.9978905916213989 -1.7849667072296143 0.17547349631786346 0 1
10.078085899353027 0.9526659846305847 -1.7849559783935547 0.17547428607940674 0 1
10.082197189331055 0.9074218273162842 -1.7849459648132324 0.17547526955604553 0 1
10.086112976074219 0.8621581792831421 -1.7849361896514893 0.17547611892223358 0 1
10.089823722839355 0.8168749809265137 -1.7849270105361938 0.17547716200351715 0 1
10.093339920043945 0.7715820074081421 -1.7849180698394775 0.1754782348871231 0 1
10.096650123596191 0.726269543170929 -1.7849093675613403 0.1754790097475052 0 1
10.09975528717041 0.6809472441673279 -1.7849011421203613 0.17547979950904846 0 1
10.102665901184082 0.6356152296066284 -1.784893274307251 0.17548061907291412 0 1
10.10537052154541 0.5902636647224426 -1.7848858833312988 0.17548130452632904 0 1
10.107871055603027 0.5449023246765137 -1.7848788499832153 0.17548200488090515 0 1
10.110185623168945 0.4995214641094208 -1.784872055053711 0.17548255622386932 0 1
10.112295150756836 0.45415037870407104 -1.7848657369613647 0.17548330128192902 0 1
10.114189147949219 0.408759742975235 -1.7848597764968872 0.17548391222953796 0 1
10.115888595581055 0.36335936188697815 -1.7848540544509888 0.17548437416553497 0 1
10.117392539978027 0.3179589807987213 -1.784848928451538 0.17548485100269318 0 1
10.118691444396973 0.2725585997104645 -1.7848440408706665 0.1754855364561081 0 1
10.11978530883789 0.22712890803813934 -1.7848396301269531 0.17548571527004242 0 1
10.120683670043945 0.18170897662639618 -1.7848354578018188 0.1754862517118454 0 1
10.121366500854492 0.1362890601158142 -1.7848317623138428 0.17548665404319763 0 1
10.121865272521973 0.09085937589406967 -1.7848284244537354 0.17548692226409912 0 1
10.12215805053711 0.045439451932907104 -1.7848255634307861 0.17548717558383942 0 1
10.122236251831055 -0.0 -1.784822940826416 0.1754874587059021 0 1
10.1221284866333 -0.04541015625 -1.784820795059204 0.17548778653144836 0 1
10.121806144714355 -0.0908496081829071 -1.7848190069198608 0.1754879355430603 0 1
10.121289253234863 -0.13627929985523224 -1.7848174571990967 0.17548812925815582 0 1
10.120575904846191 -0.1816992163658142 -1.7848163843154907 0.17548799514770508 0 1
10.119647979736328 -0.2271093726158142 -1.7848156690597534 0.17548821866512299 0 1
10.118515014648438 -0.27253904938697815 -1.7848153114318848 0.17548830807209015 0 1
10.117206573486328 -0.3179296851158142 -1.7848154306411743 0.17548824846744537 0 1
10.115663528442383 -0.3633398413658142 -1.7848159074783325 0.17548835277557373 0 1
10.113954544067383 -0.40874022245407104 -1.7848167419433594 0.17548799514770508 0 1
10.112021446228027 -0.45412108302116394 -1.7848178148269653 0.17548799514770508 0 1
10.109882354736328 -0.49950194358825684 -1.784819483757019 0.17548786103725433 0 1
10.107558250427246 -0.5448632836341858 -1.7848213911056519 0.17548757791519165 0 1
10.105009078979492 -0.5902246236801147 -1.7848237752914429 0.1754874885082245 0 1
10.102294921875 -0.6355761289596558 -1.7848262786865234 0.17548710107803345 0 1
10.099345207214355 -0.680908203125 -1.7848294973373413 0.17548689246177673 0 1
10.096210479736328 -0.7262402176856995 -1.7848330736160278 0.17548656463623047 0 1
10.092880249023438 -0.7715234160423279 -1.7848366498947144 0.17548607289791107 0 1
10.089335441589355 -0.8168261647224426 -1.7848409414291382 0.17548564076423645 0 1
10.08559513092041 -0.8620898127555847 -1.7848455905914307 0.17548522353172302 0 1
10.081640243530273 -0.9073535203933716 -1.7848504781723022 0.17548483610153198 0 1
10.077499389648438 -0.9525878429412842 -1.7848559617996216 0.1754843294620514 0 1
10.073163986206055 -0.9978124499320984 -1.784861445426941 0.17548368871212006 0 1
10.068613052368164 -1.0430175065994263 -1.7848676443099976 0.1754830777645111 0 1
10.06386661529541 -1.0881932973861694 -1.7848740816116333 0.17548251152038574 0 1
10.058935165405273 -1.1333495378494263 -1.7848809957504272 0.17548182606697083 0 1
10.053759574890137 -1.178505778312683 -1.7848881483078003 0.1754811704158783 0 1
10.048418045043945 -1.2236132621765137 -1.7848957777023315 0.17548039555549622 0 1
10.04288101196289 -1.2687108516693115 -1.784903645515442 0.17547950148582458 0 1
10.037137985229492 -1.313759684562683 -1.784912109375 0.17547866702079773 0 1
10.03116226196289 -1.3588085174560547 -1.7849208116531372 0.1754780411720276 0 1
10.025029182434082 -1.4038183689117432 -1.7849297523498535 0.17547696828842163 0 1
10.018681526184082 -1.4488085508346558 -1.7849392890930176 0.1754761040210724 0 1
10.012147903442383 -1.4937597513198853 -1.7849491834640503 0.17547498643398285 0 1
10.005390167236328 -1.5386914014816284 -1.784959316253662 0.17547407746315002 0 1
9.99843692779541 -1.583583950996399 -1.7849700450897217 0.17547306418418884 0 1
9.99129867553711 -1.6284667253494263 -1.7849808931350708 0.17547178268432617 0 1
9.983954429626465 -1.6732909679412842 -1.7849923372268677 0.17547090351581573 0 1
9.976396560668945 -1.7180956602096558 -1.785003900527954 0.1754697561264038 0 1
9.968671798706055 -1.7628612518310547 -1.7850159406661987 0.1754683405160904 0 1
9.960721969604492 -1.8075976371765137 -1.7850284576416016 0.17546716332435608 0 1
9.952568054199219 -1.852294921875 -1.785041332244873 0.17546606063842773 0 1
9.944228172302246 -1.8969531059265137 -1.7850545644760132 0.1754647195339203 0 1
9.93570327758789 -1.9415819644927979 -1.7850680351257324 0.1754634529352188 0 1
9.926972389221191 -1.9861620664596558 -1.7850821018218994 0.17546193301677704 0 1
9.9180269241333 -2.030712842941284 -1.7850964069366455 0.17546066641807556 0 1
9.908905982971191 -2.0752246379852295 -1.7851110696792603 0.17545899748802185 0 1
9.89955997467041 -2.119687557220459 -1.7851262092590332 0.17545774579048157 0 1
9.890028953552246 -2.164130926132202 -1.7851415872573853 0.17545609176158905 0 1
9.880302429199219 -2.208505868911743 -1.7851574420928955 0.1754547357559204 0 1
9.870389938354492 -2.2528417110443115 -1.7851736545562744 0.17545312643051147 0 1
9.723808288574219 -2.2653613090515137 -1.7604807615280151 0.22832493484020233 0 2
9.537959098815918 -2.2672362327575684 -1.7286590337753296 0.26617321372032166 0 2
9.380322456359863 -2.274296760559082 -1.7019227743148804 0.27036044001579285 0 2
9.266982078552246 -2.290908098220825 -1.6832085847854614 0.17544622719287872 0 2
9.256689071655273 -2.3324902057647705 -1.6832256317138672 0.17544454336166382 0 2
9.24625015258789 -2.3740234375 -1.683242917060852 0.1754426509141922 0 2
9.235575675964355 -2.415537118911743 -1.6832605600357056 0.1754409372806549 0 2
9.237040519714355 -2.460253953933716 -1.685522437095642 0.2920260429382324 0 2
9.213720321655273 -2.4983885288238525 -1.683297038078308 0.17543713748455048 0 2
9.202528953552246 -2.539736270904541 -1.6833158731460571 0.17543521523475647 0 2
9.191142082214355 -2.5810546875 -1.6833349466323853 0.17543312907218933 0 2
9.179570198059082 -2.6222949028015137 -1.6833542585372925 0.17543120682239532 0 2
9.167831420898438 -2.663505792617798 -1.6833739280700684 0.17542900145053864 0 2
9.155888557434082 -2.704648494720459 -1.6833940744400024 0.1754269152879715 0 2
9.143759727478027 -2.7457518577575684 -1.6834145784378052 0.1754246950149536 0 2
9.131464958190918 -2.7867772579193115 -1.6834354400634766 0.17542268335819244 0 2
9.11898422241211 -2.827773332595825 -1.683456540107727 0.175420343875885 0 2
9.106318473815918 -2.86871075630188 -1.6834779977798462 0.1754181832075119 0 2
9.093466758728027 -2.9095897674560547 -1.683499813079834 0.17541593313217163 0 2
9.080429077148438 -2.9504101276397705 -1.6835219860076904 0.17541369795799255 0 2
9.06722640991211 -2.9911718368530273 -1.683544635772705 0.17541131377220154 0 2
9.053828239440918 -3.031874895095825 -1.6835675239562988 0.17540882527828217 0 2
9.040253639221191 -3.072519540786743 -1.6835906505584717 0.1754065603017807 0 2
9.026494026184082 -3.113115072250366 -1.6836141347885132 0.17540419101715088 0 2
9.012568473815918 -3.153632640838623 -1.6836379766464233 0.17540152370929718 0 2
8.99844741821289 -3.194101572036743 -1.6836621761322021 0.1753990799188614 0 2
8.984169960021973 -3.234501838684082 -1.6836867332458496 0.1753963828086853 0 2
8.969677925109863 -3.274833917617798 -1.6837116479873657 0.1753939390182495 0 2
8.955018997192383 -3.3151073455810547 -1.683736801147461 0.17539136111736298 0 2
8.940195083618164 -3.3553123474121094 -1.6837624311447144 0.17538854479789734 0 2
8.92519474029541 -3.395449161529541 -1.6837884187698364 0.17538586258888245 0 2
