ply
format ascii 1.0
element vertex 1398
property float32 x
property float32 y
property float32 z
property float32 CosAngle
property uint32 ObjIdx
property uint32 ObjTag
end_header
40.3265 11.8409 11.1688 0.6186 0 9
41.4534 18.9312 12.1102 0.8516 0 9
15.4528 8.4379 4.6788 0.4649 0 3
4.3849 2.8181 1.3851 0.7006 0 6
11.2833 8.4466 3.7455 0.5808 0 3
9.6804 8.3882 3.4039 0.6344 0 3
39.2290 -21.4206 11.4839 0.8254 0 9
37.6374 -17.1884 10.6309 0.6883 0 9
38.3021 -11.2465 10.2565 0.6880 0 9
38.4573 -8.3659 10.1120 0.8900 0 9
41.3443 -5.9444 10.7319 0.7877 0 9
39.5523 -2.8288 10.1882 0.6996 0 9
40.6561 -0.0000 10.4458 0.6506 0 9
39.3121 2.8117 10.1263 0.1022 0 9
39.1148 5.6239 10.1532 0.9124 0 9
41.8004 9.0931 10.9910 0.7409 0 9
39.8195 11.6921 10.6628 0.9675 0 9
41.3353 18.8772 11.6754 0.8559 0 9
15.4528 8.4379 4.5237 0.4659 0 3
4.3845 2.8178 1.3391 0.7021 0 6
11.2833 8.4466 3.6213 0.5820 0 3
9.6804 8.3882 3.2911 0.6358 0 3
39.1286 -21.3658 11.0635 0.8292 0 9
37.4103 -17.0847 10.2060 0.6939 0 9
37.8082 -11.1014 9.7786 0.2509 0 9
38.4076 -8.3551 9.7542 0.8930 0 9
43.3702 -6.2357 10.8734 0.9814 0 9
38.4334 -2.7488 9.5620 0.8939 0 9
40.1385 0.0000 9.9608 0.2503 0 9
39.3707 2.8159 9.7952 0.8147 0 9
39.0591 5.6159 9.7926 0.9156 0 9
42.0843 9.1549 10.6879 0.2225 0 9
38.0741 11.1796 9.8474 0.8298 0 9
40.6661 18.5716 11.0943 0.2808 0 9
15.4528 8.4379 4.3692 0.4669 0 3
4.3840 2.8175 1.2932 0.7037 0 6
11.1080 8.3153 3.4434 0.5832 0 3
9.6804 8.3882 3.1787 0.6371 0 3
39.0196 -21.3063 10.6443 0.4805 0 9
37.1317 -16.9574 9.7734 0.8722 0 9
44.9099 -16.7505 11.4761 0.6372 0 9
38.2538 -11.2323 9.5456 0.9519 0 9
40.6835 -8.8502 9.9684 0.5976 0 9
43.4900 -6.2529 10.5197 0.9806 0 9
38.5835 -2.7595 9.2614 0.8922 0 9
41.0194 0.0000 9.8210 0.9815 0 9
39.4782 2.8236 9.4762 0.9195 0 9
41.5415 5.9728 10.0483 0.5122 0 9
43.4102 9.4433 10.6366 0.9969 0 9
38.2314 11.2258 9.5400 0.8281 0 9
41.3655 18.8910 10.8878 0.2766 0 9
15.4528 8.4379 4.2154 0.4678 0 3
4.3836 2.8172 1.2476 0.7052 0 6
11.2010 8.3850 3.3500 0.5844 0 3
9.6804 8.3882 3.0668 0.6384 0 3
40.3728 -22.0451 10.6131 0.7743 0 9
36.9669 -16.8821 9.3764 0.7050 0 9
38.2753 -14.2759 9.4253 0.4613 0 9
38.2081 -11.2189 9.1877 0.8990 0 9
40.7454 -8.8636 9.6208 0.5979 0 9
39.4133 -5.6668 9.1871 0.9678 0 9
38.5070 -2.7540 8.9072 0.5498 0 9
40.1820 0.0000 9.2709 0.8606 0 9
39.4235 2.8196 9.1192 0.9226 0 9
41.4982 5.9666 9.6730 0.8512 0 9
39.5100 8.5949 9.3291 0.9701 0 9
37.6773 11.0631 9.0600 0.2852 0 9
41.5962 18.9964 10.5506 0.5555 0 9
15.4528 8.4379 4.0622 0.4688 0 3
4.3831 2.8169 1.2021 0.7066 0 6
11.2010 8.3850 3.2282 0.5856 0 3
9.6804 8.3882 2.9553 0.6396 0 3
40.2434 -21.9745 10.1817 0.7782 0 9
36.7503 -16.7832 8.9713 0.7105 0 9
38.9297 -14.5199 9.2262 0.4544 0 9
37.8576 -11.1160 8.7614 0.6263 0 9
38.4392 -8.3619 8.7352 0.8806 0 9
39.4136 -5.6668 8.8420 0.9696 0 9
37.3860 -2.6739 8.3229 0.7183 0 9
40.3444 0.0000 8.9587 0.8587 0 9
39.3692 2.8158 8.7645 0.9256 0 9
41.4000 5.9524 9.2876 0.8548 0 9
39.5045 8.5937 8.9773 0.9720 0 9
38.5481 11.3187 8.9212 0.8244 0 9
41.4024 18.9079 10.1069 0.5592 0 9
15.4528 8.4379 3.9096 0.4696 0 3
4.3827 2.8166 1.1568 0.7080 0 6
11.2010 8.3850 3.1070 0.5867 0 3
7.3126 6.3364 2.1486 0.6408 0 3
17.9758 -17.9758 5.4254 0.6947 0 3
40.6812 -26.1442 10.3204 0.9012 0 9
40.1152 -21.9045 9.7545 0.7821 0 9
37.1681 -16.9741 8.7204 0.9176 0 9
38.7996 -14.4715 8.8378 0.7812 0 9
38.0377 -11.1688 8.4606 0.6245 0 9
38.4155 -8.3568 8.3903 0.8827 0 9
44.1695 -6.3506 9.5235 0.3055 0 9
37.4970 -2.6818 8.0230 0.7175 0 9
40.7612 0.0000 8.6992 0.9721 0 9
39.3152 2.8119 8.4120 0.9285 0 9
39.3382 5.6560 8.4818 0.8101 0 9
39.4991 8.5925 8.6270 0.9739 0 9
38.6897 11.3604 8.6057 0.4256 0 9
44.4650 16.5846 10.1282 0.6908 0 9
44.1750 20.1741 10.3643 0.9133 0 9
15.4528 8.4379 3.7575 0.4705 0 3
4.3822 2.8163 1.1117 0.7093 0 6
11.2010 8.3850 2.9861 0.5877 0 3
7.4683 6.4713 2.1090 0.2115 0 3
18.6885 -18.6884 5.4131 0.2033 0 3
39.0898 -29.2622 10.0008 0.3499 0 9
40.7095 -26.1624 9.9111 0.9021 0 9
35.2259 -19.2347 8.2202 0.6901 0 9
36.6333 -16.7298 8.2483 0.5255 0 9
38.6665 -14.4218 8.4523 0.7852 0 9
38.0649 -11.1768 8.1253 0.9073 0 9
38.3919 -8.3517 8.0470 0.8848 0 9
44.5818 -6.4099 9.2248 0.8840 0 9
36.4675 -2.6082 7.4880 0.6617 0 9
40.7525 0.0000 8.3466 0.9740 0 9
39.2616 2.8081 8.0618 0.9314 0 9
39.3095 5.6519 8.1339 0.8121 0 9
39.4937 8.5913 8.2780 0.9757 0 9
37.2216 10.9293 7.9453 0.0373 0 9
44.4990 16.5973 9.7272 0.6915 0 9
44.2224 20.1957 9.9571 0.9139 0 9
15.4528 8.4379 3.6060 0.4713 0 3
4.3818 2.8161 1.0668 0.7106 0 6
8.4613 6.3340 2.1648 0.5887 0 3
7.7778 6.7395 2.1078 0.2035 0 3
39.0965 -29.2672 9.5836 0.3505 0 9
40.7377 -26.1805 9.5027 0.9030 0 9
35.5586 -19.4163 7.9503 0.6848 0 9
37.2916 -17.0305 8.0449 0.9177 0 9
38.5348 -14.3727 8.0707 0.7892 0 9
37.9460 -11.1419 7.7607 0.8502 0 9
38.3685 -8.3466 7.7053 0.8868 0 9
38.0037 -5.4641 7.5343 0.7673 0 9
36.8626 -2.6364 7.2522 0.6556 0 9
40.7438 -0.0000 7.9953 0.9758 0 9
39.1482 2.8000 7.7019 0.8513 0 9
39.2809 5.6478 7.7875 0.8141 0 9
39.4883 8.5902 7.9302 0.9775 0 9
36.2118 10.6328 7.4060 0.6908 0 9
44.5329 16.6099 9.3270 0.6921 0 9
15.2127 8.3068 3.4013 0.4721 0 3
4.3814 2.8158 1.0220 0.7119 0 6
8.5863 6.4276 2.1048 0.1955 0 3
8.1129 7.0298 2.1066 0.1954 0 3
39.1031 -29.2721 9.1677 0.3510 0 9
40.7659 -26.1986 9.0949 0.9038 0 9
35.8965 -19.6009 7.6762 0.6794 0 9
37.7782 -17.2527 7.7948 0.8488 0 9
38.4044 -14.3240 7.6930 0.7931 0 9
38.5844 -11.3294 7.5474 0.6187 0 9
38.3451 -8.3415 7.3651 0.8888 0 9
36.2356 -5.2099 6.8708 0.9746 0 9
37.2651 -2.6652 7.0120 0.6496 0 9
41.7407 -0.0000 7.8341 0.7485 0 9
39.6459 2.8355 7.4600 0.4900 0 9
39.2524 5.6437 7.4429 0.8159 0 9
35.0936 7.6341 6.7406 0.1075 0 9
36.5819 10.7414 7.1557 0.6849 0 9
44.5667 16.6225 8.9274 0.6927 0 9
42.4551 19.3886 8.7598 0.9554 0 9
15.3402 8.3764 3.2804 0.4728 0 3
4.3809 2.8155 0.9774 0.7131 0 6
8.9712 6.7158 2.1033 0.1874 0 3
8.4769 7.3453 2.1052 0.1873 0 3
39.1097 -29.2771 8.7528 0.3514 0 9
40.7940 -26.2167 8.6879 0.9045 0 9
35.0428 -19.1348 7.1533 0.2130 0 9
37.7951 -17.2604 7.4442 0.9618 0 9
42.2545 -15.7601 8.0798 0.4149 0 9
38.7263 -11.3710 7.2312 0.8348 0 9
38.3219 -8.3364 7.0264 0.8906 0 9
35.7354 -5.1380 6.4683 0.2485 0 9
37.6752 -2.6946 6.7672 0.6435 0 9
39.7905 2.8459 7.1472 0.5123 0 9
39.2241 5.6396 7.0997 0.8178 0 9
35.6498 7.7551 6.5365 0.1060 0 9
36.9585 10.8520 6.9011 0.6790 0 9
45.3561 16.9170 8.6729 0.9154 0 9
42.4190 19.3721 8.3549 0.9577 0 9
15.3402 8.3764 3.1314 0.4735 0 3
4.3805 2.8152 0.9329 0.7142 0 6
9.3909 7.0299 2.1017 0.1793 0 3
8.8738 7.6892 2.1037 0.1792 0 3
37.1767 -32.2138 8.3953 0.6333 0 9
39.1164 -29.2821 8.3391 0.3519 0 9
36.2067 -19.7702 7.0404 0.2064 0 9
39.6912 -18.1263 7.4468 0.7090 0 9
44.5558 -16.6184 8.1158 0.9502 0 9
38.6120 -11.3375 6.8679 0.8385 0 9
38.2987 -8.3314 6.6891 0.8925 0 9
35.9636 -5.1708 6.2008 0.2473 0 9
36.4470 -2.6067 6.2361 0.9497 0 9
40.1205 2.8695 6.8646 0.7742 0 9
39.1120 5.6235 6.7437 0.5988 0 9
36.2221 7.8796 6.3264 0.1045 0 9
35.9537 10.5570 6.3951 0.9609 0 9
45.4777 16.9623 8.2837 0.6640 0 9
39.0922 17.8528 7.3344 0.9343 0 9
15.3402 8.3764 2.9829 0.4742 0 3
4.3801 2.8149 0.8886 0.7153 0 6
9.8503 7.3739 2.1000 0.1712 0 3
9.3083 8.0657 2.1020 0.1711 0 3
36.4364 -31.5723 7.8196 0.3927 0 9
36.2153 -19.7749 6.6924 0.7824 0 9
40.5925 -18.5379 7.2378 0.6660 0 9
42.0438 -15.6815 7.2780 0.9544 0 9
38.4988 -11.3042 6.5077 0.8421 0 9
38.2757 -8.3264 6.3531 0.8942 0 9
36.0839 -5.1881 5.9126 0.4204 0 9
36.5917 -2.6171 5.9500 0.9473 0 9
39.9906 2.8602 6.5027 0.7777 0 9
36.1510 7.8642 6.0005 0.5046 0 9
36.0897 10.5969 6.1005 0.9586 0 9
45.6593 17.0301 7.9038 0.9119 0 9
37.8010 17.2631 6.7400 0.8443 0 9
11.5880 6.3275 2.1414 0.4749 0 3
4.3796 2.8147 0.8444 0.7164 0 6
10.3555 7.7521 2.0980 0.1631 0 3
9.6804 8.3882 2.0775 0.6480 0 3
36.5488 -31.6697 7.4350 0.5639 0 9
35.7980 -23.0059 6.5420 0.9502 0 9
36.0551 -19.6874 6.3156 0.7869 0 9
38.1298 -17.4132 6.4444 0.9067 0 9
42.0295 -15.6762 6.8964 0.9560 0 9
36.1129 -7.8559 5.6818 0.1158 0 9
36.4268 -5.2374 5.6578 0.2448 0 9
36.7371 -2.6275 5.6623 0.9447 0 9
49.0971 -0.0001 7.5481 0.6391 0 9
36.9014 5.3056 5.7315 0.2257 0 9
36.6374 7.9700 5.7643 0.4985 0 9
36.2265 10.6371 5.8045 0.9562 0 9
45.9874 17.1524 7.5458 0.8747 0 9
38.0278 17.3667 6.4271 0.8403 0 9
11.9430 6.5214 2.0920 0.1552 0 3
4.3792 2.8144 0.8003 0.7174 0 6
10.9138 8.1700 2.0959 0.1550 0 3
9.6804 8.3882 1.9692 0.6488 0 3
36.5185 -31.6434 7.0215 0.6472 0 9
35.8733 -23.0543 6.1963 0.9494 0 9
35.8966 -19.6009 5.9431 0.7914 0 9
38.0975 -17.3985 6.0858 0.9086 0 9
41.0446 -15.3088 6.3655 0.2409 0 9
46.1183 -13.5415 6.9843 0.9701 0 9
42.6776 -9.2840 6.3465 0.9940 0 9
35.4230 -5.0931 5.2002 0.5373 0 9
36.8834 -2.6379 5.3732 0.9422 0 9
43.2794 3.0954 6.3049 0.9825 0 9
35.4736 7.7168 5.2752 0.4425 0 9
36.3639 10.6774 5.5071 0.9537 0 9
38.2567 17.4713 6.1113 0.8363 0 9
12.6203 6.8912 2.0894 0.1471 0 3
4.3788 2.8141 0.7563 0.7183 0 6
11.2010 8.3850 2.0331 0.5947 0 3
9.5699 8.2924 1.8400 0.6496 0 3
36.3053 -31.4587 6.5765 0.6518 0 9
35.9488 -23.1028 5.8500 0.9485 0 9
35.7400 -19.5154 5.5747 0.7958 0 9
40.9019 -15.2556 5.9762 0.2681 0 9
35.0193 -7.6180 4.9062 0.8662 0 9
36.6512 -5.2697 5.0691 0.9713 0 9
37.0304 -2.6484 5.0824 0.9395 0 9
43.3052 3.0973 5.9436 0.9830 0 9
35.5464 5.1108 4.9163 0.7988 0 9
36.7813 8.0013 5.1531 0.9287 0 9
36.5020 10.7179 5.2080 0.9512 0 9
13.8522 6.3261 2.0847 0.1391 0 3
13.3772 7.3045 2.0866 0.1389 0 3
4.3783 2.8138 0.7125 0.7192 0 6
11.2010 8.3850 1.9155 0.5954 0 3
9.5927 8.3121 1.7376 0.1375 0 3
36.6139 -31.7261 6.2259 0.6424 0 9
36.0244 -23.1514 5.5030 0.9476 0 9
37.1943 -20.3096 5.4459 0.8513 0 9
41.2429 -15.3828 5.6567 0.9583 0 9
34.9367 -7.6000 4.5946 0.8692 0 9
36.7208 -5.2796 4.7674 0.9705 0 9
37.1783 -2.6590 4.7899 0.9368 0 9
43.3273 3.0989 5.5821 0.8856 0 9
35.4529 5.0974 4.6028 0.8017 0 9
36.8508 8.0164 4.8464 0.9280 0 9
36.6409 10.7587 4.9074 0.9487 0 9
14.7330 6.7283 2.0814 0.1309 0 3
14.2286 7.7694 2.0833 0.1308 0 3
4.3779 2.8136 0.6688 0.7201 0 6
11.1080 8.3153 1.7831 0.5960 0 3
9.6686 8.3779 1.6441 0.7477 0 3
36.8093 -31.8954 5.8513 0.6396 0 9
36.1002 -23.2001 5.1553 0.9465 0 9
36.7569 -20.0707 5.0312 0.2886 0 9
40.0981 -14.9558 5.1413 0.7198 0 9
34.8546 -7.5821 4.2852 0.8721 0 9
36.7905 -5.2897 4.4653 0.9697 0 9
39.3611 -2.8151 4.7407 0.6130 0 9
43.2727 3.0949 5.2118 0.8876 0 9
35.3601 5.0840 4.2917 0.8047 0 9
36.9204 8.0315 4.5392 0.9272 0 9
38.1818 11.2112 4.7806 0.7262 0 9
15.7312 7.1842 2.0776 0.1227 0 3
15.1936 8.2963 2.0797 0.1226 0 3
4.3775 2.8133 0.6251 0.7209 0 6
11.2833 8.4465 1.6932 0.5966 0 3
9.6682 8.3776 1.5369 0.7485 0 3
37.0065 -32.0662 5.4734 0.6368 0 9
36.4422 -23.4199 4.8421 0.8081 0 9
36.1627 -19.7462 4.6056 0.3944 0 9
39.9875 -18.2616 4.9138 0.6069 0 9
39.9115 -14.8862 4.7614 0.7014 0 9
43.6361 -12.8127 5.0835 0.7591 0 9
34.7730 -7.5644 3.9778 0.8750 0 9
36.8603 -5.2997 4.1625 0.9688 0 9
39.4365 -2.8205 4.4194 0.6124 0 9
42.9779 -0.0000 4.8040 0.9787 0 9
43.2183 3.0911 4.8432 0.8895 0 9
35.2680 5.0708 3.9827 0.8076 0 9
37.3546 8.1260 4.2731 0.9219 0 9
38.2342 11.2266 4.4542 0.7259 0 9
40.8722 15.2446 4.8761 0.9020 0 9
39.5124 18.0447 4.8554 0.9319 0 9
15.3402 8.3764 1.9537 0.4781 0 3
4.3770 2.8130 0.5816 0.7217 0 6
11.2833 8.4465 1.5755 0.5972 0 3
9.6678 8.3772 1.4299 0.7493 0 3
18.0019 -18.0018 2.6333 0.7019 0 3
36.9220 -31.9930 5.0534 0.2790 0 9
36.4123 -23.4007 4.4771 0.8095 0 9
39.2369 -21.4249 4.6242 0.6250 0 9
39.9034 -18.2232 4.5375 0.6087 0 9
40.0331 -14.9316 4.4196 0.3947 0 9
43.4210 -12.7495 4.6809 0.7635 0 9
34.6920 -7.5468 3.6724 0.8778 0 9
37.1909 -5.3472 3.8865 0.9605 0 9
39.5119 -2.8259 4.0974 0.6118 0 9
43.0177 0.0000 4.4496 0.9786 0 9
42.6399 3.0497 4.4218 0.6370 0 9
37.4016 5.3776 3.9085 0.5098 0 9
37.3028 8.1147 3.9487 0.9240 0 9
38.2866 11.2420 4.1274 0.7255 0 9
40.7668 15.2052 4.5005 0.9051 0 9
39.5726 18.0722 4.4999 0.9313 0 9
15.2663 8.3360 1.7992 0.4785 0 3
4.3766 2.8127 0.5381 0.7224 0 6
11.2833 8.4465 1.4579 0.5978 0 3
9.6674 8.3769 1.3231 0.7500 0 3
34.8400 -34.8400 4.6862 0.3160 0 9
37.5106 -32.5031 4.7207 0.6534 0 9
36.2803 -23.3158 4.1018 0.4921 0 9
39.1654 -21.3859 4.2442 0.4073 0 9
38.8244 -17.7304 4.0594 0.7120 0 9
40.0905 -14.9529 4.0696 0.3944 0 9
43.2083 -12.6871 4.2830 0.7679 0 9
36.8638 -8.0192 3.5881 0.5731 0 9
37.1455 -5.3407 3.5692 0.9625 0 9
39.5876 -2.8313 3.7748 0.6111 0 9
43.0575 0.0000 4.0952 0.9785 0 9
42.6491 3.0504 4.0667 0.6374 0 9
37.8399 5.4406 3.6360 0.5043 0 9
37.2512 8.1035 3.6258 0.9260 0 9
38.3391 11.2574 3.8004 0.7251 0 9
39.8943 18.2191 4.1713 0.8665 0 9
15.3432 8.3780 1.6627 0.4804 0 3
4.3762 2.8125 0.4948 0.7230 0 6
11.2833 8.4465 1.3405 0.5982 0 3
9.6670 8.3765 1.2166 0.7506 0 3
36.3528 -23.3625 3.7507 0.8121 0 9
39.7251 -21.6915 3.9285 0.7322 0 9
39.0686 -17.8420 3.7279 0.7081 0 9
40.1479 -14.9743 3.7192 0.3941 0 9
42.9980 -12.6253 3.8896 0.7723 0 9
37.2467 -8.1025 3.3085 0.5677 0 9
38.4483 -5.5280 3.3715 0.8048 0 9
39.6634 -2.8367 3.4514 0.6104 0 9
43.0973 0.0000 3.7407 0.9784 0 9
42.6582 3.0510 3.7120 0.6377 0 9
38.2878 5.5050 3.3574 0.4987 0 9
44.0129 9.5744 3.9095 0.9698 0 9
40.6099 11.9242 3.6736 0.9482 0 9
39.8193 18.1849 3.7995 0.8688 0 9
15.3473 8.3803 1.5177 0.4807 0 3
4.3758 2.8122 0.4515 0.7237 0 6
11.2833 8.4465 1.2234 0.5987 0 3
9.6666 8.3762 1.1102 0.7512 0 3
40.0557 -21.8720 3.5823 0.7266 0 9
39.3156 -17.9548 3.3926 0.7041 0 9
40.2053 -14.9958 3.3682 0.3938 0 9
42.7901 -12.5643 3.5006 0.7765 0 9
37.6371 -8.1875 3.0234 0.5622 0 9
37.7039 -5.4210 2.9900 0.7486 0 9
41.0781 -2.9379 3.2326 0.9756 0 9
42.6673 3.0516 3.3577 0.6380 0 9
38.7458 5.5708 3.0726 0.4932 0 9
44.1360 9.6012 3.5454 0.9678 0 9
40.5578 11.9088 3.3180 0.9500 0 9
40.6772 18.5767 3.5101 0.9129 0 9
15.3514 8.3825 1.3729 0.4809 0 3
4.3753 2.8119 0.4082 0.7242 0 6
11.2833 8.4465 1.1063 0.5991 0 3
9.6662 8.3758 1.0040 0.7518 0 3
18.0019 -18.0018 1.7873 0.7039 0 3
40.1392 -21.9176 3.2106 0.7394 0 9
39.5654 -18.0689 3.0536 0.7001 0 9
40.2630 -15.0173 3.0168 0.3935 0 9
38.1487 -8.2987 2.7408 0.7910 0 9
38.3018 -5.5070 2.7165 0.9089 0 9
41.0321 -2.9346 2.8879 0.9773 0 9
42.6765 3.0523 3.0037 0.6383 0 9
39.2487 5.6431 2.7837 0.3255 0 9
44.2595 9.6281 3.1798 0.9656 0 9
40.5059 11.8936 2.9637 0.9518 0 9
40.6148 18.5482 3.1345 0.9149 0 9
15.3556 8.3848 1.2282 0.4810 0 3
4.3749 2.8116 0.3651 0.7247 0 6
11.2833 8.4465 0.9895 0.5995 0 3
9.6658 8.3755 0.8979 0.7523 0 3
18.0019 -18.0018 1.5764 0.7043 0 3
41.0682 -22.4249 2.8974 0.4069 0 9
39.4899 -18.0344 2.6882 0.6172 0 9
41.6929 -15.5506 2.7554 0.4797 0 9
42.1056 -12.3633 2.7173 0.8317 0 9
38.4410 -8.3623 2.4360 0.8542 0 9
38.2865 -5.5048 2.3951 0.8097 0 9
40.9863 -2.9313 2.5444 0.9790 0 9
39.9108 5.7383 2.4967 0.7902 0 9
44.3836 9.6551 2.8126 0.9635 0 9
40.4543 11.8785 2.6107 0.9536 0 9
40.5526 18.5198 2.7605 0.9168 0 9
15.3597 8.3871 1.0836 0.4812 0 3
4.3745 2.8114 0.3220 0.7252 0 6
11.2833 8.4465 0.8727 0.5998 0 3
9.6654 8.3751 0.7919 0.7527 0 3
18.0019 -18.0018 1.3658 0.7046 0 3
41.3797 -22.5949 2.5293 0.3703 0 9
39.4086 -17.9973 2.3242 0.6188 0 9
43.4632 -16.2109 2.4886 0.6575 0 9
39.8101 -8.6602 2.1857 0.8401 0 9
42.0161 -6.0410 2.2773 0.5539 0 9
40.9406 -2.9281 2.2020 0.9805 0 9
40.5535 5.8308 2.1980 0.9826 0 9
44.5083 9.6822 2.4436 0.9612 0 9
41.7777 19.0792 2.4639 0.5251 0 9
15.3638 8.3893 0.9391 0.4813 0 3
4.3741 2.8111 0.2789 0.7256 0 6
11.2833 8.4465 0.7561 0.6001 0 3
9.6650 8.3748 0.6861 0.7531 0 3
18.0019 -18.0018 1.1554 0.7049 0 3
41.3078 -22.5557 2.1359 0.3711 0 9
39.3276 -17.9603 1.9621 0.6203 0 9
44.3702 -16.5492 2.1491 0.9619 0 9
40.0276 -8.7075 1.8590 0.8359 0 9
41.9996 -6.0387 1.9256 0.5544 0 9
40.5327 5.8277 1.8584 0.9835 0 9
44.6336 9.7094 2.0729 0.9589 0 9
43.2861 19.7681 2.1596 0.6767 0 9
15.3680 8.3916 0.7946 0.4813 0 3
4.3737 2.8109 0.2359 0.9196 0 6
11.2833 8.4465 0.6396 0.6003 0 3
7.6212 6.6038 0.4576 0.6558 0 3
18.0019 -18.0018 0.9451 0.7052 0 3
41.2361 -22.5165 1.7441 0.3719 0 9
20.5945 -7.6813 0.8160 0.0798 0 20
40.0536 -8.7131 1.5217 0.9514 0 9
41.9832 -6.0363 1.5745 0.5548 0 9
45.8195 6.5878 1.7184 0.9305 0 9
44.7595 9.7368 1.7004 0.9565 0 9
43.2243 19.7399 1.7640 0.6779 0 9
15.3721 8.3938 0.6502 0.4814 0 3
4.3734 2.8106 0.1930 0.9200 0 6
8.8184 6.6013 0.4089 0.6005 0 3
7.6212 6.6038 0.3744 0.6560 0 3
18.0019 -18.0018 0.7349 0.7053 0 3
41.9668 -6.0339 1.2239 0.5551 0 9
14.4294 6.5896 0.4579 0.4171 0 3
12.0770 6.5945 0.3972 0.4809 0 3
4.3730 2.8104 0.1501 0.9203 0 6
8.8786 6.6464 0.3202 0.7988 0 3
7.6500 6.6287 0.2922 0.6562 0 3
18.0019 -18.0018 0.5249 0.7055 0 3
20.6375 -7.6974 0.4541 0.6171 0 20
41.9680 -6.0341 0.8742 0.6128 0 9
14.4838 6.6145 0.3283 0.4172 0 3
12.1341 6.6257 0.2850 0.8764 0 3
4.3727 2.8102 0.1072 0.9205 0 6
8.8782 6.6461 0.2286 0.7990 0 3
7.6500 6.6287 0.2087 0.6563 0 3
18.0019 -18.0018 0.3149 0.7056 0 3
20.5939 -7.6811 0.2719 0.7622 0 20
41.9848 -6.0365 0.5246 0.6126 0 9
14.4838 6.6145 0.1969 0.4173 0 3
12.1337 6.6255 0.1710 0.8766 0 3
4.3724 2.8100 0.0643 0.9207 0 6
8.8779 6.6459 0.1372 0.7992 0 3
7.6500 6.6287 0.1252 0.6564 0 3
18.0019 -18.0018 0.1050 0.7056 0 3
20.5931 -7.6808 0.0906 0.7622 0 20
42.0017 -6.0389 0.1749 0.6124 0 9
14.4838 6.6145 0.0656 0.4173 0 3
12.1333 6.6252 0.0570 0.8767 0 3
4.3720 2.8098 0.0214 0.9209 0 6
8.8775 6.6456 0.0457 0.7993 0 3
7.6500 6.6287 0.0417 0.6564 0 3
18.0019 -18.0018 -0.1050 0.7056 0 3
36.5328 -23.4781 -0.1790 0.3339 0 4
20.5923 -7.6805 -0.0906 0.7623 0 20
42.0173 -6.0412 -0.1750 0.6547 0 9
36.5251 5.2516 -0.1521 0.9902 0 4
36.5302 7.9467 -0.1541 0.9749 0 4
14.4838 6.6145 -0.0656 0.4173 0 3
12.1328 6.6250 -0.0570 0.8767 0 3
4.3717 2.8096 -0.0214 0.9209 0 6
8.8772 6.6454 -0.0457 0.7993 0 3
7.6500 6.6287 -0.0417 0.6564 0 3
18.0019 -18.0018 -0.3149 0.7056 0 3
25.8575 -22.4056 -0.4232 0.6591 254 14
36.6661 -27.4479 -0.5665 0.5902 0 4
36.5518 -23.4904 -0.5374 0.8425 0 4
20.5915 -7.6802 -0.2718 0.7622 0 20
42.0317 -6.0433 -0.5252 0.6545 0 9
36.5587 5.2564 -0.4568 0.9891 0 4
36.5648 7.9542 -0.4629 0.9765 0 4
14.4838 6.6145 -0.1970 0.4173 0 3
12.1324 6.6248 -0.1710 0.8767 0 3
4.3714 2.8094 -0.0643 0.9209 0 6
8.8768 6.6451 -0.1372 0.7993 0 3
7.6500 6.6287 -0.1252 0.6564 0 3
18.0019 -18.0018 -0.5249 0.7055 0 3
25.6816 -22.2532 -0.7006 0.6635 254 14
36.6661 -27.4479 -0.9443 0.5900 0 4
36.5510 -23.4899 -0.8958 0.8424 0 4
20.5907 -7.6799 -0.4531 0.7622 0 20
42.0462 -6.0453 -0.8758 0.6542 0 9
36.6587 2.6219 -0.7577 0.9275 0 4
36.5572 5.2562 -0.7615 0.9890 0 4
36.5634 7.9539 -0.7715 0.9764 0 4
14.4838 6.6145 -0.3283 0.4172 0 3
12.1320 6.6245 -0.2850 0.8766 0 3
4.3710 2.8091 -0.1071 0.9209 0 6
8.8765 6.6448 -0.2286 0.7992 0 3
7.6500 6.6287 -0.2087 0.6563 0 3
18.0019 -18.0018 -0.7349 0.7053 0 3
25.5375 -22.1283 -0.9755 0.7651 254 14
36.5421 -27.3551 -1.3177 0.8007 0 4
36.5502 -23.4894 -1.2542 0.8422 0 4
36.5706 -19.9690 -1.2028 0.6386 0 4
20.5899 -7.6796 -0.6344 0.7620 0 20
42.0607 -6.0474 -1.2267 0.6538 0 9
41.0105 -2.9330 -1.1869 0.0484 0 0
36.6575 2.6219 -1.0609 0.9274 0 4
36.5556 5.2560 -1.0661 0.9888 0 4
36.5620 7.9536 -1.0801 0.9763 0 4
14.6758 6.7022 -0.4657 0.0250 0 3
12.0770 6.5945 -0.3972 0.4809 0 3
4.3707 2.8089 -0.1500 0.9208 0 6
8.8183 6.6013 -0.3180 0.6007 0 3
7.6500 6.6287 -0.2922 0.6562 0 3
18.0019 -18.0018 -0.9451 0.7052 0 3
25.5117 -22.1060 -1.2531 0.7593 254 14
26.8446 -20.0955 -1.2448 0.4439 254 14
36.5494 -23.4888 -1.6128 0.8420 0 4
36.5525 -19.9590 -1.5460 0.8774 0 4
36.5612 -16.6969 -1.4921 0.9103 0 4
20.5891 -7.6793 -0.8157 0.7619 0 20
36.5673 -10.7371 -1.4148 0.9591 0 4
36.5711 -7.9556 -1.3894 0.9768 0 4
39.1161 -5.6240 -1.4670 0.2842 0 0
39.4646 -2.8225 -1.4688 0.3360 0 0
16.1345 0.0000 -0.5989 0.8319 261 13
36.5400 2.6135 -1.3599 0.9967 0 4
36.5540 5.2557 -1.3709 0.9886 0 4
36.5606 7.9533 -1.3890 0.9760 0 4
36.5691 10.7377 -1.4148 0.9582 0 4
36.5819 13.6444 -1.4494 0.9350 0 4
14.3619 6.5588 -0.5861 0.4170 0 3
12.0205 6.5637 -0.5084 0.4807 0 3
4.3704 2.8087 -0.1929 0.9206 0 6
8.8184 6.6013 -0.4089 0.6005 0 3
7.6212 6.6038 -0.3744 0.6560 0 3
18.0019 -18.0018 -1.1554 0.7049 0 3
25.4675 -22.0677 -1.5293 0.7660 254 14
26.8978 -20.1354 -1.5248 0.3995 254 14
33.9272 -21.8037 -1.8302 0.0421 0 2
35.5125 -19.3912 -1.8362 0.0420 0 2
36.5596 -16.6962 -1.8240 0.9101 0 4
20.5883 -7.6790 -0.9972 0.7616 0 20
36.5657 -10.7367 -1.7295 0.9588 0 4
36.5697 -7.9553 -1.6984 0.9765 0 4
37.9477 -5.4560 -1.7398 0.2226 0 0
38.3411 -2.7422 -1.7444 0.3691 0 0
16.0517 0.0000 -0.7285 0.2430 261 13
36.5387 2.6134 -1.6624 0.9964 0 4
36.5524 5.2555 -1.6759 0.9883 0 4
36.5592 7.9530 -1.6979 0.9757 0 4
36.5684 10.7375 -1.7296 0.9579 0 4
36.5802 13.6438 -1.7718 0.9347 0 4
14.3619 6.5588 -0.7165 0.4169 0 3
12.0205 6.5637 -0.6215 0.4806 0 3
4.3700 2.8085 -0.2357 0.9204 0 6
8.7771 6.5704 -0.4976 0.6003 0 3
7.5856 6.5729 -0.4555 0.6558 0 3
18.0019 -18.0019 -1.3658 0.7046 0 3
26.8567 -23.2714 -1.9065 0.0507 0 1
28.5441 -21.3678 -1.9129 0.0505 0 1
23.1140 -14.8545 -1.4740 0.7056 0 6
31.4765 -17.1874 -1.9240 0.0502 0 1
32.4868 -14.8362 -1.9160 0.9098 0 2
20.5875 -7.6787 -1.1788 0.7614 0 20
32.6455 -9.5856 -1.8253 0.0499 0 2
33.2907 -7.2419 -1.8277 0.0499 0 2
33.7548 -4.8532 -1.8295 0.0498 0 2
34.0347 -2.4341 -1.8306 0.0498 0 2
15.3716 0.0000 -0.8247 0.4258 261 18
34.0342 2.4342 -1.8305 0.0498 0 2
33.7540 4.8531 -1.8295 0.0498 0 2
33.2894 7.2417 -1.8277 0.0499 0 2
32.6439 9.5852 -1.8252 0.0499 0 2
32.5420 12.1376 -1.8633 0.9355 0 2
14.3619 6.5588 -0.8470 0.4167 0 3
12.0205 6.5637 -0.7348 0.4804 0 3
4.3697 2.8083 -0.2787 0.9200 0 6
8.7771 6.5704 -0.5882 0.6001 0 3
7.5856 6.5729 -0.5385 0.6555 0 3
18.0019 -18.0019 -1.5764 0.7043 0 3
21.7730 -18.8664 -1.7839 0.0589 0 2
23.1308 -17.3154 -1.7891 0.0587 0 2
23.0883 -14.8379 -1.6994 0.9415 0 6
27.0313 -14.7602 -1.9071 0.0585 0 1
28.0735 -12.8207 -1.9110 0.0584 0 1
28.9679 -10.8044 -1.9144 0.0582 0 1
29.7083 -8.7231 -1.9172 0.0582 0 1
30.2896 -6.5891 -1.9194 0.0581 0 1
30.7077 -4.4151 -1.9210 0.0580 0 1
30.9597 -2.2143 -1.9220 0.0580 0 1
15.5785 0.0000 -0.9646 0.4171 261 18
30.9594 2.2143 -1.9219 0.0580 0 1
30.7070 4.4151 -1.9210 0.0581 0 1
30.2886 6.5889 -1.9194 0.0581 0 1
29.7070 8.7228 -1.9172 0.0582 0 1
28.9663 10.8039 -1.9143 0.0583 0 1
14.3619 6.5588 -0.9777 0.4165 0 3
12.0205 6.5637 -0.8481 0.4802 0 3
4.3694 2.8081 -0.3216 0.9197 0 6
8.7771 6.5704 -0.6789 0.5998 0 3
7.5856 6.5729 -0.6215 0.6552 0 3
18.0019 -18.0019 -1.7873 0.7039 0 3
19.2991 -16.7227 -1.7927 0.0672 0 2
20.4946 -15.3421 -1.7973 0.0670 0 2
21.3579 -13.7258 -1.7823 0.0668 0 2
22.3292 -12.1926 -1.7860 0.0667 0 2
23.1847 -10.5881 -1.7893 0.0665 0 2
25.3680 -9.4618 -1.9008 0.0665 0 1
26.0117 -7.6377 -1.9032 0.0664 0 1
26.5168 -5.7684 -1.9051 0.0663 0 1
26.8802 -3.8648 -1.9065 0.0663 0 1
27.0990 -1.9382 -1.9073 0.0662 0 1
15.2735 0.0000 -1.0722 0.9856 261 18
27.0988 1.9382 -1.9073 0.0663 0 1
26.8796 3.8648 -1.9064 0.0663 0 1
26.5161 5.7683 -1.9050 0.0663 0 1
26.0107 7.6375 -1.9031 0.0664 0 1
23.9152 8.9199 -1.7919 0.0665 0 2
14.3619 6.5588 -1.1084 0.4163 0 3
12.0205 6.5637 -0.9615 0.4799 0 3
4.3690 2.8079 -0.3646 0.9192 0 6
8.7771 6.5704 -0.7697 0.5995 0 3
7.5856 6.5729 -0.7046 0.6548 0 3
16.0380 -16.0380 -1.7803 0.0756 0 2
17.1831 -14.8892 -1.7847 0.0754 0 2
18.2425 -13.6561 -1.7887 0.0752 0 2
19.2095 -12.3452 -1.7924 0.0751 0 2
20.0781 -10.9634 -1.7957 0.0749 0 2
20.6214 -9.4175 -1.7795 0.0748 0 2
20.5585 -7.6679 -1.7223 0.7634 0 20
23.1302 -6.7916 -1.8922 0.0746 0 1
23.5768 -5.1288 -1.8939 0.0746 0 1
23.8979 -3.4359 -1.8951 0.0745 0 1
24.0914 -1.7231 -1.8959 0.0745 0 1
16.0276 0.0000 -1.2581 0.5469 261 13
24.0912 1.7231 -1.8959 0.0745 0 1
23.8975 3.4360 -1.8951 0.0745 0 1
22.2271 4.8353 -1.7855 0.0746 0 2
21.8059 6.4028 -1.7839 0.0746 0 2
21.2691 7.9330 -1.7819 0.0747 0 2
14.3619 6.5588 -1.2393 0.4160 0 3
12.0205 6.5637 -1.0750 0.4796 0 3
4.3687 2.8077 -0.4076 0.9188 0 6
8.7771 6.5704 -0.8606 0.5991 0 3
7.5856 6.5729 -0.7879 0.6544 0 3
14.4549 -14.4548 -1.7743 0.0838 0 2
15.4832 -13.4162 -1.7782 0.0836 0 2
16.4342 -12.3024 -1.7818 0.0834 0 2
17.3018 -11.1192 -1.7851 0.0833 0 2
17.8890 -9.7681 -1.7691 0.0832 0 2
18.5678 -8.4796 -1.7717 0.0830 0 2
19.1499 -7.1425 -1.7740 0.0829 0 2
20.8208 -6.1135 -1.8835 0.0828 0 1
21.2209 -4.6163 -1.8850 0.0828 0 1
21.5086 -3.0924 -1.8861 0.0827 0 1
21.6819 -1.5507 -1.8867 0.0827 0 1
15.9272 0.0000 -1.3824 0.7329 261 13
21.6817 1.5507 -1.8867 0.0827 0 1
20.2774 2.9155 -1.7781 0.0827 0 2
20.0061 4.3521 -1.7771 0.0828 0 2
19.6287 5.7636 -1.7756 0.0828 0 2
19.2968 7.1974 -1.7876 0.0829 0 0
14.3619 6.5588 -1.3704 0.4157 0 3
12.0206 6.5637 -1.1887 0.4793 0 3
4.3684 2.8074 -0.4507 0.9182 0 6
8.7771 6.5704 -0.9516 0.5987 0 3
7.5856 6.5729 -0.8712 0.6540 0 3
13.1546 -13.1545 -1.7694 0.0920 0 2
14.0876 -12.2070 -1.7729 0.0918 0 2
14.9501 -11.1914 -1.7762 0.0917 0 2
15.7368 -10.1135 -1.7792 0.0915 0 2
16.2687 -8.8834 -1.7630 0.0914 0 2
16.8838 -7.7105 -1.7654 0.0913 0 2
17.4110 -6.4939 -1.7674 0.0912 0 2
18.9282 -5.5578 -1.8763 0.0911 0 1
19.2906 -4.1964 -1.8776 0.0910 0 1
19.5510 -2.8109 -1.8786 0.0909 0 1
19.7079 -1.4096 -1.8792 0.0909 0 1
15.9462 0.0000 -1.5166 0.9940 261 18
19.7078 1.4095 -1.8792 0.0909 0 1
18.4320 2.6502 -1.7711 0.0909 0 2
18.1863 3.9562 -1.7702 0.0910 0 2
17.8446 5.2397 -1.7689 0.0911 0 2
17.5445 6.5437 -1.7810 0.0911 0 0
14.3619 6.5588 -1.5017 0.4154 0 3
12.0206 6.5637 -1.3026 0.4789 0 3
4.3680 2.8072 -0.4938 0.9176 0 6
8.7771 6.5704 -1.0428 0.5982 0 3
7.5856 6.5729 -0.9546 0.6535 0 3
12.0673 -12.0672 -1.7652 0.1002 0 2
12.9211 -11.1961 -1.7685 0.1000 0 2
13.7101 -10.2632 -1.7715 0.0999 0 2
14.2766 -9.1750 -1.7554 0.0997 0 2
14.9157 -8.1446 -1.7579 0.0996 0 2
15.4778 -7.0684 -1.7600 0.0995 0 2
15.9596 -5.9526 -1.7619 0.0993 0 2
17.3488 -5.0940 -1.8703 0.0993 0 1
17.6798 -3.8460 -1.8715 0.0992 0 1
17.9177 -2.5761 -1.8724 0.0991 0 1
18.0611 -1.2918 -1.8730 0.0991 0 1
16.1433 0.0000 -1.6698 0.5003 261 18
18.0609 1.2918 -1.8729 0.0991 0 1
16.9297 2.4342 -1.7692 0.1394 0 2
16.6678 3.6259 -1.7644 0.0992 0 2
16.3556 4.8025 -1.7632 0.0993 0 2
15.9576 5.9519 -1.7617 0.0993 0 2
14.3619 6.5588 -1.6331 0.4151 0 3
12.0205 6.5637 -1.4167 0.4785 0 3
4.3677 2.8070 -0.5370 0.9169 0 6
8.7771 6.5704 -1.1341 0.5978 0 3
7.5856 6.5729 -1.0382 0.6529 0 3
11.1446 -11.1446 -1.7617 0.1084 0 2
11.9315 -10.3387 -1.7647 0.1082 0 2
12.5241 -9.3755 -1.7487 0.1081 0 2
13.1801 -8.4703 -1.7513 0.1079 0 2
13.7686 -7.5182 -1.7535 0.1078 0 2
14.2862 -6.5242 -1.7555 0.1077 0 2
15.6220 -5.8267 -1.8637 0.1075 0 1
16.0105 -4.7011 -1.8652 0.1075 0 1
16.3152 -3.5491 -1.8663 0.1074 0 1
16.5341 -2.3772 -1.8672 0.1073 0 1
16.6660 -1.1920 -1.8677 0.1073 0 1
16.7100 0.0000 -1.8678 0.1073 0 1
16.6659 1.1920 -1.8676 0.1073 0 1
15.5878 2.2412 -1.7603 0.1073 0 2
15.3813 3.3460 -1.7595 0.1074 0 2
15.0940 4.4321 -1.7584 0.1075 0 2
14.7276 5.4932 -1.7570 0.1075 0 2
14.3619 6.5588 -1.7648 0.4147 0 3
12.0206 6.5637 -1.5309 0.4781 0 3
4.3674 2.8068 -0.5803 0.9162 0 6
8.7771 6.5704 -1.2255 0.5972 0 3
7.5856 6.5729 -1.1219 0.6524 0 3
10.3517 -10.3517 -1.7587 0.1166 0 2
10.9636 -9.5000 -1.7428 0.1165 0 2
11.6305 -8.7064 -1.7454 0.1163 0 2
12.2384 -7.8651 -1.7477 0.1161 0 2
12.7837 -6.9804 -1.7498 0.1160 0 2
13.2631 -6.0570 -1.7517 0.1159 0 2
14.5022 -5.4090 -1.8595 0.1157 0 1
14.8620 -4.3638 -1.8608 0.1157 0 1
15.1441 -3.2943 -1.8619 0.1156 0 1
15.3468 -2.2065 -1.8626 0.1155 0 1
15.4690 -1.1064 -1.8631 0.1155 0 1
15.5097 0.0000 -1.8633 0.1155 0 1
15.4689 1.1064 -1.8631 0.1155 0 1
15.3467 2.2066 -1.8626 0.1155 0 1
14.2773 3.1059 -1.7553 0.1156 0 2
14.0112 4.1141 -1.7543 0.1157 0 2
13.6719 5.0994 -1.7530 0.1157 0 2
13.2615 6.0563 -1.7514 0.1158 0 2
12.0205 6.5637 -1.6453 0.4776 0 3
4.3670 2.8066 -0.6236 0.9153 0 6
8.7771 6.5704 -1.3172 0.5967 0 3
7.5856 6.5729 -1.2058 0.6517 0 3
9.5603 -9.5603 -1.7375 0.1248 0 2
10.2331 -8.8670 -1.7400 0.1246 0 2
10.8545 -8.1255 -1.7424 0.1245 0 2
11.4208 -7.3396 -1.7446 0.1243 0 2
11.9287 -6.5135 -1.7466 0.1242 0 2
12.7518 -5.8235 -1.8015 0.4122 0 2
13.5303 -5.0465 -1.8558 0.1239 0 1
13.8654 -4.0712 -1.8570 0.1238 0 1
14.1280 -3.0733 -1.8580 0.1238 0 1
14.3168 -2.0585 -1.8587 0.1237 0 1
14.4304 -1.0321 -1.8592 0.1237 0 1
14.4684 0.0000 -1.8593 0.1237 0 1
14.4304 1.0321 -1.8592 0.1237 0 1
14.3166 2.0585 -1.8587 0.1237 0 1
13.3193 2.8975 -1.7517 0.1238 0 2
13.0716 3.8382 -1.7507 0.1238 0 2
12.7557 4.7577 -1.7495 0.1239 0 2
12.3735 5.6509 -1.7481 0.1240 0 2
12.0202 6.5635 -1.7600 0.1242 0 0
4.3667 2.8064 -0.6670 0.9145 0 6
8.7771 6.5704 -1.4090 0.5960 0 3
7.5856 6.5729 -1.2899 0.6511 0 3
8.9627 -8.9626 -1.7352 0.1330 0 2
9.5926 -8.3120 -1.7376 0.1328 0 2
10.1742 -7.6163 -1.7399 0.1326 0 2
10.7041 -6.8791 -1.7419 0.1325 0 2
11.1794 -6.1044 -1.7437 0.1323 0 2
12.2997 -5.6170 -1.8511 0.1322 0 1
12.6789 -4.7289 -1.8525 0.1321 0 1
12.9922 -3.8148 -1.8537 0.1320 0 1
13.2379 -2.8797 -1.8546 0.1320 0 1
13.4145 -1.9287 -1.8553 0.1319 0 1
13.5208 -0.9670 -1.8557 0.1319 0 1
13.5563 0.0000 -1.8558 0.1319 0 1
13.5207 0.9670 -1.8557 0.1319 0 1
13.4143 1.9287 -1.8553 0.1319 0 1
12.4802 2.7150 -1.7485 0.1320 0 2
12.2485 3.5966 -1.7476 0.1320 0 2
11.9531 4.4583 -1.7465 0.1321 0 2
11.5955 5.2955 -1.7451 0.1322 0 2
11.1780 6.1036 -1.7435 0.1323 0 2
4.3664 2.8061 -0.7105 0.9136 0 6
8.7771 6.5704 -1.5010 0.5954 0 3
7.5856 6.5729 -1.3741 0.6504 0 3
8.4343 -8.4342 -1.7332 0.1412 0 2
9.0263 -7.8213 -1.7355 0.1410 0 2
9.5729 -7.1661 -1.7376 0.1408 0 2
10.0708 -6.4721 -1.7395 0.1407 0 2
10.6664 -5.8243 -1.7659 0.4920 0 2
11.5705 -5.2840 -1.8483 0.1404 0 1
11.9266 -4.4484 -1.8497 0.1403 0 1
12.2210 -3.5883 -1.8508 0.1402 0 1
12.4517 -2.7086 -1.8517 0.1401 0 1
12.6174 -1.8141 -1.8523 0.1401 0 1
12.7173 -0.9096 -1.8527 0.1400 0 1
12.7506 0.0000 -1.8528 0.1400 0 1
12.7172 0.9096 -1.8526 0.1400 0 1
12.6173 1.8141 -1.8523 0.1401 0 1
11.7390 2.5537 -1.7457 0.1401 0 2
11.5214 3.3830 -1.7448 0.1402 0 2
11.2439 4.1938 -1.7438 0.1403 0 2
10.9080 4.9816 -1.7425 0.1404 0 2
10.5158 5.7421 -1.7410 0.1405 0 2
4.3660 2.8059 -0.7541 0.9126 0 6
8.7771 6.5704 -1.5932 0.5947 0 3
7.5856 6.5729 -1.4585 0.6496 0 3
7.9637 -7.9636 -1.7315 0.1493 0 2
8.5220 -7.3843 -1.7336 0.1491 0 2
9.0374 -6.7653 -1.7356 0.1490 0 2
9.5069 -6.1097 -1.7374 0.1488 0 2
10.5293 -5.7494 -1.8444 0.1487 0 1
10.9214 -4.9876 -1.8458 0.1485 0 1
11.2572 -4.1987 -1.8471 0.1484 0 1
11.5346 -3.3868 -1.8482 0.1483 0 1
11.7520 -2.5564 -1.8490 0.1483 0 1
11.9083 -1.7121 -1.8496 0.1482 0 1
12.0023 -0.8584 -1.8499 0.1482 0 1
12.0338 0.0000 -1.8501 0.1482 0 1
12.0023 0.8584 -1.8499 0.1482 0 1
11.9081 1.7122 -1.8496 0.1482 0 1
11.0794 2.4102 -1.7432 0.1483 0 2
10.8743 3.1930 -1.7424 0.1484 0 2
10.6127 3.9584 -1.7414 0.1484 0 2
10.2962 4.7022 -1.7402 0.1485 0 2
9.9265 5.4203 -1.7388 0.1487 0 2
4.3657 2.8057 -0.7978 0.9115 0 6
8.7771 6.5704 -1.6856 0.5940 0 3
7.5856 6.5729 -1.5431 0.6488 0 3
7.5421 -7.5420 -1.7299 0.1574 0 2
8.0700 -6.9927 -1.7319 0.1573 0 2
8.5576 -6.4061 -1.7338 0.1571 0 2
9.0621 -5.8239 -1.7471 0.5536 0 2
9.9691 -5.4435 -1.8422 0.1568 0 1
10.3399 -4.7220 -1.8436 0.1567 0 1
10.6574 -3.9750 -1.8448 0.1566 0 1
10.9197 -3.2062 -1.8458 0.1565 0 1
11.1253 -2.4201 -1.8466 0.1564 0 1
11.2730 -1.6208 -1.8472 0.1564 0 1
11.3620 -0.8126 -1.8475 0.1564 0 1
11.3917 0.0000 -1.8476 0.1563 0 1
11.3619 0.8126 -1.8475 0.1564 0 1
11.2729 1.6208 -1.8472 0.1564 0 1
10.4885 2.2817 -1.7409 0.1564 0 2
10.2947 3.0228 -1.7402 0.1565 0 2
10.0473 3.7475 -1.7392 0.1566 0 2
9.7480 4.4518 -1.7381 0.1567 0 2
9.3984 5.1319 -1.7368 0.1568 0 2
4.3653 2.8055 -0.8416 0.9104 0 6
8.6232 6.4552 -1.7471 0.1571 0 0
7.5856 6.5729 -1.6279 0.6480 0 3
7.1616 -7.1615 -1.7285 0.1656 0 2
7.6627 -6.6397 -1.7304 0.1654 0 2
8.1250 -6.0823 -1.7321 0.1653 0 2
9.0463 -5.8137 -1.8352 0.5353 0 2
9.4642 -5.1678 -1.8403 0.1649 0 1
9.8159 -4.4827 -1.8416 0.1648 0 1
10.1170 -3.7734 -1.8428 0.1647 0 1
10.3657 -3.0436 -1.8437 0.1646 0 1
10.5606 -2.2973 -1.8445 0.1646 0 1
10.7006 -1.5385 -1.8450 0.1645 0 1
10.7850 -0.7714 -1.8453 0.1645 0 1
10.8131 0.0000 -1.8454 0.1645 0 1
10.7849 0.7714 -1.8453 0.1645 0 1
10.7006 1.5385 -1.8450 0.1645 0 1
10.2450 2.2287 -1.7894 0.2458 0 2
9.7723 2.8695 -1.7382 0.1646 0 2
9.5378 3.5575 -1.7373 0.1647 0 2
9.2540 4.2262 -1.7362 0.1648 0 2
8.9224 4.8721 -1.7350 0.1649 0 2
4.3650 2.8053 -0.8855 0.9092 0 6
8.1240 6.0815 -1.7319 0.1652 0 2
7.5856 6.5729 -1.7130 0.6471 0 3
6.8167 -6.8167 -1.7272 0.1737 0 2
7.2933 -6.3196 -1.7290 0.1735 0 2
7.7868 -5.8291 -1.7427 0.6122 0 2
8.6262 -5.5437 -1.8371 0.1732 0 1
9.0068 -4.9180 -1.8386 0.1731 0 1
9.3411 -4.2659 -1.8398 0.1729 0 1
9.6274 -3.5907 -1.8409 0.1728 0 1
9.8638 -2.8962 -1.8418 0.1728 0 1
10.0491 -2.1861 -1.8425 0.1727 0 1
10.1822 -1.4640 -1.8430 0.1727 0 1
10.2624 -0.7340 -1.8433 0.1726 0 1
10.2892 0.0000 -1.8434 0.1726 0 1
10.2624 0.7340 -1.8433 0.1726 0 1
10.1821 1.4640 -1.8430 0.1727 0 1
10.0490 2.1861 -1.8425 0.1727 0 1
9.2992 2.7305 -1.7364 0.1728 0 2
9.0763 3.3853 -1.7355 0.1729 0 2
8.8064 4.0218 -1.7345 0.1730 0 2
8.4912 4.6366 -1.7333 0.1731 0 2
4.3647 2.8050 -0.9295 0.9080 0 6
7.7320 5.7881 -1.7304 0.1734 0 2
7.3491 6.3680 -1.7422 0.1735 0 0
6.5027 -6.5026 -1.7260 0.1818 0 2
6.9569 -6.0282 -1.7277 0.1816 0 2
7.7750 -5.8203 -1.8228 0.5874 0 2
8.2277 -5.2876 -1.8356 0.1813 0 1
8.5904 -4.6907 -1.8370 0.1812 0 1
8.9090 -4.0686 -1.8382 0.1811 0 1
9.1817 -3.4245 -1.8392 0.1810 0 1
9.4070 -2.7621 -1.8401 0.1809 0 1
9.5835 -2.0848 -1.8408 0.1808 0 1
9.7104 -1.3961 -1.8412 0.1808 0 1
9.7868 -0.7000 -1.8415 0.1807 0 1
9.8123 0.0000 -1.8416 0.1807 0 1
9.7867 0.7000 -1.8415 0.1807 0 1
9.7103 1.3961 -1.8412 0.1808 0 1
9.5834 2.0848 -1.8407 0.1808 0 1
8.8685 2.6041 -1.7348 0.1809 0 2
8.6561 3.2286 -1.7340 0.1810 0 2
8.3990 3.8357 -1.7330 0.1811 0 2
8.0986 4.4222 -1.7318 0.1812 0 2
4.3643 2.8048 -0.9737 0.9067 0 6
7.3751 5.5210 -1.7291 0.1815 0 2
6.9560 6.0275 -1.7275 0.1816 0 2
6.2154 -6.2154 -1.7249 0.1899 0 2
6.7228 -5.8253 -1.7456 0.6673 0 2
7.4768 -5.5970 -1.8328 0.1896 0 1
7.8633 -5.0534 -1.8342 0.1894 0 1
8.2097 -4.4828 -1.8355 0.1893 0 1
8.5139 -3.8881 -1.8367 0.1892 0 1
8.7743 -3.2726 -1.8377 0.1891 0 1
8.9894 -2.6395 -1.8385 0.1890 0 1
9.1579 -1.9922 -1.8391 0.1889 0 1
9.2790 -1.3341 -1.8396 0.1889 0 1
9.3520 -0.6689 -1.8399 0.1888 0 1
9.3763 0.0000 -1.8400 0.1888 0 1
9.3519 0.6689 -1.8399 0.1888 0 1
9.2790 1.3341 -1.8396 0.1889 0 1
9.1579 1.9922 -1.8391 0.1889 0 1
8.4748 2.4885 -1.7333 0.1890 0 2
8.2721 3.0854 -1.7325 0.1891 0 2
8.0265 3.6656 -1.7316 0.1892 0 2
7.7397 4.2262 -1.7305 0.1893 0 2
4.3580 2.8008 -1.0166 0.7723 0 6
7.0487 5.2767 -1.7278 0.1896 0 2
6.6485 5.7610 -1.7263 0.1897 0 2
5.9517 -5.9516 -1.7239 0.1980 0 2
6.7144 -5.8180 -1.8196 0.6400 0 2
7.1589 -5.3591 -1.8316 0.1977 0 1
7.5288 -4.8384 -1.8330 0.1975 0 1
7.8602 -4.2919 -1.8342 0.1974 0 1
8.1512 -3.7225 -1.8353 0.1973 0 1
8.4003 -3.1331 -1.8363 0.1972 0 1
8.6061 -2.5269 -1.8370 0.1971 0 1
8.7673 -1.9072 -1.8377 0.1970 0 1
8.8832 -1.2772 -1.8381 0.1970 0 1
8.9529 -0.6403 -1.8384 0.1969 0 1
8.9762 0.0000 -1.8384 0.1969 0 1
8.9529 0.6403 -1.8383 0.1969 0 1
8.8831 1.2772 -1.8381 0.1970 0 1
8.7673 1.9072 -1.8376 0.1970 0 1
8.1135 2.3824 -1.7319 0.1971 0 2
7.9195 2.9538 -1.7312 0.1972 0 2
7.6846 3.5095 -1.7303 0.1973 0 2
7.4102 4.0463 -1.7292 0.1974 0 2
4.3084 2.7689 -1.0489 0.4954 0 6
6.7491 5.0523 -1.7267 0.1977 0 2
6.3661 5.5163 -1.7252 0.1978 0 2
5.8201 -5.8201 -1.7566 0.7188 0 2
6.4767 -5.6120 -1.8290 0.2059 0 1
6.8661 -5.1398 -1.8304 0.2057 0 1
7.2206 -4.6403 -1.8318 0.2056 0 1
7.5382 -4.1161 -1.8330 0.2055 0 1
7.8171 -3.5699 -1.8340 0.2053 0 1
8.0558 -3.0046 -1.8350 0.2052 0 1
8.2530 -2.4232 -1.8357 0.2052 0 1
8.4075 -1.8290 -1.8363 0.2051 0 1
8.5185 -1.2248 -1.8367 0.2050 0 1
8.5854 -0.6140 -1.8370 0.2050 0 1
8.6077 0.0000 -1.8370 0.2050 0 1
8.5853 0.6140 -1.8369 0.2050 0 1
8.5185 1.2248 -1.8367 0.2050 0 1
8.4074 1.8290 -1.8363 0.2051 0 1
7.7806 2.2846 -1.7306 0.2052 0 2
7.5947 2.8327 -1.7299 0.2052 0 2
7.3696 3.3656 -1.7291 0.2053 0 2
7.1066 3.8806 -1.7281 0.2055 0 2
4.3008 2.7640 -1.0911 0.4632 0 6
6.4730 4.8457 -1.7257 0.2057 0 2
6.1059 5.2908 -1.7243 0.2059 0 2
5.8161 -5.8161 -1.8265 0.2141 0 1
6.2215 -5.3909 -1.8280 0.2140 0 1
6.5953 -4.9371 -1.8294 0.2138 0 1
6.9356 -4.4572 -1.8307 0.2137 0 1
7.2405 -3.9536 -1.8319 0.2135 0 1
7.5083 -3.4288 -1.8329 0.2134 0 1
7.7374 -2.8858 -1.8337 0.2133 0 1
7.9267 -2.3275 -1.8345 0.2132 0 1
8.0750 -1.7566 -1.8350 0.2131 0 1
8.1815 -1.1763 -1.8354 0.2131 0 1
8.2457 -0.5897 -1.8357 0.2131 0 1
8.2671 0.0000 -1.8357 0.2131 0 1
8.2456 0.5897 -1.8357 0.2131 0 1
8.1815 1.1763 -1.8354 0.2131 0 1
8.0749 1.7566 -1.8350 0.2132 0 1
7.5996 2.2315 -1.7588 0.3212 0 2
7.2945 2.7208 -1.7288 0.2133 0 2
7.0785 3.2327 -1.7280 0.2134 0 2
6.8260 3.7273 -1.7270 0.2135 0 2
4.2952 2.7604 -1.1338 0.4629 0 6
6.2177 4.6546 -1.7247 0.2138 0 2
5.8653 5.0823 -1.7233 0.2140 0 2
5.5951 -5.5950 -1.8256 0.2222 0 1
5.9848 -5.1858 -1.8271 0.2220 0 1
6.3442 -4.7492 -1.8285 0.2218 0 1
6.6714 -4.2874 -1.8297 0.2217 0 1
6.9645 -3.8029 -1.8308 0.2216 0 1
7.2219 -3.2980 -1.8318 0.2214 0 1
7.4422 -2.7757 -1.8326 0.2213 0 1
7.6241 -2.2386 -1.8333 0.2213 0 1
7.7666 -1.6895 -1.8338 0.2212 0 1
7.8690 -1.1314 -1.8342 0.2212 0 1
7.9307 -0.5672 -1.8345 0.2211 0 1
7.9513 0.0000 -1.8345 0.2211 0 1
7.9307 0.5672 -1.8345 0.2211 0 1
7.8690 1.1314 -1.8342 0.2212 0 1
7.7666 1.6896 -1.8338 0.2212 0 1
7.5813 2.2261 -1.8230 0.2765 0 2
7.0162 2.6169 -1.7277 0.2213 0 2
6.8085 3.1094 -1.7269 0.2215 0 2
6.5658 3.5853 -1.7260 0.2216 0 2
4.2897 2.7568 -1.1765 0.4627 0 6
5.9810 4.4774 -1.7238 0.2219 0 2
5.6422 4.8890 -1.7225 0.2220 0 2
5.3894 -5.3894 -1.8248 0.2302 0 1
5.7646 -4.9950 -1.8263 0.2300 0 1
6.1107 -4.5744 -1.8276 0.2299 0 1
6.4256 -4.1295 -1.8288 0.2297 0 1
6.7078 -3.6627 -1.8298 0.2296 0 1
6.9556 -3.1764 -1.8308 0.2295 0 1
7.1676 -2.6733 -1.8316 0.2294 0 1
7.3427 -2.1560 -1.8322 0.2293 0 1
7.4799 -1.6272 -1.8328 0.2292 0 1
7.5785 -1.0896 -1.8331 0.2292 0 1
7.6378 -0.5462 -1.8334 0.2292 0 1
7.6577 0.0000 -1.8334 0.2291 0 1
7.6378 0.5463 -1.8333 0.2292 0 1
7.5784 1.0896 -1.8331 0.2292 0 1
7.4799 1.6271 -1.8327 0.2292 0 1
7.3426 2.1560 -1.8322 0.2293 0 1
6.7573 2.5204 -1.7267 0.2294 0 2
6.5574 2.9947 -1.7260 0.2295 0 2
6.3238 3.4531 -1.7251 0.2296 0 2
4.2841 2.7533 -1.2193 0.4624 0 6
5.7609 4.3126 -1.7230 0.2299 0 2
5.4346 4.7092 -1.7217 0.2301 0 2
5.1976 -5.1976 -1.8241 0.2382 0 1
5.5593 -4.8171 -1.8255 0.2381 0 1
5.8929 -4.4113 -1.8267 0.2379 0 1
6.1965 -3.9822 -1.8279 0.2377 0 1
6.4684 -3.5320 -1.8289 0.2376 0 1
6.7073 -3.0630 -1.8298 0.2375 0 1
6.9116 -2.5778 -1.8306 0.2374 0 1
7.0804 -2.0790 -1.8312 0.2373 0 1
7.2126 -1.5690 -1.8317 0.2372 0 1
7.3076 -1.0507 -1.8321 0.2372 0 1
7.3648 -0.5267 -1.8323 0.2372 0 1
7.3839 0.0000 -1.8324 0.2372 0 1
7.3648 0.5267 -1.8323 0.2372 0 1
7.3076 1.0507 -1.8321 0.2372 0 1
7.2126 1.5690 -1.8317 0.2373 0 1
7.0803 2.0790 -1.8312 0.2373 0 1
6.5419 2.4401 -1.7327 0.3905 0 2
6.3233 2.8878 -1.7251 0.2375 0 2
6.0982 3.3299 -1.7242 0.2376 0 2
4.2785 2.7497 -1.2621 0.4620 0 6
5.5556 4.1589 -1.7222 0.2379 0 2
5.2411 4.5415 -1.7210 0.2381 0 2
5.0183 -5.0182 -1.8234 0.2462 0 1
5.3674 -4.6508 -1.8247 0.2461 0 1
5.6893 -4.2589 -1.8260 0.2459 0 1
5.9823 -3.8445 -1.8271 0.2458 0 1
6.2447 -3.4098 -1.8281 0.2456 0 1
6.4751 -2.9570 -1.8289 0.2455 0 1
6.6723 -2.4886 -1.8297 0.2454 0 1
6.8352 -2.0070 -1.8303 0.2453 0 1
6.9628 -1.5146 -1.8308 0.2453 0 1
7.0544 -1.0143 -1.8311 0.2452 0 1
7.1096 -0.5085 -1.8313 0.2452 0 1
7.1280 0.0000 -1.8314 0.2452 0 1
7.1096 0.5085 -1.8313 0.2452 0 1
7.0544 1.0143 -1.8311 0.2452 0 1
6.9627 1.5146 -1.8308 0.2453 0 1
6.8351 2.0070 -1.8303 0.2453 0 1
6.2904 2.3463 -1.7250 0.2454 0 2
6.1045 2.7879 -1.7243 0.2455 0 2
5.8873 3.2147 -1.7234 0.2456 0 2
4.2729 2.7461 -1.3050 0.4603 0 6
5.3636 4.0152 -1.7214 0.2459 0 2
5.0601 4.3847 -1.7203 0.2461 0 2
4.8502 -4.8502 -1.8228 0.2542 0 1
5.1875 -4.4950 -1.8241 0.2540 0 1
5.4985 -4.1161 -1.8252 0.2539 0 1
5.7816 -3.7155 -1.8263 0.2537 0 1
6.0351 -3.2953 -1.8273 0.2536 0 1
6.2577 -2.8577 -1.8281 0.2535 0 1
6.4481 -2.4049 -1.8288 0.2534 0 1
6.6054 -1.9395 -1.8294 0.2533 0 1
6.7287 -1.4638 -1.8299 0.2532 0 1
6.8172 -0.9802 -1.8302 0.2532 0 1
6.8705 -0.4914 -1.8304 0.2532 0 1
6.8883 0.0000 -1.8305 0.2532 0 1
6.8705 0.4914 -1.8304 0.2532 0 1
6.8172 0.9802 -1.8302 0.2532 0 1
6.7286 1.4637 -1.8299 0.2532 0 1
6.6054 1.9396 -1.8294 0.2533 0 1
6.0791 2.2674 -1.7242 0.2534 0 2
5.8995 2.6942 -1.7235 0.2535 0 2
5.6896 3.1068 -1.7227 0.2536 0 2
4.2673 2.7425 -1.3480 0.4600 0 6
5.1838 3.8806 -1.7208 0.2539 0 2
4.8906 4.2377 -1.7196 0.2541 0 2
4.6924 -4.6924 -1.8222 0.2622 0 1
5.0186 -4.3486 -1.8234 0.2620 0 1
5.3194 -3.9820 -1.8246 0.2619 0 1
5.5931 -3.5944 -1.8256 0.2617 0 1
5.8382 -3.1878 -1.8265 0.2616 0 1
6.0535 -2.7645 -1.8273 0.2615 0 1
6.2377 -2.3265 -1.8280 0.2614 0 1
6.3897 -1.8762 -1.8286 0.2613 0 1
6.5089 -1.4159 -1.8291 0.2612 0 1
6.5945 -0.9482 -1.8294 0.2612 0 1
6.6460 -0.4753 -1.8296 0.2611 0 1
6.6633 0.0000 -1.8296 0.2611 0 1
6.6460 0.4753 -1.8296 0.2611 0 1
6.5945 0.9481 -1.8294 0.2612 0 1
6.5089 1.4159 -1.8291 0.2612 0 1
6.3897 1.8762 -1.8286 0.2613 0 1
5.9898 2.2341 -1.7554 0.3931 0 2
5.7070 2.6063 -1.7228 0.2615 0 2
5.5041 3.0055 -1.7220 0.2616 0 2
4.2617 2.7389 -1.3910 0.4595 0 6
5.0149 3.7541 -1.7201 0.2619 0 2
4.7313 4.0998 -1.7190 0.2620 0 2
4.5439 -4.5438 -1.8216 0.2701 0 1
4.8597 -4.2109 -1.8228 0.2700 0 1
5.1508 -3.8558 -1.8239 0.2698 0 1
5.4157 -3.4804 -1.8249 0.2697 0 1
5.6530 -3.0867 -1.8258 0.2695 0 1
5.8614 -2.6767 -1.8266 0.2694 0 1
6.0396 -2.2527 -1.8273 0.2693 0 1
6.1868 -1.8166 -1.8278 0.2692 0 1
6.3021 -1.3709 -1.8283 0.2692 0 1
6.3850 -0.9180 -1.8286 0.2691 0 1
6.4349 -0.4602 -1.8288 0.2691 0 1
6.4515 0.0000 -1.8288 0.2691 0 1
6.4348 0.4602 -1.8288 0.2691 0 1
6.3849 0.9180 -1.8286 0.2691 0 1
6.3021 1.3709 -1.8283 0.2692 0 1
6.1868 1.8166 -1.8278 0.2692 0 1
1.7091 0.6374 -0.5171 0.0144 294 14
1.4411 0.6581 -0.4491 0.1670 294 14
1.4195 0.7751 -0.4585 0.1105 294 14
1.4304 0.9193 -0.4820 0.1051 294 14
1.4230 1.0652 -0.5039 0.1006 294 14
4.5815 3.9699 -1.7185 0.2700 0 2
4.4038 -4.4038 -1.8211 0.2781 0 1
4.7098 -4.0810 -1.8222 0.2779 0 1
4.9919 -3.7368 -1.8233 0.2777 0 1
5.2485 -3.3729 -1.8243 0.2776 0 1
5.4784 -2.9913 -1.8252 0.2774 0 1
5.6802 -2.5940 -1.8259 0.2773 0 1
5.8529 -2.1830 -1.8266 0.2772 0 1
5.9955 -1.7604 -1.8271 0.2772 0 1
6.1072 -1.3286 -1.8275 0.2771 0 1
6.1875 -0.8896 -1.8278 0.2770 0 1
6.2358 -0.4460 -1.8280 0.2770 0 1
6.2519 0.0000 -1.8281 0.2770 0 1
6.2358 0.4460 -1.8280 0.2770 0 1
6.1874 0.8896 -1.8278 0.2770 0 1
1.4798 0.3219 -0.4428 0.1743 294 14
1.4552 0.4273 -0.4435 0.1741 294 14
1.4188 0.5292 -0.4428 0.1743 294 14
1.3711 0.6262 -0.4407 0.1755 294 14
1.3187 0.7201 -0.4393 0.1187 294 14
1.3241 0.8509 -0.4602 0.1133 294 14
1.3128 0.9827 -0.4795 0.1088 294 14
1.2881 1.1161 -0.4983 0.1074 294 14
4.2715 -4.2715 -1.8206 0.2860 0 1
4.5682 -3.9583 -1.8217 0.2858 0 1
4.8417 -3.6244 -1.8227 0.2856 0 1
5.0906 -3.2714 -1.8237 0.2855 0 1
5.3135 -2.9013 -1.8245 0.2854 0 1
5.5092 -2.5159 -1.8253 0.2852 0 1
5.6766 -2.1172 -1.8259 0.2851 0 1
5.8148 -1.7074 -1.8264 0.2851 0 1
5.9231 -1.2885 -1.8268 0.2850 0 1
6.0009 -0.8628 -1.8271 0.2850 0 1
1.7098 -0.1223 -0.5166 0.0271 294 14
1.5819 0.0000 -0.4768 0.0294 294 14
1.4694 0.1051 -0.4440 0.1887 294 14
1.4365 0.2065 -0.4374 0.1916 294 14
1.4105 0.3069 -0.4350 0.1824 294 14
1.3870 0.4072 -0.4357 0.1822 294 14
1.3524 0.5044 -0.4350 0.1824 294 14
1.3073 0.5970 -0.4331 0.1836 294 14
1.2526 0.6839 -0.4301 0.1849 294 14
1.2320 0.7918 -0.4414 0.1215 294 14
1.2182 0.9119 -0.4586 0.1200 294 14
1.1940 1.0346 -0.4761 0.1156 294 14
4.1464 -4.1463 -1.8201 0.2939 0 1
4.4343 -3.8423 -1.8212 0.2937 0 1
4.6997 -3.5180 -1.8222 0.2935 0 1
4.9412 -3.1754 -1.8231 0.2934 0 1
5.1574 -2.8161 -1.8239 0.2933 0 1
5.3473 -2.4420 -1.8247 0.2931 0 1
5.5097 -2.0550 -1.8253 0.2930 0 1
5.6439 -1.6572 -1.8258 0.2930 0 1
5.7490 -1.2506 -1.8262 0.2929 0 1
1.4348 -0.2063 -0.4499 0.1918 294 14
1.4360 -0.1027 -0.4469 0.1926 294 14
1.4261 0.0000 -0.4426 0.1945 294 14
1.4055 0.1005 -0.4374 0.1968 294 14
1.3749 0.1977 -0.4311 0.1996 294 14
1.3472 0.2931 -0.4279 0.1905 294 14
1.3246 0.3889 -0.4285 0.1903 294 14
1.2916 0.4818 -0.4279 0.1905 294 14
1.2489 0.5704 -0.4262 0.1917 294 14
1.1970 0.6536 -0.4233 0.1930 294 14
1.1516 0.7401 -0.4249 0.1296 294 14
1.1377 0.8517 -0.4411 0.1282 294 14
1.1123 0.9638 -0.4568 0.1237 294 14
4.0277 -4.0277 -1.8197 0.3017 0 1
4.3073 -3.7322 -1.8207 0.3016 0 1
4.5651 -3.4173 -1.8217 0.3014 0 1
4.7996 -3.0844 -1.8226 0.3013 0 1
5.0096 -2.7354 -1.8234 0.3011 0 1
5.1939 -2.3719 -1.8241 0.3010 0 1
5.3517 -1.9961 -1.8247 0.3009 0 1
5.4819 -1.6096 -1.8252 0.3008 0 1
1.4175 -0.3084 -0.4634 0.1721 294 14
1.3732 -0.1974 -0.4432 0.1999 294 14
1.3746 -0.0983 -0.4402 0.2007 294 14
1.3656 0.0000 -0.4363 0.2025 294 14
1.3466 0.0963 -0.4313 0.2049 294 14
1.3181 0.1895 -0.4254 0.2077 294 14
1.2890 0.2804 -0.4214 0.1986 294 14
1.2673 0.3721 -0.4219 0.1984 294 14
1.2359 0.4610 -0.4214 0.1990 294 14
1.1953 0.5459 -0.4198 0.1998 294 14
1.1459 0.6257 -0.4171 0.2010 294 14
1.0886 0.6996 -0.4134 0.2029 294 14
1.0669 0.7987 -0.4257 0.1363 294 14
1.0463 0.9067 -0.4423 0.2235 294 14
3.9151 -3.9151 -1.8192 0.3096 0 1
4.1868 -3.6278 -1.8203 0.3094 0 1
4.4373 -3.3216 -1.8212 0.3093 0 1
4.6652 -2.9980 -1.8221 0.3091 0 1
4.8692 -2.6587 -1.8228 0.3090 0 1
5.0484 -2.3055 -1.8235 0.3089 0 1
1.4204 -0.5298 -0.4981 0.1643 294 14
1.3902 -0.4082 -0.4760 0.1719 294 14
1.3506 -0.2938 -0.4541 0.1802 294 14
1.3164 -0.1893 -0.4370 0.2079 294 14
1.3181 -0.0943 -0.4342 0.2093 294 14
1.3099 0.0000 -0.4304 0.2106 294 14
1.2922 0.0924 -0.4257 0.2129 294 14
1.2655 0.1820 -0.4201 0.2158 294 14
1.2353 0.2687 -0.4154 0.2067 294 14
1.2145 0.3566 -0.4159 0.2064 294 14
1.1846 0.4418 -0.4154 0.2071 294 14
1.1458 0.5233 -0.4139 0.2078 294 14
1.0987 0.6000 -0.4113 0.2091 294 14
1.0497 0.6746 -0.4100 0.2875 294 14
1.0286 0.7700 -0.4222 0.2402 294 14
1.0077 0.8731 -0.4381 0.2315 294 14
3.8081 -3.8080 -1.8188 0.3174 0 1
4.0723 -3.5286 -1.8198 0.3172 0 1
4.3158 -3.2307 -1.8207 0.3171 0 1
4.5374 -2.9159 -1.8216 0.3169 0 1
4.7358 -2.5859 -1.8223 0.3168 0 1
1.3656 -0.6237 -0.5070 0.1705 294 14
1.3501 -0.5036 -0.4866 0.1723 294 14
1.3243 -0.3888 -0.4661 0.1799 294 14
1.2894 -0.2805 -0.4456 0.1882 294 14
1.2638 -0.1817 -0.4312 0.2160 294 14
1.2657 -0.0905 -0.4286 0.2173 294 14
1.2583 0.0000 -0.4250 0.2192 294 14
1.2418 0.0888 -0.4204 0.2210 294 14
1.2167 0.1749 -0.4151 0.2238 294 14
1.1857 0.2579 -0.4098 0.2147 294 14
1.1657 0.3423 -0.4103 0.2149 294 14
1.1370 0.4241 -0.4099 0.2151 294 14
1.1000 0.5023 -0.4084 0.2159 294 14
1.0563 0.5768 -0.4065 0.2267 294 14
1.0190 0.6548 -0.4091 0.2953 294 14
0.9930 0.7434 -0.4189 0.2481 294 14
0.9715 0.8419 -0.4342 0.2394 294 14
3.7062 -3.7061 -1.8184 0.3252 0 1
3.9633 -3.4341 -1.8194 0.3251 0 1
4.2002 -3.1442 -1.8203 0.3249 0 1
4.4158 -2.8378 -1.8211 0.3248 0 1
4.6089 -2.5165 -1.8219 0.3246 0 1
1.3002 -0.5938 -0.4959 0.1786 294 14
1.2861 -0.4797 -0.4762 0.1804 294 14
1.2640 -0.3712 -0.4570 0.1880 294 14
1.2331 -0.2682 -0.4378 0.1962 294 14
1.2150 -0.1747 -0.4259 0.2240 294 14
1.2171 -0.0871 -0.4234 0.2254 294 14
1.2104 0.0000 -0.4199 0.2272 294 14
1.1949 0.0855 -0.4156 0.2296 294 14
1.1713 0.1684 -0.4106 0.2324 294 14
1.1401 0.2480 -0.4048 0.2351 294 14
1.1204 0.3290 -0.4051 0.2229 294 14
1.0933 0.4078 -0.4048 0.2331 294 14
1.0590 0.4836 -0.4039 0.2337 294 14
1.0174 0.5555 -0.4021 0.2347 294 14
0.9898 0.6361 -0.4082 0.3032 294 14
0.9597 0.7184 -0.4159 0.2561 294 14
0.9378 0.8126 -0.4305 0.2474 294 14
3.6091 -3.6089 -1.8181 0.3330 0 1
3.8593 -3.3440 -1.8190 0.3328 0 1
4.0900 -3.0617 -1.8199 0.3327 0 1
4.2999 -2.7633 -1.8207 0.3325 0 1
4.4878 -2.4505 -1.8214 0.3324 0 1
1.2405 -0.5665 -0.4858 0.1867 294 14
1.2287 -0.4583 -0.4671 0.1941 294 14
1.2087 -0.3549 -0.4487 0.1960 294 14
1.1814 -0.2570 -0.4306 0.2042 294 14
1.1696 -0.1682 -0.4209 0.2321 294 14
1.1719 -0.0838 -0.4185 0.2334 294 14
1.1657 0.0000 -0.4152 0.2352 294 14
1.1513 0.0823 -0.4111 0.2376 294 14
1.1291 0.1623 -0.4063 0.2404 294 14
1.1001 0.2393 -0.4010 0.2536 294 14
1.0796 0.3170 -0.4008 0.2411 294 14
1.0539 0.3931 -0.4007 0.2412 294 14
1.0209 0.4662 -0.3998 0.2417 294 14
0.9870 0.5390 -0.4006 0.3163 294 14
0.9621 0.6183 -0.4074 0.3110 294 14
0.9310 0.6969 -0.4142 0.3058 294 14
0.9061 0.7851 -0.4270 0.2553 294 14
3.5164 -3.5162 -1.8177 0.3408 0 1
3.7602 -3.2581 -1.8186 0.3406 0 1
3.9849 -2.9829 -1.8195 0.3405 0 1
4.1893 -2.6922 -1.8203 0.3403 0 1
