ply
format ascii 1.0
element vertex 595
property float32 x
property float32 y
property float32 z
property float32 CosAngle
property uint32 ObjIdx
property uint32 ObjTag
end_header
14.923358917236328 9.470703125 -1.0294427871704102 0.4181627631187439 0 4
15.062167167663574 9.46425724029541 -1.0360777378082275 0.4154852330684662 0 4
15.202733993530273 9.45767593383789 -1.0428175926208496 0.4127999544143677 0 4
15.345155715942383 9.45101547241211 -1.049664855003357 0.4101068377494812 0 4
15.467499732971191 9.430859565734863 -1.055127739906311 0.8147969245910645 0 4
15.61947250366211 9.427617073059082 -1.0625958442687988 0.5150951147079468 0 4
15.783417701721191 9.4302339553833 -1.0708612203598022 0.5116068720817566 0 4
15.945663452148438 9.430312156677246 -1.0789873600006104 0.5077539086341858 0 4
16.110389709472656 9.430410385131836 -1.0872567892074585 0.5038912892341614 0 4
16.27767562866211 9.430487632751465 -1.0956828594207764 0.500018298625946 0 4
16.44755744934082 9.430585861206055 -1.104255199432373 0.49613523483276367 0 4
16.620136260986328 9.4306640625 -1.1129873991012573 0.49224230647087097 0 4
16.795448303222656 9.430742263793945 -1.1218833923339844 0.48833903670310974 0 4
16.9736328125 9.430839538574219 -1.1309441328048706 0.4844263792037964 0 4
17.154706954956055 9.430956840515137 -1.1401798725128174 0.48050373792648315 0 4
17.338748931884766 9.431035041809082 -1.1495848894119263 0.47657182812690735 0 4
17.525859832763672 9.431113243103027 -1.1591765880584717 0.47262945771217346 0 4
17.71611213684082 9.431230545043945 -1.168946623802185 0.4686785340309143 0 4
17.90962791442871 9.431327819824219 -1.178905963897705 0.46471744775772095 0 4
18.1064453125 9.431425094604492 -1.1890735626220703 0.46074745059013367 0 4
18.314823150634766 9.435664176940918 -1.1999578475952148 0.4564271867275238 0 4
18.518808364868164 9.435819625854492 -1.2105354070663452 0.45243772864341736 0 4
18.726465225219727 9.436015129089355 -1.2213305234909058 0.4484395384788513 0 4
18.937870025634766 9.436210632324219 -1.2323442697525024 0.44443175196647644 0 4
19.15314483642578 9.43642520904541 -1.2435836791992188 0.44041553139686584 0 4
19.372323989868164 9.4365816116333 -1.2550544738769531 0.4363900125026703 0 4
19.59566307067871 9.436796188354492 -1.2667649984359741 0.43235552310943604 0 4
19.823163986206055 9.436991691589355 -1.2787210941314697 0.42831283807754517 0 4
20.05501937866211 9.437226295471191 -1.290932297706604 0.4242616891860962 0 4
20.291366577148438 9.437440872192383 -1.303407907485962 0.4202013611793518 0 4
20.532304763793945 9.437636375427246 -1.3161535263061523 0.41613298654556274 0 4
28.392108917236328 12.896288871765137 -1.8162444829940796 0.05381656810641289 0 0
28.43392562866211 12.761659622192383 -1.8152434825897217 0.05384644493460655 0 0
28.47523307800293 12.626992225646973 -1.8142411708831787 0.05387610197067261 0 0
28.515819549560547 12.492128372192383 -1.8132367134094238 0.0539059042930603 0 0
28.573787689208984 12.36497974395752 -1.8133779764175415 0.0498773492872715 0 0
28.63814353942871 12.240527153015137 -1.813959002494812 0.049861397594213486 0 0
28.680585861206055 12.106718063354492 -1.8131839036941528 0.04377095028758049 0 0
28.70244026184082 11.964491844177246 -1.8111591339111328 0.04382000491023064 0 0
28.723651885986328 11.822284698486328 -1.8091288805007935 0.04386909678578377 0 0
28.744081497192383 11.680136680603027 -1.807091474533081 0.043918535113334656 0 0
28.791601181030273 11.54916000366211 -1.80680251121521 0.03963571414351463 0 0
28.839784622192383 11.418496131896973 -1.8065931797027588 0.03964030742645264 0 0
28.88716697692871 11.287577629089355 -1.806368350982666 0.0396452322602272 0 0
28.937850952148438 11.157929420471191 -1.8063879013061523 0.04245893284678459 0 0
29.006072998046875 11.034960746765137 -1.8075368404388428 0.04243193194270134 0 0
25.32386589050293 9.50423812866211 -1.575402855873108 0.9357250332832336 0 4
25.324316024780273 9.375 -1.5727949142456055 0.9372766017913818 0 4
25.493886947631836 9.307851791381836 -1.58072030544281 0.33944129943847656 0 4
25.85662078857422 9.309003829956055 -1.6006022691726685 0.3352246880531311 0 4
26.2286319732666 9.310175895690918 -1.621031641960144 0.33100080490112305 0 4
26.610214233398438 9.311347007751465 -1.6420104503631592 0.3267708420753479 0 4
27.001853942871094 9.312617301940918 -1.6635868549346924 0.32253405451774597 0 4
27.403905868530273 9.313847541809082 -1.6857619285583496 0.31829044222831726 0 4
27.806365966796875 9.311601638793945 -1.7079298496246338 0.3144300580024719 0 4
28.229902267456055 9.312714576721191 -1.731364130973816 0.31017446517944336 0 4
28.333242416381836 9.206034660339355 -1.7351455688476562 0.056996434926986694 0 2
28.375078201293945 9.079042434692383 -1.7351962327957153 0.05699475109577179 0 2
28.416385650634766 8.951874732971191 -1.7352460622787476 0.05699310079216957 0 2
28.45703125 8.824492454528809 -1.7352951765060425 0.0569915734231472 0 2
28.497108459472656 8.69693374633789 -1.7353435754776 0.05699002742767334 0 2
28.53662109375 8.569159507751465 -1.7353914976119995 0.05698847770690918 0 2
28.57566261291504 8.441268920898438 -1.7354387044906616 0.056986793875694275 0 2
28.613964080810547 8.31314468383789 -1.7354848384857178 0.05698537454009056 0 2
22.10464859008789 6.314550876617432 -1.338950514793396 0.8845733404159546 0 6
22.122304916381836 6.212363243103027 -1.3383147716522217 0.9618654847145081 0 6
22.103281021118164 6.100136756896973 -1.3354805707931519 0.8936811685562134 0 6
22.323104858398438 6.053105354309082 -1.3470994234085083 0.265887051820755 0 6
28.7969913482666 7.669999599456787 -1.735706090927124 0.05697798356413841 0 2
28.831815719604492 7.540859222412109 -1.735748291015625 0.05697667598724365 0 2
28.866092681884766 7.411562442779541 -1.7357897758483887 0.05697522684931755 0 2
28.89972686767578 7.282128810882568 -1.735830307006836 0.05697394162416458 0 2
28.932714462280273 7.152499675750732 -1.735870122909546 0.05697274208068848 0 2
28.965253829956055 7.022753715515137 -1.7359095811843872 0.05697132647037506 0 2
28.997108459472656 6.89285135269165 -1.7359479665756226 0.056970108300447464 0 2
29.028417587280273 6.762792587280273 -1.7359858751296997 0.056968823075294495 0 2
29.059120178222656 6.63259744644165 -1.73602294921875 0.056967537850141525 0 2
29.08915901184082 6.502245903015137 -1.7360591888427734 0.056966450065374374 0 2
29.11865234375 6.371737957000732 -1.7360949516296387 0.05696525424718857 0 2
29.147518157958984 6.241113185882568 -1.736129879951477 0.05696405842900276 0 2
29.175819396972656 6.1103515625 -1.7361640930175781 0.05696297064423561 0 2
29.2388858795166 5.986718654632568 -1.7383005619049072 0.20837357640266418 0 2
29.230506896972656 5.848437309265137 -1.7362301349639893 0.05696095526218414 0 2
29.58560562133789 5.781503677368164 -1.7557599544525146 0.19982023537158966 0 2
30.26531219482422 5.773476600646973 -1.7945410013198853 0.18728551268577576 0 2
31.0201358795166 5.773281097412109 -1.8377413749694824 0.1828826516866684 0 2
31.113554000854492 5.646308422088623 -1.841758370399475 0.05695692077279091 0 1
31.13916015625 5.506718635559082 -1.8417893648147583 0.056955818086862564 0 1
31.164140701293945 5.367031097412109 -1.8418195247650146 0.056954775005578995 0 1
31.188261032104492 5.227148532867432 -1.8418487310409546 0.05695408582687378 0 1
31.211952209472656 5.08718729019165 -1.8418772220611572 0.05695311352610588 0 1
31.234941482543945 4.947148323059082 -1.8419049978256226 0.056952279061079025 0 1
31.257343292236328 4.806972503662109 -1.8419321775436401 0.05695132911205292 0 1
31.27898406982422 4.666718482971191 -1.8419582843780518 0.05695061385631561 0 1
31.300018310546875 4.526347637176514 -1.8419835567474365 0.05694990232586861 0 1
31.32046890258789 4.385898113250732 -1.8420084714889526 0.05694907158613205 0 1
31.340232849121094 4.245351314544678 -1.8420323133468628 0.056948330253362656 0 1
31.359394073486328 4.104706764221191 -1.8420554399490356 0.05694762244820595 0 1
31.37788963317871 3.9639647006988525 -1.8420777320861816 0.05694690719246864 0 1
31.395721435546875 3.823124885559082 -1.8420993089675903 0.056946203112602234 0 1
31.412967681884766 3.682245969772339 -1.8421201705932617 0.056945495307445526 0 1
31.429452896118164 3.5412890911102295 -1.8421399593353271 0.05694501847028732 0 1
31.445369720458984 3.400214672088623 -1.8421592712402344 0.05694442614912987 0 1
31.46060562133789 3.2590625286102295 -1.8421777486801147 0.056943848729133606 0 1
31.47525405883789 3.1178905963897705 -1.8421953916549683 0.056943222880363464 0 1
31.489276885986328 2.97662091255188 -1.8422123193740845 0.056942619383335114 0 1
31.502498626708984 2.8352928161621094 -1.8422282934188843 0.056942276656627655 0 1
31.515174865722656 2.693906307220459 -1.8422435522079468 0.05694181099534035 0 1
31.527206420898438 2.5524609088897705 -1.842258095741272 0.056941330432891846 0 1
31.538593292236328 2.410956859588623 -1.8422718048095703 0.05694087594747543 0 1
31.54931640625 2.2693943977355957 -1.8422847986221313 0.05694049596786499 0 1
31.55937385559082 2.127812385559082 -1.8422969579696655 0.05694013833999634 0 1
31.56882667541504 1.986171841621399 -1.8423082828521729 0.05693976208567619 0 1
31.57761573791504 1.8444530963897705 -1.8423190116882324 0.05693940073251724 0 1
31.58578109741211 1.7027539014816284 -1.8423287868499756 0.056939054280519485 0 1
31.593162536621094 1.560976505279541 -1.842337727546692 0.056938931345939636 0 1
31.600038528442383 1.4191992282867432 -1.842345952987671 0.05693858489394188 0 1
31.606151580810547 1.27734375 -1.842353343963623 0.05693845823407173 0 1
31.611717224121094 1.1354882717132568 -1.842360019683838 0.05693824589252472 0 1
31.616621017456055 0.9936132431030273 -1.8423659801483154 0.05693800747394562 0 1
31.620800018310547 0.85169917345047 -1.8423709869384766 0.05693788826465607 0 1
31.624374389648438 0.7097851634025574 -1.8423752784729004 0.056937750428915024 0 1
31.627323150634766 0.5678319931030273 -1.842378854751587 0.05693762004375458 0 1
31.629648208618164 0.42591795325279236 -1.8423817157745361 0.05693744122982025 0 1
31.631269454956055 0.2839452922344208 -1.8423835039138794 0.05693737417459488 0 1
31.632225036621094 0.1419726461172104 -1.842384696006775 0.05693739280104637 0 1
31.632558822631836 1.9531249563442543e-05 -1.8423850536346436 0.05693739280104637 0 1
31.632205963134766 -0.14195312559604645 -1.8423845767974854 0.05693740397691727 0 1
10.1987886428833 -0.09154296666383743 -0.5940372347831726 0.4164802134037018 593 13
10.138202667236328 -0.1365039050579071 -0.5905361175537109 0.7567849159240723 593 13
10.109980583190918 -0.1815234273672104 -0.5889367461204529 0.9164008498191833 593 13
10.097479820251465 -0.22664062678813934 -0.5882604718208313 0.9839342832565308 593 13
10.097265243530273 -0.27197265625 -0.588313102722168 0.9786587953567505 593 13
10.109589576721191 -0.3177148401737213 -0.5891082882881165 0.8992703557014465 593 13
10.138612747192383 -0.36417967081069946 -0.590889573097229 0.7217826843261719 593 13
10.208280563354492 -0.41255858540534973 -0.5950508117675781 0.3190063536167145 593 13
31.600038528442383 -1.4191405773162842 -1.8423455953598022 0.056938573718070984 0 1
31.593183517456055 -1.5609179735183716 -1.8423371315002441 0.05693893879652023 0 1
31.58578109741211 -1.7027148008346558 -1.8423283100128174 0.056939028203487396 0 1
31.57759666442871 -1.8444335460662842 -1.8423184156417847 0.056939419358968735 0 1
31.56882667541504 -1.98611319065094 -1.842307686805725 0.05693978816270828 0 1
31.55937385559082 -2.127753973007202 -1.8422962427139282 0.056940142065286636 0 1
31.54929542541504 -2.2693748474121094 -1.842284083366394 0.056940507143735886 0 1
29.856718063354492 -2.2823827266693115 -1.7440308332443237 0.08675132691860199 0 2
29.725683212280273 -2.4066014289855957 -1.7369886636734009 0.05694134160876274 0 2
29.714296340942383 -2.5399608612060547 -1.7369749546051025 0.05694194510579109 0 2
29.702421188354492 -2.6732616424560547 -1.7369604110717773 0.05694226548075676 0 2
29.689863204956055 -2.806523323059082 -1.7369452714920044 0.05694275349378586 0 2
29.6767578125 -2.939707040786743 -1.7369294166564941 0.05694321170449257 0 2
29.66288948059082 -3.0728514194488525 -1.7369126081466675 0.05694384127855301 0 2
29.648534774780273 -3.2058982849121094 -1.736895203590393 0.056944411247968674 0 2
29.633535385131836 -3.3389062881469727 -1.7368770837783813 0.05694499984383583 0 2
29.61800765991211 -3.4718358516693115 -1.7368583679199219 0.05694548413157463 0 2
29.601757049560547 -3.604687452316284 -1.736838698387146 0.056946177035570145 0 2
29.584823608398438 -3.7374608516693115 -1.7368180751800537 0.05694703757762909 0 2
29.567480087280273 -3.8701367378234863 -1.7367970943450928 0.05694762244820595 0 2
29.54945182800293 -4.002734184265137 -1.7367751598358154 0.05694834142923355 0 2
29.530780792236328 -4.135273456573486 -1.7367526292800903 0.05694906786084175 0 2
29.511484146118164 -4.267714977264404 -1.736729383468628 0.056949906051158905 0 2
29.491600036621094 -4.400058269500732 -1.7367053031921387 0.05695072188973427 0 2
29.47119140625 -4.532324314117432 -1.736680507659912 0.05695144459605217 0 2
19.331111907958984 -3.0617382526397705 -1.13994300365448 0.1559428572654724 0 20
19.2481632232666 -3.1372461318969727 -1.1358718872070312 0.9854128956794739 0 20
19.2481632232666 -3.2259764671325684 -1.1367151737213135 0.9846832752227783 0 20
17.854257583618164 -3.0748045444488525 -1.055199384689331 0.9839338660240173 0 20
17.854238510131836 -3.157363176345825 -1.0560253858566284 0.9831644892692566 0 20
17.854217529296875 -3.240058422088623 -1.056875228881836 0.9823755025863647 0 20
17.85417938232422 -3.322890520095825 -1.0577456951141357 0.9815665483474731 0 20
17.85417938232422 -3.4058592319488525 -1.0586386919021606 0.9807379841804504 0 20
17.85416030883789 -3.4889843463897705 -1.0595566034317017 0.9798895716667175 0 20
17.85413932800293 -3.5722265243530273 -1.0604958534240723 0.9790213108062744 0 20
17.8541202545166 -3.655644416809082 -1.0614573955535889 0.9781333804130554 0 20
29.178573608398438 -6.11095666885376 -1.7363264560699463 0.0569629967212677 0 2
29.150272369384766 -6.241660118103027 -1.7362921237945557 0.05696415528655052 0 2
29.944705963134766 -6.552480220794678 -1.7853426933288574 0.05696525052189827 0 2
29.914297103881836 -6.686679363250732 -1.7853058576583862 0.05696652829647064 0 2
29.88343620300293 -6.820722579956055 -1.7852685451507568 0.0569675974547863 0 2
29.851835250854492 -6.95458984375 -1.7852303981781006 0.05696893110871315 0 2
29.81966781616211 -7.088359355926514 -1.7851914167404175 0.056970130652189255 0 2
29.786893844604492 -7.221933364868164 -1.7851518392562866 0.056971415877342224 0 2
29.753475189208984 -7.355410099029541 -1.7851113080978394 0.056972749531269073 0 2
29.719491958618164 -7.488671779632568 -1.7850701808929443 0.05697406083345413 0 2
27.765487670898438 -7.12902307510376 -1.669607400894165 0.5992510914802551 0 6
29.649667739868164 -7.754745960235596 -1.7849856615066528 0.05697677657008171 0 2
29.6138858795166 -7.887558460235596 -1.784942388534546 0.056978099048137665 0 2
29.57744026184082 -8.020195007324219 -1.784898281097412 0.056979525834321976 0 2
25.791250228881836 -7.117929458618164 -1.5583230257034302 0.6134878396987915 0 6
25.742088317871094 -7.228847503662109 -1.5573008060455322 0.7848848700523376 0 6
29.46451187133789 -8.417011260986328 -1.784761667251587 0.05698392912745476 0 2
29.42560386657715 -8.548964500427246 -1.7847145795822144 0.056985486298799515 0 2
29.386249542236328 -8.680703163146973 -1.7846670150756836 0.056986890733242035 0 2
23.753944396972656 -7.132987976074219 -1.4445397853851318 0.6310048699378967 0 6
29.30550765991211 -8.943613052368164 -1.784569263458252 0.056990087032318115 0 2
29.26433563232422 -9.074824333190918 -1.7845194339752197 0.056991513818502426 0 2
29.22245979309082 -9.205820083618164 -1.7844687700271606 0.056993111968040466 0 2
29.17997932434082 -9.33658218383789 -1.7844173908233643 0.05699486657977104 0 2
29.136932373046875 -9.467147827148438 -1.7843652963638306 0.05699652060866356 0 2
21.733163833618164 -7.169511795043945 -1.3329131603240967 0.9956198930740356 0 6
29.049022674560547 -9.727714538574219 -1.7842589616775513 0.05700000748038292 0 2
29.00419807434082 -9.857714653015137 -1.7842047214508057 0.05700166895985603 0 2
28.958768844604492 -9.987480163574219 -1.7841497659683228 0.0570034496486187 0 2
28.91277313232422 -10.117011070251465 -1.7840940952301025 0.05700521171092987 0 2
28.86617088317871 -10.246386528015137 -1.784037709236145 0.05700698494911194 0 2
19.78935432434082 -7.124589920043945 -1.225020170211792 0.6717333793640137 0 6
19.741308212280273 -7.207558631896973 -1.2240345478057861 0.7355738282203674 0 6
28.72283172607422 -10.633066177368164 -1.7838642597198486 0.057012494653463364 0 2
28.67380714416504 -10.761465072631836 -1.783805012702942 0.05701449140906334 0 2
28.624296188354492 -10.889726638793945 -1.7837450504302979 0.05701631307601929 0 2
28.57421875 -11.017675399780273 -1.783684492111206 0.05701820179820061 0 2
28.5234375 -11.14540958404541 -1.783623218536377 0.057020239531993866 0 2
28.47214698791504 -11.272929191589355 -1.783561110496521 0.057022254914045334 0 2
17.769569396972656 -7.127910137176514 -1.1151245832443237 0.6941837668418884 0 6
17.737070083618164 -7.207441329956055 -1.1150994300842285 0.7069498896598816 0 6
28.314725875854492 -11.653944969177246 -1.7833706140518188 0.05702842399477959 0 2
28.261152267456055 -11.78050708770752 -1.7833057641983032 0.05703042447566986 0 2
28.206932067871094 -11.906777381896973 -1.7832401990890503 0.057032592594623566 0 2
28.152244567871094 -12.032832145690918 -1.7831740379333496 0.05703452229499817 0 2
28.09685516357422 -12.15859317779541 -1.7831069231033325 0.05703675001859665 0 2
28.040937423706055 -12.284120559692383 -1.7830393314361572 0.05703889578580856 0 2
27.984432220458984 -12.40933609008789 -1.7829710245132446 0.057041145861148834 0 2
27.927459716796875 -12.534375190734863 -1.7829022407531738 0.0570431686937809 0 2
27.869823455810547 -12.659062385559082 -1.7828322649002075 0.05704546347260475 0 2
27.811542510986328 -12.783475875854492 -1.782761812210083 0.057047851383686066 0 2
27.752792358398438 -12.907655715942383 -1.7826908826828003 0.05705011636018753 0 2
27.6934757232666 -13.031542778015137 -1.7826189994812012 0.05705245956778526 0 2
27.63359260559082 -13.155156135559082 -1.7825466394424438 0.05705474317073822 0 2
27.573104858398438 -13.278514862060547 -1.7824734449386597 0.05705709382891655 0 2
27.512147903442383 -13.40160083770752 -1.7823996543884277 0.05705936998128891 0 2
27.45064353942871 -13.524394035339355 -1.782325267791748 0.05706162750720978 0 2
27.38847541809082 -13.646855354309082 -1.7822500467300415 0.05706414207816124 0 2
27.325740814208984 -13.76904296875 -1.7821742296218872 0.05706664174795151 0 2
27.26249885559082 -13.890917778015137 -1.782097578048706 0.05706914886832237 0 2
27.198749542236328 -14.012557983398438 -1.7820205688476562 0.0570715069770813 0 2
27.1343936920166 -14.133867263793945 -1.7819427251815796 0.05707399547100067 0 2
27.06949234008789 -14.2548828125 -1.7818641662597656 0.05707652494311333 0 2
27.004003524780273 -14.375566482543945 -1.7817848920822144 0.05707912892103195 0 2
7.931445121765137 -4.268105506896973 -0.5245933532714844 0.8792813420295715 0 20
7.828652381896973 -4.258203029632568 -0.5190541744232178 0.8771499991416931 0 20
7.828632831573486 -4.303828239440918 -0.5203279256820679 0.8750014305114746 0 20
7.82861328125 -4.349687576293945 -0.5216192603111267 0.8728349804878235 0 20
7.892929553985596 -4.431894302368164 -0.5272249579429626 0.4885764420032501 0 20
7.826327800750732 -4.440820217132568 -0.5241029262542725 0.9623210430145264 0 20
7.823574066162109 -4.485781192779541 -0.5252580046653748 0.8662309050559998 0 20
7.875507831573486 -4.562655925750732 -0.5301157236099243 0.8639945387840271 0 20
7.875507831573486 -4.609980583190918 -0.5315025448799133 0.86174076795578 0 20
7.87548828125 -4.657558441162109 -0.5329065322875977 0.859469473361969 0 20
7.87548828125 -4.705370903015137 -0.5343281626701355 0.8571811318397522 0 20
7.87548828125 -4.753457069396973 -0.5357702374458313 0.854875385761261 0 20
7.875468730926514 -4.801816463470459 -0.5372301936149597 0.8525524735450745 0 20
7.875429630279541 -4.850449085235596 -0.5387091636657715 0.850212037563324 0 20
7.875429630279541 -4.899316310882568 -0.5402072072029114 0.8478546142578125 0 20
7.875410079956055 -4.948476314544678 -0.5417229533195496 0.8454804420471191 0 20
7.875390529632568 -4.997910022735596 -0.5432592034339905 0.8430890440940857 0 20
7.875390529632568 -5.047616958618164 -0.544816792011261 0.840680718421936 0 20
7.875370979309082 -5.097617149353027 -0.546392560005188 0.8382553458213806 0 20
7.875351428985596 -5.147910118103027 -0.5479913949966431 0.8358133435249329 0 20
7.875351428985596 -5.198495864868164 -0.5496073961257935 0.833354115486145 0 20
7.875331878662109 -5.249374866485596 -0.5512445569038391 0.8308786153793335 0 20
7.875312328338623 -5.30056619644165 -0.55290287733078 0.8283858895301819 0 20
7.875312328338623 -5.352070331573486 -0.5545831918716431 0.8258768916130066 0 20
7.872870922088623 -5.402226448059082 -0.5561148524284363 0.5646482706069946 0 20
7.826640605926514 -5.422304630279541 -0.5545611381530762 0.9822736382484436 0 20
7.823319911956787 -5.472128868103027 -0.5560739040374756 0.8182492852210999 0 20
7.904277324676514 -5.581796646118164 -0.5635907649993896 0.5756812691688538 0 20
7.828300476074219 -5.580937385559082 -0.5599545240402222 0.8130819797515869 0 20
7.828280925750732 -5.634101390838623 -0.561755895614624 0.8104738593101501 0 20
13.221308708190918 -9.60585880279541 -0.9518381953239441 0.7899754047393799 0 20
13.221796989440918 -9.697128295898438 -0.954992949962616 0.7873647212982178 0 20
13.2222261428833 -9.789042472839355 -0.9581915140151978 0.7847376465797424 0 20
13.222675323486328 -9.881562232971191 -0.9614291787147522 0.7820948362350464 0 20
13.22314453125 -9.974726676940918 -0.9647088646888733 0.7794351577758789 0 20
13.204765319824219 -10.054121017456055 -0.9666503667831421 0.7784818410873413 0 20
13.224140167236328 -10.162968635559082 -0.9713953733444214 0.7740700840950012 0 20
13.224609375 -10.258085250854492 -0.9748055934906006 0.7713637351989746 0 20
13.225136756896973 -10.35384750366211 -0.9782578945159912 0.7686415910720825 0 20
13.225625038146973 -10.45035171508789 -0.9817525744438171 0.7659035325050354 0 20
13.226152420043945 -10.547499656677246 -0.9852960109710693 0.7631503343582153 0 20
13.226679801940918 -10.645390510559082 -0.9888854026794434 0.7603815197944641 0 20
6.83800745010376 -5.554257869720459 -0.5130879878997803 0.629241943359375 0 20
6.808906078338623 -5.58154296875 -0.5127896070480347 0.6327134370803833 0 20
6.734765529632568 -5.571464538574219 -0.5090827345848083 0.7694223523139954 0 20
6.734745979309082 -5.62255859375 -0.5109845399856567 0.7665598392486572 0 20
6.651445388793945 -5.603867053985596 -0.5065672993659973 0.6430524587631226 0 20
6.591171741485596 -5.603847503662109 -0.5038872361183167 0.64647376537323 0 20
6.53152322769165 -5.603847503662109 -0.5012446641921997 0.6498814225196838 0 20
6.472499847412109 -5.603847503662109 -0.49864035844802856 0.653275728225708 0 20
6.414082050323486 -5.603847503662109 -0.4960726797580719 0.6566571593284607 0 20
6.356249809265137 -5.603827953338623 -0.49354010820388794 0.6600258350372314 0 20
6.299023151397705 -5.603808403015137 -0.4910464286804199 0.6633802652359009 0 20
6.242382526397705 -5.60378885269165 -0.48858505487442017 0.666721761226654 0 20
6.186288833618164 -5.603769302368164 -0.4861590564250946 0.670049786567688 0 20
6.130722522735596 -5.603769302368164 -0.48376309871673584 0.6733645796775818 0 20
6.075722694396973 -5.603749752044678 -0.48140501976013184 0.6766656041145325 0 20
6.021288871765137 -5.603730201721191 -0.4790777564048767 0.6799521446228027 0 20
5.967324256896973 -5.603730201721191 -0.47678160667419434 0.6832258701324463 0 20
5.913925647735596 -5.603710651397705 -0.47451871633529663 0.6864862442016602 0 20
5.861015319824219 -5.603691101074219 -0.47228682041168213 0.6897313594818115 0 20
5.80859375 -5.603671550750732 -0.470081627368927 0.6929630041122437 0 20
5.731249809265137 -5.578964710235596 -0.4658471643924713 0.7155760526657104 0 20
5.682382583618164 -5.581288814544678 -0.4639008939266205 0.6993860006332397 0 20
5.628476619720459 -5.578183650970459 -0.4615429639816284 0.709299623966217 0 20
9.604043006896973 9.6040620803833 -1.0178419351577759 0.07494494318962097 0 4
9.640116691589355 9.554003715515137 -1.0171127319335938 0.15185552835464478 0 4
9.689648628234863 9.517265319824219 -1.0178205966949463 0.0749472826719284 0 4
9.732168197631836 9.473593711853027 -1.0178098678588867 0.07494812458753586 0 4
9.80923843383789 9.463241577148438 -1.021417498588562 0.540906548500061 0 4
9.893476486206055 9.459159851074219 -1.025759220123291 0.5386176705360413 0 4
9.978437423706055 9.455018997192383 -1.0301568508148193 0.5363184213638306 0 4
10.064082145690918 9.45083999633789 -1.0346091985702515 0.5340102910995483 0 4
10.1504487991333 9.446561813354492 -1.039120078086853 0.5316919684410095 0 4
10.237577438354492 9.442245483398438 -1.0436913967132568 0.5293638706207275 0 4
10.325429916381836 9.437910079956055 -1.0483201742172241 0.5270264744758606 0 4
10.414081573486328 9.433456420898438 -1.053009033203125 0.5246790051460266 0 4
10.503496170043945 9.429003715515137 -1.0577610731124878 0.5223224759101868 0 4
10.593690872192383 9.424433708190918 -1.0625728368759155 0.519956648349762 0 4
10.68587875366211 9.4208984375 -1.0675750970840454 0.6570078730583191 0 4
10.783417701721191 9.42123031616211 -1.073083519935608 0.653634786605835 0 4
10.877792358398438 9.417909622192383 -1.0782562494277954 0.6498900651931763 0 4
10.977401733398438 9.418280601501465 -1.0839295387268066 0.6464892625808716 0 4
11.078065872192383 9.418671607971191 -1.089682698249817 0.6430755853652954 0 4
11.179765701293945 9.419023513793945 -1.095518946647644 0.639648973941803 0 4
11.282597541809082 9.419413566589355 -1.1014419794082642 0.6362095475196838 0 4
11.38656234741211 9.419804573059082 -1.107451319694519 0.6327570080757141 0 4
11.491660118103027 9.420175552368164 -1.1135494709014893 0.6292919516563416 0 4
11.597870826721191 9.42056655883789 -1.1197373867034912 0.62581467628479 0 4
11.705370903015137 9.420995712280273 -1.1260181665420532 0.6223241090774536 0 4
11.8140230178833 9.42138671875 -1.132391333580017 0.6188211441040039 0 4
11.923906326293945 9.42177677154541 -1.1388614177703857 0.6153059601783752 0 4
12.035078048706055 9.422186851501465 -1.1454287767410278 0.6117783784866333 0 4
12.147539138793945 9.422597885131836 -1.1520944833755493 0.6082383990287781 0 4
12.261327743530273 9.423027038574219 -1.1588637828826904 0.6046859622001648 0 4
12.376444816589355 9.423457145690918 -1.1657333374023438 0.601121187210083 0 4
12.492929458618164 9.4238862991333 -1.172711968421936 0.59754478931427 0 4
12.61083984375 9.424335479736328 -1.1797977685928345 0.5939562320709229 0 4
12.730175971984863 9.424765586853027 -1.1869909763336182 0.5903560519218445 0 4
12.850996017456055 9.425214767456055 -1.1943022012710571 0.5867434144020081 0 4
12.973280906677246 9.425643920898438 -1.2017234563827515 0.5831189155578613 0 4
13.097108840942383 9.42611312866211 -1.2092639207839966 0.5794833898544312 0 4
13.222538948059082 9.426581382751465 -1.2169239521026611 0.5758352279663086 0 4
13.34683609008789 9.425155639648438 -1.2244579792022705 0.57450932264328 0 4
13.474921226501465 9.42529296875 -1.2323182821273804 0.5708454847335815 0 4
13.604686737060547 9.425410270690918 -1.2403041124343872 0.5671694874763489 0 4
13.736112594604492 9.425507545471191 -1.2484195232391357 0.5634826421737671 0 4
13.869316101074219 9.425643920898438 -1.2566686868667603 0.5597842335700989 0 4
14.00429630279541 9.425761222839355 -1.2650492191314697 0.5560745596885681 0 4
14.141093254089355 9.425898551940918 -1.2735717296600342 0.552354097366333 0 4
14.279765129089355 9.426054000854492 -1.2822359800338745 0.548621654510498 0 4
14.42025375366211 9.426132202148438 -1.2910435199737549 0.5448788404464722 0 4
14.562753677368164 9.426288604736328 -1.2999998331069946 0.5411248207092285 0 4
14.70726490020752 9.42642593383789 -1.3091092109680176 0.5373595952987671 0 4
14.853788375854492 9.426542282104492 -1.318373680114746 0.5335842967033386 0 4
15.002421379089355 9.426698684692383 -1.3277946710586548 0.5297976732254028 0 4
15.15316390991211 9.4268159866333 -1.3373807668685913 0.5260003209114075 0 4
15.306113243103027 9.426953315734863 -1.347133755683899 0.5221925377845764 0 4
15.461308479309082 9.427108764648438 -1.3570573329925537 0.5183743834495544 0 4
15.618846893310547 9.42724609375 -1.3671517372131348 0.5145457983016968 0 4
15.783143997192383 9.430058479309082 -1.3778119087219238 0.5110505819320679 0 4
15.945331573486328 9.430116653442383 -1.3882660865783691 0.5072023868560791 0 4
16.110057830810547 9.430214881896973 -1.398909091949463 0.5033438205718994 0 4
16.27734375 9.430293083190918 -1.4097437858581543 0.4994751214981079 0 4
16.447246551513672 9.430410385131836 -1.420778512954712 0.4955967366695404 0 4
16.61978530883789 9.430448532104492 -1.4320144653320312 0.49170759320259094 0 4
16.795116424560547 9.430546760559082 -1.4434577226638794 0.48780903220176697 0 4
16.973241806030273 9.430624961853027 -1.455115795135498 0.4839009940624237 0 4
17.154296875 9.4307222366333 -1.4669958353042603 0.4799826443195343 0 4
17.33833885192871 9.43082046508789 -1.4791004657745361 0.4760545790195465 0 4
17.525449752807617 9.430917739868164 -1.4914345741271973 0.4721173048019409 0 4
17.715702056884766 9.43099594116211 -1.5040093660354614 0.46817031502723694 0 4
17.909217834472656 9.431132316589355 -1.5168284177780151 0.46421384811401367 0 4
18.106054306030273 9.4312105178833 -1.5298951864242554 0.46024778485298157 0 4
18.314237594604492 9.435370445251465 -1.5438932180404663 0.4559359550476074 0 4
18.51824188232422 9.435526847839355 -1.5575084686279297 0.45195117592811584 0 4
18.72587776184082 9.435722351074219 -1.571397066116333 0.4479568898677826 0 4
18.937284469604492 9.435917854309082 -1.585567593574524 0.4439537823200226 0 4
19.152538299560547 9.436113357543945 -1.6000280380249023 0.43994179368019104 0 4
19.37175750732422 9.436307907104492 -1.6147829294204712 0.4359206557273865 0 4
19.59501838684082 9.436484336853027 -1.629845142364502 0.4318915009498596 0 4
19.822538375854492 9.436698913574219 -1.6452317237854004 0.4278528094291687 0 4
20.05435562133789 9.43691349029541 -1.660947322845459 0.42380598187446594 0 4
20.290721893310547 9.437129020690918 -1.6769940853118896 0.419749915599823 0 4
20.531660079956055 9.437362670898438 -1.693388819694519 0.4156862199306488 0 4
20.97296905517578 9.526386260986328 -1.726244330406189 0.07363182306289673 0 2
21.016132354736328 9.432421684265137 -1.7262965440750122 0.0736297145485878 0 2
21.058847427368164 9.338300704956055 -1.7263480424880981 0.07362756133079529 0 2
21.10120964050293 9.243964195251465 -1.726399302482605 0.07362525910139084 0 2
21.143085479736328 9.149433135986328 -1.726449966430664 0.0736231729388237 0 2
21.1845703125 9.054726600646973 -1.7265000343322754 0.07362096756696701 0 2
21.225624084472656 8.959843635559082 -1.7265496253967285 0.07361885160207748 0 2
21.2662296295166 8.86474609375 -1.7265987396240234 0.07361669838428497 0 2
21.306386947631836 8.769472122192383 -1.7266472578048706 0.07361471652984619 0 2
21.346094131469727 8.673964500427246 -1.7266954183578491 0.07361265271902084 0 2
21.38541030883789 8.578320503234863 -1.7267429828643799 0.07361066341400146 0 2
21.424257278442383 8.482500076293945 -1.7267898321151733 0.0736086517572403 0 2
21.46271514892578 8.386465072631836 -1.7268363237380981 0.07360660284757614 0 2
21.500682830810547 8.290292739868164 -1.7268823385238647 0.07360474020242691 0 2
21.53824234008789 8.1939058303833 -1.7269277572631836 0.07360281050205231 0 2
21.575389862060547 8.097402572631836 -1.7269725799560547 0.07360079139471054 0 2
21.612070083618164 8.000702857971191 -1.7270169258117676 0.07359889149665833 0 2
21.64828109741211 7.90380859375 -1.7270606756210327 0.07359713315963745 0 2
21.684101104736328 7.806777000427246 -1.7271039485931396 0.07359528541564941 0 2
21.719472885131836 7.70958948135376 -1.7271467447280884 0.07359342277050018 0 2
21.75435447692871 7.612206935882568 -1.7271889448165894 0.07359166443347931 0 2
21.788827896118164 7.5146484375 -1.7272306680679321 0.07358982414007187 0 2
21.822851181030273 7.416953086853027 -1.7272716760635376 0.07358816266059875 0 2
21.8564453125 7.31912088394165 -1.7273123264312744 0.07358638942241669 0 2
21.889551162719727 7.221113204956055 -1.7273523807525635 0.07358473539352417 0 2
21.922266006469727 7.122968673706055 -1.7273919582366943 0.0735829621553421 0 2
21.954492568969727 7.024667739868164 -1.727430820465088 0.07358129322528839 0 2
21.98628807067871 6.926230430603027 -1.7274693250656128 0.07357966154813766 0 2
22.017656326293945 6.82763671875 -1.72750723361969 0.07357805967330933 0 2
22.048574447631836 6.728906154632568 -1.7275446653366089 0.0735764130949974 0 2
22.078983306884766 6.630019187927246 -1.72758150100708 0.07357490062713623 0 2
22.1090030670166 6.531015396118164 -1.727617621421814 0.07357335090637207 0 2
22.138574600219727 6.431855201721191 -1.7276532649993896 0.07357177138328552 0 2
22.0626163482666 6.302538871765137 -1.7195043563842773 0.9962301254272461 0 6
22.082128524780273 6.201035022735596 -1.7188369035720825 0.9625481963157654 0 6
22.061758041381836 6.088671684265137 -1.7150979042053223 0.8943723440170288 0 6
22.112812042236328 5.996074199676514 -1.7169660329818726 0.4689123332500458 0 6
22.279491424560547 5.93408203125 -1.7278237342834473 0.07356450706720352 0 2
22.30630874633789 5.834140300750732 -1.727856159210205 0.07356322556734085 0 2
22.527851104736328 5.7841796875 -1.742987036705017 0.25870436429977417 0 2
22.925859451293945 5.776816368103027 -1.7717617750167847 0.25450024008750916 0 2
23.360565185546875 5.774980545043945 -1.8033361434936523 0.2395332157611847 0 2
23.76935577392578 5.76296854019165 -1.8328765630722046 0.07355799525976181 0 1
23.79541015625 5.656347751617432 -1.832908034324646 0.07355667650699615 0 1
23.82095718383789 5.549609184265137 -1.83293879032135 0.07355539500713348 0 1
23.84601593017578 5.442714691162109 -1.8329691886901855 0.07355420291423798 0 1
23.87058448791504 5.335702896118164 -1.8329988718032837 0.07355303317308426 0 1
23.89468765258789 5.228613376617432 -1.833027958869934 0.07355182617902756 0 1
23.91828155517578 5.121425628662109 -1.8330564498901367 0.07355064153671265 0 1
23.94140625 5.014101505279541 -1.8330843448638916 0.0735495537519455 0 1
23.96404266357422 4.906679630279541 -1.8331118822097778 0.07354835420846939 0 1
23.98613166809082 4.799120903015137 -1.8331385850906372 0.07354741543531418 0 1
24.00779151916504 4.691504001617432 -1.8331645727157593 0.07354632019996643 0 1
24.0289249420166 4.58376932144165 -1.8331903219223022 0.07354529201984406 0 1
24.049589157104492 4.475956916809082 -1.8332151174545288 0.07354435324668884 0 1
24.069746017456055 4.368027210235596 -1.8332395553588867 0.07354335486888885 0 1
24.089452743530273 4.259999752044678 -1.8332633972167969 0.07354225963354111 0 1
24.108592987060547 4.151914119720459 -1.8332865238189697 0.07354146242141724 0 1
24.127304077148438 4.04373025894165 -1.8333091735839844 0.07354050129652023 0 1
24.14546775817871 3.9354491233825684 -1.8333309888839722 0.07353979349136353 0 1
24.163164138793945 3.8270702362060547 -1.8333524465560913 0.07353883981704712 0 1
24.180389404296875 3.718632698059082 -1.8333731889724731 0.07353802025318146 0 1
24.19710922241211 3.6101367473602295 -1.8333933353424072 0.07353720813989639 0 1
24.21335792541504 3.501542806625366 -1.833413004875183 0.07353634387254715 0 1
24.22898292541504 3.3928515911102295 -1.8334319591522217 0.07353576272726059 0 1
24.24429702758789 3.284121036529541 -1.833450436592102 0.07353485375642776 0 1
24.259002685546875 3.17529296875 -1.8334680795669556 0.07353421300649643 0 1
24.273221969604492 3.0664258003234863 -1.8334853649139404 0.07353352755308151 0 1
24.286972045898438 2.957460880279541 -1.8335020542144775 0.07353278249502182 0 1
24.300214767456055 2.8484959602355957 -1.8335180282592773 0.07353220880031586 0 1
24.312929153442383 2.7394139766693115 -1.8335334062576294 0.0735316351056099 0 1
24.32517433166504 2.6302733421325684 -1.8335481882095337 0.07353099435567856 0 1
24.336952209472656 2.521113157272339 -1.8335623741149902 0.073530413210392 0 1
24.348201751708984 2.411875009536743 -1.833575963973999 0.07352982461452484 0 1
24.358943939208984 2.3025779724121094 -1.83358895778656 0.07352934777736664 0 1
24.369178771972656 2.1932616233825684 -1.8336013555526733 0.07352886348962784 0 1
24.378984451293945 2.0839061737060547 -1.8336132764816284 0.07352825999259949 0 1
24.388202667236328 1.974453091621399 -1.833624243736267 0.07352793961763382 0 1
24.39697265625 1.8650000095367432 -1.833634853363037 0.07352743297815323 0 1
24.405214309692383 1.7554882764816284 -1.8336448669433594 0.07352709025144577 0 1
24.412948608398438 1.6459569931030273 -1.8336541652679443 0.07352685928344727 0 1
24.42025375366211 1.53640615940094 -1.833662986755371 0.07352638244628906 0 1
24.427030563354492 1.426796793937683 -1.8336710929870605 0.07352601736783981 0 1
24.43328094482422 1.3171679973602295 -1.8336787223815918 0.07352574914693832 0 1
24.439022064208984 1.207460880279541 -1.8336855173110962 0.07352541387081146 0 1
24.444238662719727 1.0977929830551147 -1.8336918354034424 0.0735253095626831 0 1
24.449003219604492 0.988085925579071 -1.8336976766586304 0.073525071144104 0 1
24.45328140258789 0.8783593773841858 -1.833702802658081 0.07352481782436371 0 1
24.45703125 0.7686132788658142 -1.8337072134017944 0.073524609208107 0 1
24.460311889648438 0.6588281393051147 -1.8337111473083496 0.07352445274591446 0 1
24.46306610107422 0.549023449420929 -1.8337146043777466 0.07352421432733536 0 1
24.46533203125 0.43925780057907104 -1.8337173461914062 0.07352420687675476 0 1
24.467050552368164 0.3294335901737213 -1.833719253540039 0.0735241174697876 0 1
24.468299865722656 0.2196093648672104 -1.8337208032608032 0.07352408021688461 0 1
24.46908187866211 0.1098046824336052 -1.8337217569351196 0.07352397590875626 0 1
24.469316482543945 -0.0 -1.8337219953536987 0.07352396845817566 0 1
24.46908187866211 -0.10982421785593033 -1.8337217569351196 0.07352394610643387 0 1
10.767656326293945 -0.09666015207767487 -0.8069591522216797 0.3020244240760803 593 13
10.076932907104492 -0.1356835961341858 -0.7552311420440674 0.567873477935791 593 13
10.03451156616211 -0.18015624582767487 -0.752106249332428 0.7802334427833557 593 13
10.015604972839355 -0.22480468451976776 -0.7507553696632385 0.8939047455787659 593 13
10.011855125427246 -0.26966795325279236 -0.7505578398704529 0.9105961322784424 593 13
10.022323608398438 -0.31496092677116394 -0.7514419555664062 0.8361114263534546 593 13
10.052011489868164 -0.3610546886920929 -0.7537821531295776 0.6461235284805298 593 13
10.1289644241333 -0.4093359410762787 -0.7596821188926697 0.27140048146247864 593 13
24.444257736206055 -1.097812533378601 -1.8336914777755737 0.07352526485919952 0 1
24.439043045043945 -1.2074804306030273 -1.833685278892517 0.07352541387081146 0 1
24.43326187133789 -1.3171484470367432 -1.8336782455444336 0.07352577149868011 0 1
24.427030563354492 -1.4267773628234863 -1.8336706161499023 0.07352600991725922 0 1
24.42023468017578 -1.5363867282867432 -1.8336623907089233 0.07352635264396667 0 1
24.412948608398438 -1.6459765434265137 -1.8336535692214966 0.07352685183286667 0 1
24.40523338317871 -1.7555078268051147 -1.8336442708969116 0.07352706789970398 0 1
24.39695167541504 -1.86501944065094 -1.8336341381072998 0.07352754473686218 0 1
24.388202667236328 -1.9744726419448853 -1.8336236476898193 0.07352791726589203 0 1
24.378984451293945 -2.0838866233825684 -1.8336124420166016 0.07352826744318008 0 1
24.369197845458984 -2.1932811737060547 -1.8336005210876465 0.07352884858846664 0 1
24.02554702758789 -2.2710936069488525 -1.8084908723831177 0.09362167865037918 0 2
23.028846740722656 -2.2812108993530273 -1.7342219352722168 0.11212290078401566 0 2
22.946308135986328 -2.3770506381988525 -1.7287898063659668 0.07353042811155319 0 2
22.93521499633789 -2.4800000190734863 -1.7287763357162476 0.07353100925683975 0 2
22.92367172241211 -2.582890510559082 -1.7287625074386597 0.0735316053032875 0 2
22.911659240722656 -2.685722589492798 -1.728747844696045 0.07353221625089645 0 2
22.899198532104492 -2.7884960174560547 -1.728732705116272 0.07353280484676361 0 2
22.88620948791504 -2.8912107944488525 -1.7287172079086304 0.07353352755308151 0 2
22.872793197631836 -2.9938671588897705 -1.728700876235962 0.07353422045707703 0 2
22.858905792236328 -3.0964648723602295 -1.7286840677261353 0.07353494316339493 0 2
22.84453010559082 -3.198984384536743 -1.7286666631698608 0.07353575527667999 0 2
22.82976531982422 -3.3014256954193115 -1.7286487817764282 0.07353634387254715 0 2
22.81443214416504 -3.4038281440734863 -1.7286301851272583 0.0735372006893158 0 2
22.79867172241211 -3.5061521530151367 -1.7286111116409302 0.07353804260492325 0 2
19.331092834472656 -3.0617382526397705 -1.4667224884033203 0.15577055513858795 0 20
19.247793197631836 -3.1371679306030273 -1.461458683013916 0.9843430519104004 0 20
19.247753143310547 -3.2259178161621094 -1.4625402688980103 0.9836143255233765 0 20
17.853866577148438 -3.0747461318969727 -1.3576618432998657 0.9828655123710632 0 20
17.853866577148438 -3.1573240756988525 -1.3587231636047363 0.9820970892906189 0 20
17.85384750366211 -3.240000009536743 -1.359814167022705 0.9813088774681091 0 20
17.85382843017578 -3.322831869125366 -1.3609365224838257 0.9805006980895996 0 20
17.85380744934082 -3.4058008193969727 -1.3620855808258057 0.9796730875968933 0 20
17.853769302368164 -3.4889256954193115 -1.3632667064666748 0.9788256287574768 0 20
17.853750228881836 -3.5721874237060547 -1.3644729852676392 0.9779585003852844 0 20
17.853729248046875 -3.655585765838623 -1.3657130002975464 0.9770714640617371 0 20
22.573320388793945 -4.727578163146973 -1.7283384799957275 0.07354965060949326 0 2
22.551542282104492 -4.828749656677246 -1.7283120155334473 0.073550745844841 0 2
22.529315948486328 -4.929862976074219 -1.7282851934432983 0.07355182617902756 0 2
22.506561279296875 -5.030839920043945 -1.7282575368881226 0.07355314493179321 0 2
22.48337745666504 -5.131718635559082 -1.7282295227050781 0.07355433702468872 0 2
22.45980453491211 -5.232500076293945 -1.728200912475586 0.07355538010597229 0 2
22.4356632232666 -5.333125114440918 -1.7281718254089355 0.0735568106174469 0 2
22.4111328125 -5.433691501617432 -1.7281420230865479 0.07355796545743942 0 2
22.386093139648438 -5.534101486206055 -1.7281118631362915 0.07355931401252747 0 2
22.36066436767578 -5.63439416885376 -1.7280809879302979 0.07356060296297073 0 2
22.33478546142578 -5.734609127044678 -1.7280497550964355 0.0735618844628334 0 2
22.308359146118164 -5.834687232971191 -1.7280176877975464 0.0735633596777916 0 2
22.28158187866211 -5.934628963470459 -1.7279853820800781 0.07356464862823486 0 2
22.254316329956055 -6.034472465515137 -1.7279523611068726 0.07356593012809753 0 2
22.22654151916504 -6.134160041809082 -1.7279186248779297 0.07356749475002289 0 2
22.1983585357666 -6.233710765838623 -1.7278846502304077 0.0735689252614975 0 2
22.796443939208984 -6.512187480926514 -1.7766977548599243 0.07357043772935867 0 2
22.76656150817871 -6.614296913146973 -1.7766616344451904 0.07357189059257507 0 2
22.73617172241211 -6.716289043426514 -1.7766249179840088 0.07357344031333923 0 2
22.705350875854492 -6.818105220794678 -1.7765874862670898 0.07357484102249146 0 2
22.674022674560547 -6.919785022735596 -1.7765496969223022 0.07357648015022278 0 2
22.64224624633789 -7.021327972412109 -1.7765111923217773 0.07357815653085709 0 2
22.6099796295166 -7.122694969177246 -1.7764720916748047 0.0735798180103302 0 2
22.577342987060547 -7.223964691162109 -1.776432752609253 0.07358121871948242 0 2
22.54412078857422 -7.325038909912109 -1.7763924598693848 0.07358303666114807 0 2
21.73273468017578 -7.169394493103027 -1.714975357055664 0.9945370554924011 0 6
22.476425170898438 -7.526777267456055 -1.7763105630874634 0.07358650863170624 0 2
22.44185447692871 -7.627363204956055 -1.776268720626831 0.0735883116722107 0 2
22.40691375732422 -7.727831840515137 -1.77622652053833 0.07358991354703903 0 2
22.371444702148438 -7.828125 -1.7761836051940918 0.07359176129102707 0 2
22.3355655670166 -7.928242206573486 -1.7761400938034058 0.07359349727630615 0 2
19.779979705810547 -7.121249675750732 -1.5754438638687134 0.6709986329078674 0 6
19.732440948486328 -7.204355239868164 -1.5742348432540894 0.7347787022590637 0 6
22.225135803222656 -8.227636337280273 -1.7760065793991089 0.07359897345304489 0 2
22.187381744384766 -8.327070236206055 -1.775960922241211 0.07360098510980606 0 2
22.149276733398438 -8.426347732543945 -1.7759146690368652 0.07360275834798813 0 2
22.110605239868164 -8.5254487991333 -1.7758680582046509 0.07360480725765228 0 2
22.071561813354492 -8.62435531616211 -1.7758207321166992 0.07360667735338211 0 2
22.032011032104492 -8.723105430603027 -1.7757729291915894 0.07360869646072388 0 2
17.766210556030273 -7.126562118530273 -1.4345159530639648 0.6970472931861877 0 6
17.733476638793945 -7.206015586853027 -1.4344645738601685 0.7101016640663147 0 6
21.9107608795166 -9.018202781677246 -1.7756261825561523 0.07361480593681335 0 2
21.86943244934082 -9.116171836853027 -1.7755762338638306 0.07361694425344467 0 2
21.827693939208984 -9.213984489440918 -1.7755258083343506 0.07361893355846405 0 2
21.785507202148438 -9.311562538146973 -1.7754746675491333 0.07362108677625656 0 2
21.742889404296875 -9.408964157104492 -1.7754230499267578 0.07362321764230728 0 2
21.699785232543945 -9.506171226501465 -1.7753710746765137 0.07362538576126099 0 2
21.65625 -9.603202819824219 -1.7753182649612427 0.07362762093544006 0 2
21.6123046875 -9.699999809265137 -1.7752652168273926 0.07362977415323257 0 2
15.7407808303833 -7.149824142456055 -1.2955961227416992 0.9967294335365295 0 6
15.7471284866333 -7.238144397735596 -1.2987804412841797 0.6779723167419434 0 6
21.477733612060547 -9.989198684692383 -1.7751023769378662 0.07363655418157578 0 2
21.432050704956055 -10.085136413574219 -1.7750470638275146 0.07363883405923843 0 2
21.38589859008789 -10.180917739868164 -1.7749912738800049 0.07364115864038467 0 2
21.339277267456055 -10.276464462280273 -1.7749347686767578 0.07364356517791748 0 2
21.29230499267578 -10.371796607971191 -1.7748780250549316 0.07364584505558014 0 2
21.244823455810547 -10.466894149780273 -1.7748206853866577 0.07364833354949951 0 2
21.19695281982422 -10.561796188354492 -1.7747626304626465 0.07365071028470993 0 2
21.148651123046875 -10.656484603881836 -1.7747042179107666 0.07365309447050095 0 2
21.09994125366211 -10.750956535339355 -1.7746453285217285 0.07365545630455017 0 2
21.050800323486328 -10.84521484375 -1.7745858430862427 0.07365782558917999 0 2
13.744023323059082 -7.159042835235596 -1.1613234281539917 0.9934900403022766 0 6
20.951152801513672 -11.032968521118164 -1.7744653224945068 0.07366293668746948 0 2
20.90068244934082 -11.126483917236328 -1.7744042873382568 0.07366544753313065 0 2
7.93126916885376 -4.267988204956055 -0.6749593019485474 0.8783289194107056 0 20
7.828476428985596 -4.258105278015137 -0.6678329110145569 0.8761999011039734 0 20
7.828456878662109 -4.303750038146973 -0.6694721579551697 0.874053418636322 0 20
7.828437328338623 -4.349609375 -0.6711334586143494 0.8718897104263306 0 20
7.892929553985596 -4.43191385269165 -0.6783614754676819 0.48803630471229553 0 20
7.826249599456787 -4.440742015838623 -0.674334704875946 0.9612704515457153 0 20
7.823398113250732 -4.485683441162109 -0.6757992506027222 0.8652928471565247 0 20
7.875331878662109 -4.562558650970459 -0.6820663213729858 0.8630589842796326 0 20
7.875331878662109 -4.609882831573486 -0.6838485598564148 0.8608077168464661 0 20
