ply
format ascii 1.0
element vertex 1391
property float32 x
property float32 y
property float32 z
property float32 CosAngle
property uint32 ObjIdx
property uint32 ObjTag
end_header
33.7571 -2.4145 7.5151 0.6734 0 9
38.1215 -0.0000 8.4651 0.9702 0 9
36.6269 2.6196 8.1540 0.3616 0 9
36.4907 5.2465 8.1863 0.8083 0 9
42.4632 9.2373 9.6497 0.8059 0 9
33.4631 9.8256 7.7444 0.7082 0 9
35.4005 13.2037 8.3898 0.9330 0 9
41.3964 18.9051 10.1055 0.8488 0 9
39.3540 21.4889 9.9566 0.5238 0 9
12.9346 8.3125 3.4142 0.5293 0 3
11.2018 8.3855 3.1072 0.5864 0 3
7.3120 6.3359 2.1484 0.6406 0 3
36.6697 -31.7744 10.3553 0.9021 0 9
38.1542 -28.5619 10.1716 0.8551 0 9
38.8381 -24.9598 9.8529 0.6394 0 9
34.5698 -18.8766 8.4061 0.9482 0 9
34.8468 -15.9140 8.1758 0.8548 0 9
37.7511 -14.0804 8.5989 0.4473 0 9
35.2192 -10.3413 7.8337 0.3796 0 9
36.0953 -7.8521 7.8836 0.8829 0 9
33.6523 -4.8385 7.2559 0.9754 0 9
34.1177 -2.4402 7.2999 0.6675 0 9
38.1133 -0.0000 8.1341 0.9721 0 9
36.5654 2.6152 7.8237 0.8425 0 9
36.4639 5.2427 7.8621 0.8103 0 9
42.5466 9.2554 9.2926 0.8057 0 9
33.7983 9.9240 7.5177 0.7024 0 9
35.4099 13.2072 8.0657 0.9345 0 9
41.2610 18.8432 9.6807 0.8531 0 9
35.3433 19.2989 8.5942 0.5287 0 9
13.0430 8.3822 3.3089 0.5302 0 3
11.2018 8.3855 2.9863 0.5875 0 3
7.4691 6.4721 2.1092 0.2115 0 3
35.9511 -31.1519 9.7430 0.9434 0 9
38.2566 -28.6385 9.7876 0.8542 0 9
37.6226 -24.1786 9.1596 0.9076 0 9
34.1777 -18.6625 7.9756 0.6902 0 9
35.4469 -16.1880 7.9812 0.5193 0 9
41.1710 -15.3560 8.9998 0.4177 0 9
35.1719 -10.3275 7.5077 0.3552 0 9
36.0732 -7.8473 7.5610 0.8849 0 9
33.7168 -4.8478 6.9766 0.9752 0 9
34.4847 -2.4665 7.0809 0.6616 0 9
39.1115 -0.0000 8.0105 0.9713 0 9
37.1687 2.6583 7.6320 0.9054 0 9
36.4373 5.2389 7.5395 0.8123 0 9
35.4256 7.7063 7.4253 0.6818 0 9
34.1391 10.0241 7.2873 0.6966 0 9
37.1261 13.8473 8.1156 0.9541 0 9
40.3589 18.4312 9.0872 0.9660 0 9
35.1012 19.1667 8.1911 0.5332 0 9
13.0430 8.3822 3.1755 0.5311 0 3
8.4610 6.3338 2.1647 0.5885 0 3
7.7787 6.7403 2.1081 0.2034 0 3
35.5151 -30.7741 9.2217 0.3831 0 9
37.5540 -28.1126 9.2055 0.9583 0 9
37.6180 -24.1756 8.7750 0.9092 0 9
34.5093 -18.8435 7.7157 0.9531 0 9
35.4163 -16.1740 7.6403 0.5206 0 9
39.6927 -14.8046 8.3132 0.5706 0 9
35.3956 -10.3932 7.2391 0.3790 0 9
36.0512 -7.8425 7.2400 0.8869 0 9
33.7812 -4.8570 6.6972 0.9750 0 9
34.8584 -2.4932 6.8579 0.6555 0 9
48.9825 -0.0000 9.6121 0.9050 0 9
37.3989 2.6748 7.3577 0.4895 0 9
36.4108 5.2350 7.2185 0.8142 0 9
35.6126 7.7470 7.1519 0.6793 0 9
34.4857 10.1259 7.0530 0.6908 0 9
38.0864 14.2054 7.9768 0.9278 0 9
40.3411 18.4231 8.7028 0.9681 0 9
34.8632 19.0367 7.7948 0.5378 0 9
13.0430 8.3822 3.0425 0.5320 0 3
8.5876 6.4286 2.1051 0.1955 0 3
8.1139 7.0308 2.1068 0.1953 0 3
35.9857 -31.1819 8.9368 0.3787 0 9
38.0125 -28.4558 8.9120 0.7340 0 9
37.6135 -24.1728 8.3917 0.9108 0 9
34.4792 -18.8271 7.3731 0.9554 0 9
35.3858 -16.1601 7.3012 0.5219 0 9
39.1814 -14.6139 7.8486 0.4211 0 9
36.5163 -10.7222 7.1429 0.8312 0 9
33.0853 -7.1973 6.3549 0.8471 0 9
33.8428 -4.8659 6.4171 0.9446 0 9
33.7537 -2.4142 6.3513 0.9544 0 9
37.4521 2.6786 7.0472 0.7670 0 9
36.3844 5.2313 6.8990 0.8161 0 9
33.4577 7.2783 6.4264 0.5223 0 9
34.8382 10.2294 6.8147 0.6849 0 9
40.3235 18.4150 8.3200 0.9700 0 9
34.5936 18.8895 7.3976 0.5152 0 9
13.0430 8.3822 2.9099 0.5328 0 3
8.9727 6.7169 2.1036 0.1874 0 3
8.4781 7.3463 2.1055 0.1872 0 3
35.3059 -30.5928 8.3698 0.5802 0 9
37.9835 -28.4341 8.5008 0.7357 0 9
33.9823 -21.8391 7.2372 0.6970 0 9
35.2711 -19.2595 7.1999 0.9032 0 9
38.1667 -17.4301 7.5174 0.7566 0 9
39.5560 -14.7536 7.5638 0.5743 0 9
36.4080 -10.6904 6.7983 0.8349 0 9
33.0048 -7.1798 6.0515 0.8504 0 9
33.9102 -4.8756 6.1379 0.9743 0 9
33.8874 -2.4238 6.0869 0.9521 0 9
37.3295 2.6699 6.7051 0.7707 0 9
36.3582 5.2275 6.5810 0.8179 0 9
32.6736 7.1077 5.9908 0.7224 0 9
33.5740 9.8582 6.2691 0.9631 0 9
40.3040 18.4062 7.9383 0.9577 0 9
34.3989 18.7832 7.0219 0.5467 0 9
9.8619 6.3379 2.1003 0.1794 0 3
9.3925 7.0311 2.1021 0.1793 0 3
8.8752 7.6904 2.1040 0.1791 0 3
35.6870 -30.9230 8.0589 0.5749 0 9
37.9547 -28.4125 8.0914 0.7373 0 9
32.3639 -20.7991 6.5656 0.7965 0 9
35.2014 -19.2215 6.8449 0.9063 0 9
38.0413 -17.3729 7.1373 0.7602 0 9
39.4884 -14.7284 7.1927 0.5761 0 9
36.3006 -10.6589 6.4568 0.8386 0 9
32.0124 -6.9639 5.5911 0.7739 0 9
32.7847 -4.7137 5.6527 0.5504 0 9
34.0218 -2.4334 5.8211 0.9497 0 9
37.2080 2.6612 6.3663 0.7743 0 9
36.3321 5.2237 6.2644 0.8197 0 9
32.9431 7.1663 5.7537 0.7176 0 9
33.7010 9.8954 5.9944 0.9608 0 9
40.2698 18.3905 7.5554 0.9599 0 9
34.1724 18.6595 6.6448 0.5511 0 9
10.3441 6.6478 2.0985 0.1713 0 3
9.8522 7.3752 2.1003 0.1712 0 3
9.3099 8.0671 2.1024 0.1710 0 3
35.8599 -31.0728 7.6958 0.9351 0 9
38.7322 -28.9945 7.8472 0.9479 0 9
33.1950 -21.3332 6.3999 0.8643 0 9
35.1323 -19.1837 6.4922 0.9093 0 9
37.6420 -17.1905 6.7117 0.8486 0 9
39.4211 -14.7033 6.8240 0.5779 0 9
36.1942 -10.6276 6.1182 0.8422 0 9
32.2604 -7.0179 5.3547 0.7690 0 9
33.0864 -4.7571 5.4215 0.5461 0 9
34.1569 -2.4430 5.5541 0.9472 0 9
46.4999 -0.0001 7.5418 0.6452 0 9
36.3060 5.2200 5.9490 0.8214 0 9
33.2164 7.2257 5.5134 0.7126 0 9
33.8285 9.9329 5.7183 0.9585 0 9
36.9998 16.8972 6.5972 0.4762 0 9
11.5893 6.3282 2.1416 0.4746 0 3
10.8743 6.9885 2.0965 0.1632 0 3
10.3576 7.7536 2.0985 0.1630 0 3
9.6806 8.3882 2.0775 0.6477 0 3
36.5259 -31.6498 7.4303 0.9143 0 9
38.9184 -29.1340 7.4740 0.8775 0 9
33.3975 -21.4633 6.1034 0.8602 0 9
35.0636 -19.1462 6.1419 0.9123 0 9
37.7939 -17.2599 6.3876 0.7672 0 9
39.1832 -14.6146 6.4293 0.4110 0 9
32.5115 -7.0725 5.1152 0.7640 0 9
33.3929 -4.8012 5.1866 0.5418 0 9
34.2927 -2.4528 5.2856 0.9447 0 9
47.0115 -0.0001 7.2275 0.6390 0 9
40.6285 2.9058 6.2621 0.9819 0 9
33.4934 7.2860 5.2697 0.7077 0 9
33.9567 9.9705 5.4409 0.9562 0 9
36.0691 16.4721 6.0961 0.7415 0 9
11.9460 6.5230 2.0925 0.1552 0 3
11.4602 7.3650 2.0943 0.1551 0 3
10.9162 8.1717 2.0964 0.1549 0 3
9.6806 8.3882 1.9693 0.6486 0 3
32.8496 -32.8495 6.7505 0.8663 0 9
35.0215 -30.3463 6.7336 0.3798 0 9
39.0041 -29.1981 7.0798 0.8766 0 9
32.8997 -21.1434 5.6827 0.6136 0 9
34.9953 -19.1089 5.7938 0.9152 0 9
37.6719 -17.2042 6.0179 0.7706 0 9
38.9929 -14.5436 6.0473 0.5418 0 9
39.3610 -11.5575 5.9610 0.9979 0 9
32.6891 -7.1111 4.8611 0.8632 0 9
33.7044 -4.8460 4.9479 0.5375 0 9
34.4292 -2.4625 5.0156 0.9421 0 9
47.5331 -0.0001 6.9070 0.6328 0 9
40.6528 2.9075 5.9223 0.9825 0 9
36.3599 5.2277 5.3377 0.1132 0 9
33.8167 7.3563 5.0288 0.7600 0 9
34.0855 10.0084 5.1620 0.9537 0 9
36.1598 16.5136 5.7763 0.7406 0 9
12.6238 6.8931 2.0900 0.1470 0 3
12.1110 7.7833 2.0919 0.1469 0 3
11.2018 8.3855 2.0333 0.5945 0 3
9.6806 8.3882 1.8613 0.6494 0 3
33.0380 -33.0379 6.3963 0.8623 0 9
36.3580 -31.5044 6.5860 0.9207 0 9
39.0899 -29.2623 6.6847 0.8757 0 9
32.9683 -21.1875 5.3650 0.6131 0 9
36.0621 -19.6914 5.6249 0.8243 0 9
37.5510 -17.1489 5.6514 0.7740 0 9
38.2694 -14.2737 5.5916 0.5209 0 9
39.6240 -11.6347 5.6535 0.8170 0 9
32.6116 -7.0943 4.5689 0.8663 0 9
34.2339 -4.9221 4.7348 0.9714 0 9
34.5665 -2.4723 4.7442 0.9395 0 9
47.3224 -0.0001 6.4784 0.6597 0 9
40.7955 2.9177 5.5991 0.8834 0 9
35.6144 5.1205 4.9257 0.8280 0 9
34.1325 7.4250 4.7820 0.9288 0 9
34.2150 10.0464 4.8817 0.9512 0 9
36.2508 16.5551 5.4557 0.7396 0 9
13.3812 7.3066 2.0872 0.1389 0 3
12.8383 8.2507 2.0892 0.1387 0 3
11.2018 8.3855 1.9156 0.5952 0 3
9.6806 8.3882 1.7536 0.6501 0 3
33.2281 -33.2281 6.0388 0.8583 0 9
36.2749 -31.4325 6.1682 0.9238 0 9
33.0371 -21.2317 5.0467 0.6124 0 9
36.0239 -19.6706 5.2745 0.8260 0 9
37.4311 -17.0942 5.2881 0.7773 0 9
38.6149 -14.4026 5.2962 0.5168 0 9
39.5778 -11.6212 5.3008 0.8188 0 9
32.5346 -7.0775 4.2787 0.8693 0 9
34.2990 -4.9315 4.4530 0.9706 0 9
36.5244 -2.6124 4.7057 0.6133 0 9
40.7439 2.9141 5.2493 0.8855 0 9
33.6213 4.8340 4.3650 0.7166 0 9
34.1969 7.4390 4.4974 0.9281 0 9
36.4387 10.6994 4.8803 0.7262 0 9
36.3420 16.5968 5.1342 0.7385 0 9
35.0406 19.1336 5.1306 0.2477 0 9
13.0430 8.3822 1.9924 0.5377 0 3
11.2018 8.3855 1.7982 0.5958 0 3
9.6805 8.3882 1.6461 0.6509 0 3
33.4201 -33.4201 5.6780 0.8543 0 9
36.4533 -31.5869 5.7947 0.9596 0 9
33.1060 -21.2760 4.7277 0.6118 0 9
35.9859 -19.6498 4.9257 0.8278 0 9
36.8288 -16.8191 4.8640 0.7236 0 9
38.5645 -14.3838 4.9447 0.7199 0 9
39.5319 -11.6077 4.9496 0.8206 0 9
32.4582 -7.0609 3.9906 0.8722 0 9
34.7061 -4.9900 4.2123 0.9564 0 9
36.5943 -2.6174 4.4075 0.6128 0 9
40.3446 -0.0000 4.8468 0.9786 0 9
40.6925 2.9104 4.9011 0.8875 0 9
36.0399 5.1817 4.3742 0.8199 0 9
33.1681 7.2152 4.0778 0.2478 0 9
36.4888 10.7141 4.5686 0.7260 0 9
36.7291 16.7736 4.8508 0.4825 0 9
35.5348 19.4034 4.8639 0.7537 0 9
12.9801 8.3418 1.8536 0.5383 0 3
11.2018 8.3855 1.6810 0.5964 0 3
9.6805 8.3882 1.5388 0.6515 0 3
33.6139 -33.6139 5.3136 0.8502 0 9
36.9805 -32.0438 5.4696 0.9356 0 9
39.2647 -29.3932 5.4825 0.7602 0 9
34.6847 -22.2905 4.6086 0.6895 0 9
35.9480 -19.6291 4.5782 0.8294 0 9
37.0573 -16.9235 4.5537 0.7198 0 9
38.7598 -14.4567 4.6241 0.9588 0 9
39.4861 -11.5943 4.6000 0.8223 0 9
32.3823 -7.0444 3.7043 0.8751 0 9
34.6634 -4.9839 3.9145 0.9585 0 9
36.6644 -2.6224 4.1088 0.6122 0 9
40.3820 -0.0000 4.5138 0.9786 0 9
40.6414 2.9067 4.5544 0.8894 0 9
36.2558 5.2127 4.0943 0.8158 0 9
33.0543 7.1905 3.7812 0.2221 0 9
36.5389 10.7288 4.2567 0.7257 0 9
39.1285 14.5941 4.6680 0.9983 0 9
36.6758 16.7492 4.5068 0.4837 0 9
35.6743 19.4796 4.5434 0.7514 0 9
12.9801 8.3418 1.7247 0.5388 0 3
11.2018 8.3855 1.5641 0.5970 0 3
9.6805 8.3882 1.4318 0.6522 0 3
34.0912 -34.0912 4.9869 0.8235 0 9
36.9355 -32.0047 5.0553 0.9376 0 9
39.5785 -29.6281 5.1139 0.7548 0 9
34.7737 -22.3476 4.2756 0.6884 0 9
35.9102 -19.6085 4.2321 0.8310 0 9
37.2883 -17.0290 4.2402 0.7160 0 9
37.9558 -14.1568 4.1902 0.6957 0 9
39.4405 -11.5809 4.2518 0.8240 0 9
34.7516 -7.5598 3.6787 0.5787 0 9
34.6210 -4.9778 3.6179 0.9605 0 9
36.7346 -2.6274 3.8094 0.6116 0 9
40.4194 -0.0000 4.1809 0.9786 0 9
40.5905 2.9031 4.2093 0.8914 0 9
34.8004 5.0035 3.6367 0.5099 0 9
33.2070 7.2237 3.5152 0.2213 0 9
36.5890 10.7435 3.9444 0.7253 0 9
36.6228 16.7250 4.1645 0.4848 0 9
37.0617 20.2372 4.3678 0.9730 0 9
12.9802 8.3418 1.5960 0.5393 0 3
11.2018 8.3855 1.4474 0.5975 0 3
9.6806 8.3882 1.3250 0.6527 0 3
34.2751 -34.2751 4.6102 0.8699 0 9
36.8906 -31.9659 4.6426 0.9395 0 9
39.8079 -29.7999 4.7295 0.6538 0 9
35.2107 -22.6285 3.9808 0.6117 0 9
35.8726 -19.5880 3.8873 0.8326 0 9
37.5218 -17.1356 3.9232 0.7121 0 9
37.5128 -13.9916 3.8079 0.3412 0 9
39.3951 -11.5675 3.9051 0.8256 0 9
35.1093 -7.6376 3.4174 0.5732 0 9
41.4053 -5.9532 3.9786 0.9589 0 9
36.8050 -2.6325 3.5095 0.6109 0 9
40.4568 -0.0001 3.8478 0.9785 0 9
40.5398 2.8994 3.8656 0.8932 0 9
35.2081 5.0621 3.3831 0.5044 0 9
35.0747 7.6300 3.4140 0.8231 0 9
36.6393 10.7583 3.6319 0.7249 0 9
36.5700 16.7009 3.8237 0.4859 0 9
37.0524 20.2320 4.0152 0.9740 0 9
12.9801 8.3418 1.4675 0.5397 0 3
11.2018 8.3855 1.3309 0.5980 0 3
9.6806 8.3882 1.2183 0.6533 0 3
34.6294 -34.6294 4.2507 0.7981 0 9
36.8459 -31.9271 4.2317 0.9413 0 9
38.9855 -29.1842 4.2269 0.3490 0 9
35.1368 -22.5810 3.6252 0.6134 0 9
35.8352 -19.5675 3.5438 0.8341 0 9
36.2878 -16.5721 3.4625 0.6120 0 9
38.6463 -14.4143 3.5801 0.6844 0 9
39.3499 -11.5543 3.5596 0.8272 0 9
35.3527 -7.6906 3.1402 0.2618 0 9
41.5391 -5.9724 3.6425 0.9565 0 9
38.4839 -2.7525 3.3488 0.9739 0 9
48.4880 -0.0001 4.2086 0.5736 0 9
39.8027 2.8467 3.4635 0.6379 0 9
35.6248 5.1220 3.1239 0.4989 0 9
35.2649 7.6714 3.1324 0.8193 0 9
37.1421 10.9059 3.3599 0.1361 0 9
38.1628 17.4283 3.6415 0.9110 0 9
37.0430 20.2270 3.6633 0.9750 0 9
12.9801 8.3418 1.3392 0.5401 0 3
11.2018 8.3855 1.2145 0.5985 0 3
9.6806 8.3882 1.1118 0.6538 0 3
34.5653 -34.5653 3.8370 0.8001 0 9
36.8014 -31.8885 3.8223 0.9431 0 9
39.4822 -29.5561 3.8713 0.3448 0 9
35.7608 -22.9821 3.3367 0.9704 0 9
42.1705 -23.0268 3.7715 0.9977 0 9
36.2123 -16.5376 3.1248 0.6137 0 9
38.8645 -14.4957 3.2559 0.9592 0 9
38.5628 -11.3231 3.1547 0.7485 0 9
35.5731 -7.7386 2.8576 0.7862 0 9
41.6735 -5.9918 3.3048 0.9541 0 9
38.4407 -2.7495 3.0251 0.9757 0 9
39.8113 2.8473 3.1329 0.6382 0 9
36.1669 5.2000 2.8681 0.7966 0 9
35.7087 7.7679 2.8685 0.7088 0 9
37.9366 11.1392 3.1035 0.9501 0 9
38.1041 17.4015 3.2881 0.9130 0 9
41.2242 22.5101 3.6868 0.5221 0 9
12.9801 8.3418 1.2111 0.5405 0 3
11.2018 8.3855 1.0983 0.5989 0 3
9.6805 8.3882 1.0055 0.6542 0 3
35.0444 -35.0445 3.4793 0.9517 0 9
35.7185 -22.9549 2.9807 0.9721 0 9
42.1864 -23.0355 3.3744 0.9979 0 9
36.1372 -16.5033 2.7890 0.6154 0 9
40.4718 -15.0952 3.0324 0.9091 0 9
39.2600 -11.5279 2.8725 0.8302 0 9
36.4556 -7.9305 2.6191 0.7112 0 9
41.8086 -6.0112 2.9653 0.9516 0 9
38.3977 -2.7463 2.7025 0.9774 0 9
40.3890 2.8887 2.8427 0.8984 0 9
36.5136 5.2498 2.5897 0.7675 0 9
35.6502 7.7552 2.5613 0.7104 0 9
37.8882 11.1250 2.7722 0.9519 0 9
38.0456 17.3748 2.9363 0.9150 0 9
42.1985 23.0421 3.3753 0.8772 0 9
12.9801 8.3418 1.0832 0.5408 0 3
11.2018 8.3855 0.9823 0.5992 0 3
9.6806 8.3882 0.8992 0.6546 0 3
34.9891 -34.9891 3.0640 0.9537 0 9
35.6763 -22.9277 2.6260 0.9738 0 9
42.2023 -23.0442 2.9774 0.9981 0 9
38.4613 -17.5646 2.6182 0.8000 0 9
42.3116 -15.7814 2.7963 0.9605 0 9
37.0714 -8.0644 2.3492 0.8442 0 9
41.9444 -6.0307 2.6240 0.9490 0 9
38.3548 -2.7433 2.3810 0.9790 0 9
37.7342 5.4253 2.3606 0.8714 0 9
35.5920 7.7425 2.2554 0.7120 0 9
37.8399 11.1108 2.4420 0.9537 0 9
38.3479 17.5128 2.6104 0.9750 0 9
42.2556 23.0733 2.9812 0.8765 0 9
12.9801 8.3418 0.9554 0.5411 0 3
11.2018 8.3855 0.8665 0.5996 0 3
9.6806 8.3882 0.7932 0.6550 0 3
34.9340 -34.9340 2.6504 0.9557 0 9
38.2481 -24.5805 2.4391 0.9872 0 9
38.4119 -17.5421 2.2654 0.8014 0 9
46.0238 -17.1660 2.6352 0.8102 0 9
37.3956 -8.1350 2.0531 0.9499 0 9
42.0810 -6.0504 2.2808 0.9464 0 9
48.3336 -3.4570 2.5996 0.8311 0 9
38.0223 5.4668 2.0608 0.9826 0 9
42.0440 9.1461 2.3083 0.9612 0 9
37.7917 11.0967 2.1130 0.9553 0 9
41.1733 18.8032 2.4283 0.8257 0 9
12.9801 8.3418 0.8278 0.5414 0 3
11.2018 8.3855 0.7507 0.5998 0 3
9.6806 8.3882 0.6872 0.6553 0 3
38.2752 -24.5979 2.0648 0.9869 0 9
43.3804 -19.8112 2.1643 0.8275 0 9
37.3816 -8.1319 1.7361 0.9506 0 9
42.2184 -6.0701 1.9357 0.9437 0 9
48.4992 -3.4688 2.2066 0.6317 0 9
38.0028 5.4639 1.7424 0.9835 0 9
42.1624 9.1718 1.9582 0.9589 0 9
41.1990 18.8149 2.0554 0.8255 0 9
12.9801 8.3418 0.7002 0.5416 0 3
11.2018 8.3855 0.6350 0.6001 0 3
7.6207 6.6033 0.4576 0.6555 0 3
43.6281 -19.9243 1.7805 0.7591 0 9
42.3565 -6.0899 1.5885 0.9410 0 9
43.3707 6.2357 1.6266 0.9659 0 9
42.2813 9.1977 1.6063 0.9565 0 9
41.2247 18.8266 1.6824 0.8253 0 9
10.2676 6.5986 0.4531 0.5418 0 3
8.8182 6.6012 0.4089 0.6003 0 3
7.6207 6.6033 0.3743 0.6558 0 3
12.0785 6.5954 0.3973 0.4806 0 3
10.3064 6.6235 0.3537 0.5419 0 3
11.2018 8.3855 0.4039 0.6005 0 3
9.6805 8.3882 0.3698 0.6559 0 3
18.1940 -8.3089 0.4124 0.7137 0 20
12.1407 6.6293 0.2852 0.8765 0 3
10.3064 6.6235 0.2526 0.5420 0 3
11.2018 8.3855 0.2885 0.6006 0 3
9.6805 8.3882 0.2641 0.6561 0 3
18.1933 -8.3086 0.2474 0.7138 0 20
12.1403 6.6291 0.1711 0.8767 0 3
10.3064 6.6235 0.1515 0.5421 0 3
11.2018 8.3855 0.1731 0.6007 0 3
9.6806 8.3882 0.1584 0.6562 0 3
18.1926 -8.3083 0.0825 0.7139 0 20
12.1398 6.6288 0.0570 0.8768 0 3
10.3064 6.6235 0.0505 0.5421 0 3
11.2018 8.3855 0.0577 0.6007 0 3
9.6806 8.3882 0.0528 0.6562 0 3
30.0903 -26.0734 -0.1643 0.4492 0 20
34.1304 -25.5497 -0.1758 0.2358 0 4
33.8994 -18.5105 -0.1592 0.8825 0 4
18.1918 -8.3079 -0.0825 0.7140 0 20
34.0726 10.0046 -0.1464 0.2841 0 4
33.9046 12.6458 -0.1492 0.9388 0 4
12.1394 6.6286 -0.0570 0.8768 0 3
10.3064 6.6235 -0.0505 0.5421 0 3
11.2018 8.3855 -0.0577 0.6007 0 3
9.6806 8.3882 -0.0528 0.6562 0 3
23.2393 -23.2393 -0.4065 0.5765 254 14
30.0884 -26.0718 -0.4914 0.4492 0 20
34.0296 -25.4743 -0.5258 0.9466 0 4
33.9336 -18.5292 -0.4782 0.8789 0 4
18.1911 -8.3076 -0.2474 0.7139 0 20
33.9400 12.6590 -0.4481 0.9361 0 4
12.1390 6.6284 -0.1711 0.8768 0 3
10.3064 6.6235 -0.1515 0.5421 0 3
11.2018 8.3855 -0.1731 0.6007 0 3
9.6805 8.3882 -0.1584 0.6562 0 3
23.0548 -23.0548 -0.6722 0.6008 254 14
30.0865 -26.0701 -0.8214 0.4492 0 20
34.0215 -25.4682 -0.8762 0.9464 0 4
33.9321 -18.5284 -0.7971 0.8788 0 4
18.1903 -8.3073 -0.4123 0.7139 0 20
39.8300 -5.7267 -0.8296 0.4215 0 9
33.9393 12.6587 -0.7468 0.9360 0 4
12.1386 6.6281 -0.2851 0.8767 0 3
10.3064 6.6235 -0.2526 0.5420 0 3
11.2018 8.3855 -0.2885 0.6006 0 3
9.6806 8.3882 -0.2641 0.6561 0 3
22.9050 -22.9049 -0.9351 0.7154 254 14
23.5128 -20.3740 -0.8981 0.3180 254 14
33.9206 -25.3926 -1.2232 0.8015 0 4
33.9681 -21.8300 -1.1656 0.6123 0 4
33.9306 -18.5276 -1.1160 0.8786 0 4
18.1896 -8.3069 -0.5773 0.7137 0 20
39.8075 -5.7235 -1.1610 0.5569 0 9
33.9386 12.6585 -1.0457 0.9358 0 4
12.0785 6.5954 -0.3973 0.4806 0 3
10.2676 6.5986 -0.3523 0.5419 0 3
8.8182 6.6012 -0.3180 0.6005 0 3
9.6806 8.3882 -0.3698 0.6559 0 3
22.8811 -22.8810 -1.2012 0.7160 254 14
23.2668 -20.1609 -1.1429 0.8675 254 14
33.9198 -25.3920 -1.5729 0.8013 0 4
33.9255 -21.8026 -1.4970 0.8416 0 4
33.9291 -18.5267 -1.4351 0.8784 0 4
18.1889 -8.3066 -0.7423 0.7136 0 20
33.9355 -12.6573 -1.3445 0.9366 0 4
33.9384 -9.9652 -1.3131 0.9590 0 4
33.9414 -7.3836 -1.2895 0.9767 0 4
36.7118 -5.2784 -1.3768 0.2866 0 0
37.1570 -2.6576 -1.3829 0.3362 0 0
16.2850 0.0000 -0.6045 0.7888 261 13
33.9065 2.4251 -1.2619 0.9967 0 4
33.9185 4.8768 -1.2721 0.9886 0 4
33.9206 7.3790 -1.2887 0.9762 0 4
33.9311 9.9631 -1.3128 0.9583 0 4
33.9380 12.6583 -1.3446 0.9356 0 4
33.9502 15.5045 -1.3855 0.9074 0 4
12.0220 6.5645 -0.5085 0.4805 0 3
10.2196 6.5677 -0.4510 0.5418 0 3
8.8182 6.6012 -0.4089 0.6003 0 3
7.6207 6.6033 -0.3743 0.6558 0 3
22.8360 -22.8360 -1.4656 0.7141 254 14
23.2402 -20.1378 -1.3956 0.7718 254 14
32.1342 -24.0554 -1.8217 0.0423 0 2
33.9237 -21.8014 -1.8300 0.8414 0 4
33.9276 -18.5259 -1.7543 0.8782 0 4
18.1881 -8.3063 -0.9074 0.7134 0 20
33.9341 -12.6568 -1.6436 0.9363 0 4
33.9370 -9.9648 -1.6052 0.9588 0 4
33.9401 -7.3833 -1.5763 0.9764 0 4
35.7035 -5.1334 -1.6369 0.2226 0 0
36.1842 -2.5880 -1.6463 0.2605 0 0
16.1655 0.0000 -0.7336 0.4351 261 13
33.9053 2.4250 -1.5426 0.9964 0 4
33.9170 4.8766 -1.5551 0.9883 0 4
33.9196 7.3787 -1.5753 0.9759 0 4
33.9298 9.9627 -1.6048 0.9580 0 4
33.9373 12.6580 -1.6438 0.9353 0 4
33.9494 15.5041 -1.6938 0.9071 0 4
12.0220 6.5645 -0.6216 0.4803 0 3
10.2196 6.5677 -0.5513 0.5416 0 3
8.7769 6.5703 -0.4976 0.6001 0 3
7.5850 6.5724 -0.4555 0.6555 0 3
25.0192 -25.0192 -1.8982 0.0509 0 1
26.8356 -23.2532 -1.9050 0.0507 0 1
28.5198 -21.3497 -1.9112 0.0506 0 1
29.8468 -19.1814 -1.9034 0.8412 0 2
29.8596 -16.3046 -1.8252 0.7628 0 2
18.1874 -8.3059 -1.0726 0.7131 0 20
31.7911 -11.8575 -1.8203 0.0501 0 2
32.6103 -9.5753 -1.8233 0.0500 0 2
33.2538 -7.2339 -1.8257 0.0499 0 2
33.7167 -4.8477 -1.8274 0.0499 0 2
34.0504 -2.4354 -1.8314 0.1036 0 0
15.5342 0.0000 -0.8334 0.4270 261 18
33.9041 2.4249 -1.8235 0.9960 0 4
33.7154 4.8476 -1.8274 0.0499 0 2
33.2518 7.2335 -1.8256 0.0499 0 2
32.6077 9.5745 -1.8232 0.0500 0 2
31.7878 11.8563 -1.8201 0.0501 0 2
30.7981 14.0650 -1.8164 0.0502 0 2
12.0220 6.5645 -0.7348 0.4801 0 3
10.2196 6.5677 -0.6517 0.5414 0 3
8.7769 6.5703 -0.5882 0.5998 0 3
7.5850 6.5724 -0.5384 0.6553 0 3
20.2967 -20.2968 -1.7774 0.0591 0 2
21.7603 -18.8554 -1.7829 0.0590 0 2
24.5157 -18.3522 -1.8963 0.0588 0 1
25.8289 -16.5993 -1.9012 0.0587 0 1
27.0096 -14.7483 -1.9056 0.0585 0 1
28.0497 -12.8099 -1.9094 0.0584 0 1
28.9423 -10.7950 -1.9127 0.0583 0 1
29.6812 -8.7152 -1.9155 0.0582 0 1
29.8756 -6.4990 -1.8932 0.9759 0 2
29.8768 -4.2956 -1.8690 0.9881 0 2
29.8768 -2.1369 -1.8547 0.9958 0 2
15.7390 0.0000 -0.9746 0.5726 261 18
29.8911 2.1379 -1.8556 0.9955 0 2
29.8950 4.2983 -1.8702 0.9879 0 2
29.8997 6.5043 -1.8947 0.9750 0 2
29.6791 8.7146 -1.9154 0.0582 0 1
28.9398 10.7940 -1.9126 0.0583 0 1
28.0468 12.8086 -1.9092 0.0584 0 1
12.0220 6.5645 -0.8482 0.4799 0 3
10.2196 6.5677 -0.7522 0.5411 0 3
8.7769 6.5703 -0.6789 0.5996 0 3
7.5850 6.5724 -0.6215 0.6550 0 3
17.8076 -17.8076 -1.7680 0.0674 0 2
19.0843 -16.5367 -1.7728 0.0672 0 2
20.2662 -15.1711 -1.7772 0.0670 0 2
21.3456 -13.7180 -1.7813 0.0669 0 2
23.6671 -12.9233 -1.8931 0.0668 0 1
24.5724 -11.2219 -1.8964 0.0666 0 1
25.3489 -9.4547 -1.8993 0.0665 0 1
25.9914 -7.6318 -1.9017 0.0665 0 1
26.4956 -5.7638 -1.9036 0.0664 0 1
26.8582 -3.8617 -1.9049 0.0663 0 1
27.0766 -1.9366 -1.9057 0.0663 0 1
16.1725 0.0000 -1.1354 0.3376 261 18
27.0762 1.9365 -1.9057 0.0663 0 1
26.8573 3.8615 -1.9049 0.0663 0 1
26.4944 5.7635 -1.9035 0.0664 0 1
25.9898 7.6313 -1.9016 0.0665 0 1
25.3469 9.4539 -1.8992 0.0665 0 1
24.5702 11.2208 -1.8963 0.0666 0 1
12.0220 6.5645 -0.9616 0.4796 0 3
10.2196 6.5677 -0.8528 0.5408 0 3
8.7769 6.5703 -0.7697 0.5992 0 3
7.5850 6.5724 -0.7046 0.6546 0 3
16.0311 -16.0311 -1.7796 0.0756 0 2
17.1749 -14.8821 -1.7838 0.0754 0 2
18.0396 -13.5043 -1.7688 0.0752 0 2
18.9956 -12.2079 -1.7724 0.0751 0 2
19.8544 -10.8413 -1.7757 0.0750 0 2
18.2320 -8.3263 -1.5733 0.8619 0 20
22.5462 -8.4093 -1.8888 0.0748 0 1
23.1145 -6.7871 -1.8910 0.0747 0 1
23.5604 -5.1252 -1.8926 0.0746 0 1
23.8809 -3.4336 -1.8938 0.0746 0 1
24.0740 -1.7219 -1.8945 0.0745 0 1
16.1807 0.0000 -1.2701 0.3659 261 13
24.0737 1.7218 -1.8945 0.0745 0 1
23.8802 3.4335 -1.8937 0.0746 0 1
23.5594 5.1250 -1.8925 0.0746 0 1
23.1132 6.7867 -1.8909 0.0747 0 1
21.2548 7.9276 -1.7807 0.0748 0 2
20.6070 9.4108 -1.7782 0.0749 0 2
12.0220 6.5645 -1.0752 0.4793 0 3
10.2196 6.5677 -0.9536 0.5405 0 3
8.7769 6.5703 -0.8606 0.5989 0 3
7.5850 6.5724 -0.7878 0.6542 0 3
14.4495 -14.4495 -1.7737 0.0838 0 2
15.4768 -13.4107 -1.7775 0.0837 0 2
16.4268 -12.2970 -1.7810 0.0835 0 2
17.2934 -11.1138 -1.7842 0.0833 0 2
17.8797 -9.7631 -1.7682 0.0832 0 2
18.1521 -8.2898 -1.7321 0.6956 0 20
19.1389 -7.1385 -1.7730 0.0831 0 2
20.8084 -6.1099 -1.8823 0.0829 0 1
21.2079 -4.6135 -1.8838 0.0828 0 1
21.4951 -3.0906 -1.8849 0.0828 0 1
21.6681 -1.5498 -1.8855 0.0828 0 1
16.0698 0.0000 -1.3948 0.7481 261 13
21.6678 1.5497 -1.8855 0.0828 0 1
21.4945 3.0904 -1.8848 0.0828 0 1
19.9937 4.3494 -1.7760 0.0828 0 2
19.6168 5.7600 -1.7746 0.0829 0 2
19.1365 7.1375 -1.7727 0.0830 0 2
18.5557 8.4741 -1.7706 0.0831 0 2
12.0220 6.5645 -1.1889 0.4790 0 3
10.2196 6.5677 -1.0544 0.5401 0 3
8.7769 6.5703 -0.9516 0.5985 0 3
7.5850 6.5724 -0.8711 0.6538 0 3
13.1503 -13.1504 -1.7688 0.0920 0 2
14.0825 -12.2026 -1.7723 0.0919 0 2
14.9442 -11.1871 -1.7755 0.0917 0 2
15.7300 -10.1091 -1.7784 0.0916 0 2
16.2613 -8.8794 -1.7622 0.0914 0 2
16.8757 -7.7069 -1.7645 0.0913 0 2
17.4024 -6.4907 -1.7665 0.0912 0 2
18.9182 -5.5549 -1.8753 0.0911 0 1
19.2801 -4.1941 -1.8766 0.0910 0 1
19.5402 -2.8095 -1.8776 0.0910 0 1
19.6968 -1.4088 -1.8782 0.0910 0 1
16.1395 0.0000 -1.5350 0.1874 261 13
19.6966 1.4087 -1.8781 0.0910 0 1
19.5397 2.8094 -1.8775 0.0910 0 1
18.1763 3.9540 -1.7692 0.0911 0 2
17.8350 5.2368 -1.7679 0.0911 0 2
17.3999 6.4898 -1.7663 0.0912 0 2
17.0049 7.7659 -1.7780 0.0913 0 0
12.0220 6.5645 -1.3028 0.4787 0 3
10.2196 6.5677 -1.1554 0.5397 0 3
8.7769 6.5703 -1.0428 0.5980 0 3
7.5850 6.5724 -0.9546 0.6533 0 3
12.0639 -12.0639 -1.7647 0.1003 0 2
12.9170 -11.1927 -1.7679 0.1001 0 2
13.7053 -10.2596 -1.7708 0.0999 0 2
14.2712 -9.1715 -1.7547 0.0998 0 2
14.9096 -8.1413 -1.7571 0.0996 0 2
15.4712 -7.0655 -1.7593 0.0995 0 2
15.9525 -5.9499 -1.7611 0.0994 0 2
17.3406 -5.0916 -1.8694 0.0993 0 1
17.6712 -3.8442 -1.8706 0.0993 0 1
17.9088 -2.5749 -1.8715 0.0992 0 1
18.0519 -1.2911 -1.8720 0.0992 0 1
16.2700 0.0000 -1.6829 0.5121 261 18
18.0518 1.2911 -1.8720 0.0992 0 1
16.8838 2.4275 -1.7644 0.0992 0 2
16.6596 3.6241 -1.7635 0.0993 0 2
16.3477 4.8002 -1.7624 0.0993 0 2
15.9501 5.9490 -1.7609 0.0994 0 2
15.5896 7.1195 -1.7728 0.0995 0 0
12.0220 6.5645 -1.4168 0.4783 0 3
10.2196 6.5677 -1.2566 0.5393 0 3
8.7769 6.5703 -1.1341 0.5975 0 3
7.5850 6.5724 -1.0381 0.6527 0 3
11.1418 -11.1418 -1.7613 0.1085 0 2
11.9281 -10.3357 -1.7642 0.1083 0 2
12.5202 -9.3725 -1.7482 0.1081 0 2
13.1756 -8.4675 -1.7507 0.1080 0 2
13.7636 -7.5155 -1.7529 0.1078 0 2
14.2807 -6.5218 -1.7549 0.1077 0 2
15.6156 -5.8243 -1.8629 0.1076 0 1
16.0037 -4.6991 -1.8644 0.1075 0 1
16.3080 -3.5477 -1.8655 0.1075 0 1
16.5267 -2.3762 -1.8663 0.1074 0 1
16.6584 -1.1915 -1.8668 0.1074 0 1
16.7024 0.0000 -1.8670 0.1074 0 1
16.6582 1.1914 -1.8668 0.1074 0 1
15.6718 2.2533 -1.7698 0.1749 0 2
15.3745 3.3446 -1.7587 0.1075 0 2
15.0875 4.4301 -1.7576 0.1075 0 2
14.7214 5.4908 -1.7563 0.1076 0 2
14.3898 6.5716 -1.7683 0.1077 0 0
12.0220 6.5645 -1.5311 0.4778 0 3
10.2196 6.5677 -1.3579 0.5388 0 3
8.7769 6.5703 -1.2255 0.5970 0 3
7.5850 6.5724 -1.1219 0.6522 0 3
10.3493 -10.3494 -1.7583 0.1166 0 2
10.9609 -9.4977 -1.7424 0.1165 0 2
11.6273 -8.7041 -1.7449 0.1163 0 2
12.2347 -7.8628 -1.7472 0.1162 0 2
12.7795 -6.9781 -1.7492 0.1160 0 2
13.2586 -6.0549 -1.7511 0.1159 0 2
14.4968 -5.4070 -1.8588 0.1158 0 1
14.8562 -4.3621 -1.8601 0.1157 0 1
15.1381 -3.2931 -1.8611 0.1157 0 1
15.3406 -2.2057 -1.8619 0.1156 0 1
15.4626 -1.1060 -1.8623 0.1156 0 1
15.5033 0.0000 -1.8625 0.1156 0 1
15.4624 1.1059 -1.8623 0.1156 0 1
15.3403 2.2056 -1.8619 0.1156 0 1
14.2715 3.1046 -1.7546 0.1157 0 2
14.0057 4.1125 -1.7536 0.1157 0 2
13.6667 5.0974 -1.7523 0.1158 0 2
13.2566 6.0541 -1.7508 0.1159 0 2
12.0220 6.5645 -1.6456 0.4774 0 3
10.2196 6.5677 -1.4594 0.5383 0 3
8.7769 6.5703 -1.3171 0.5964 0 3
7.5850 6.5724 -1.2057 0.6515 0 3
9.5583 -9.5584 -1.7371 0.1249 0 2
10.2308 -8.8650 -1.7397 0.1247 0 2
10.8518 -8.1235 -1.7420 0.1245 0 2
11.4177 -7.3377 -1.7441 0.1244 0 2
11.9252 -6.5116 -1.7461 0.1242 0 2
12.7559 -5.8254 -1.8021 0.4124 0 2
13.5258 -5.0448 -1.8551 0.1240 0 1
13.8605 -4.0699 -1.8564 0.1239 0 1
14.1229 -3.0723 -1.8574 0.1238 0 1
14.3114 -2.0577 -1.8580 0.1238 0 1
14.4250 -1.0317 -1.8585 0.1238 0 1
14.4629 0.0000 -1.8586 0.1238 0 1
14.4249 1.0317 -1.8584 0.1238 0 1
14.3112 2.0577 -1.8580 0.1238 0 1
13.3145 2.8964 -1.7510 0.1238 0 2
13.0670 3.8368 -1.7501 0.1239 0 2
12.7514 4.7561 -1.7489 0.1240 0 2
12.3694 5.6489 -1.7475 0.1241 0 2
12.0164 6.5614 -1.7594 0.1242 0 0
10.2196 6.5677 -1.5611 0.5377 0 3
8.7769 6.5703 -1.4089 0.5958 0 3
7.5850 6.5724 -1.2898 0.6509 0 3
8.9611 -8.9611 -1.7349 0.1330 0 2
9.5906 -8.3104 -1.7373 0.1329 0 2
10.1719 -7.6146 -1.7395 0.1327 0 2
10.7015 -6.8774 -1.7415 0.1325 0 2
11.1764 -6.1028 -1.7433 0.1324 0 2
12.2961 -5.6154 -1.8505 0.1323 0 1
12.6750 -4.7275 -1.8520 0.1322 0 1
12.9881 -3.8137 -1.8531 0.1321 0 1
13.2335 -2.8788 -1.8540 0.1320 0 1
13.4099 -1.9281 -1.8547 0.1320 0 1
13.5161 -0.9667 -1.8551 0.1319 0 1
13.5516 0.0000 -1.8552 0.1319 0 1
13.5160 0.9667 -1.8551 0.1319 0 1
13.4097 1.9280 -1.8547 0.1320 0 1
12.4761 2.7140 -1.7479 0.1320 0 2
12.2446 3.5953 -1.7470 0.1321 0 2
11.9493 4.4569 -1.7459 0.1322 0 2
11.5920 5.2938 -1.7446 0.1323 0 2
11.1748 6.1019 -1.7430 0.1324 0 2
10.2196 6.5677 -1.6631 0.5371 0 3
8.7769 6.5703 -1.5009 0.5952 0 3
7.5850 6.5724 -1.3740 0.6501 0 3
8.4329 -8.4330 -1.7330 0.1412 0 2
9.0247 -7.8199 -1.7352 0.1410 0 2
9.5709 -7.1647 -1.7372 0.1409 0 2
10.0685 -6.4706 -1.7391 0.1407 0 2
10.6681 -5.8252 -1.7662 0.4913 0 2
11.5674 -5.2826 -1.8478 0.1404 0 1
11.9233 -4.4471 -1.8491 0.1403 0 1
12.2174 -3.5874 -1.8502 0.1402 0 1
12.4479 -2.7079 -1.8511 0.1402 0 1
12.6135 -1.8136 -1.8517 0.1401 0 1
12.7133 -0.9093 -1.8521 0.1401 0 1
12.7466 0.0000 -1.8522 0.1401 0 1
12.7132 0.9093 -1.8521 0.1401 0 1
12.6133 1.8135 -1.8517 0.1401 0 1
11.7354 2.5529 -1.7451 0.1402 0 2
11.5180 3.3820 -1.7443 0.1403 0 2
11.2407 4.1925 -1.7433 0.1403 0 2
10.9051 4.9802 -1.7420 0.1404 0 2
10.5131 5.7406 -1.7406 0.1406 0 2
10.1455 6.5201 -1.7524 0.1407 0 0
8.7769 6.5703 -1.5931 0.5945 0 3
7.5850 6.5724 -1.4584 0.6494 0 3
7.9625 -7.9626 -1.7312 0.1494 0 2
8.5206 -7.3832 -1.7333 0.1492 0 2
9.0358 -6.7641 -1.7353 0.1490 0 2
9.5050 -6.1085 -1.7370 0.1489 0 2
10.5269 -5.7481 -1.8439 0.1487 0 1
10.9187 -4.9864 -1.8454 0.1486 0 1
11.2543 -4.1976 -1.8466 0.1485 0 1
11.5315 -3.3860 -1.8477 0.1484 0 1
11.7487 -2.5558 -1.8485 0.1483 0 1
11.9048 -1.7117 -1.8491 0.1483 0 1
11.9989 -0.8582 -1.8494 0.1483 0 1
12.0302 0.0000 -1.8495 0.1483 0 1
11.9988 0.8582 -1.8494 0.1483 0 1
11.9047 1.7116 -1.8490 0.1483 0 1
11.0763 2.4095 -1.7427 0.1483 0 2
10.8714 3.1921 -1.7419 0.1484 0 2
10.6100 3.9573 -1.7409 0.1485 0 2
10.2936 4.7010 -1.7397 0.1486 0 2
9.9241 5.4189 -1.7384 0.1487 0 2
9.5036 6.1076 -1.7368 0.1489 0 2
8.7769 6.5703 -1.6856 0.5937 0 3
7.5850 6.5724 -1.5430 0.6486 0 3
7.5408 -7.5408 -1.7297 0.1575 0 2
8.0688 -6.9917 -1.7316 0.1573 0 2
8.5562 -6.4050 -1.7335 0.1572 0 2
9.0621 -5.8238 -1.7471 0.5539 0 2
9.9670 -5.4424 -1.8419 0.1569 0 1
10.3376 -4.7210 -1.8432 0.1567 0 1
10.6549 -3.9741 -1.8444 0.1566 0 1
10.9170 -3.2056 -1.8454 0.1566 0 1
11.1224 -2.4196 -1.8461 0.1565 0 1
11.2700 -1.6204 -1.8467 0.1564 0 1
11.3589 -0.8124 -1.8470 0.1564 0 1
11.3886 0.0000 -1.8471 0.1564 0 1
11.3588 0.8124 -1.8470 0.1564 0 1
11.2699 1.6204 -1.8467 0.1564 0 1
10.4859 2.2811 -1.7405 0.1565 0 2
10.2921 3.0220 -1.7398 0.1566 0 2
10.0449 3.7466 -1.7388 0.1566 0 2
9.7458 4.4507 -1.7377 0.1567 0 2
9.3963 5.1307 -1.7364 0.1569 0 2
8.9986 5.7830 -1.7349 0.1570 0 2
8.6216 6.4540 -1.7467 0.1572 0 0
7.5850 6.5724 -1.6278 0.6477 0 3
7.1606 -7.1606 -1.7282 0.1657 0 2
7.6615 -6.6388 -1.7301 0.1655 0 2
8.1238 -6.0814 -1.7319 0.1653 0 2
9.0463 -5.8137 -1.8352 0.5355 0 2
9.4624 -5.1668 -1.8400 0.1650 0 1
9.8139 -4.4818 -1.8413 0.1649 0 1
10.1147 -3.7727 -1.8424 0.1648 0 1
10.3633 -3.0430 -1.8433 0.1647 0 1
10.5581 -2.2968 -1.8440 0.1646 0 1
10.6981 -1.5382 -1.8446 0.1646 0 1
10.7823 -0.7712 -1.8449 0.1646 0 1
10.8105 0.0000 -1.8450 0.1645 0 1
10.7823 0.7712 -1.8448 0.1646 0 1
10.6979 1.5381 -1.8445 0.1646 0 1
10.2458 2.2288 -1.7895 0.2455 0 2
9.7701 2.8688 -1.7378 0.1647 0 2
9.5357 3.5566 -1.7369 0.1648 0 2
9.2520 4.2253 -1.7359 0.1649 0 2
8.9206 4.8711 -1.7346 0.1650 0 2
8.5435 5.4905 -1.7332 0.1651 0 2
8.1226 6.0805 -1.7316 0.1653 0 2
7.5850 6.5724 -1.7129 0.6469 0 3
6.8159 -6.8159 -1.7270 0.1738 0 2
7.2923 -6.3188 -1.7288 0.1736 0 2
7.7772 -5.8219 -1.7406 0.6124 0 2
8.6248 -5.5428 -1.8368 0.1733 0 1
9.0052 -4.9172 -1.8383 0.1731 0 1
9.3394 -4.2651 -1.8395 0.1730 0 1
9.6254 -3.5901 -1.8406 0.1729 0 1
9.8617 -2.8957 -1.8414 0.1728 0 1
10.0469 -2.1856 -1.8421 0.1728 0 1
10.1799 -1.4637 -1.8426 0.1727 0 1
10.2600 -0.7338 -1.8429 0.1727 0 1
10.2868 0.0000 -1.8430 0.1727 0 1
10.2600 0.7338 -1.8429 0.1727 0 1
10.1798 1.4636 -1.8426 0.1727 0 1
10.0467 2.1855 -1.8421 0.1728 0 1
9.2973 2.7299 -1.7360 0.1728 0 2
9.0744 3.3846 -1.7352 0.1729 0 2
8.8047 4.0210 -1.7342 0.1730 0 2
8.4897 4.6357 -1.7330 0.1731 0 2
8.1310 5.2254 -1.7317 0.1733 0 2
7.7308 5.7872 -1.7302 0.1734 0 2
7.3481 6.3672 -1.7420 0.1736 0 0
6.5020 -6.5020 -1.7258 0.1819 0 2
6.9562 -6.0275 -1.7275 0.1817 0 2
7.7635 -5.8116 -1.8201 0.5920 0 2
8.2265 -5.2868 -1.8354 0.1814 0 1
8.5890 -4.6899 -1.8367 0.1812 0 1
8.9075 -4.0679 -1.8379 0.1811 0 1
9.1800 -3.4240 -1.8389 0.1810 0 1
9.4052 -2.7617 -1.8397 0.1809 0 1
9.5816 -2.0844 -1.8404 0.1809 0 1
9.7083 -1.3959 -1.8409 0.1808 0 1
9.7847 -0.6998 -1.8411 0.1808 0 1
9.8102 0.0000 -1.8412 0.1808 0 1
9.7846 0.6998 -1.8411 0.1808 0 1
9.7082 1.3958 -1.8408 0.1808 0 1
9.5814 2.0843 -1.8404 0.1809 0 1
8.8668 2.6035 -1.7344 0.1809 0 2
8.6545 3.2280 -1.7336 0.1810 0 2
8.3975 3.8350 -1.7327 0.1811 0 2
8.0973 4.4214 -1.7315 0.1812 0 2
7.7555 4.9842 -1.7303 0.1814 0 2
7.3741 5.5201 -1.7288 0.1815 0 2
6.9552 6.0267 -1.7273 0.1817 0 2
6.2149 -6.2149 -1.7247 0.1900 0 2
6.7148 -5.8184 -1.7436 0.6676 0 2
7.4759 -5.5964 -1.8325 0.1896 0 1
7.8622 -5.0528 -1.8340 0.1895 0 1
8.2084 -4.4821 -1.8353 0.1893 0 1
8.5125 -3.8876 -1.8364 0.1892 0 1
8.7728 -3.2721 -1.8374 0.1891 0 1
8.9878 -2.6391 -1.8382 0.1890 0 1
9.1562 -1.9919 -1.8388 0.1890 0 1
9.2773 -1.3339 -1.8392 0.1889 0 1
9.3501 -0.6687 -1.8395 0.1889 0 1
9.3745 -0.0000 -1.8396 0.1889 0 1
9.3501 0.6687 -1.8395 0.1889 0 1
9.2772 1.3339 -1.8392 0.1889 0 1
9.1561 1.9918 -1.8388 0.1890 0 1
8.4733 2.4880 -1.7330 0.1890 0 2
8.2706 3.0848 -1.7322 0.1891 0 2
8.0252 3.6650 -1.7313 0.1892 0 2
7.7385 4.2255 -1.7302 0.1893 0 2
7.4121 4.7635 -1.7290 0.1895 0 2
7.0478 5.2759 -1.7276 0.1896 0 2
6.6477 5.7603 -1.7261 0.1898 0 2
5.9513 -5.9512 -1.7238 0.1981 0 2
6.7048 -5.8097 -1.8170 0.6451 0 2
7.1581 -5.3585 -1.8314 0.1977 0 1
7.5278 -4.8378 -1.8327 0.1976 0 1
7.8591 -4.2913 -1.8340 0.1974 0 1
8.1500 -3.7220 -1.8351 0.1973 0 1
8.3990 -3.1327 -1.8360 0.1972 0 1
8.6047 -2.5266 -1.8367 0.1971 0 1
8.7658 -1.9069 -1.8373 0.1971 0 1
8.8816 -1.2770 -1.8378 0.1970 0 1
8.9513 -0.6402 -1.8380 0.1970 0 1
8.9746 0.0000 -1.8381 0.1970 0 1
8.9513 0.6402 -1.8380 0.1970 0 1
8.8815 1.2770 -1.8377 0.1970 0 1
8.7657 1.9069 -1.8373 0.1971 0 1
8.1122 2.3820 -1.7316 0.1971 0 2
7.9182 2.9533 -1.7309 0.1972 0 2
7.6835 3.5089 -1.7300 0.1973 0 2
7.4092 4.0457 -1.7290 0.1974 0 2
7.0969 4.5609 -1.7278 0.1976 0 2
6.7483 5.0517 -1.7265 0.1977 0 2
6.3654 5.5157 -1.7251 0.1979 0 2
5.8135 -5.8135 -1.7546 0.7190 0 2
6.4761 -5.6116 -1.8288 0.2060 0 1
6.8654 -5.1394 -1.8303 0.2058 0 1
7.2197 -4.6398 -1.8316 0.2056 0 1
7.5372 -4.1156 -1.8328 0.2055 0 1
7.8160 -3.5695 -1.8338 0.2054 0 1
8.0547 -3.0043 -1.8347 0.2053 0 1
8.2517 -2.4230 -1.8354 0.2052 0 1
8.4062 -1.8287 -1.8360 0.2051 0 1
8.5171 -1.2246 -1.8364 0.2051 0 1
8.5839 -0.6139 -1.8367 0.2051 0 1
8.6062 0.0000 -1.8367 0.2051 0 1
8.5839 0.6139 -1.8366 0.2051 0 1
8.5170 1.2246 -1.8364 0.2051 0 1
8.4061 1.8286 -1.8360 0.2051 0 1
7.7795 2.2843 -1.7304 0.2052 0 2
7.5936 2.8323 -1.7297 0.2053 0 2
7.3686 3.3651 -1.7288 0.2054 0 2
7.1057 3.8800 -1.7278 0.2055 0 2
6.8064 4.3742 -1.7267 0.2056 0 2
6.4723 4.8452 -1.7255 0.2058 0 2
6.1053 5.2903 -1.7241 0.2060 0 2
5.8079 -5.8079 -1.8239 0.6943 0 2
6.2210 -5.3905 -1.8279 0.2140 0 1
6.5947 -4.9367 -1.8293 0.2139 0 1
6.9349 -4.4568 -1.8305 0.2137 0 1
7.2397 -3.9532 -1.8317 0.2136 0 1
7.5073 -3.4285 -1.8327 0.2135 0 1
7.7364 -2.8856 -1.8335 0.2134 0 1
7.9255 -2.3272 -1.8342 0.2133 0 1
8.0738 -1.7564 -1.8348 0.2132 0 1
8.1803 -1.1762 -1.8351 0.2132 0 1
8.2444 -0.5896 -1.8354 0.2131 0 1
8.2658 0.0000 -1.8355 0.2131 0 1
8.2443 0.5896 -1.8354 0.2131 0 1
8.1802 1.1761 -1.8351 0.2132 0 1
8.0737 1.7563 -1.8347 0.2132 0 1
7.6207 2.2376 -1.7637 0.3210 0 2
7.2935 2.7204 -1.7286 0.2134 0 2
7.0776 3.2322 -1.7277 0.2135 0 2
6.8252 3.7269 -1.7268 0.2136 0 2
6.5379 4.2017 -1.7257 0.2137 0 2
6.2172 4.6541 -1.7245 0.2139 0 2
5.8648 5.0819 -1.7232 0.2140 0 2
5.5948 -5.5947 -1.8255 0.2222 0 1
5.9844 -5.1855 -1.8270 0.2221 0 1
6.3437 -4.7488 -1.8283 0.2219 0 1
6.6708 -4.2870 -1.8295 0.2218 0 1
6.9638 -3.8025 -1.8306 0.2216 0 1
7.2210 -3.2978 -1.8316 0.2215 0 1
7.4412 -2.7755 -1.8324 0.2214 0 1
7.6231 -2.2384 -1.8331 0.2213 0 1
7.7656 -1.6893 -1.8336 0.2213 0 1
7.8679 -1.1313 -1.8340 0.2212 0 1
7.9296 -0.5671 -1.8342 0.2212 0 1
7.9501 0.0000 -1.8343 0.2212 0 1
7.9295 0.5671 -1.8342 0.2212 0 1
7.8678 1.1312 -1.8340 0.2212 0 1
7.7655 1.6893 -1.8336 0.2213 0 1
7.6007 2.2318 -1.8277 0.2841 0 2
7.0153 2.6166 -1.7275 0.2214 0 2
6.8077 3.1090 -1.7267 0.2215 0 2
6.5651 3.5848 -1.7258 0.2216 0 2
6.2889 4.0416 -1.7248 0.2218 0 2
5.9805 4.4770 -1.7236 0.2219 0 2
5.6417 4.8886 -1.7224 0.2221 0 2
5.3891 -5.3891 -1.8248 0.2303 0 1
5.7643 -4.9948 -1.8262 0.2301 0 1
6.1102 -4.5740 -1.8274 0.2299 0 1
6.4251 -4.1291 -1.8286 0.2298 0 1
6.7072 -3.6624 -1.8297 0.2297 0 1
6.9548 -3.1762 -1.8306 0.2295 0 1
7.1668 -2.6731 -1.8314 0.2294 0 1
7.3418 -2.1558 -1.8320 0.2294 0 1
7.4790 -1.6270 -1.8325 0.2293 0 1
7.5775 -1.0895 -1.8329 0.2292 0 1
7.6368 -0.5462 -1.8331 0.2292 0 1
7.6566 0.0000 -1.8332 0.2292 0 1
7.6368 0.5462 -1.8331 0.2292 0 1
7.5774 1.0895 -1.8329 0.2292 0 1
7.4789 1.6269 -1.8325 0.2293 0 1
7.3417 2.1557 -1.8320 0.2294 0 1
6.7566 2.5201 -1.7266 0.2294 0 2
6.5567 2.9944 -1.7258 0.2295 0 2
6.3232 3.4527 -1.7249 0.2297 0 2
6.0573 3.8928 -1.7239 0.2298 0 2
5.7604 4.3122 -1.7228 0.2299 0 2
5.4343 4.7089 -1.7216 0.2301 0 2
5.1974 -5.1974 -1.8240 0.2383 0 1
5.5590 -4.8169 -1.8254 0.2381 0 1
5.8925 -4.4111 -1.8266 0.2379 0 1
6.1960 -3.9820 -1.8278 0.2378 0 1
6.4679 -3.5318 -1.8288 0.2377 0 1
6.7066 -3.0629 -1.8297 0.2376 0 1
6.9109 -2.5777 -1.8304 0.2375 0 1
7.0796 -2.0788 -1.8310 0.2374 0 1
7.2118 -1.5689 -1.8315 0.2373 0 1
7.3067 -1.0506 -1.8319 0.2373 0 1
7.3639 -0.5267 -1.8321 0.2372 0 1
7.3830 0.0000 -1.8322 0.2372 0 1
7.3638 0.5267 -1.8321 0.2372 0 1
7.3066 1.0505 -1.8319 0.2373 0 1
7.2117 1.5688 -1.8315 0.2373 0 1
7.0795 2.0787 -1.8310 0.2374 0 1
6.5581 2.4461 -1.7370 0.3902 0 2
6.3227 2.8875 -1.7249 0.2376 0 2
6.0976 3.3296 -1.7241 0.2377 0 2
5.8413 3.7540 -1.7231 0.2378 0 2
5.5552 4.1586 -1.7221 0.2380 0 2
5.2408 4.5412 -1.7209 0.2381 0 2
5.0181 -5.0181 -1.8234 0.2463 0 1
5.3671 -4.6506 -1.8247 0.2461 0 1
5.6890 -4.2587 -1.8259 0.2459 0 1
5.9819 -3.8444 -1.8270 0.2458 0 1
6.2442 -3.4096 -1.8279 0.2457 0 1
6.4746 -2.9569 -1.8288 0.2456 0 1
6.6717 -2.4885 -1.8295 0.2455 0 1
6.8345 -2.0068 -1.8301 0.2454 0 1
6.9620 -1.5146 -1.8306 0.2453 0 1
7.0536 -1.0142 -1.8309 0.2453 0 1
7.1088 -0.5084 -1.8311 0.2452 0 1
7.1272 0.0000 -1.8312 0.2452 0 1
7.1088 0.5084 -1.8311 0.2452 0 1
7.0536 1.0141 -1.8309 0.2453 0 1
6.9619 1.5145 -1.8306 0.2453 0 1
6.8344 2.0067 -1.8301 0.2454 0 1
6.2898 2.3460 -1.7248 0.2455 0 2
6.1040 2.7876 -1.7241 0.2456 0 2
5.8868 3.2144 -1.7233 0.2457 0 2
5.6394 3.6243 -1.7224 0.2458 0 2
5.3633 4.0149 -1.7213 0.2460 0 2
5.0599 4.3844 -1.7202 0.2461 0 2
4.8501 -4.8501 -1.8227 0.2543 0 1
5.1873 -4.4948 -1.8240 0.2541 0 1
5.4982 -4.1159 -1.8252 0.2539 0 1
5.7812 -3.7154 -1.8262 0.2538 0 1
6.0346 -3.2952 -1.8272 0.2537 0 1
6.2572 -2.8576 -1.8280 0.2535 0 1
6.4476 -2.4049 -1.8287 0.2534 0 1
6.6048 -1.9394 -1.8293 0.2534 0 1
6.7280 -1.4636 -1.8297 0.2533 0 1
6.8165 -0.9801 -1.8301 0.2533 0 1
6.8698 -0.4913 -1.8302 0.2532 0 1
6.8876 0.0000 -1.8303 0.2532 0 1
6.8698 0.4913 -1.8302 0.2532 0 1
6.8165 0.9801 -1.8300 0.2533 0 1
6.7279 1.4636 -1.8297 0.2533 0 1
6.6047 1.9393 -1.8292 0.2534 0 1
6.0786 2.2672 -1.7240 0.2534 0 2
5.8990 2.6940 -1.7233 0.2535 0 2
5.6892 3.1065 -1.7226 0.2537 0 2
5.4503 3.5027 -1.7217 0.2538 0 2
5.1835 3.8803 -1.7207 0.2539 0 2
4.8903 4.2375 -1.7196 0.2541 0 2
4.6923 -4.6923 -1.8221 0.2622 0 1
5.0184 -4.3485 -1.8234 0.2621 0 1
5.3191 -3.9819 -1.8245 0.2619 0 1
5.5928 -3.5943 -1.8255 0.2618 0 1
5.8378 -3.1878 -1.8264 0.2616 0 1
6.0530 -2.7644 -1.8272 0.2615 0 1
6.2372 -2.3264 -1.8279 0.2614 0 1
6.3892 -1.8761 -1.8285 0.2613 0 1
6.5083 -1.4158 -1.8289 0.2613 0 1
6.5939 -0.9481 -1.8292 0.2612 0 1
6.6454 -0.4753 -1.8294 0.2612 0 1
6.6626 0.0000 -1.8295 0.2612 0 1
6.6454 0.4753 -1.8294 0.2612 0 1
6.5938 0.9480 -1.8292 0.2612 0 1
6.5082 1.4158 -1.8289 0.2613 0 1
6.3891 1.8760 -1.8284 0.2613 0 1
6.0055 2.2399 -1.7600 0.3929 0 2
5.7066 2.6061 -1.7226 0.2615 0 2
5.5037 3.0052 -1.7219 0.2616 0 2
5.2726 3.3885 -1.7210 0.2618 0 2
5.0146 3.7539 -1.7200 0.2619 0 2
4.7312 4.0996 -1.7190 0.2621 0 2
4.5438 -4.5438 -1.8216 0.2702 0 1
4.8595 -4.2108 -1.8228 0.2700 0 1
5.1506 -3.8557 -1.8239 0.2698 0 1
5.4154 -3.4804 -1.8248 0.2697 0 1
5.6527 -3.0866 -1.8257 0.2696 0 1
5.8610 -2.6766 -1.8265 0.2695 0 1
6.0392 -2.2525 -1.8272 0.2694 0 1
6.1863 -1.8165 -1.8277 0.2693 0 1
6.3016 -1.3709 -1.8281 0.2692 0 1
6.3844 -0.9179 -1.8284 0.2692 0 1
6.4343 -0.4602 -1.8286 0.2691 0 1
6.4509 0.0000 -1.8287 0.2691 0 1
6.4343 0.4602 -1.8286 0.2691 0 1
6.3844 0.9179 -1.8284 0.2692 0 1
6.3015 1.3708 -1.8281 0.2692 0 1
6.1862 1.8164 -1.8277 0.2693 0 1
1.7090 0.6375 -0.5171 0.0144 294 14
1.4411 0.6581 -0.4491 0.1670 294 14
1.4194 0.7751 -0.4585 0.1105 294 14
1.4304 0.9192 -0.4820 0.1051 294 14
1.4229 1.0652 -0.5039 0.1006 294 14
4.5813 3.9697 -1.7184 0.2700 0 2
4.4038 -4.4037 -1.8211 0.2781 0 1
4.7097 -4.0809 -1.8222 0.2779 0 1
4.9917 -3.7368 -1.8233 0.2778 0 1
5.2483 -3.3729 -1.8242 0.2776 0 1
5.4781 -2.9913 -1.8251 0.2775 0 1
5.6799 -2.5940 -1.8258 0.2774 0 1
5.8525 -2.1829 -1.8265 0.2773 0 1
5.9950 -1.7604 -1.8270 0.2772 0 1
6.1067 -1.3285 -1.8274 0.2771 0 1
6.1869 -0.8896 -1.8277 0.2771 0 1
6.2353 -0.4460 -1.8279 0.2771 0 1
6.2514 -0.0000 -1.8279 0.2771 0 1
6.2352 0.4460 -1.8279 0.2771 0 1
6.1869 0.8895 -1.8277 0.2771 0 1
1.4798 0.3219 -0.4428 0.1743 294 14
1.4552 0.4273 -0.4435 0.1741 294 14
1.4188 0.5292 -0.4428 0.1743 294 14
1.3711 0.6262 -0.4407 0.1755 294 14
1.3187 0.7201 -0.4393 0.1187 294 14
1.3240 0.8509 -0.4602 0.1133 294 14
1.3127 0.9827 -0.4795 0.1088 294 14
1.2880 1.1161 -0.4983 0.1074 294 14
4.2715 -4.2715 -1.8206 0.2860 0 1
4.5681 -3.9584 -1.8217 0.2858 0 1
4.8416 -3.6244 -1.8227 0.2857 0 1
5.0904 -3.2714 -1.8236 0.2855 0 1
5.3132 -2.9013 -1.8245 0.2854 0 1
5.5088 -2.5159 -1.8252 0.2853 0 1
5.6762 -2.1172 -1.8258 0.2852 0 1
5.8144 -1.7073 -1.8263 0.2851 0 1
5.9227 -1.2885 -1.8267 0.2851 0 1
6.0005 -0.8628 -1.8270 0.2850 0 1
1.7098 -0.1223 -0.5166 0.0271 294 14
1.5819 0.0000 -0.4768 0.0294 294 14
1.4694 0.1051 -0.4440 0.1887 294 14
1.4365 0.2065 -0.4374 0.1916 294 14
1.4105 0.3068 -0.4350 0.1824 294 14
1.3870 0.4073 -0.4357 0.1822 294 14
1.3524 0.5044 -0.4350 0.1824 294 14
1.3073 0.5970 -0.4331 0.1836 294 14
1.2525 0.6839 -0.4301 0.1849 294 14
1.2320 0.7918 -0.4414 0.1215 294 14
1.2182 0.9119 -0.4586 0.1200 294 14
1.1939 1.0346 -0.4761 0.1156 294 14
4.1464 -4.1463 -1.8201 0.2939 0 1
4.4342 -3.8423 -1.8212 0.2937 0 1
4.6996 -3.5181 -1.8222 0.2936 0 1
4.9410 -3.1754 -1.8231 0.2934 0 1
5.1572 -2.8161 -1.8239 0.2933 0 1
5.3470 -2.4420 -1.8246 0.2932 0 1
5.5094 -2.0550 -1.8252 0.2931 0 1
5.6435 -1.6571 -1.8257 0.2930 0 1
5.7486 -1.2506 -1.8261 0.2930 0 1
1.4348 -0.2063 -0.4499 0.1918 294 14
1.4359 -0.1027 -0.4469 0.1926 294 14
1.4260 0.0000 -0.4426 0.1945 294 14
1.4055 0.1005 -0.4374 0.1968 294 14
1.3749 0.1977 -0.4311 0.1996 294 14
1.3471 0.2931 -0.4279 0.1905 294 14
1.3246 0.3889 -0.4285 0.1903 294 14
1.2916 0.4817 -0.4279 0.1905 294 14
1.2489 0.5704 -0.4262 0.1917 294 14
1.1970 0.6536 -0.4233 0.1930 294 14
1.1516 0.7401 -0.4249 0.1296 294 14
1.1377 0.8517 -0.4411 0.1281 294 14
1.1123 0.9638 -0.4568 0.1237 294 14
4.0277 -4.0278 -1.8197 0.3018 0 1
4.3073 -3.7323 -1.8207 0.3016 0 1
4.5650 -3.4173 -1.8217 0.3015 0 1
4.7994 -3.0845 -1.8225 0.3013 0 1
5.0094 -2.7354 -1.8233 0.3012 0 1
5.1937 -2.3719 -1.8240 0.3011 0 1
5.3514 -1.9960 -1.8246 0.3010 0 1
5.4816 -1.6096 -1.8251 0.3009 0 1
1.4175 -0.3084 -0.4634 0.1721 294 14
1.3732 -0.1974 -0.4432 0.1999 294 14
1.3746 -0.0983 -0.4402 0.2007 294 14
1.3656 0.0000 -0.4363 0.2025 294 14
1.3466 0.0963 -0.4313 0.2049 294 14
1.3181 0.1895 -0.4254 0.2077 294 14
1.2889 0.2804 -0.4214 0.1986 294 14
1.2673 0.3721 -0.4219 0.1984 294 14
1.2359 0.4610 -0.4214 0.1990 294 14
1.1952 0.5459 -0.4198 0.1998 294 14
1.1459 0.6257 -0.4171 0.2010 294 14
1.0885 0.6996 -0.4134 0.2029 294 14
1.0669 0.7987 -0.4257 0.1363 294 14
1.0463 0.9066 -0.4423 0.2235 294 14
3.9151 -3.9152 -1.8192 0.3096 0 1
4.1868 -3.6279 -1.8203 0.3095 0 1
4.4372 -3.3217 -1.8212 0.3093 0 1
4.6650 -2.9981 -1.8220 0.3092 0 1
4.8691 -2.6588 -1.8228 0.3090 0 1
5.0482 -2.3055 -1.8235 0.3089 0 1
1.4204 -0.5298 -0.4981 0.1643 294 14
1.3902 -0.4082 -0.4761 0.1719 294 14
1.3505 -0.2938 -0.4541 0.1802 294 14
1.3164 -0.1893 -0.4370 0.2079 294 14
1.3180 -0.0943 -0.4342 0.2093 294 14
1.3098 0.0000 -0.4304 0.2106 294 14
1.2922 0.0924 -0.4257 0.2129 294 14
1.2655 0.1820 -0.4201 0.2158 294 14
1.2353 0.2687 -0.4154 0.2067 294 14
1.2145 0.3566 -0.4159 0.2064 294 14
1.1845 0.4418 -0.4154 0.2071 294 14
1.1458 0.5233 -0.4139 0.2078 294 14
1.0987 0.6000 -0.4113 0.2091 294 14
1.0497 0.6746 -0.4100 0.2875 294 14
1.0286 0.7700 -0.4222 0.2402 294 14
1.0076 0.8731 -0.4381 0.2315 294 14
3.8081 -3.8081 -1.8188 0.3175 0 1
4.0723 -3.5287 -1.8198 0.3173 0 1
4.3158 -3.2308 -1.8207 0.3171 0 1
4.5373 -2.9160 -1.8216 0.3170 0 1
4.7357 -2.5859 -1.8223 0.3169 0 1
1.3656 -0.6237 -0.5070 0.1705 294 14
1.3501 -0.5036 -0.4866 0.1723 294 14
1.3243 -0.3888 -0.4661 0.1799 294 14
1.2893 -0.2805 -0.4456 0.1882 294 14
1.2638 -0.1817 -0.4312 0.2160 294 14
1.2657 -0.0905 -0.4286 0.2173 294 14
1.2582 0.0000 -0.4250 0.2192 294 14
1.2417 0.0888 -0.4204 0.2210 294 14
1.2167 0.1749 -0.4151 0.2238 294 14
1.1857 0.2579 -0.4098 0.2147 294 14
1.1657 0.3423 -0.4103 0.2149 294 14
1.1370 0.4241 -0.4098 0.2151 294 14
1.1000 0.5023 -0.4084 0.2159 294 14
1.0563 0.5768 -0.4065 0.2267 294 14
1.0189 0.6548 -0.4091 0.2953 294 14
0.9930 0.7434 -0.4189 0.2481 294 14
0.9715 0.8418 -0.4342 0.2394 294 14
3.7062 -3.7063 -1.8185 0.3253 0 1
3.9633 -3.4342 -1.8194 0.3251 0 1
4.2002 -3.1443 -1.8203 0.3249 0 1
4.4157 -2.8379 -1.8211 0.3248 0 1
4.6087 -2.5166 -1.8218 0.3247 0 1
1.3002 -0.5938 -0.4959 0.1786 294 14
1.2861 -0.4797 -0.4762 0.1804 294 14
1.2640 -0.3712 -0.4570 0.1880 294 14
1.2331 -0.2683 -0.4378 0.1962 294 14
1.2150 -0.1747 -0.4259 0.2240 294 14
1.2171 -0.0871 -0.4234 0.2254 294 14
1.2103 0.0000 -0.4199 0.2272 294 14
1.1949 0.0855 -0.4156 0.2296 294 14
1.1713 0.1684 -0.4106 0.2324 294 14
1.1401 0.2480 -0.4048 0.2351 294 14
1.1204 0.3290 -0.4051 0.2229 294 14
1.0933 0.4078 -0.4048 0.2331 294 14
1.0589 0.4836 -0.4039 0.2337 294 14
1.0173 0.5555 -0.4021 0.2347 294 14
0.9898 0.6361 -0.4082 0.3032 294 14
0.9596 0.7184 -0.4159 0.2561 294 14
0.9377 0.8126 -0.4305 0.2474 294 14
3.6091 -3.6091 -1.8181 0.3331 0 1
3.8593 -3.3442 -1.8190 0.3329 0 1
4.0900 -3.0618 -1.8199 0.3327 0 1
4.2999 -2.7634 -1.8207 0.3326 0 1
4.4878 -2.4505 -1.8214 0.3325 0 1
1.2404 -0.5665 -0.4858 0.1867 294 14
1.2286 -0.4583 -0.4671 0.1941 294 14
1.2087 -0.3549 -0.4487 0.1960 294 14
1.1813 -0.2570 -0.4306 0.2042 294 14
1.1696 -0.1682 -0.4209 0.2321 294 14
1.1719 -0.0838 -0.4185 0.2334 294 14
1.1657 0.0000 -0.4152 0.2352 294 14
1.1513 0.0823 -0.4111 0.2376 294 14
1.1290 0.1623 -0.4063 0.2404 294 14
1.1000 0.2393 -0.4010 0.2536 294 14
1.0796 0.3170 -0.4008 0.2411 294 14
1.0539 0.3931 -0.4007 0.2412 294 14
1.0209 0.4662 -0.3998 0.2417 294 14
0.9870 0.5390 -0.4006 0.3163 294 14
0.9621 0.6183 -0.4074 0.3110 294 14
0.9309 0.6969 -0.4142 0.3058 294 14
0.9060 0.7851 -0.4270 0.2553 294 14
3.5164 -3.5165 -1.8177 0.3408 0 1
3.7602 -3.2583 -1.8187 0.3407 0 1
3.9849 -2.9831 -1.8195 0.3405 0 1
4.1893 -2.6923 -1.8203 0.3404 0 1
1.1848 -0.6469 -0.4934 0.1880 294 14
1.1856 -0.5415 -0.4764 0.1947 294 14
1.1764 -0.4388 -0.4589 0.2021 294 14
1.1581 -0.3401 -0.4412 0.2103 294 14
1.1335 -0.2466 -0.4240 0.2122 294 14
1.1272 -0.1621 -0.4163 0.2401 294 14
1.1296 -0.0808 -0.4140 0.2414 294 14
1.1240 0.0000 -0.4109 0.2432 294 14
1.1105 0.0794 -0.4070 0.2456 294 14
1.0902 0.1567 -0.4026 0.2584 294 14
1.0634 0.2313 -0.3978 0.2615 294 14
1.0418 0.3059 -0.3969 0.2491 294 14
1.0171 0.3794 -0.3968 0.2491 294 14
0.9853 0.4500 -0.3959 0.2497 294 14
0.9604 0.5245 -0.4000 0.3240 294 14
0.9358 0.6014 -0.4066 0.3188 294 14
0.9050 0.6775 -0.4132 0.3137 294 14
0.8762 0.7593 -0.4238 0.2632 294 14
3.4278 -3.4279 -1.8174 0.3486 0 1
3.6654 -3.1762 -1.8183 0.3484 0 1
3.8844 -2.9079 -1.8191 0.3482 0 1
4.0836 -2.6244 -1.8199 0.3481 0 1
1.1326 -0.6185 -0.4838 0.1961 294 14
1.1352 -0.5184 -0.4679 0.2027 294 14
1.1281 -0.4207 -0.4514 0.2101 294 14
1.1124 -0.3266 -0.4346 0.2182 294 14
1.0892 -0.2370 -0.4179 0.2270 294 14
1.0875 -0.1563 -0.4119 0.2481 294 14
1.0901 -0.0780 -0.4097 0.2494 294 14
1.0853 0.0000 -0.4069 0.2615 294 14
1.0733 0.0768 -0.4034 0.2637 294 14
1.0544 0.1516 -0.3994 0.2664 294 14
1.0289 0.2238 -0.3948 0.2695 294 14
1.0064 0.2955 -0.3932 0.2571 294 14
0.9825 0.3665 -0.3931 0.2571 294 14
0.9538 0.4356 -0.3931 0.3371 294 14
0.9351 0.5106 -0.3994 0.3318 294 14
0.9107 0.5853 -0.4058 0.3266 294 14
0.8804 0.6591 -0.4123 0.3214 294 14
0.8482 0.7350 -0.4208 0.2711 294 14
3.3431 -3.3432 -1.8171 0.3563 0 1
3.5748 -3.0976 -1.8180 0.3561 0 1
3.7883 -2.8359 -1.8188 0.3560 0 1
3.9826 -2.5595 -1.8195 0.3558 0 1
1.0846 -0.5922 -0.4750 0.2041 294 14
1.0886 -0.4971 -0.4599 0.2108 294 14
1.0833 -0.4041 -0.4444 0.2181 294 14
1.0698 -0.3141 -0.4285 0.2262 294 14
1.0565 -0.2298 -0.4156 0.3445 294 14
1.0514 -0.1512 -0.4083 0.2663 294 14
1.0543 -0.0754 -0.4062 0.2676 294 14
1.0500 0.0000 -0.4035 0.2694 294 14
1.0387 0.0743 -0.4002 0.2716 294 14
1.0207 0.1468 -0.3963 0.2743 294 14
0.9964 0.2168 -0.3919 0.2774 294 14
0.9731 0.2857 -0.3898 0.2650 294 14
0.9500 0.3543 -0.3897 0.2651 294 14
0.9296 0.4245 -0.3928 0.3449 294 14
0.9109 0.4974 -0.3989 0.3395 294 14
0.8868 0.5699 -0.4051 0.3343 294 14
0.8569 0.6415 -0.4114 0.3292 294 14
0.8217 0.7120 -0.4179 0.2789 294 14
3.2620 -3.2620 -1.8168 0.3640 0 1
3.4880 -3.0224 -1.8176 0.3638 0 1
3.6963 -2.7671 -1.8184 0.3636 0 1
1.0268 -0.6599 -0.4807 0.3042 294 14
1.0402 -0.5680 -0.4668 0.2121 294 14
