ply
format ascii 1.0
element vertex 608
property float32 x
property float32 y
property float32 z
property float32 CosAngle
property uint32 ObjIdx
property uint32 ObjTag
end_header
33.108795166015625 -24.282596588134766 13.866866111755371 0.7093098163604736 0 9
32.80424499511719 -24.515077590942383 13.830921173095703 0.7111532688140869 0 9
32.50022506713867 -24.745624542236328 13.79583740234375 0.7129619121551514 0 9
9.246855735778809 -8.300917625427246 4.196704387664795 0.6404280662536621 0 3
9.083466529846191 -8.302656173706055 4.156196594238281 0.6466692090034485 0 3
8.923163414001465 -8.304374694824219 4.116794586181641 0.652858316898346 0 3
8.698954582214355 -8.242616653442383 4.0473175048828125 0.6797865033149719 0 3
8.674779891967773 -8.368749618530273 4.070858478546143 0.6650769710540771 0 3
8.5220308303833 -8.370390892028809 4.034275531768799 0.6711075901985168 0 3
31.505197525024414 24.437929153442383 13.100773811340332 0.8583590984344482 0 9
31.6243953704834 24.07894515991211 13.059940338134766 0.7536007761955261 0 9
31.999738693237305 23.91402244567871 13.125774383544922 0.7498213648796082 0 9
32.37915802001953 23.747615814208984 13.193437576293945 0.745975911617279 0 9
31.753114700317383 22.85300636291504 12.854239463806152 0.6856216192245483 0 9
31.80015754699707 22.45634651184082 12.79116439819336 0.6890021562576294 0 9
32.30038070678711 22.377811431884766 12.911060333251953 0.7599524855613708 0 9
33.03812026977539 22.4527530670166 13.124865531921387 0.6972373127937317 0 9
33.089324951171875 22.05597686767578 13.066033363342285 0.48406916856765747 0 9
32.93204116821289 21.526758193969727 12.92710018157959 0.4892714321613312 0 9
32.77680206298828 21.007734298706055 12.791632652282715 0.4944531321525574 0 9
33.033687591552734 20.756444931030273 12.81865406036377 0.6207252740859985 0 9
32.61935806274414 19.688398361206055 12.518686294555664 0.868789553642273 0 9
32.762752532958984 19.375839233398438 12.506463050842285 0.8696385622024536 0 9
32.90604782104492 19.0640811920166 12.495343208312988 0.8704127669334412 0 9
33.04929733276367 18.752870559692383 12.485312461853027 0.8711121082305908 0 9
33.1924934387207 18.442245483398438 12.476364135742188 0.8717366456985474 0 9
29.9482364654541 16.289609909057617 11.201504707336426 0.1959766447544098 0 9
30.93602752685547 16.468828201293945 11.515220642089844 0.32194799184799194 0 9
31.64162254333496 16.481658935546875 11.722311973571777 0.3162594437599182 0 9
33.74885177612305 17.1959171295166 12.445295333862305 0.8889308571815491 0 9
33.81869125366211 16.850858688354492 12.414772987365723 0.5213931202888489 0 9
31.069515228271484 15.13451099395752 11.355225563049316 0.32917124032974243 0 9
36.683837890625 17.463632583618164 13.349306106567383 0.6148082613945007 0 9
36.718040466308594 17.07732391357422 13.305438041687012 0.12268143147230148 0 9
37.64481735229492 17.099102020263672 13.585108757019043 0.5585471391677856 0 9
37.509056091308594 16.63298797607422 13.481693267822266 0.5605882406234741 0 9
37.648826599121094 16.29216766357422 13.478827476501465 0.5629514455795288 0 9
37.91545104980469 16.0049991607666 13.52230167388916 0.6138691306114197 0 9
39.49675750732422 16.256425857543945 14.033665657043457 0.9654639363288879 0 9
31.219215393066406 12.198808670043945 11.01296615600586 0.6602747440338135 0 9
31.382116317749023 11.938886642456055 11.032187461853027 0.7789039015769958 0 9
31.525108337402344 11.6704683303833 11.045180320739746 0.7779872417449951 0 9
31.6688175201416 11.401562690734863 11.059226989746094 0.7769990563392639 0 9
31.813268661499023 11.132011413574219 11.07433795928955 0.775939404964447 0 9
30.58832359313965 10.396113395690918 10.615013122558594 0.4095021188259125 0 9
31.224294662475586 10.300585746765137 10.80319881439209 0.4023693799972534 0 9
31.88231658935547 10.20132827758789 10.998730659484863 0.39521580934524536 0 9
31.740102767944336 9.842656135559082 10.9187593460083 0.44147470593452454 0 9
31.297521591186523 9.398300170898438 10.737056732177734 0.44894590973854065 0 9
31.147987365722656 9.049355506896973 10.657458305358887 0.8542168140411377 0 9
31.19441032409668 8.760058403015137 10.646011352539062 0.8160132765769958 0 9
31.231143951416016 8.468671798706055 10.632168769836426 0.8170750141143799 0 9
31.406173706054688 8.214218139648438 10.66622543334961 0.9448310136795044 0 9
31.422142028808594 7.917734146118164 10.647082328796387 0.9465296268463135 0 9
30.907941818237305 7.493847370147705 10.449647903442383 0.11925169825553894 0 9
31.398305892944336 7.314960956573486 10.592801094055176 0.8625625967979431 0 9
31.378889083862305 7.014081954956055 10.564580917358398 0.8648666143417358 0 9
31.359691619873047 6.714824199676514 10.537405967712402 0.8670973777770996 0 9
31.340707778930664 6.417187213897705 10.511247634887695 0.8692548274993896 0 9
31.321945190429688 6.120917797088623 10.486102104187012 0.8713390827178955 0 9
31.729692459106445 5.905409812927246 10.60444164276123 0.6849257946014404 0 9
31.992815017700195 5.65771484375 10.674975395202637 0.6803999543190002 0 9
34.8074836730957 5.833788871765137 11.59620189666748 0.7502300143241882 0 9
34.92740249633789 5.53201150894165 11.619142532348633 0.7487488985061646 0 9
35.04822540283203 5.229121208190918 11.643251419067383 0.7471982836723328 0 9
35.16799545288086 4.924765586853027 11.667879104614258 0.9436691403388977 0 9
35.10712432861328 4.595312595367432 11.633529663085938 0.9464554190635681 0 9
31.932241439819336 3.8885741233825684 10.569476127624512 0.6953868865966797 0 9
32.19028091430664 3.627089738845825 10.643678665161133 0.6905389428138733 0 9
34.924964904785156 3.6180663108825684 11.536701202392578 0.9543997645378113 0 9
33.1402473449707 3.1327733993530273 10.937423706054688 0.9957621097564697 0 9
33.19438934326172 2.83746075630188 10.94644546508789 0.9949417114257812 0 9
31.41289710998535 2.401445150375366 10.351441383361816 0.9047765135765076 0 9
32.373226165771484 2.182695150375366 10.661011695861816 0.1932741105556488 0 9
32.60909652709961 1.9047656059265137 10.732623100280762 0.10317878425121307 0 9
33.40930938720703 1.6507421731948853 10.99067497253418 0.9909372329711914 0 9
33.46267318725586 1.352441430091858 11.00379753112793 0.9897557497024536 0 9
33.515907287597656 1.0533593893051147 11.017751693725586 0.9885024428367615 0 9
33.450687408447266 0.7508202791213989 10.993654251098633 0.4849073886871338 0 9
33.62199783325195 0.4527539014816284 11.048171043395996 0.9857804775238037 0 9
33.67487335205078 0.1511523425579071 11.06466007232666 0.9843117594718933 0 9
34.272823333740234 -0.15371093153953552 11.261130332946777 0.5989616513252258 0 9
32.29722595214844 -1.014980435371399 10.617132186889648 0.5966401100158691 0 9
32.46394348144531 -1.3119335174560547 10.67538070678711 0.5933848023414612 0 9
32.63318634033203 -1.612246036529541 10.735360145568848 0.5900696516036987 0 9
32.8050422668457 -1.9160937070846558 10.797120094299316 0.5866943001747131 0 9
32.942283630371094 -2.220996141433716 10.84841251373291 0.7258960008621216 0 9
31.525897979736328 -2.409960985183716 10.388675689697266 0.08966188877820969 0 9
32.6864013671875 -2.7939257621765137 10.778932571411133 0.16414247453212738 0 9
31.9729061126709 -3.022265672683716 10.552167892456055 0.24120846390724182 0 9
32.95582580566406 -3.4139060974121094 10.886240005493164 0.23380619287490845 0 9
33.090553283691406 -3.7283201217651367 10.941353797912598 0.5984627604484558 0 9
32.703704833984375 -3.9823241233825684 10.8248291015625 0.6049051284790039 0 9
32.32503890991211 -4.230996131896973 10.711627960205078 0.6112973690032959 0 9
32.344295501708984 -4.529179573059082 10.73105525970459 0.960202693939209 0 9
32.085750579833984 -4.787050724029541 10.659102439880371 0.8119536638259888 0 9
32.07179260253906 -5.07958984375 10.669184684753418 0.8111864924430847 0 9
32.210872650146484 -5.398398399353027 10.73114013671875 0.9601954221725464 0 9
32.16632080078125 -5.68826150894165 10.732872009277344 0.9600400328636169 0 9
31.975982666015625 -5.951074123382568 10.686758995056152 0.2682674825191498 0 9
31.200895309448242 -6.097109317779541 10.445582389831543 0.27446141839027405 0 9
31.96062469482422 -6.543906211853027 10.719164848327637 0.8902682662010193 0 9
31.88681411743164 -6.827578067779541 10.714529991149902 0.8906533122062683 0 9
31.591073989868164 -7.061425685882568 10.63602352142334 0.43988609313964844 0 9
31.739749908447266 -7.394394397735596 10.70799446105957 0.8911967277526855 0 9
32.17376708984375 -7.800605297088623 10.877602577209473 0.5520004034042358 0 9
35.299434661865234 -8.894609451293945 11.9608736038208 0.68768709897995 0 9
35.23324966430664 -9.215058326721191 11.965994834899902 0.9868762493133545 0 9
35.10309982299805 -9.518476486206055 11.950326919555664 0.9881701469421387 0 9
34.97303771972656 -9.821054458618164 11.93558120727539 0.9893909096717834 0 9
34.84305191040039 -10.122754096984863 11.921748161315918 0.9905388355255127 0 9
34.71311569213867 -10.423808097839355 11.908822059631348 0.9916137456893921 0 9
34.58321762084961 -10.724140167236328 11.896806716918945 0.9926155209541321 0 9
34.45335006713867 -11.02382755279541 11.88569164276123 0.9935439229011536 0 9
33.7901725769043 -11.146991729736328 11.690958976745605 0.565890371799469 0 9
33.808841705322266 -11.490605354309082 11.732633590698242 0.5638803243637085 0 9
33.82852554321289 -11.837031364440918 11.775860786437988 0.5618105530738831 0 9
33.73258590698242 -12.144393920898438 11.779934883117676 0.6820081472396851 0 9
33.38089370727539 -12.357382774353027 11.695380210876465 0.6869386434555054 0 9
33.03339767456055 -12.56705093383789 11.612689971923828 0.691830039024353 0 9
32.62871170043945 -12.749433517456055 11.51019287109375 0.6200107932090759 0 9
32.21558380126953 -12.922499656677246 11.404916763305664 0.6257339715957642 0 9
32.015132904052734 -13.17691421508789 11.375368118286133 0.7062636613845825 0 9
38.93683624267578 -18.10921859741211 14.109457969665527 0.84003084897995 0 9
36.886539459228516 -17.560077667236328 13.423070907592773 0.736477255821228 0 9
36.683589935302734 -17.869043350219727 13.407048225402832 0.5298935770988464 0 9
36.1526985168457 -18.013750076293945 13.271576881408691 0.5353024005889893 0 9
35.08082580566406 -17.87447166442871 12.936473846435547 0.3888854682445526 0 9
35.124019622802734 -18.295469284057617 13.012438774108887 0.5459623336791992 0 9
34.92134094238281 -18.59029197692871 12.998649597167969 0.8152698874473572 0 9
34.77238845825195 -18.91353416442871 13.005874633789062 0.3624074459075928 0 9
34.26608657836914 -19.03857421875 12.879899978637695 0.8002583384513855 0 9
35.12214279174805 -19.928964614868164 13.268388748168945 0.7698619365692139 0 9
34.791378021240234 -20.156230926513672 13.211240768432617 0.7731916308403015 0 9
34.74313735961914 -20.546953201293945 13.262425422668457 0.887056291103363 0 9
34.44989776611328 -20.793163299560547 13.221205711364746 0.8898221850395203 0 9
33.64249801635742 -21.562480926513672 13.129469871520996 0.7862485647201538 0 9
33.595916748046875 -21.960546493530273 13.187694549560547 0.7586233019828796 0 9
33.56021499633789 -22.36976432800293 13.251962661743164 0.7789808511734009 0 9
33.518795013427734 -22.779237747192383 13.31580638885498 0.7752459049224854 0 9
33.47718048095703 -23.192949295043945 13.38144302368164 0.7714436650276184 0 9
33.43534469604492 -23.610937118530273 13.44890022277832 0.7675744295120239 0 9
33.393287658691406 -24.03333854675293 13.518211364746094 0.7636387944221497 0 9
32.453643798828125 -23.802148818969727 13.223783493041992 0.08578115701675415 0 9
32.68973159790039 -24.42951202392578 13.408782958984375 0.5223508477210999 0 9
32.32608413696289 -24.613027572631836 13.349705696105957 0.5246626138687134 0 9
31.966501235961914 -24.795644760131836 13.292585372924805 0.5269170999526978 0 9
9.246855735778809 -8.300898551940918 4.082867622375488 0.6421894431114197 0 3
9.083476066589355 -8.302656173706055 4.043465614318848 0.6484475135803223 0 3
8.923178672790527 -8.304374694824219 4.005130290985107 0.6546533703804016 0 3
8.698637962341309 -8.242323875427246 3.9373958110809326 0.6816813945770264 0 3
8.674784660339355 -8.368749618530273 3.960437774658203 0.6669062376022339 0 3
8.522035598754883 -8.370390892028809 3.9248526096343994 0.6729528307914734 0 3
34.58938980102539 32.19078063964844 15.094789505004883 0.3430913984775543 0 9
31.541322708129883 24.015682220458984 12.6644287109375 0.7576071619987488 0 9
31.91526222229004 23.85087776184082 12.728102684020996 0.7538174390792847 0 9
31.458248138427734 23.072187423706055 12.462742805480957 0.08959740400314331 0 9
32.09762191772461 23.100955963134766 12.633384704589844 0.7571386694908142 0 9
32.1535758972168 22.705976486206055 12.574687004089355 0.7606732845306396 0 9
32.20927429199219 22.314706802368164 12.517617225646973 0.764140784740448 0 9
32.175498962402344 21.866483688354492 12.427717208862305 0.6274501085281372 0 9
32.319942474365234 21.543182373046875 12.408320426940918 0.7708719968795776 0 9
32.37495422363281 21.162578582763672 12.356016159057617 0.7741354703903198 0 9
33.210506439208984 21.2857608795166 12.60147762298584 0.4893013834953308 0 9
33.321651458740234 20.937421798706055 12.571825981140137 0.6170070767402649 0 9
33.71173858642578 20.762792587280273 12.648181915283203 0.851718544960022 0 9
34.05742645263672 20.55632781982422 12.708138465881348 0.847700297832489 0 9
32.70131301879883 19.33951187133789 12.136855125427246 0.8736034631729126 0 9
32.84439468383789 19.028339385986328 12.126081466674805 0.8743796944618225 0 9
32.987422943115234 18.71773338317871 12.11635971069336 0.8750810027122498 0 9
33.130393981933594 18.40771484375 12.10770034790039 0.8757071495056152 0 9
33.273345947265625 18.098182678222656 12.100089073181152 0.8762579560279846 0 9
30.19762420654297 16.075721740722656 10.928655624389648 0.19582204520702362 0 9
31.180755615234375 16.241601943969727 11.231246948242188 0.3217930793762207 0 9
30.234237670898438 15.405136108398438 10.840065956115723 0.6557462811470032 0 9
30.9539794921875 15.423437118530273 11.048035621643066 0.3298220634460449 0 9
30.60302734375 14.9072847366333 10.874585151672363 0.3350827693939209 0 9
36.93455123901367 17.583026885986328 13.067838668823242 0.6122681498527527 0 9
37.235267639160156 17.317930221557617 13.118701934814453 0.12130068242549896 0 9
38.374107360839844 17.430370330810547 13.464273452758789 0.9088823199272156 0 9
38.500938415527344 17.07275390625 13.454461097717285 0.5471389889717102 0 9
38.16020584106445 16.513418197631836 13.28305721282959 0.5541993975639343 0 9
38.01736068725586 16.04802703857422 13.182662963867188 0.613861083984375 0 9
30.646942138671875 12.61400318145752 10.587260246276855 0.669564425945282 0 9
30.83458709716797 12.368730545043945 10.613300323486328 0.6679214835166931 0 9
31.023725509643555 12.122421264648438 10.640525817871094 0.6662129759788513 0 9
31.214399337768555 11.875078201293945 10.66893196105957 0.6644390821456909 0 9
31.404726028442383 11.625917434692383 10.697884559631348 0.783058762550354 0 9
30.43922996520996 10.958867073059082 10.335066795349121 0.32422077655792236 0 9
31.19759750366211 10.9165620803833 10.558859825134277 0.3173491358757019 0 9
30.899539947509766 10.501933097839355 10.42565631866455 0.4064624309539795 0 9
31.54766273498535 10.407245635986328 10.612383842468262 0.3993102014064789 0 9
31.835025787353516 10.186171531677246 10.677875518798828 0.7232445478439331 0 9
31.717247009277344 9.835546493530273 10.608325958251953 0.4429749548435211 0 9
31.275373458862305 9.391640663146973 10.431925773620605 0.450465589761734 0 9
31.372404098510742 9.114569664001465 10.436575889587402 0.9413559436798096 0 9
31.388673782348633 8.814628601074219 10.415249824523926 0.9432836771011353 0 9
31.404836654663086 8.515800476074219 10.394826889038086 0.9451364874839783 0 9
31.415180206298828 8.216582298278809 10.373414993286133 0.8586702942848206 0 9
31.39520835876465 7.910956859588623 10.342960357666016 0.861198902130127 0 9
31.375473022460938 7.607226371765137 10.31355094909668 0.8636548519134521 0 9
31.355966567993164 7.305117130279541 10.285175323486328 0.866037905216217 0 9
31.33668327331543 7.004687309265137 10.25780963897705 0.8683480620384216 0 9
31.317617416381836 6.70583963394165 10.231451988220215 0.8705849051475525 0 9
31.515220642089844 6.452851295471191 10.27667236328125 0.9560033082962036 0 9
34.30618667602539 6.704003810882568 11.166692733764648 0.7595081925392151 0 9
31.61930274963379 5.884863376617432 10.274507522583008 0.5739837288856506 0 9
34.540122985839844 6.108222484588623 11.205341339111328 0.7568888068199158 0 9
34.65834426879883 5.808827877044678 11.226327896118164 0.7554738521575928 0 9
34.77744674682617 5.50830078125 11.248431205749512 0.7539889812469482 0 9
34.8974609375 5.206621170043945 11.271685600280762 0.7524340152740479 0 9
37.18547439575195 5.20730447769165 11.9951171875 0.2978361248970032 0 9
31.930355072021484 4.179511547088623 10.287424087524414 0.5808561444282532 0 9
31.211034774780273 3.8007616996765137 10.044281959533691 0.35499662160873413 0 9
32.107852935791016 3.617812395095825 10.322028160095215 0.6941636800765991 0 9
32.36856460571289 3.353222608566284 10.395744323730469 0.6892415285110474 0 9
33.22999954223633 3.141249895095825 10.662920951843262 0.9957295656204224 0 9
31.39505386352539 2.6836328506469727 10.065984725952148 0.9070532917976379 0 9
31.536840438842773 2.410878896713257 10.104107856750488 0.903631329536438 0 9
31.679378509521484 2.1359570026397705 10.143224716186523 0.9001467227935791 0 9
31.82267189025879 1.858828067779541 10.183347702026367 0.8965996503829956 0 9
33.34849166870117 1.6477148532867432 10.666455268859863 0.10120983421802521 0 9
33.5538444519043 1.3561718463897705 10.727806091308594 0.9897072315216064 0 9
33.607330322265625 1.056249976158142 10.741446495056152 0.9884505867958069 0 9
33.66070556640625 0.755566418170929 10.755912780761719 0.9871219992637634 0 9
33.71397018432617 0.45402342081069946 10.77119255065918 0.9857213497161865 0 9
33.767127990722656 0.1515820324420929 10.78730583190918 0.9842488765716553 0 9
32.70425033569336 -0.7339648008346558 10.45028305053711 0.4371752142906189 0 9
32.9024658203125 -1.0339843034744263 10.516164779663086 0.35509222745895386 0 9
32.50315475463867 -1.3134961128234863 10.391880989074707 0.7387429475784302 0 9
32.4020881652832 -1.60085928440094 10.36375617980957 0.5958677530288696 0 9
32.57139205932617 -1.9024609327316284 10.422943115234375 0.5924837589263916 0 9
32.74333190917969 -2.207578182220459 10.483884811401367 0.5890399217605591 0 9
31.625043869018555 -2.417558431625366 10.132369041442871 0.08961958438158035 0 9
32.36386489868164 -2.766347646713257 10.376615524291992 0.6276657581329346 0 9
32.59333801269531 -3.080937385559082 10.458635330200195 0.6227434277534485 0 9
32.826881408691406 -3.400585889816284 10.54294204711914 0.6177634596824646 0 9
33.0626335144043 -3.725175619125366 10.628968238830566 0.6005704402923584 0 9
32.67640686035156 -3.9789843559265137 10.515862464904785 0.6070299744606018 0 9
32.78829574584961 -4.291659832000732 10.563847541809082 0.7993265390396118 0 9
32.354408264160156 -4.530624866485596 10.436735153198242 0.9624706506729126 0 9
32.30994415283203 -4.820468425750732 10.435935020446777 0.9625447988510132 0 9
32.26545715332031 -5.110253810882568 10.435962677001953 0.9625424146652222 0 9
32.2103157043457 -5.398339748382568 10.43337631225586 0.8916693925857544 0 9
32.1357307434082 -5.682870864868164 10.425318717956543 0.8923584818840027 0 9
32.061397552490234 -5.966991901397705 10.41816520690918 0.8929715156555176 0 9
31.987289428710938 -6.250781059265137 10.41188907623291 0.8935092687606812 0 9
31.91339683532715 -6.534199237823486 10.406512260437012 0.8939710259437561 0 9
31.839712142944336 -6.817519187927246 10.402021408081055 0.8943570852279663 0 9
31.76621437072754 -7.100566387176514 10.398421287536621 0.8946672677993774 0 9
31.90780258178711 -7.433574199676514 10.466184616088867 0.9597628712654114 0 9
32.03959655761719 -7.76806640625 10.5318603515625 0.5557951927185059 0 9
35.129844665527344 -8.85189437866211 11.573326110839844 0.6928555965423584 0 9
35.185813903808594 -9.54091739654541 11.646319389343262 0.9884843230247498 0 9
35.05534744262695 -9.844179153442383 11.631916999816895 0.9897084832191467 0 9
34.92496109008789 -10.146581649780273 11.618408203125 0.9908595085144043 0 9
34.79463195800781 -10.4483003616333 11.605780601501465 0.9919372200965881 0 9
31.97698211669922 -9.915976524353027 10.69520378112793 0.5587581396102905 0 9
33.4955940246582 -11.049765586853027 11.267664909362793 0.5723943710327148 0 9
33.5130615234375 -11.390019416809082 11.307477951049805 0.5703790187835693 0 9
33.531490325927734 -11.733105659484863 11.348772048950195 0.5683034658432007 0 9
33.5508918762207 -12.07900333404541 11.391584396362305 0.5661680698394775 0 9
33.57126998901367 -12.427870750427246 11.435914993286133 0.5639731884002686 0 9
33.29816818237305 -12.667675971984863 11.381159782409668 0.688165009021759 0 9
32.893394470214844 -12.852831840515137 11.281783103942871 0.6166672706604004 0 9
32.47449493408203 -13.026386260986328 11.17777156829834 0.6224058270454407 0 9
33.663028717041016 -13.85521411895752 11.62920093536377 0.5545995831489563 0 9
37.9714241027832 -17.660215377807617 13.378063201904297 0.8170661926269531 0 9
37.0025520324707 -17.615312576293945 13.091888427734375 0.5290132164955139 0 9
36.46550750732422 -17.7628116607666 12.957765579223633 0.5344889760017395 0 9
35.939945220947266 -17.907733917236328 12.827614784240723 0.5399115681648254 0 9
34.89768981933594 -17.781171798706055 12.512078285217285 0.3919719457626343 0 9
34.94112777709961 -18.2001953125 12.58572006225586 0.8208589553833008 0 9
34.81599807739258 -18.534217834472656 12.600065231323242 0.8199244141578674 0 9
34.4573860168457 -18.7421875 12.530661582946777 0.15091457962989807 0 9
34.56570816040039 -19.205097198486328 12.632233619689941 0.8178362250328064 0 9
34.440513610839844 -19.54214859008789 12.650081634521484 0.8166826963424683 0 9
34.31523895263672 -19.88037109375 12.669103622436523 0.8154563903808594 0 9
34.740684509277344 -20.545488357543945 12.89373779296875 0.7723227739334106 0 9
34.41006851196289 -20.769140243530273 12.839719772338867 0.7755725979804993 0 9
34.967403411865234 -21.971405029296875 13.1927490234375 0.525841474533081 0 9
37.75198745727539 -24.196386337280273 14.324710845947266 0.8783771991729736 0 9
33.511837005615234 -21.90558624267578 12.789901733398438 0.7625612020492554 0 9
33.480430603027344 -22.31658172607422 12.853853225708008 0.7587673664093018 0 9
33.448936462402344 -22.731815338134766 12.919569969177246 0.7549074292182922 0 9
33.40717315673828 -23.144412994384766 12.983158111572266 0.7751284837722778 0 9
33.26548385620117 -23.490995407104492 13.009531021118164 0.7385280728340149 0 9
32.7985725402832 -23.60527229309082 12.909266471862793 0.7442638278007507 0 9
32.33851623535156 -23.717714309692383 12.811467170715332 0.749945342540741 0 9
32.36582565307617 -24.187381744384766 12.90777587890625 0.5289899110794067 0 9
30.366186141967773 -23.12076187133789 12.19257926940918 0.25295260548591614 0 9
32.883121490478516 -25.50666046142578 13.294570922851562 0.7036184668540955 0 9
9.246865272521973 -8.300898551940918 3.969653606414795 0.6439069509506226 0 3
9.083476066589355 -8.302656173706055 3.9313361644744873 0.6501821279525757 0 3
8.92318344116211 -8.304374694824219 3.8940675258636475 0.6564046144485474 0 3
8.698320388793945 -8.242011070251465 3.82806658744812 0.6835301518440247 0 3
8.674795150756836 -8.368749618530273 3.850616693496704 0.6686898469924927 0 3
8.522040367126465 -8.370390892028809 3.816014528274536 0.6747528314590454 0 3
34.27204132080078 33.0632209777832 14.781302452087402 0.38532716035842896 0 9
34.279109954833984 31.9019718170166 14.53496265411377 0.3470972180366516 0 9
34.429466247558594 31.469980239868164 14.478352546691895 0.6145719289779663 0 9
34.561344146728516 31.02568244934082 14.41612720489502 0.6172250509262085 0 9
31.831649780273438 23.788436889648438 12.334586143493652 0.7577624917030334 0 9
31.95050048828125 23.4332218170166 12.298643112182617 0.757645845413208 0 9
30.956998825073242 22.280019760131836 11.838750839233398 0.6416419148445129 0 9
31.436908721923828 22.19986343383789 11.94559383392334 0.6359027624130249 0 9
31.92498207092285 22.117733001708984 12.05513858795166 0.6301246881484985 0 9
32.113582611083984 21.82437515258789 12.05189037322998 0.25566336512565613 0 9
32.230308532714844 21.483379364013672 12.022846221923828 0.7750259637832642 0 9
32.2855339050293 21.104101181030273 11.972304344177246 0.7782979607582092 0 9
32.34054946899414 20.7281436920166 11.923215866088867 0.7815013527870178 0 9
32.3953742980957 20.35542869567871 11.875592231750488 0.7846359014511108 0 9
33.878726959228516 20.865663528442383 12.35020637512207 0.849724292755127 0 9
34.22693634033203 20.65865135192871 12.409046173095703 0.8456953763961792 0 9
32.64041519165039 19.303495407104492 11.770553588867188 0.8775087594985962 0 9
32.78329086303711 18.992929458618164 11.760124206542969 0.8782871961593628 0 9
30.731624603271484 17.437772750854492 10.967552185058594 0.669715404510498 0 9
30.95682716369629 17.200057983398438 10.992377281188965 0.6682029366493225 0 9
31.183595657348633 16.9615421295166 11.01839542388916 0.6666250228881836 0 9
30.673635482788086 16.329139709472656 10.785984992980957 0.6420019268989563 0 9
30.455402374267578 15.863749504089355 10.658737182617188 0.1955917477607727 0 9
30.350568771362305 15.464374542236328 10.573049545288086 0.6549315452575684 0 9
30.491317749023438 15.192968368530273 10.574146270751953 0.3356972336769104 0 9
37.41059112548828 18.22327995300293 12.916448593139648 0.6034350991249084 0 9
37.187381744384766 17.703378677368164 12.784000396728516 0.6096867918968201 0 9
37.76445388793945 17.5640811920166 12.927661895751953 0.11991214752197266 0 9
38.45492935180664 17.46710968017578 13.109833717346191 0.8825225830078125 0 9
38.67415237426758 17.14958953857422 13.131559371948242 0.5461044907569885 0 9
38.3297004699707 16.586835861206055 12.96352767944336 0.5531828999519348 0 9
38.119266510009766 16.091033935546875 12.842978477478027 0.6138119697570801 0 9
31.090843200683594 12.796640396118164 10.43588638305664 0.5884019732475281 0 9
30.86286735534668 12.380097389221191 10.321648597717285 0.7906265258789062 0 9
30.831668853759766 12.0474214553833 10.274640083312988 0.6721059083938599 0 9
31.02065086364746 11.801386833190918 10.30189323425293 0.6703273057937622 0 9
30.163320541381836 11.166366577148438 9.983494758605957 0.3269639015197754 0 9
30.650712966918945 11.03499984741211 10.11161994934082 0.2904231548309326 0 9
30.996124267578125 10.846113204956055 10.193044662475586 0.7380641102790833 0 9
31.234262466430664 10.615683555603027 10.239598274230957 0.7347080707550049 0 9
31.474897384643555 10.383261680603027 10.28752326965332 0.7312856316566467 0 9
31.7181339263916 10.148808479309082 10.336835861206055 0.727797269821167 0 9
31.694536209106445 9.82851505279541 10.299980163574219 0.4444451332092285 0 9
31.890790939331055 9.576464653015137 10.335405349731445 0.660780668258667 0 9
31.387130737304688 9.118866920471191 10.145237922668457 0.9433608651161194 0 9
31.403371810913086 8.818730354309082 10.124491691589355 0.9452935457229614 0 9
31.39279556274414 8.512499809265137 10.09604263305664 0.859459638595581 0 9
31.372737884521484 8.20546817779541 10.065500259399414 0.8620676398277283 0 9
31.352914810180664 7.900292873382568 10.035982131958008 0.86460280418396 0 9
31.333324432373047 7.596992015838623 10.00748062133789 0.8670651912689209 0 9
31.483070373535156 7.334706783294678 10.033876419067383 0.9538305997848511 0 9
33.6346549987793 7.518378734588623 10.697667121887207 0.11806223541498184 0 9
33.93201446533203 7.265683650970459 10.771065711975098 0.767055332660675 0 9
34.04631423950195 6.971113204956055 10.7870454788208 0.765918493270874 0 9
34.1613655090332 6.675742149353027 10.804079055786133 0.7647111415863037 0 9
34.27718734741211 6.379570007324219 10.822160720825195 0.7634332180023193 0 9
34.39381408691406 6.082363128662109 10.841313362121582 0.7620849013328552 0 9
34.51125717163086 5.784140586853027 10.86152458190918 0.7606664896011353 0 9
34.62957763671875 5.484843730926514 10.882834434509277 0.7591774463653564 0 9
35.87454605102539 5.352421760559082 11.258532524108887 0.30912089347839355 0 9
36.157554626464844 5.063359260559082 11.332626342773438 0.9865740537643433 0 9
31.518739700317383 4.125605583190918 9.866705894470215 0.707428514957428 0 9
31.770647048950195 3.8689258098602295 9.934295654296875 0.7026159167289734 0 9
31.59914207458496 3.560488224029541 9.87027359008789 0.35191839933395386 0 9
31.297260284423828 3.24224591255188 9.766497611999512 0.35565847158432007 0 9
32.549156188964844 3.076914072036743 10.148125648498535 0.6878108382225037 0 9
31.51828384399414 2.6941990852355957 9.818788528442383 0.9058559536933899 0 9
31.661115646362305 2.4203906059265137 9.856122016906738 0.9024251103401184 0 9
31.804697036743164 2.1443943977355957 9.894428253173828 0.8989313840866089 0 9
31.949052810668945 1.8662109375 9.93372631072998 0.89537513256073 0 9
32.09423065185547 1.5857421159744263 9.97403621673584 0.8917562961578369 0 9
32.20056915283203 1.3014452457427979 10.003052711486816 0.850075900554657 0 9
32.05611801147461 1.007480502128601 9.954974174499512 0.854181706905365 0 9
31.91300392150879 0.71630859375 9.908135414123535 0.8582199215888977 0 9
31.77116584777832 0.4278320074081421 9.862504959106445 0.8621904253959656 0 9
33.663448333740234 0.15111327171325684 10.449068069458008 0.6130253076553345 0 9
32.99003601074219 -0.74037104845047 10.24251937866211 0.43451452255249023 0 9
33.30278396606445 -1.0465624332427979 10.342129707336426 0.351735919713974 0 9
33.02782440185547 -1.3346874713897705 10.26004695892334 0.8219590187072754 0 9
32.79885482788086 -1.620449185371399 10.193015098571777 0.8915988802909851 0 9
32.34226989746094 -1.889101505279541 10.055992126464844 0.5982325077056885 0 9
32.0206413269043 -2.158867120742798 9.961613655090332 0.1686718761920929 0 9
31.724367141723633 -2.4251365661621094 9.87581729888916 0.08957165479660034 0 9
32.851654052734375 -2.808046817779541 10.234176635742188 0.8797644972801208 0 9
32.45309066772461 -3.067695140838623 10.118183135986328 0.6270607709884644 0 9
32.68449020385742 -3.38580060005188 10.199393272399902 0.6220679879188538 0 9
32.9200553894043 -3.709160089492798 10.282877922058105 0.6170175671577454 0 9
33.15993881225586 -4.037890434265137 10.368714332580566 0.6119096875190735 0 9
33.404296875 -4.372304439544678 10.456968307495117 0.606745183467865 0 9
32.36447525024414 -4.531991958618164 10.143789291381836 0.9646729826927185 0 9
32.312557220458984 -4.820839881896973 10.140677452087402 0.8936967849731445 0 9
32.23759841918945 -5.105859279632568 10.131118774414062 0.8945389986038208 0 9
32.16291427612305 -5.390429496765137 10.122446060180664 0.8953056335449219 0 9
32.08847427368164 -5.674511432647705 10.114645004272461 0.89599609375 0 9
32.01428985595703 -5.958241939544678 10.107715606689453 0.8966109156608582 0 9
31.9403076171875 -6.241640567779541 10.10163688659668 0.8971499800682068 0 9
34.59579086303711 -7.083515644073486 10.961142539978027 0.7126446962356567 0 9
34.66707992553711 -7.422948837280273 11.004401206970215 0.7098433971405029 0 9
34.739402770996094 -7.76513671875 11.04903793334961 0.7069756984710693 0 9
34.8127555847168 -8.110292434692383 11.095075607299805 0.7040421962738037 0 9
34.88719940185547 -8.458515167236328 11.142548561096191 0.7010423541069031 0 9
34.962745666503906 -8.809804916381836 11.191482543945312 0.6979770064353943 0 9
35.03942108154297 -9.164336204528809 11.241900444030762 0.6948466300964355 0 9
35.00681686401367 -10.170331954956055 11.315237998962402 0.9911126494407654 0 9
31.61217498779297 -9.492636680603027 10.245104789733887 0.5682305097579956 0 9
31.088069915771484 -9.640351295471191 10.10289192199707 0.4504151940345764 0 9
32.1427001953125 -10.284491539001465 10.475199699401855 0.5557489991188049 0 9
32.938140869140625 -10.86587905883789 10.765782356262207 0.9586364030838013 0 9
32.924198150634766 -11.189960479736328 10.793619155883789 0.9561640024185181 0 9
32.909934997558594 -11.515585899353027 10.822400093078613 0.9536219239234924 0 9
31.12191390991211 -11.204550743103027 10.267071723937988 0.8048150539398193 0 9
32.13724136352539 -11.896991729736328 10.636822700500488 0.060181066393852234 0 9
32.86518859863281 -12.503026962280273 10.914471626281738 0.9455775022506714 0 9
32.849605560302734 -12.835741996765137 10.947117805480957 0.9427574872970581 0 9
32.73618698120117 -13.13134765625 10.948168754577637 0.6190356016159058 0 9
32.81740188598633 -13.507147789001465 11.015423774719238 0.9369112849235535 0 9
32.80077362060547 -13.845917701721191 11.051121711730957 0.9338855147361755 0 9
37.40436935424805 -17.396522521972656 12.804393768310547 0.18944230675697327 0 9
36.782798767089844 -17.51070213317871 12.644906997680664 0.533557653427124 0 9
36.28677749633789 -17.675722122192383 12.528427124023438 0.505795955657959 0 9
36.70235061645508 -18.287616729736328 12.728062629699707 0.6952806115150452 0 9
34.9495735168457 -17.8076171875 12.1751708984375 0.7405853271484375 0 9
34.836708068847656 -18.14583969116211 12.19210433959961 0.8254600167274475 0 9
34.71183395385742 -18.478788375854492 12.205958366394043 0.8245229721069336 0 9
34.58694839477539 -18.812694549560547 12.220930099487305 0.8235127925872803 0 9
33.39997482299805 -18.55742073059082 11.859906196594238 0.24078303575515747 0 9
34.05738067626953 -19.324745178222656 12.15444278717041 0.15156413614749908 0 9
34.21202087402344 -19.820585250854492 12.272639274597168 0.8200433254241943 0 9
34.08686828613281 -20.158926010131836 12.292162895202637 0.8187410235404968 0 9
33.96159744262695 -20.498416900634766 12.312840461730957 0.8173659443855286 0 9
34.99508285522461 -21.553085327148438 12.757163047790527 0.5297415852546692 0 9
35.24498748779297 -22.14582061767578 12.920207977294922 0.5230565667152405 0 9
37.1529426574707 -23.812519073486328 13.69743824005127 0.32488390803337097 0 9
33.42861557006836 -21.851152420043945 12.3961763381958 0.7664473056793213 0 9
33.39686584472656 -22.260839462280273 12.457995414733887 0.7626436948776245 0 9
33.36503219604492 -22.6748046875 12.521543502807617 0.7587734460830688 0 9
33.333099365234375 -23.09310531616211 12.586841583251953 0.7548370957374573 0 9
33.13580322265625 -23.3994140625 12.591145515441895 0.5282766819000244 0 9
32.76963424682617 -23.58445167541504 12.53194522857666 0.5307726263999939 0 9
32.40768814086914 -23.768417358398438 12.474614143371582 0.5332118272781372 0 9
32.04990005493164 -23.95134735107422 12.419143676757812 0.5355932712554932 0 9
30.993253707885742 -23.598222732543945 12.091300010681152 0.24847961962223053 0 9
29.773178100585938 -23.094335556030273 11.695697784423828 0.1274542659521103 0 9
32.91919708251953 -26.011268615722656 13.022748947143555 0.6997400522232056 0 9
9.246874809265137 -8.300898551940918 3.8570284843444824 0.6455807089805603 0 3
9.083486557006836 -8.302656173706055 3.8198025226593018 0.6518720388412476 0 3
8.923192977905273 -8.304374694824219 3.7835922241210938 0.6581105589866638 0 3
8.698007583618164 -8.24169921875 3.719320297241211 0.6853325963020325 0 3
8.674799919128418 -8.368749618530273 3.7413735389709473 0.6704277992248535 0 3
8.522046089172363 -8.370390892028809 3.7077553272247314 0.676506757736206 0 3
34.43400192260742 33.219356536865234 14.41970443725586 0.8293853402137756 0 9
34.58625411987305 32.772090911865234 14.359697341918945 0.6031684875488281 0 9
33.97580337524414 31.61978530883789 13.987846374511719 0.3510798215866089 0 9
34.856605529785156 31.860448837280273 14.232156753540039 0.6085739135742188 0 9
34.98826599121094 31.40902328491211 14.170223236083984 0.6112334132194519 0 9
35.117637634277344 30.960371017456055 14.10949420928955 0.6138643622398376 0 9
33.52714157104492 26.00632667541504 12.787775993347168 0.26158541440963745 0 9
33.6624641418457 25.630643844604492 12.751126289367676 0.26233723759651184 0 9
31.79353141784668 23.75992202758789 11.961910247802734 0.7267351746559143 0 9
30.710126876831055 22.523534774780273 11.477771759033203 0.6442182660102844 0 9
31.1877498626709 22.44613265991211 11.580510139465332 0.6385029554367065 0 9
31.673431396484375 22.36685562133789 11.685832023620605 0.6327482461929321 0 9
32.02999496459961 22.190486907958984 11.743428230285645 0.7723613381385803 0 9
32.0859260559082 21.805585861206055 11.691696166992188 0.7757784128189087 0 9
31.567768096923828 21.041738510131836 11.433602333068848 0.09260827302932739 0 9
32.197059631347656 21.046289443969727 11.592636108398438 0.7824074029922485 0 9
32.252288818359375 20.67156219482422 11.545247077941895 0.7856189012527466 0 9
32.570438385009766 20.46533203125 11.592909812927246 0.7498673796653748 0 9
34.04650115966797 20.968984603881836 12.050811767578125 0.847672164440155 0 9
29.877424240112305 18.033397674560547 10.517444610595703 0.6798012256622314 0 9
30.096445083618164 17.799041748046875 10.537877082824707 0.6784827709197998 0 9
30.316862106323242 17.564002990722656 10.559419631958008 0.6770984530448914 0 9
30.53870964050293 17.32828140258789 10.5820894241333 0.6756480932235718 0 9
30.762041091918945 17.091815948486328 10.605880737304688 0.6741321086883545 0 9
30.96178436279297 16.840879440307617 10.622206687927246 0.6345604658126831 0 9
30.793903350830078 16.393163681030273 10.513702392578125 0.6411092877388 0 9
30.629079818725586 15.954237937927246 10.40811538696289 0.6476132869720459 0 9
30.383005142211914 15.480937004089355 10.276861190795898 0.33622050285339355 0 9
31.6862735748291 15.78831958770752 10.669315338134766 0.32120847702026367 0 9
31.904767990112305 15.541308403015137 10.695486068725586 0.6125382781028748 0 9
36.97537612915039 17.602460861206055 12.341841697692871 0.4064631760120392 0 9
37.21889877319336 17.310331344604492 12.37077522277832 0.6132937073707581 0 9
38.33453369140625 17.41240119934082 12.689126014709473 0.5093352794647217 0 9
38.78863525390625 17.20033073425293 12.787811279296875 0.6000629663467407 0 9
38.49980163574219 16.660409927368164 12.642781257629395 0.552129864692688 0 9
39.964271545410156 16.869842529296875 13.073445320129395 0.8710668683052063 0 9
31.055702209472656 12.782167434692383 10.121268272399902 0.5110279321670532 0 9
31.586835861206055 12.670527458190918 10.256885528564453 0.5042707920074463 0 9
31.324886322021484 12.240117073059082 10.135737419128418 0.7061029076576233 0 9
30.830270767211914 11.728944778442383 9.941227912902832 0.6761699914932251 0 9
30.627182006835938 11.33812427520752 9.842535972595215 0.32282504439353943 0 9
30.66739273071289 11.041015625 9.82320785522461 0.2909983694553375 0 9
31.401578903198242 10.98794937133789 10.02638053894043 0.6704274415969849 0 9
31.59528160095215 10.738398551940918 10.057056427001953 0.6683827638626099 0 9
31.360877990722656 10.345643997192383 9.952486038208008 0.7357977628707886 0 9
31.60268783569336 10.111855506896973 10.000009536743164 0.7323004007339478 0 9
31.8471622467041 9.875839233398438 10.048916816711426 0.7287367582321167 0 9
32.09436798095703 9.637578010559082 10.099210739135742 0.7251074314117432 0 9
31.401790618896484 9.1231050491333 9.855111122131348 0.9453016519546509 0 9
31.37065887451172 8.809589385986328 9.820130348205566 0.860104501247406 0 9
31.350521087646484 8.501073837280273 9.789546012878418 0.8627917170524597 0 9
31.330617904663086 8.194472312927246 9.759969711303711 0.8654062747955322 0 9
34.03794479370117 8.576913833618164 10.578927993774414 0.7666632533073425 0 9
33.66276931762695 8.161718368530273 10.439135551452637 0.3660583794116974 0 9
33.8521614074707 7.886601448059082 10.475499153137207 0.7742332816123962 0 9
32.80656051635742 7.333241939544678 10.1311616897583 0.12134789675474167 0 9
33.670799255371094 7.209706783294678 10.377639770507812 0.7815335392951965 0 9
33.904144287109375 6.941991806030273 10.429944038391113 0.771072506904602 0 9
34.018489837646484 6.647812366485596 10.446340560913086 0.7698622345924377 0 9
36.281654357910156 6.752538681030273 11.12224292755127 0.9784972071647644 0 9
36.27760314941406 6.415488243103027 11.102909088134766 0.9802017211914062 0 9
36.27329635620117 6.079492092132568 11.084446907043457 0.9818345904350281 0 9
34.65326690673828 5.488613128662109 10.573904991149902 0.3203810453414917 0 9
35.399837493896484 5.281581878662109 10.786813735961914 0.3140574097633362 0 9
31.19316864013672 4.368124961853027 9.49265193939209 0.7157463431358337 0 9
31.440345764160156 4.115332126617432 9.556245803833008 0.7109836935997009 0 9
31.691076278686523 3.8592381477355957 9.621536254882812 0.7061586976051331 0 9
31.945491790771484 3.5995311737060547 9.688577651977539 0.7012724876403809 0 9
31.990591049194336 3.314081907272339 9.692849159240723 0.34882840514183044 0 9
31.498754501342773 2.9775781631469727 9.535340309143066 0.9079728722572327 0 9
31.64187240600586 2.704726457595825 9.570929527282715 0.9045966863632202 0 9
31.78572654724121 2.429941415786743 9.60745906829834 0.9011572599411011 0 9
31.930355072021484 2.152890682220459 9.644943237304688 0.8976549506187439 0 9
32.07578659057617 1.8736132383346558 9.683406829833984 0.8940895795822144 0 9
31.813289642333984 1.5718945264816284 9.599510192871094 0.13327264785766602 0 9
32.217281341552734 1.302148461341858 9.717494010925293 0.8517804741859436 0 9
32.07268524169922 1.0080273151397705 9.670764923095703 0.8558967113494873 0 9
31.929418563842773 0.7166991829872131 9.625239372253418 0.8599449992179871 0 9
31.787433624267578 0.428046852350235 9.580890655517578 0.8639253973960876 0 9
33.95170211791992 0.15242187678813934 10.23238468170166 0.9839218854904175 0 9
33.03342056274414 -0.7413671612739563 9.95804500579834 0.355585515499115 0 9
33.71086502075195 -1.0593749284744263 10.164727210998535 0.3483555018901825 0 9
32.8071403503418 -1.3258007764816284 9.89541244506836 0.8939849734306335 0 9
32.75145721435547 -1.6181445121765137 9.88260269165039 0.8951438665390015 0 9
32.54049301147461 -1.9006445407867432 9.823700904846191 0.8921464681625366 0 9
32.53353500366211 -2.193437337875366 9.827139854431152 0.7407646775245667 0 9
31.82370376586914 -2.432695150375366 9.618945121765137 0.08951763808727264 0 9
32.31072998046875 -2.7618162631988525 9.773250579833984 0.8399481773376465 0 9
32.13486099243164 -3.0375585556030273 9.727910995483398 0.843862771987915 0 9
31.960145950317383 -3.3107616901397705 9.68362045288086 0.847722053527832 0 9
31.786556243896484 -3.581425666809082 9.640376091003418 0.8515244722366333 0 9
33.015098571777344 -4.020273208618164 10.023520469665527 0.6161462664604187 0 9
33.25714874267578 -4.353046894073486 10.108464241027832 0.6109687685966492 0 9
32.37449264526367 -4.533437252044678 9.852151870727539 0.9668097496032715 0 9
32.26523208618164 -4.813808441162109 9.831652641296387 0.8972678184509277 0 9
32.190433502197266 -5.098378658294678 9.822408676147461 0.8981122374534607 0 9
32.11589431762695 -5.382499694824219 9.814018249511719 0.8988804817199707 0 9
34.157501220703125 -6.040429592132568 10.454046249389648 0.51975417137146 0 9
33.68608474731445 -6.269296646118164 10.326557159423828 0.27728837728500366 0 9
33.31915283203125 -6.51101541519165 10.231598854064941 0.06763312220573425 0 9
34.436180114746094 -7.050839900970459 10.59361457824707 0.7177556753158569 0 9
34.50651550292969 -7.388574123382568 10.635228157043457 0.7149474024772644 0 9
34.57784652709961 -7.729023456573486 10.678159713745117 0.7120726108551025 0 9
34.65019607543945 -8.072441101074219 10.722452163696289 0.7091311812400818 0 9
34.72359848022461 -8.41884708404541 10.768115997314453 0.7061241269111633 0 9
35.73357009887695 -9.004042625427246 11.105936050415039 0.1635643094778061 0 9
36.23757553100586 -9.477734565734863 11.28857135772705 0.9997344613075256 0 9
32.321048736572266 -9.390077590942383 10.143617630004883 0.4366745352745056 0 9
31.51265525817871 -9.46279239654541 9.916163444519043 0.5714641809463501 0 9
31.624250411987305 -9.806620597839355 9.97857666015625 0.44389665126800537 0 9
31.28207778930664 -10.00917911529541 9.89855670928955 0.4474850594997406 0 9
32.31193161010742 -10.659276962280273 10.25429916381836 0.5526205897331238 0 9
32.94117736816406 -11.195761680603027 10.485466003417969 0.583259105682373 0 9
31.16834831237793 -10.90625 9.951921463012695 0.8082161545753479 0 9
31.256864547729492 -11.253144264221191 10.012029647827148 0.803364098072052 0 9
31.346088409423828 -11.604101181030273 10.073575019836426 0.7984560132026672 0 9
32.95432662963867 -12.53695297241211 10.626131057739258 0.9454011917114258 0 9
32.93896484375 -12.870683670043945 10.658003807067871 0.9425742626190186 0 9
32.92327880859375 -13.206366539001465 10.690853118896484 0.9396781325340271 0 9
32.90724182128906 -13.544120788574219 10.724700927734375 0.9367130398750305 0 9
32.8908576965332 -13.8838472366333 10.759538650512695 0.9336795806884766 0 9
36.55439758300781 -17.001171112060547 12.149898529052734 0.708993136882782 0 9
36.68052673339844 -17.462011337280273 12.243422508239746 0.7035769820213318 0 9
36.36631393432617 -17.71451187133789 12.191128730773926 0.1936795562505722 0 9
36.56205368041992 -18.217695236206055 12.311075210571289 0.19179262220859528 0 9
34.78857421875 -17.725605010986328 11.767017364501953 0.7458913326263428 0 9
34.70286560058594 -18.076053619384766 11.792428970336914 0.7442840933799744 0 9
34.60882568359375 -18.423906326293945 11.816194534301758 0.8290656208992004 0 9
34.48418426513672 -18.756757736206055 11.830649375915527 0.8280526995658875 0 9
34.08302688598633 -18.936992645263672 11.750859260559082 0.2365533411502838 0 9
34.23476791381836 -19.425390243530273 11.86281967163086 0.8258072733879089 0 9
33.94826889038086 -19.667734146118164 11.82424545288086 0.795111358165741 0 9
33.631282806396484 -19.889413833618164 11.775540351867676 0.15227995812892914 0 9
33.85992431640625 -20.437030792236328 11.91935920715332 0.8218904137611389 0 9
33.73468780517578 -20.77685546875 11.940436363220215 0.8204391002655029 0 9
33.60927963256836 -21.118066787719727 11.962656021118164 0.8189150094985962 0 9
35.75789260864258 -22.91830062866211 12.800135612487793 0.5353450775146484 0 9
36.299251556396484 -23.72767448425293 13.06964111328125 0.33143314719200134 0 9
33.314151763916016 -22.20572280883789 12.066120147705078 0.7664681077003479 0 9
33.281978607177734 -22.618358612060547 12.127514839172363 0.7625880837440491 0 9
33.24968719482422 -23.03533172607422 12.190608024597168 0.7586415410041809 0 9
33.21728515625 -23.456972122192383 12.255424499511719 0.7546287775039673 0 9
32.95930480957031 -23.72099494934082 12.238311767578125 0.7444354891777039 0 9
32.495765686035156 -23.833045959472656 12.1451416015625 0.7501463890075684 0 9
33.0971565246582 -24.733964920043945 12.452377319335938 0.7663406729698181 0 9
36.07777404785156 -27.469608306884766 13.666021347045898 0.8742842674255371 0 9
30.563016891479492 -23.70701026916504 11.657208442687988 0.2508769631385803 0 9
29.538846969604492 -23.340194702148438 11.346016883850098 0.2577577233314514 0 9
9.2468843460083 -8.300898551940918 3.744983196258545 0.647210419178009 0 3
9.08349609375 -8.302656173706055 3.7088398933410645 0.6535175442695618 0 3
8.923202514648438 -8.304374694824219 3.673678159713745 0.6597720384597778 0 3
8.6976900100708 -8.241425514221191 3.611142158508301 0.6870882511138916 0 3
8.6748046875 -8.368788719177246 3.6326863765716553 0.6721205115318298 0 3
8.522055625915527 -8.370429039001465 3.600043535232544 0.6782147884368896 0 3
34.07563400268555 33.469356536865234 13.966300010681152 0.8328537344932556 0 9
34.948150634765625 32.52466583251953 13.959805488586426 0.8708495497703552 0 9
34.63608169555664 31.65884780883789 13.721080780029297 0.3481014370918274 0 9
35.423667907714844 31.799861907958984 13.919437408447266 0.6052005290985107 0 9
35.472904205322266 31.27359390258789 13.827935218811035 0.44279909133911133 0 9
35.403892517089844 30.65234375 13.693218231201172 0.44715529680252075 0 9
