ply
format ascii 1.0
element vertex 1380
property float32 x
property float32 y
property float32 z
property float32 CosAngle
property uint32 ObjIdx
property uint32 ObjTag
end_header
9.8669 -9.8669 0.0575 0.7028 0 3
11.3978 -9.8763 0.0622 0.6502 0 3
13.2079 -9.8874 0.0680 0.5944 0 3
15.4058 -9.9008 0.0755 0.5355 0 3
18.1149 -9.8915 0.0851 0.4739 0 3
18.6539 2.6820 0.0777 0.3295 0 6
29.9329 6.5115 0.1263 0.9758 0 3
22.3500 6.5625 0.0960 0.9577 0 3
22.2700 8.3062 0.0980 0.3552 0 3
14.4234 6.5869 0.0654 0.9071 0 3
12.0944 6.6039 0.0568 0.8747 0 3
12.9820 8.3430 0.0636 0.5458 0 3
8.8387 6.6165 0.0455 0.7969 0 3
7.6307 6.6120 0.0416 0.6595 0 3
9.8669 -9.8669 -0.0575 0.7028 0 3
11.3978 -9.8763 -0.0622 0.6502 0 3
13.2079 -9.8873 -0.0680 0.5944 0 3
15.4058 -9.9007 -0.0755 0.5355 0 3
18.1148 -9.8915 -0.0851 0.4739 0 3
18.6519 2.6817 -0.0777 0.3295 0 6
21.3166 4.6371 -0.0899 0.5235 281 12
22.3502 6.5626 -0.0960 0.9577 0 3
22.2701 8.3063 -0.0980 0.3552 0 3
14.4235 6.5869 -0.0654 0.9071 0 3
12.0945 6.6040 -0.0568 0.8747 0 3
12.9820 8.3430 -0.0636 0.5458 0 3
8.8388 6.6166 -0.0455 0.7969 0 3
7.6307 6.6120 -0.0416 0.6595 0 3
9.8669 -9.8669 -0.1726 0.7027 0 3
11.3977 -9.8763 -0.1865 0.6502 0 3
13.2078 -9.8873 -0.2041 0.5943 0 3
15.4057 -9.9007 -0.2265 0.5355 0 3
18.1148 -9.8914 -0.2553 0.4738 0 3
18.6498 2.6814 -0.2331 0.3295 0 6
21.2239 4.6170 -0.2687 0.7534 281 12
22.1987 6.5181 -0.2862 0.2876 0 3
22.2702 8.3063 -0.2940 0.3552 0 3
14.4236 6.5870 -0.1961 0.9070 0 3
12.0946 6.6041 -0.1704 0.8747 0 3
12.9820 8.3430 -0.1909 0.5457 0 3
8.8389 6.6166 -0.1366 0.7968 0 3
7.6307 6.6120 -0.1249 0.6594 0 3
9.8668 -9.8669 -0.2877 0.7026 0 3
11.3977 -9.8762 -0.3109 0.6501 0 3
13.2078 -9.8873 -0.3402 0.5943 0 3
15.4057 -9.9007 -0.3776 0.5354 0 3
18.1147 -9.8914 -0.4255 0.4738 0 3
22.1305 0.0000 -0.4563 0.6241 261 13
18.6478 2.6811 -0.3884 0.3297 0 6
21.1733 4.6060 -0.4467 0.9021 281 12
22.0956 6.4878 -0.4748 0.2875 0 3
20.7715 7.7474 -0.4571 0.9339 0 3
14.4237 6.5871 -0.3269 0.9069 0 3
12.0947 6.6042 -0.2841 0.8745 0 3
12.9821 8.3431 -0.3182 0.5457 0 3
8.8390 6.6167 -0.2276 0.7967 0 3
7.6308 6.6120 -0.2082 0.6593 0 3
9.8668 -9.8669 -0.4028 0.7025 0 3
11.3977 -9.8762 -0.4354 0.6500 0 3
13.2078 -9.8872 -0.4763 0.5941 0 3
15.4056 -9.9006 -0.5286 0.5353 0 3
18.1147 -9.8914 -0.5958 0.4737 0 3
47.3478 -3.3864 -1.3703 0.9556 0 6
21.9363 -0.0000 -0.6333 0.2260 261 13
18.6457 2.6808 -0.5438 0.3296 0 6
21.1269 4.5959 -0.6242 0.6837 281 12
22.0957 6.4878 -0.6648 0.2875 0 3
20.4859 7.6408 -0.6312 0.9337 0 3
14.4239 6.5871 -0.4578 0.9067 0 3
12.0948 6.6042 -0.3978 0.8743 0 3
12.9821 8.3431 -0.4455 0.5455 0 3
8.8391 6.6168 -0.3187 0.7965 0 3
7.6308 6.6121 -0.2915 0.6592 0 3
9.8668 -9.8668 -0.5180 0.7023 0 3
11.3977 -9.8762 -0.5599 0.6498 0 3
13.2077 -9.8872 -0.6125 0.5940 0 3
15.4056 -9.9006 -0.6798 0.5351 0 3
18.1146 -9.8913 -0.7662 0.4736 0 3
43.2097 -19.7332 -1.7634 0.0379 0 1
44.4627 -16.5837 -1.7616 0.0380 0 1
45.4922 -13.3578 -1.7601 0.0380 0 1
46.2942 -10.0708 -1.7587 0.0380 0 1
46.7131 -6.7164 -1.7519 0.9900 0 2
46.7287 -3.3421 -1.7391 0.9970 0 2
21.5145 -0.0000 -0.7987 0.4618 261 18
46.7745 3.3454 -1.7408 0.9963 0 2
18.6437 2.6805 -0.6992 0.3296 0 6
21.1794 4.6073 -0.8046 0.8991 281 12
22.0958 6.4879 -0.8549 0.2874 0 3
20.4861 7.6409 -0.8117 0.9334 0 3
14.3343 6.5462 -0.5850 0.4207 0 3
12.0949 6.6043 -0.5116 0.8741 0 3
12.9821 8.3431 -0.5729 0.5454 0 3
8.8392 6.6168 -0.4099 0.7963 0 3
7.6308 6.6121 -0.3748 0.6590 0 3
9.8668 -9.8668 -0.6333 0.7021 0 3
11.3977 -9.8762 -0.6844 0.6496 0 3
13.2077 -9.8872 -0.7487 0.5938 0 3
15.4056 -9.9006 -0.8311 0.5350 0 3
18.1146 -9.8913 -0.9367 0.4734 0 3
33.8179 -15.4441 -1.6872 0.0462 0 2
34.8049 -12.9816 -1.6858 0.0462 0 2
35.2392 -10.3472 -1.6668 0.0462 0 2
35.8659 -7.8021 -1.6657 0.0464 0 2
38.5151 -5.5377 -1.7659 0.0463 0 1
38.7960 -2.7747 -1.7651 0.0463 0 1
21.3342 0.0000 -0.9682 0.9678 261 18
38.7770 2.7734 -1.7643 0.0464 0 1
18.6426 2.6804 -0.8547 0.6869 0 6
21.0939 4.5887 -0.9797 0.9115 281 12
22.0959 6.4879 -1.0451 0.2873 0 3
20.1846 7.5284 -0.9777 0.9331 0 3
14.2674 6.5157 -0.7118 0.4205 0 3
12.0145 6.5604 -0.6212 0.4841 0 3
10.2252 6.5713 -0.5516 0.5452 0 3
8.8393 6.6169 -0.5011 0.7960 0 3
7.6308 6.6121 -0.4582 0.6588 0 3
9.8668 -9.8668 -0.7486 0.7018 0 3
11.3976 -9.8761 -0.8091 0.6493 0 3
13.2077 -9.8872 -0.8851 0.5935 0 3
15.4055 -9.9006 -0.9824 0.5347 0 3
18.1145 -9.8913 -1.1072 0.4732 0 3
28.6889 -13.1018 -1.6920 0.0544 0 2
29.5299 -11.0140 -1.6908 0.0545 0 2
29.9017 -8.7799 -1.6719 0.0545 0 2
30.4373 -6.6213 -1.6711 0.0545 0 2
32.6870 -4.6997 -1.7716 0.0545 0 1
32.9275 -2.3551 -1.7710 0.0546 0 1
21.5640 -0.0000 -1.1569 0.2496 261 18
31.0298 2.2193 -1.6689 0.0546 0 2
18.5445 2.6663 -1.0051 0.4698 0 6
21.0100 4.5704 -1.1535 0.9199 281 12
22.0960 6.4879 -1.2354 0.2872 0 3
19.8990 7.4219 -1.1394 0.9327 0 3
14.2675 6.5157 -0.8415 0.4204 0 3
11.9585 6.5298 -0.7310 0.4839 0 3
10.2252 6.5713 -0.6521 0.5450 0 3
8.7900 6.5801 -0.5891 0.6033 0 3
7.6308 6.6121 -0.5417 0.6585 0 3
9.8667 -9.8668 -0.8640 0.7014 0 3
11.3976 -9.8761 -0.9338 0.6490 0 3
13.2077 -9.8871 -1.0216 0.5933 0 3
15.4055 -9.9006 -1.1339 0.5345 0 3
18.1145 -9.8913 -1.2780 0.4730 0 3
24.9079 -11.3750 -1.6956 0.0627 0 2
25.3683 -9.4619 -1.6765 0.0627 0 2
25.9660 -7.6243 -1.6757 0.0627 0 2
27.2583 -5.9297 -1.7273 0.2066 0 2
28.3875 -4.0815 -1.7759 0.0628 0 1
28.5977 -2.0454 -1.7753 0.0628 0 1
21.3331 -0.0000 -1.3210 0.8650 261 18
28.5873 2.0446 -1.7747 0.0628 0 1
18.5196 2.6627 -1.1585 0.9387 0 6
20.9686 4.5614 -1.3288 0.9781 281 12
22.0961 6.4880 -1.4260 0.2870 0 3
19.6516 7.3296 -1.2987 0.9323 0 3
14.2675 6.5157 -0.9712 0.4201 0 3
11.9585 6.5298 -0.8437 0.4837 0 3
10.1775 6.5407 -0.7491 0.5447 0 3
8.7852 6.5764 -0.6795 0.0621 0 3
7.6022 6.5873 -0.6229 0.6582 0 3
9.8667 -9.8667 -0.9796 0.7011 0 3
11.3976 -9.8761 -1.0587 0.6486 0 3
13.2076 -9.8871 -1.1582 0.5929 0 3
15.4054 -9.9005 -1.2856 0.5342 0 3
18.1144 -9.8912 -1.4489 0.4727 0 3
22.0048 -10.0493 -1.6983 0.0709 0 2
22.4138 -8.3599 -1.6794 0.0709 0 2
22.9431 -6.7367 -1.6787 0.0710 0 2
24.7718 -5.3888 -1.7797 0.0710 0 1
25.0847 -3.6066 -1.7791 0.0710 0 1
25.2712 -1.8075 -1.7787 0.0710 0 1
21.2909 -0.0000 -1.4947 0.9636 261 18
25.2632 1.8068 -1.7781 0.0710 0 1
18.5036 2.6604 -1.3124 0.9390 0 6
21.1680 4.6048 -1.5208 0.8916 281 12
22.0962 6.4880 -1.6167 0.2869 0 3
19.6518 7.3297 -1.4724 0.9317 0 3
14.2676 6.5157 -1.1011 0.4199 0 3
11.9585 6.5298 -0.9565 0.4834 0 3
10.1776 6.5407 -0.8493 0.5444 0 3
8.7490 6.5494 -0.7672 0.6027 0 3
7.5668 6.5566 -0.7029 0.6578 0 3
9.8667 -9.8667 -1.0953 0.7006 0 3
11.3976 -9.8761 -1.1838 0.6483 0 3
13.2076 -9.8871 -1.2950 0.5926 0 3
15.4054 -9.9005 -1.4374 0.5339 0 3
18.1144 -9.8912 -1.6200 0.4724 0 3
19.4980 -8.9045 -1.6825 0.0791 0 2
20.0739 -7.4871 -1.6817 0.0791 0 2
20.5482 -6.0335 -1.6810 0.0792 0 2
22.1866 -4.8264 -1.7823 0.0792 0 1
22.4676 -3.2304 -1.7817 0.0792 0 1
22.6353 -1.6189 -1.7813 0.0792 0 1
21.3608 0.0000 -1.6767 0.7835 261 18
22.6288 1.6184 -1.7808 0.0793 0 1
18.4893 2.6583 -1.4662 0.7848 0 6
20.8987 4.5462 -1.6788 0.0793 0 2
20.5229 6.0260 -1.6789 0.0793 0 2
19.3919 7.2328 -1.6246 0.9312 0 3
14.2676 6.5157 -1.2312 0.4197 0 3
11.9586 6.5298 -1.0695 0.4831 0 3
10.1776 6.5407 -0.9496 0.5441 0 3
8.7490 6.5494 -0.8579 0.6023 0 3
7.5668 6.5566 -0.7859 0.6574 0 3
9.8667 -9.8667 -1.2111 0.7002 0 3
11.3975 -9.8761 -1.3090 0.6478 0 3
13.2076 -9.8871 -1.4320 0.5922 0 3
15.4054 -9.9005 -1.5895 0.5335 0 3
17.0394 -9.3042 -1.6851 0.0873 0 2
17.6512 -8.0610 -1.6843 0.0873 0 2
18.1734 -6.7783 -1.6835 0.0874 0 2
19.7311 -5.7936 -1.7849 0.0874 0 1
20.0875 -4.3698 -1.7843 0.0874 0 1
20.3425 -2.9248 -1.7838 0.0874 0 1
20.4948 -1.4659 -1.7834 0.0875 0 1
20.5439 -0.0000 -1.7831 0.0875 0 1
20.4895 1.4654 -1.7830 0.0875 0 1
18.4763 2.6564 -1.6202 0.7848 0 6
18.9230 4.1165 -1.6809 0.0875 0 2
18.5826 5.4564 -1.6810 0.0875 0 2
18.2899 6.8218 -1.6943 0.0875 0 0
14.2677 6.5157 -1.3614 0.4194 0 3
11.9586 6.5299 -1.1826 0.4828 0 3
10.1776 6.5407 -1.0501 0.5437 0 3
8.7491 6.5494 -0.9486 0.6019 0 3
7.5668 6.5566 -0.8690 0.6570 0 3
9.8667 -9.8667 -1.3271 0.6996 0 3
11.3975 -9.8760 -1.4344 0.6473 0 3
13.2075 -9.8871 -1.5691 0.5917 0 3
14.9239 -9.5910 -1.6873 0.0954 0 2
15.5625 -8.4978 -1.6864 0.0955 0 2
16.1219 -7.3626 -1.6857 0.0955 0 2
16.5995 -6.1913 -1.6850 0.0956 0 2
18.0229 -5.2921 -1.7865 0.0956 0 1
18.3490 -3.9916 -1.7860 0.0956 0 1
18.5823 -2.6717 -1.7855 0.0957 0 1
18.7219 -1.3391 -1.7852 0.0957 0 1
18.7670 0.0000 -1.7849 0.0957 0 1
18.7174 1.3387 -1.7848 0.0957 0 1
17.5104 2.5176 -1.6825 0.0957 0 2
17.2865 3.7604 -1.6826 0.0957 0 2
16.9754 4.9844 -1.6827 0.0957 0 2
16.5786 6.1835 -1.6829 0.0957 0 2
14.2677 6.5158 -1.4918 0.4191 0 3
11.9587 6.5299 -1.2959 0.4824 0 3
10.1776 6.5407 -1.1507 0.5433 0 3
8.7491 6.5494 -1.0395 0.6014 0 3
7.5668 6.5566 -0.9523 0.6565 0 3
9.8666 -9.8666 -1.4433 0.6991 0 3
11.3975 -9.8760 -1.5599 0.6468 0 3
13.0731 -9.7864 -1.6892 0.1036 0 2
13.7313 -8.8246 -1.6883 0.1036 0 2
14.3194 -7.8190 -1.6876 0.1037 0 2
14.8347 -6.7747 -1.6869 0.1037 0 2
15.7275 -5.8661 -1.7363 0.3419 0 2
16.5849 -4.8698 -1.7879 0.1038 0 1
16.8853 -3.6732 -1.7874 0.1038 0 1
17.1004 -2.4588 -1.7870 0.1039 0 1
17.2291 -1.2323 -1.7867 0.1039 0 1
17.2708 0.0000 -1.7864 0.1039 0 1
17.2253 1.2320 -1.7863 0.1039 0 1
16.1146 2.3169 -1.6840 0.1039 0 2
15.9085 3.4607 -1.6840 0.1039 0 2
15.6221 4.5871 -1.6841 0.1039 0 2
15.2568 5.6904 -1.6843 0.1039 0 2
14.2678 6.5158 -1.6224 0.4187 0 3
11.9587 6.5299 -1.4094 0.4820 0 3
10.1777 6.5407 -1.2514 0.5429 0 3
8.7491 6.5494 -1.1305 0.6009 0 3
7.5668 6.5566 -1.0356 0.6559 0 3
9.8666 -9.8666 -1.5597 0.6984 0 3
11.3975 -9.8760 -1.6857 0.6462 0 3
12.1037 -9.0607 -1.6900 0.1118 0 2
12.7136 -8.1705 -1.6893 0.1118 0 2
13.2586 -7.2397 -1.6886 0.1119 0 2
13.7361 -6.2731 -1.6879 0.1119 0 2
15.0011 -5.5952 -1.7896 0.1120 0 1
15.3574 -4.5094 -1.7891 0.1120 0 1
15.6360 -3.4014 -1.7886 0.1120 0 1
15.8354 -2.2769 -1.7883 0.1121 0 1
15.9548 -1.1412 -1.7880 0.1121 0 1
15.9935 -0.0000 -1.7877 0.1121 0 1
15.9515 1.1409 -1.7876 0.1121 0 1
15.2141 2.1874 -1.7181 0.1706 0 2
14.7321 3.2048 -1.6852 0.1121 0 2
14.4668 4.2479 -1.6853 0.1121 0 2
14.1284 5.2696 -1.6855 0.1121 0 2
13.8255 6.3138 -1.6989 0.1121 0 0
11.9587 6.5299 -1.5230 0.4816 0 3
10.1777 6.5407 -1.3523 0.5424 0 3
8.7491 6.5495 -1.2216 0.6004 0 3
7.5668 6.5566 -1.1192 0.6554 0 3
9.8666 -9.8666 -1.6763 0.6978 0 3
10.6411 -9.2206 -1.6915 0.1199 0 2
11.2668 -8.4342 -1.6908 0.1200 0 2
11.8348 -7.6057 -1.6901 0.1200 0 2
12.3424 -6.7395 -1.6894 0.1201 0 2
12.8287 -5.8587 -1.6943 0.4235 0 2
13.9653 -5.2088 -1.7906 0.1202 0 1
14.2973 -4.1981 -1.7901 0.1202 0 1
14.5569 -3.1667 -1.7897 0.1202 0 1
14.7428 -2.1198 -1.7893 0.1202 0 1
14.8541 -1.0624 -1.7891 0.1203 0 1
14.8903 -0.0000 -1.7888 0.1203 0 1
14.8513 1.0622 -1.7887 0.1203 0 1
14.7372 2.1188 -1.7887 0.1203 0 1
13.7160 2.9837 -1.6863 0.1203 0 2
13.4689 3.9548 -1.6864 0.1203 0 2
13.1538 4.9061 -1.6866 0.1203 0 2
12.7721 5.8328 -1.6868 0.1203 0 2
11.9587 6.5299 -1.6369 0.4811 0 3
10.1777 6.5408 -1.4534 0.5419 0 3
8.7492 6.5495 -1.3130 0.5998 0 3
7.5669 6.5567 -1.2028 0.6547 0 3
9.3150 -9.3150 -1.6929 0.1281 0 2
9.9513 -8.6229 -1.6921 0.1281 0 2
10.5367 -7.8877 -1.6914 0.1282 0 2
11.0682 -7.1131 -1.6908 0.1282 0 2
11.5433 -6.3031 -1.6901 0.1283 0 2
12.6845 -5.7929 -1.7920 0.1283 0 1
13.0616 -4.8718 -1.7915 0.1283 0 1
13.3724 -3.9265 -1.7910 0.1284 0 1
13.6154 -2.9619 -1.7906 0.1284 0 1
13.7894 -1.9827 -1.7903 0.1284 0 1
13.8937 -0.9937 -1.7900 0.1284 0 1
13.9277 -0.0000 -1.7898 0.1285 0 1
13.8912 0.9935 -1.7897 0.1285 0 1
13.7846 1.9819 -1.7896 0.1285 0 1
12.8293 2.7908 -1.6872 0.1285 0 2
12.5982 3.6992 -1.6873 0.1285 0 2
12.3034 4.5889 -1.6875 0.1285 0 2
11.9462 5.4556 -1.6877 0.1284 0 2
11.6184 6.3441 -1.7011 0.1284 0 0
10.1777 6.5408 -1.5547 0.5413 0 3
8.7492 6.5495 -1.4045 0.5992 0 3
7.5669 6.5567 -1.2867 0.6541 0 3
8.7465 -8.7465 -1.6934 0.1362 0 2
9.3443 -8.0969 -1.6927 0.1363 0 2
9.8942 -7.4067 -1.6920 0.1363 0 2
10.3936 -6.6795 -1.6914 0.1364 0 2
10.8400 -5.9191 -1.6908 0.1364 0 2
11.9119 -5.4400 -1.7927 0.1365 0 1
12.2662 -4.5751 -1.7922 0.1365 0 1
12.5583 -3.6874 -1.7918 0.1365 0 1
12.7866 -2.7815 -1.7914 0.1366 0 1
12.9502 -1.8620 -1.7911 0.1366 0 1
13.0483 -0.9333 -1.7909 0.1366 0 1
13.0803 -0.0000 -1.7907 0.1366 0 1
13.0461 0.9331 -1.7906 0.1366 0 1
12.9460 1.8613 -1.7905 0.1366 0 1
12.0488 2.6210 -1.6880 0.1366 0 2
11.8317 3.4741 -1.6881 0.1366 0 2
11.5547 4.3097 -1.6883 0.1366 0 2
11.2192 5.1237 -1.6885 0.1366 0 2
10.8268 5.9118 -1.6888 0.1366 0 2
10.1778 6.5408 -1.6562 0.5407 0 3
8.7492 6.5495 -1.4962 0.5986 0 3
7.5669 6.5567 -1.3707 0.6533 0 3
8.2424 -8.2424 -1.6938 0.1444 0 2
8.8059 -7.6303 -1.6931 0.1445 0 2
9.3244 -6.9801 -1.6925 0.1445 0 2
9.7952 -6.2950 -1.6919 0.1446 0 2
10.6865 -5.8353 -1.7693 0.4690 0 2
11.2265 -5.1270 -1.7934 0.1446 0 1
11.5606 -4.3119 -1.7929 0.1447 0 1
11.8360 -3.4754 -1.7925 0.1447 0 1
12.0514 -2.6216 -1.7921 0.1447 0 1
12.2057 -1.7550 -1.7918 0.1448 0 1
12.2982 -0.8796 -1.7916 0.1448 0 1
12.3285 0.0000 -1.7914 0.1448 0 1
12.2963 0.8795 -1.7913 0.1448 0 1
12.2019 1.7543 -1.7913 0.1448 0 1
11.3563 2.4704 -1.6888 0.1448 0 2
11.1517 3.2744 -1.6888 0.1448 0 2
10.8906 4.0620 -1.6890 0.1448 0 2
10.5743 4.8291 -1.6892 0.1448 0 2
10.2044 5.5720 -1.6894 0.1448 0 2
9.8589 6.3359 -1.7029 0.1447 0 0
8.7492 6.5495 -1.5881 0.5979 0 3
7.5669 6.5567 -1.4549 0.6526 0 3
7.7922 -7.7922 -1.6942 0.1525 0 2
8.3251 -7.2137 -1.6935 0.1526 0 2
8.8155 -6.5991 -1.6929 0.1527 0 2
9.2607 -5.9515 -1.6924 0.1527 0 2
10.2443 -5.5938 -1.7944 0.1528 0 1
10.6143 -4.8474 -1.7939 0.1528 0 1
10.9304 -4.0768 -1.7935 0.1528 0 1
11.1909 -3.2859 -1.7931 0.1529 0 1
11.3947 -2.4788 -1.7928 0.1529 0 1
11.5407 -1.6593 -1.7925 0.1529 0 1
11.6282 -0.8317 -1.7923 0.1529 0 1
11.6569 0.0000 -1.7921 0.1530 0 1
11.6265 0.8315 -1.7920 0.1530 0 1
11.5373 1.6587 -1.7920 0.1530 0 1
10.7377 2.3358 -1.6894 0.1530 0 2
10.5442 3.0960 -1.6895 0.1530 0 2
10.2973 3.8407 -1.6896 0.1529 0 2
9.9981 4.5660 -1.6898 0.1529 0 2
9.6483 5.2684 -1.6900 0.1529 0 2
9.2495 5.9442 -1.6903 0.1529 0 2
8.7492 6.5495 -1.6802 0.5971 0 3
7.5669 6.5567 -1.5393 0.6518 0 3
7.3877 -7.3876 -1.6945 0.1607 0 2
7.8931 -6.8393 -1.6939 0.1607 0 2
8.3581 -6.2568 -1.6934 0.1608 0 2
9.0644 -5.8254 -1.7476 0.5286 0 2
9.7131 -5.3038 -1.7949 0.1609 0 1
10.0641 -4.5961 -1.7945 0.1609 0 1
10.3639 -3.8655 -1.7940 0.1610 0 1
10.6111 -3.1157 -1.7937 0.1610 0 1
10.8044 -2.3504 -1.7933 0.1610 0 1
10.9429 -1.5734 -1.7931 0.1611 0 1
11.0260 -0.7886 -1.7929 0.1611 0 1
11.0532 -0.0000 -1.7927 0.1611 0 1
11.0245 0.7885 -1.7926 0.1611 0 1
10.9399 1.5729 -1.7926 0.1611 0 1
10.2260 2.2245 -1.6973 0.2489 0 2
9.9982 2.9357 -1.6901 0.1611 0 2
9.7640 3.6418 -1.6902 0.1611 0 2
9.4803 4.3295 -1.6904 0.1611 0 2
9.1485 4.9955 -1.6906 0.1610 0 2
8.7703 5.6363 -1.6909 0.1610 0 2
8.4125 6.2975 -1.7044 0.1610 0 0
7.5670 6.5567 -1.6239 0.6509 0 3
7.0221 -7.0221 -1.6948 0.1688 0 2
7.5027 -6.5011 -1.6943 0.1689 0 2
7.9448 -5.9474 -1.6937 0.1689 0 2
8.8523 -5.6891 -1.7959 0.1690 0 1
9.2331 -5.0417 -1.7954 0.1690 0 1
9.5668 -4.3690 -1.7949 0.1691 0 1
9.8520 -3.6746 -1.7945 0.1691 0 1
10.0870 -2.9618 -1.7942 0.1691 0 1
10.2709 -2.2344 -1.7939 0.1692 0 1
10.4026 -1.4957 -1.7936 0.1692 0 1
10.4817 -0.7497 -1.7934 0.1692 0 1
10.5076 -0.0000 -1.7933 0.1692 0 1
10.4803 0.7496 -1.7932 0.1692 0 1
10.3999 1.4953 -1.7931 0.1692 0 1
10.1772 2.2139 -1.7775 0.2154 0 2
9.5047 2.7908 -1.6906 0.1692 0 2
9.2820 3.4620 -1.6907 0.1692 0 2
9.0123 4.1158 -1.6909 0.1692 0 2
8.6968 4.7488 -1.6911 0.1692 0 2
8.3372 5.3580 -1.6914 0.1692 0 2
7.9352 5.9401 -1.6917 0.1691 0 2
7.5512 6.5431 -1.7052 0.1691 0 0
6.6902 -6.6901 -1.6951 0.1769 0 2
7.1481 -6.1939 -1.6946 0.1770 0 2
7.7726 -5.8185 -1.7395 0.6099 0 2
8.4342 -5.4204 -1.7962 0.1771 0 1
8.7971 -4.8036 -1.7958 0.1772 0 1
9.1152 -4.1628 -1.7953 0.1772 0 1
9.3870 -3.5012 -1.7950 0.1772 0 1
9.6110 -2.8220 -1.7946 0.1773 0 1
9.7863 -2.1289 -1.7943 0.1773 0 1
9.9119 -1.4252 -1.7941 0.1773 0 1
9.9873 -0.7143 -1.7939 0.1773 0 1
10.0120 -0.0000 -1.7938 0.1773 0 1
9.9860 0.7142 -1.7937 0.1774 0 1
9.9094 1.4248 -1.7936 0.1774 0 1
9.7826 2.1280 -1.7937 0.1774 0 1
9.0564 2.6592 -1.6911 0.1774 0 2
8.8442 3.2987 -1.6912 0.1773 0 2
8.5871 3.9216 -1.6913 0.1773 0 2
8.2865 4.5248 -1.6915 0.1773 0 2
7.9438 5.1052 -1.6918 0.1773 0 2
7.5607 5.6599 -1.6921 0.1772 0 2
7.1391 6.1860 -1.6924 0.1772 0 2
6.3873 -6.3874 -1.6954 0.1851 0 2
6.8246 -5.9136 -1.6948 0.1851 0 2
7.6651 -5.7380 -1.7971 0.1852 0 1
8.0527 -5.1752 -1.7966 0.1852 0 1
8.3993 -4.5864 -1.7961 0.1853 0 1
8.7032 -3.9746 -1.7957 0.1853 0 1
8.9627 -3.3429 -1.7954 0.1853 0 1
9.1767 -2.6945 -1.7950 0.1854 0 1
9.3441 -2.0328 -1.7948 0.1854 0 1
9.4641 -1.3608 -1.7945 0.1854 0 1
9.5361 -0.6821 -1.7944 0.1854 0 1
9.5598 -0.0000 -1.7942 0.1855 0 1
9.5350 0.6820 -1.7941 0.1855 0 1
9.4618 1.3604 -1.7941 0.1855 0 1
9.3408 2.0319 -1.7941 0.1855 0 1
8.6473 2.5391 -1.6915 0.1855 0 2
8.4447 3.1497 -1.6916 0.1854 0 2
8.1992 3.7444 -1.6918 0.1854 0 2
7.9121 4.3204 -1.6919 0.1854 0 2
7.5848 4.8745 -1.6922 0.1854 0 2
7.2190 5.4041 -1.6925 0.1854 0 2
6.8164 5.9064 -1.6928 0.1853 0 2
6.1099 -6.1099 -1.6956 0.1932 0 2
6.7071 -5.8118 -1.7415 0.6652 0 2
7.3323 -5.4889 -1.7974 0.1933 0 1
7.7032 -4.9506 -1.7969 0.1933 0 1
8.0349 -4.3874 -1.7965 0.1934 0 1
8.3256 -3.8022 -1.7961 0.1934 0 1
8.5740 -3.1979 -1.7957 0.1934 0 1
8.7788 -2.5777 -1.7954 0.1935 0 1
8.9390 -1.9446 -1.7952 0.1935 0 1
9.0539 -1.3018 -1.7949 0.1935 0 1
9.1228 -0.6525 -1.7948 0.1935 0 1
9.1454 -0.0000 -1.7946 0.1936 0 1
9.1217 0.6524 -1.7946 0.1936 0 1
9.0518 1.3015 -1.7945 0.1936 0 1
8.9359 1.9438 -1.7945 0.1936 0 1
8.3010 2.4374 -1.6977 0.3223 0 2
8.0787 3.0131 -1.6920 0.1935 0 2
7.8438 3.5821 -1.6921 0.1935 0 2
7.5691 4.1330 -1.6923 0.1935 0 2
7.2560 4.6631 -1.6926 0.1935 0 2
6.9059 5.1697 -1.6928 0.1934 0 2
6.5207 5.6503 -1.6931 0.1934 0 2
5.8548 -5.8548 -1.6958 0.2012 0 2
6.6349 -5.7493 -1.7981 0.2013 0 1
7.0263 -5.2599 -1.7976 0.2013 0 1
7.3818 -4.7440 -1.7972 0.2014 0 1
7.6997 -4.2044 -1.7968 0.2014 0 1
7.9784 -3.6436 -1.7964 0.2015 0 1
8.2165 -3.0646 -1.7961 0.2015 0 1
8.4128 -2.4703 -1.7958 0.2016 0 1
8.5664 -1.8636 -1.7955 0.2016 0 1
8.6765 -1.2475 -1.7953 0.2016 0 1
8.7426 -0.6253 -1.7952 0.2016 0 1
8.7643 -0.0000 -1.7950 0.2016 0 1
8.7416 0.6252 -1.7950 0.2016 0 1
8.6746 1.2472 -1.7949 0.2016 0 1
8.5635 1.8628 -1.7949 0.2016 0 1
7.9278 2.3278 -1.6923 0.2016 0 2
7.7420 2.8876 -1.6924 0.2016 0 2
7.5169 3.4328 -1.6925 0.2016 0 2
7.2536 3.9607 -1.6927 0.2016 0 2
6.9535 4.4687 -1.6929 0.2016 0 2
6.6180 4.9542 -1.6932 0.2015 0 2
6.2488 5.4146 -1.6935 0.2015 0 2
5.8055 -5.8055 -1.7522 0.6873 0 2
6.3682 -5.5181 -1.7983 0.2094 0 1
6.7439 -5.0485 -1.7979 0.2094 0 1
7.0852 -4.5534 -1.7975 0.2095 0 1
7.3904 -4.0355 -1.7971 0.2095 0 1
7.6579 -3.4972 -1.7967 0.2096 0 1
7.8865 -2.9415 -1.7964 0.2096 0 1
8.0750 -2.3711 -1.7961 0.2096 0 1
8.2225 -1.7887 -1.7959 0.2096 0 1
8.3282 -1.1975 -1.7957 0.2097 0 1
8.3916 -0.6002 -1.7955 0.2097 0 1
8.4125 -0.0000 -1.7954 0.2097 0 1
8.3907 0.6001 -1.7953 0.2097 0 1
8.3264 1.1971 -1.7953 0.2097 0 1
8.2199 1.7881 -1.7953 0.2097 0 1
7.6321 2.2409 -1.6976 0.3245 0 2
7.4312 2.7717 -1.6927 0.2097 0 2
7.2152 3.2950 -1.6928 0.2097 0 2
6.9624 3.8017 -1.6930 0.2097 0 2
6.6743 4.2893 -1.6932 0.2096 0 2
6.3522 4.7552 -1.6935 0.2096 0 2
5.9979 5.1971 -1.6937 0.2096 0 2
5.7287 -5.7288 -1.7990 0.2174 0 1
6.1213 -5.3041 -1.7986 0.2174 0 1
6.4825 -4.8527 -1.7981 0.2175 0 1
6.8106 -4.3769 -1.7977 0.2175 0 1
7.1040 -3.8791 -1.7973 0.2176 0 1
7.3612 -3.3617 -1.7970 0.2176 0 1
7.5810 -2.8276 -1.7967 0.2176 0 1
7.7622 -2.2793 -1.7964 0.2177 0 1
7.9040 -1.7195 -1.7962 0.2177 0 1
8.0057 -1.1511 -1.7960 0.2177 0 1
8.0667 -0.5770 -1.7958 0.2177 0 1
8.0868 -0.0000 -1.7957 0.2178 0 1
8.0659 0.5769 -1.7956 0.2178 0 1
8.0041 1.1508 -1.7956 0.2178 0 1
7.9016 1.7188 -1.7956 0.2178 0 1
7.5937 2.2297 -1.7574 0.2807 0 2
7.1435 2.6644 -1.6930 0.2178 0 2
6.9358 3.1674 -1.6931 0.2177 0 2
6.6928 3.6545 -1.6933 0.2177 0 2
6.4158 4.1232 -1.6935 0.2177 0 2
6.1062 4.5710 -1.6937 0.2177 0 2
5.7655 4.9958 -1.6940 0.2176 0 2
5.5141 -5.5141 -1.7992 0.2254 0 1
5.8920 -5.1054 -1.7988 0.2255 0 1
6.2397 -4.6710 -1.7983 0.2255 0 1
6.5556 -4.2130 -1.7979 0.2256 0 1
6.8381 -3.7338 -1.7976 0.2256 0 1
7.0857 -3.2359 -1.7972 0.2256 0 1
7.2973 -2.7217 -1.7969 0.2257 0 1
7.4718 -2.1940 -1.7967 0.2257 0 1
7.6083 -1.6551 -1.7965 0.2257 0 1
7.7062 -1.1080 -1.7963 0.2258 0 1
7.7650 -0.5554 -1.7961 0.2258 0 1
7.7843 -0.0000 -1.7960 0.2258 0 1
7.7642 0.5553 -1.7960 0.2258 0 1
7.7047 1.1078 -1.7959 0.2258 0 1
7.6061 1.6545 -1.7959 0.2258 0 1
7.4689 2.1930 -1.7960 0.2258 0 1
6.8763 2.5647 -1.6933 0.2258 0 2
6.6763 3.0489 -1.6934 0.2258 0 2
6.4424 3.5178 -1.6936 0.2258 0 2
6.1757 3.9689 -1.6938 0.2257 0 2
5.8777 4.3999 -1.6940 0.2257 0 2
5.5497 4.8088 -1.6943 0.2257 0 2
5.3142 -5.3142 -1.7994 0.2334 0 1
5.6784 -4.9204 -1.7989 0.2335 0 1
6.0136 -4.5017 -1.7985 0.2335 0 1
6.3181 -4.0604 -1.7982 0.2336 0 1
6.5904 -3.5986 -1.7978 0.2336 0 1
6.8291 -3.1187 -1.7975 0.2337 0 1
7.0331 -2.6232 -1.7972 0.2337 0 1
7.2013 -2.1146 -1.7969 0.2337 0 1
7.3329 -1.5952 -1.7967 0.2338 0 1
7.4273 -1.0679 -1.7966 0.2338 0 1
7.4839 -0.5353 -1.7964 0.2338 0 1
7.5026 -0.0000 -1.7963 0.2338 0 1
7.4832 0.5352 -1.7962 0.2338 0 1
7.4258 1.0677 -1.7962 0.2338 0 1
7.3308 1.5947 -1.7962 0.2338 0 1
7.1986 2.1136 -1.7963 0.2338 0 1
6.6274 2.4719 -1.6935 0.2338 0 2
6.4346 2.9386 -1.6937 0.2338 0 2
6.2092 3.3904 -1.6938 0.2338 0 2
5.9522 3.8252 -1.6940 0.2338 0 2
5.6649 4.2406 -1.6942 0.2337 0 2
5.3487 4.6347 -1.6945 0.2337 0 2
5.1276 -5.1276 -1.7995 0.2414 0 1
5.4790 -4.7476 -1.7991 0.2415 0 1
5.8025 -4.3437 -1.7987 0.2415 0 1
6.0964 -3.9179 -1.7984 0.2416 0 1
6.3591 -3.4723 -1.7980 0.2416 0 1
6.5895 -3.0093 -1.7977 0.2417 0 1
6.7864 -2.5312 -1.7974 0.2417 0 1
6.9487 -2.0404 -1.7972 0.2418 0 1
7.0758 -1.5393 -1.7970 0.2418 0 1
7.1668 -1.0305 -1.7968 0.2418 0 1
7.2215 -0.5165 -1.7967 0.2418 0 1
7.2396 -0.0000 -1.7966 0.2418 0 1
7.2209 0.5164 -1.7965 0.2418 0 1
7.1655 1.0302 -1.7965 0.2418 0 1
7.0738 1.5388 -1.7965 0.2418 0 1
6.9462 2.0395 -1.7965 0.2418 0 1
6.3951 2.3852 -1.6938 0.2418 0 2
6.2090 2.8355 -1.6939 0.2418 0 2
5.9915 3.2716 -1.6941 0.2418 0 2
5.7434 3.6911 -1.6942 0.2418 0 2
5.4662 4.0919 -1.6945 0.2417 0 2
5.1611 4.4721 -1.6947 0.2417 0 2
4.9529 -4.9529 -1.7997 0.2494 0 1
5.2925 -4.5860 -1.7993 0.2495 0 1
5.6050 -4.1958 -1.7989 0.2495 0 1
5.8888 -3.7846 -1.7985 0.2496 0 1
6.1427 -3.3542 -1.7982 0.2496 0 1
6.3653 -2.9069 -1.7979 0.2497 0 1
6.5555 -2.4451 -1.7977 0.2497 0 1
6.7123 -1.9710 -1.7974 0.2497 0 1
6.8351 -1.4869 -1.7972 0.2498 0 1
6.9231 -0.9954 -1.7971 0.2498 0 1
6.9759 -0.4989 -1.7969 0.2498 0 1
6.9934 -0.0000 -1.7968 0.2498 0 1
6.9753 0.4989 -1.7968 0.2498 0 1
6.9219 0.9952 -1.7967 0.2498 0 1
6.8333 1.4865 -1.7967 0.2498 0 1
6.7100 1.9702 -1.7968 0.2498 0 1
6.1776 2.3041 -1.6940 0.2498 0 2
5.9979 2.7391 -1.6941 0.2498 0 2
5.7877 3.1603 -1.6943 0.2498 0 2
5.5481 3.5655 -1.6945 0.2498 0 2
5.2802 3.9527 -1.6947 0.2497 0 2
4.9855 4.3199 -1.6949 0.2497 0 2
4.7891 -4.7891 -1.7998 0.2574 0 1
5.1175 -4.4343 -1.7994 0.2575 0 1
5.4197 -4.0571 -1.7991 0.2575 0 1
5.6942 -3.6595 -1.7987 0.2576 0 1
5.9397 -3.2433 -1.7984 0.2576 0 1
6.1550 -2.8109 -1.7981 0.2577 0 1
6.3389 -2.3644 -1.7979 0.2577 0 1
6.4906 -1.9059 -1.7976 0.2577 0 1
6.6093 -1.4378 -1.7974 0.2577 0 1
6.6944 -0.9625 -1.7973 0.2578 0 1
6.7456 -0.4825 -1.7971 0.2578 0 1
6.7624 -0.0000 -1.7971 0.2578 0 1
6.7450 0.4824 -1.7970 0.2578 0 1
6.6933 0.9623 -1.7970 0.2578 0 1
6.6076 1.4374 -1.7970 0.2578 0 1
6.4884 1.9051 -1.7970 0.2578 0 1
6.0275 2.2481 -1.7095 0.3964 0 2
5.7998 2.6486 -1.6944 0.2578 0 2
5.5965 3.0559 -1.6945 0.2578 0 2
5.3648 3.4477 -1.6947 0.2577 0 2
5.1058 3.8221 -1.6949 0.2577 0 2
4.8208 4.1772 -1.6951 0.2577 0 2
4.6352 -4.6352 -1.7999 0.2654 0 1
4.9530 -4.2918 -1.7996 0.2654 0 1
5.2455 -3.9267 -1.7992 0.2655 0 1
5.5112 -3.5419 -1.7989 0.2655 0 1
5.7489 -3.1391 -1.7986 0.2656 0 1
5.9573 -2.7206 -1.7983 0.2656 0 1
6.1353 -2.2884 -1.7981 0.2656 0 1
6.2822 -1.8447 -1.7978 0.2657 0 1
6.3971 -1.3916 -1.7976 0.2657 0 1
6.4795 -0.9316 -1.7975 0.2657 0 1
6.5290 -0.4670 -1.7974 0.2657 0 1
6.5453 -0.0000 -1.7973 0.2658 0 1
6.5285 0.4669 -1.7972 0.2658 0 1
6.4784 0.9315 -1.7972 0.2658 0 1
6.3955 1.3913 -1.7972 0.2658 0 1
6.2801 1.8439 -1.7972 0.2658 0 1
6.0041 2.2394 -1.7596 0.3425 0 2
5.6136 2.5636 -1.6946 0.2657 0 2
5.4168 2.9578 -1.6947 0.2657 0 2
5.1925 3.3370 -1.6949 0.2657 0 2
4.9418 3.6994 -1.6950 0.2657 0 2
4.6659 4.0430 -1.6953 0.2656 0 2
4.4901 -4.4901 -1.8001 0.2733 0 1
4.7980 -4.1575 -1.7997 0.2734 0 1
5.0814 -3.8039 -1.7994 0.2734 0 1
5.3389 -3.4311 -1.7990 0.2735 0 1
5.5692 -3.0410 -1.7987 0.2735 0 1
5.7711 -2.6355 -1.7985 0.2735 0 1
5.9436 -2.2169 -1.7982 0.2736 0 1
6.0859 -1.7870 -1.7980 0.2736 0 1
6.1972 -1.3481 -1.7978 0.2736 0 1
6.2770 -0.9025 -1.7977 0.2737 0 1
6.3250 -0.4524 -1.7976 0.2737 0 1
6.3409 -0.0000 -1.7975 0.2737 0 1
6.3245 0.4523 -1.7974 0.2737 0 1
6.2760 0.9024 -1.7974 0.2737 0 1
6.1957 1.3478 -1.7974 0.2737 0 1
6.0839 1.7863 -1.7975 0.2737 0 1
1.7090 0.6374 -0.5171 0.0144 294 14
1.4412 0.6581 -0.4491 0.1670 294 14
1.4195 0.7751 -0.4585 0.1105 294 14
1.4304 0.9193 -0.4820 0.1051 294 14
1.4230 1.0652 -0.5039 0.1006 294 14
4.5201 3.9166 -1.6954 0.2736 0 2
4.3533 -4.3533 -1.8002 0.2812 0 1
4.6519 -4.0308 -1.7998 0.2813 0 1
4.9267 -3.6880 -1.7995 0.2813 0 1
5.1763 -3.3266 -1.7992 0.2814 0 1
5.3996 -2.9484 -1.7989 0.2814 0 1
5.5953 -2.5553 -1.7986 0.2815 0 1
5.7626 -2.1494 -1.7984 0.2815 0 1
5.9006 -1.7326 -1.7982 0.2815 0 1
6.0086 -1.3071 -1.7980 0.2816 0 1
6.0860 -0.8751 -1.7979 0.2816 0 1
6.1325 -0.4386 -1.7978 0.2816 0 1
6.1479 0.0000 -1.7977 0.2816 0 1
6.1321 0.4386 -1.7976 0.2816 0 1
6.0851 0.8749 -1.7976 0.2816 0 1
1.4798 0.3219 -0.4428 0.1743 294 14
1.4552 0.4273 -0.4435 0.1741 294 14
1.4188 0.5291 -0.4428 0.1743 294 14
1.3711 0.6261 -0.4407 0.1755 294 14
1.3187 0.7201 -0.4393 0.1187 294 14
1.3241 0.8509 -0.4602 0.1133 294 14
1.3128 0.9827 -0.4795 0.1088 294 14
1.2880 1.1161 -0.4983 0.1074 294 14
4.2240 -4.2240 -1.8003 0.2891 0 1
4.5137 -3.9111 -1.8000 0.2892 0 1
4.7803 -3.5785 -1.7996 0.2892 0 1
5.0226 -3.2278 -1.7993 0.2893 0 1
5.2392 -2.8608 -1.7991 0.2893 0 1
5.4292 -2.4794 -1.7988 0.2894 0 1
5.5916 -2.0856 -1.7986 0.2894 0 1
5.7255 -1.6812 -1.7984 0.2894 0 1
5.8303 -1.2683 -1.7982 0.2895 0 1
5.9054 -0.8491 -1.7981 0.2895 0 1
1.7098 -0.1223 -0.5166 0.0271 294 14
1.5819 0.0000 -0.4768 0.0294 294 14
1.4694 0.1051 -0.4440 0.1887 294 14
1.4365 0.2065 -0.4374 0.1916 294 14
1.4106 0.3068 -0.4350 0.1824 294 14
1.3870 0.4072 -0.4357 0.1822 294 14
1.3524 0.5044 -0.4350 0.1824 294 14
1.3073 0.5970 -0.4331 0.1836 294 14
1.2526 0.6839 -0.4301 0.1849 294 14
1.2320 0.7917 -0.4414 0.1215 294 14
1.2182 0.9119 -0.4586 0.1200 294 14
1.1940 1.0346 -0.4761 0.1156 294 14
4.1015 -4.1015 -1.8004 0.2970 0 1
4.3828 -3.7977 -1.8001 0.2971 0 1
4.6418 -3.4748 -1.7998 0.2971 0 1
4.8770 -3.1343 -1.7995 0.2972 0 1
5.0875 -2.7779 -1.7992 0.2972 0 1
5.2719 -2.4077 -1.7989 0.2973 0 1
5.4296 -2.0252 -1.7987 0.2973 0 1
5.5596 -1.6325 -1.7985 0.2973 0 1
5.6614 -1.2316 -1.7984 0.2974 0 1
1.4348 -0.2063 -0.4499 0.1918 294 14
1.4360 -0.1027 -0.4469 0.1926 294 14
1.4261 -0.0000 -0.4426 0.1945 294 14
1.4055 0.1005 -0.4374 0.1968 294 14
1.3749 0.1977 -0.4311 0.1996 294 14
1.3472 0.2930 -0.4279 0.1905 294 14
1.3246 0.3889 -0.4285 0.1903 294 14
1.2916 0.4817 -0.4279 0.1905 294 14
1.2489 0.5704 -0.4262 0.1917 294 14
1.1970 0.6536 -0.4233 0.1930 294 14
1.1516 0.7400 -0.4249 0.1296 294 14
1.1377 0.8517 -0.4411 0.1281 294 14
1.1123 0.9638 -0.4568 0.1237 294 14
3.9853 -3.9853 -1.8005 0.3049 0 1
4.2587 -3.6902 -1.8002 0.3049 0 1
4.5104 -3.3764 -1.7999 0.3050 0 1
4.7390 -3.0456 -1.7996 0.3050 0 1
4.9435 -2.6993 -1.7993 0.3051 0 1
5.1228 -2.3395 -1.7991 0.3051 0 1
5.2760 -1.9679 -1.7989 0.3052 0 1
5.4023 -1.5863 -1.7987 0.3052 0 1
1.4175 -0.3084 -0.4634 0.1721 294 14
1.3732 -0.1975 -0.4432 0.1999 294 14
1.3746 -0.0983 -0.4402 0.2007 294 14
1.3657 -0.0000 -0.4363 0.2025 294 14
1.3466 0.0963 -0.4313 0.2049 294 14
1.3181 0.1895 -0.4254 0.2077 294 14
1.2890 0.2804 -0.4214 0.1986 294 14
1.2673 0.3721 -0.4219 0.1984 294 14
1.2359 0.4609 -0.4214 0.1990 294 14
1.1953 0.5458 -0.4198 0.1998 294 14
1.1459 0.6257 -0.4171 0.2010 294 14
1.0886 0.6996 -0.4134 0.2029 294 14
1.0669 0.7987 -0.4257 0.1363 294 14
1.0463 0.9066 -0.4423 0.2235 294 14
3.8750 -3.8750 -1.8006 0.3127 0 1
4.1409 -3.5881 -1.8003 0.3128 0 1
4.3856 -3.2830 -1.8000 0.3128 0 1
4.6079 -2.9613 -1.7997 0.3129 0 1
4.8067 -2.6246 -1.7994 0.3129 0 1
4.9811 -2.2748 -1.7992 0.3130 0 1
1.4204 -0.5298 -0.4981 0.1643 294 14
1.3902 -0.4082 -0.4761 0.1719 294 14
1.3506 -0.2938 -0.4541 0.1802 294 14
1.3164 -0.1893 -0.4370 0.2079 294 14
1.3181 -0.0943 -0.4342 0.2093 294 14
1.3099 -0.0000 -0.4304 0.2106 294 14
1.2922 0.0924 -0.4257 0.2129 294 14
1.2655 0.1819 -0.4201 0.2158 294 14
1.2353 0.2687 -0.4154 0.2067 294 14
1.2145 0.3566 -0.4159 0.2064 294 14
1.1846 0.4418 -0.4154 0.2071 294 14
1.1458 0.5232 -0.4139 0.2078 294 14
1.0988 0.5999 -0.4113 0.2091 294 14
1.0497 0.6746 -0.4100 0.2875 294 14
1.0286 0.7700 -0.4222 0.2402 294 14
1.0077 0.8731 -0.4381 0.2315 294 14
3.7701 -3.7701 -1.8007 0.3205 0 1
4.0288 -3.4909 -1.8004 0.3206 0 1
4.2669 -3.1941 -1.8001 0.3207 0 1
4.4832 -2.8812 -1.7998 0.3207 0 1
4.6767 -2.5536 -1.7996 0.3207 0 1
1.3656 -0.6237 -0.5070 0.1705 294 14
1.3501 -0.5036 -0.4867 0.1723 294 14
1.3243 -0.3889 -0.4661 0.1799 294 14
1.2894 -0.2805 -0.4456 0.1882 294 14
1.2638 -0.1817 -0.4312 0.2160 294 14
1.2658 -0.0906 -0.4286 0.2173 294 14
1.2583 -0.0000 -0.4250 0.2192 294 14
1.2418 0.0888 -0.4204 0.2210 294 14
1.2167 0.1749 -0.4151 0.2238 294 14
1.1857 0.2579 -0.4098 0.2147 294 14
1.1657 0.3422 -0.4103 0.2149 294 14
1.1371 0.4241 -0.4098 0.2151 294 14
1.1000 0.5023 -0.4084 0.2159 294 14
1.0563 0.5768 -0.4065 0.2267 294 14
1.0190 0.6548 -0.4091 0.2953 294 14
0.9930 0.7434 -0.4189 0.2481 294 14
0.9716 0.8418 -0.4342 0.2394 294 14
3.6702 -3.6702 -1.8008 0.3283 0 1
3.9220 -3.3984 -1.8005 0.3284 0 1
4.1538 -3.1095 -1.8002 0.3284 0 1
4.3644 -2.8048 -1.7999 0.3285 0 1
4.5528 -2.4860 -1.7997 0.3285 0 1
1.3002 -0.5938 -0.4959 0.1786 294 14
1.2861 -0.4797 -0.4762 0.1804 294 14
1.2640 -0.3712 -0.4571 0.1880 294 14
1.2332 -0.2683 -0.4378 0.1962 294 14
1.2150 -0.1747 -0.4259 0.2240 294 14
1.2172 -0.0871 -0.4234 0.2254 294 14
1.2104 -0.0000 -0.4199 0.2272 294 14
1.1950 0.0854 -0.4156 0.2296 294 14
1.1714 0.1684 -0.4106 0.2324 294 14
1.1402 0.2480 -0.4048 0.2351 294 14
1.1204 0.3290 -0.4051 0.2229 294 14
1.0933 0.4078 -0.4048 0.2331 294 14
1.0590 0.4836 -0.4039 0.2337 294 14
1.0174 0.5555 -0.4021 0.2347 294 14
0.9898 0.6361 -0.4082 0.3032 294 14
0.9597 0.7184 -0.4159 0.2561 294 14
0.9378 0.8125 -0.4305 0.2474 294 14
3.5749 -3.5749 -1.8008 0.3361 0 1
3.8202 -3.3102 -1.8006 0.3362 0 1
4.0460 -3.0288 -1.8003 0.3362 0 1
4.2511 -2.7320 -1.8000 0.3363 0 1
4.4346 -2.4215 -1.7998 0.3363 0 1
1.2405 -0.5665 -0.4858 0.1867 294 14
1.2287 -0.4583 -0.4671 0.1941 294 14
1.2087 -0.3550 -0.4487 0.1960 294 14
1.1814 -0.2570 -0.4306 0.2042 294 14
1.1696 -0.1682 -0.4209 0.2321 294 14
1.1719 -0.0838 -0.4185 0.2334 294 14
1.1657 -0.0000 -0.4152 0.2352 294 14
1.1513 0.0823 -0.4111 0.2376 294 14
1.1291 0.1623 -0.4063 0.2404 294 14
1.1001 0.2393 -0.4010 0.2536 294 14
1.0796 0.3170 -0.4008 0.2411 294 14
1.0539 0.3931 -0.4007 0.2412 294 14
1.0209 0.4662 -0.3998 0.2417 294 14
0.9871 0.5389 -0.4006 0.3163 294 14
0.9621 0.6183 -0.4074 0.3110 294 14
0.9310 0.6969 -0.4142 0.3058 294 14
0.9061 0.7851 -0.4270 0.2553 294 14
3.4839 -3.4839 -1.8009 0.3439 0 1
3.7229 -3.2259 -1.8006 0.3439 0 1
3.9430 -2.9517 -1.8004 0.3440 0 1
4.1430 -2.6625 -1.8001 0.3440 0 1
1.1848 -0.6470 -0.4934 0.1880 294 14
1.1857 -0.5415 -0.4764 0.1947 294 14
1.1764 -0.4388 -0.4589 0.2021 294 14
1.1582 -0.3401 -0.4412 0.2102 294 14
1.1335 -0.2466 -0.4240 0.2122 294 14
1.1272 -0.1621 -0.4163 0.2401 294 14
1.1297 -0.0808 -0.4140 0.2414 294 14
1.1240 -0.0000 -0.4109 0.2432 294 14
1.1105 0.0794 -0.4070 0.2456 294 14
1.0902 0.1567 -0.4026 0.2584 294 14
1.0634 0.2313 -0.3978 0.2615 294 14
1.0418 0.3059 -0.3969 0.2491 294 14
1.0171 0.3793 -0.3968 0.2491 294 14
0.9853 0.4499 -0.3959 0.2497 294 14
0.9605 0.5244 -0.4000 0.3240 294 14
0.9358 0.6014 -0.4066 0.3188 294 14
0.9051 0.6775 -0.4132 0.3137 294 14
0.8763 0.7593 -0.4238 0.2632 294 14
3.3969 -3.3969 -1.8010 0.3516 0 1
3.6300 -3.1454 -1.8007 0.3517 0 1
3.8446 -2.8780 -1.8005 0.3517 0 1
4.0396 -2.5961 -1.8002 0.3518 0 1
1.1327 -0.6185 -0.4838 0.1961 294 14
1.1352 -0.5184 -0.4679 0.2027 294 14
1.1281 -0.4208 -0.4514 0.2101 294 14
1.1124 -0.3267 -0.4346 0.2182 294 14
1.0893 -0.2370 -0.4179 0.2270 294 14
1.0876 -0.1564 -0.4119 0.2481 294 14
1.0901 -0.0780 -0.4097 0.2494 294 14
1.0853 -0.0000 -0.4069 0.2615 294 14
1.0733 0.0768 -0.4034 0.2637 294 14
1.0544 0.1516 -0.3994 0.2664 294 14
1.0290 0.2238 -0.3948 0.2695 294 14
1.0064 0.2955 -0.3932 0.2571 294 14
0.9825 0.3664 -0.3931 0.2571 294 14
0.9539 0.4356 -0.3931 0.3371 294 14
0.9351 0.5106 -0.3994 0.3318 294 14
0.9107 0.5852 -0.4058 0.3266 294 14
0.8804 0.6591 -0.4123 0.3214 294 14
0.8482 0.7349 -0.4208 0.2711 294 14
3.3137 -3.3136 -1.8011 0.3593 0 1
3.5411 -3.0683 -1.8008 0.3594 0 1
3.7504 -2.8075 -1.8005 0.3594 0 1
3.9406 -2.5325 -1.8003 0.3595 0 1
1.0846 -0.5922 -0.4750 0.2041 294 14
1.0886 -0.4972 -0.4599 0.2108 294 14
1.0833 -0.4041 -0.4444 0.2181 294 14
1.0699 -0.3142 -0.4285 0.2262 294 14
1.0565 -0.2299 -0.4156 0.3445 294 14
1.0515 -0.1512 -0.4083 0.2663 294 14
1.0543 -0.0754 -0.4062 0.2676 294 14
1.0500 -0.0000 -0.4035 0.2694 294 14
1.0387 0.0743 -0.4002 0.2716 294 14
1.0208 0.1467 -0.3963 0.2743 294 14
0.9965 0.2167 -0.3919 0.2774 294 14
0.9732 0.2857 -0.3898 0.2650 294 14
0.9501 0.3543 -0.3897 0.2651 294 14
0.9296 0.4245 -0.3928 0.3449 294 14
0.9110 0.4974 -0.3989 0.3395 294 14
0.8868 0.5699 -0.4051 0.3343 294 14
0.8570 0.6415 -0.4114 0.3292 294 14
0.8217 0.7120 -0.4179 0.2789 294 14
3.2339 -3.2338 -1.8011 0.3670 0 1
3.4559 -2.9945 -1.8009 0.3670 0 1
3.6601 -2.7399 -1.8006 0.3671 0 1
1.0268 -0.6599 -0.4807 0.3042 294 14
1.0403 -0.5680 -0.4668 0.2121 294 14
1.0462 -0.4778 -0.4530 0.3228 294 14
1.0464 -0.3903 -0.4398 0.3324 294 14
1.0410 -0.3057 -0.4273 0.3422 294 14
1.0303 -0.2242 -0.4153 0.3521 294 14
1.0263 -0.1476 -0.4083 0.3741 294 14
1.0207 -0.0730 -0.4030 0.2756 294 14
1.0167 -0.0000 -0.4004 0.2773 294 14
1.0061 0.0719 -0.3972 0.2796 294 14
0.9890 0.1422 -0.3935 0.2822 294 14
0.9658 0.2101 -0.3892 0.2853 294 14
0.9418 0.2765 -0.3866 0.2730 294 14
0.9196 0.3430 -0.3865 0.3579 294 14
0.9064 0.4139 -0.3924 0.3526 294 14
0.8879 0.4848 -0.3984 0.3473 294 14
0.8640 0.5552 -0.4045 0.3421 294 14
0.8346 0.6247 -0.4106 0.3370 294 14
0.7996 0.6928 -0.4167 0.3320 294 14
3.1574 -3.1574 -1.8012 0.3747 0 1
3.3741 -2.9237 -1.8009 0.3747 0 1
3.5736 -2.6751 -1.8007 0.3748 0 1
0.9945 -0.6391 -0.4769 0.2614 294 14
1.0115 -0.5523 -0.4649 0.3211 294 14
1.0185 -0.4652 -0.4516 0.3305 294 14
1.0195 -0.3803 -0.4389 0.3401 294 14
1.0149 -0.2980 -0.4267 0.3499 294 14
1.0052 -0.2187 -0.4150 0.3597 294 14
1.0026 -0.1442 -0.4086 0.3817 294 14
0.9964 -0.0713 -0.4029 0.3870 294 14
0.9855 -0.0000 -0.3975 0.3923 294 14
0.9752 0.0697 -0.3944 0.2875 294 14
0.9589 0.1378 -0.3908 0.2901 294 14
0.9367 0.2037 -0.3867 0.2932 294 14
0.9122 0.2678 -0.3835 0.2809 294 14
0.8974 0.3347 -0.3863 0.3656 294 14
0.8842 0.4038 -0.3921 0.3602 294 14
0.8658 0.4727 -0.3979 0.3550 294 14
0.8422 0.5412 -0.4038 0.3498 294 14
0.8132 0.6087 -0.4097 0.3447 294 14
0.7788 0.6748 -0.4157 0.3398 294 14
3.0840 -3.0839 -1.8013 0.3823 0 1
3.2957 -2.8557 -1.8010 0.3823 0 1
3.4905 -2.6129 -1.8008 0.3824 0 1
0.9619 -0.6182 -0.4722 0.2694 294 14
0.9844 -0.5376 -0.4632 0.3288 294 14
0.9920 -0.4531 -0.4504 0.3382 294 14
0.9937 -0.3706 -0.4380 0.3478 294 14
0.9899 -0.2907 -0.4261 0.3575 294 14
0.9812 -0.2135 -0.4147 0.3673 294 14
0.9797 -0.1409 -0.4088 0.3893 294 14
0.9740 -0.0697 -0.4033 0.3946 294 14
0.9637 -0.0000 -0.3980 0.3998 294 14
0.9491 0.0679 -0.3930 0.4050 294 14
0.9304 0.1337 -0.3882 0.2980 294 14
0.9092 0.1978 -0.3843 0.3010 294 14
0.8845 0.2597 -0.3807 0.3786 294 14
0.8761 0.3267 -0.3862 0.3732 294 14
0.8629 0.3940 -0.3918 0.3679 294 14
0.8446 0.4612 -0.3974 0.3626 294 14
0.8213 0.5278 -0.4032 0.3575 294 14
3.2974 2.4684 -1.7012 0.6377 0 2
3.1054 2.6908 -1.6971 0.3825 0 2
3.0134 -3.0134 -1.8013 0.3899 0 1
3.2203 -2.7903 -1.8011 0.3899 0 1
0.8922 -0.6679 -0.4711 0.2754 294 14
0.9312 -0.5985 -0.4679 0.2773 294 14
0.9586 -0.5235 -0.4617 0.3365 294 14
0.9667 -0.4415 -0.4492 0.3459 294 14
0.9690 -0.3615 -0.4372 0.3554 294 14
0.9660 -0.2837 -0.4256 0.3651 294 14
0.9584 -0.2085 -0.4146 0.3915 294 14
0.9578 -0.1377 -0.4090 0.3968 294 14
0.9525 -0.0681 -0.4036 0.4021 294 14
0.9427 -0.0000 -0.3984 0.4074 294 14
0.9286 0.0664 -0.3935 0.4125 294 14
0.9105 0.1309 -0.3888 0.4175 294 14
0.8885 0.1933 -0.3843 0.4223 294 14
4.0850 1.1995 -1.7996 0.3903 0 1
3.9891 1.4879 -1.7996 0.3903 0 1
3.8729 1.7686 -1.7997 0.3902 0 1
3.7371 2.0405 -1.7998 0.3902 0 1
3.5084 2.2546 -1.7628 0.5026 0 2
3.2140 2.4059 -1.6970 0.3902 0 2
3.0344 2.6293 -1.6971 0.3901 0 2
2.9455 -2.9455 -1.8014 0.3975 0 1
3.1477 -2.7275 -1.8011 0.3975 0 1
0.8642 -0.6470 -0.4668 0.2833 294 14
0.9022 -0.5798 -0.4638 0.2852 294 14
0.9333 -0.5097 -0.4599 0.2876 294 14
0.9425 -0.4304 -0.4481 0.3535 294 14
0.9454 -0.3526 -0.4363 0.3630 294 14
0.9431 -0.2769 -0.4250 0.3726 294 14
0.9370 -0.2038 -0.4147 0.3991 294 14
0.9367 -0.1347 -0.4092 0.4044 294 14
0.9317 -0.0667 -0.4039 0.4096 294 14
0.9224 -0.0000 -0.3989 0.4148 294 14
0.9089 0.0650 -0.3940 0.4199 294 14
0.8914 0.1281 -0.3894 0.4249 294 14
0.8700 0.1892 -0.3850 0.4298 294 14
3.9930 1.1725 -1.7997 0.3979 0 1
3.8993 1.4544 -1.7997 0.3978 0 1
3.7858 1.7288 -1.7998 0.3978 0 1
3.6530 1.9946 -1.7999 0.3978 0 1
3.5016 2.2503 -1.8000 0.3978 0 1
3.1417 2.3518 -1.6971 0.3978 0 2
2.9661 2.5701 -1.6972 0.3977 0 2
2.8802 -2.8802 -1.8014 0.4050 0 1
3.0779 -2.6670 -1.8012 0.4051 0 1
0.8377 -0.6271 -0.4628 0.2912 294 14
0.8748 -0.5622 -0.4599 0.2931 294 14
0.9052 -0.4943 -0.4561 0.2955 294 14
0.9193 -0.4199 -0.4470 0.3611 294 14
0.9227 -0.3442 -0.4355 0.3706 294 14
0.9210 -0.2704 -0.4245 0.3802 294 14
0.9163 -0.1994 -0.4147 0.4066 294 14
0.9163 -0.1318 -0.4094 0.4119 294 14
0.9117 -0.0652 -0.4042 0.4171 294 14
0.9028 -0.0000 -0.3993 0.4223 294 14
0.8898 0.0636 -0.3945 0.4274 294 14
0.8729 0.1255 -0.3900 0.4323 294 14
3.9763 0.8650 -1.7997 0.4054 0 1
3.9046 1.1465 -1.7998 0.4054 0 1
3.8129 1.4221 -1.7998 0.4054 0 1
3.7019 1.6905 -1.7999 0.4054 0 1
3.5721 1.9504 -1.8000 0.4054 0 1
3.4240 2.2004 -1.8001 0.4053 0 1
3.0720 2.2996 -1.6972 0.4053 0 2
2.9004 2.5131 -1.6973 0.4053 0 2
2.8173 -2.8172 -1.8015 0.4125 0 1
0.7705 -0.6677 -0.4610 0.2978 294 14
0.8127 -0.6084 -0.4590 0.2991 294 14
0.8488 -0.5455 -0.4562 0.3009 294 14
0.8785 -0.4797 -0.4526 0.3033 294 14
0.8971 -0.4097 -0.4459 0.3687 294 14
0.9010 -0.3361 -0.4348 0.3781 294 14
0.8998 -0.2643 -0.4240 0.3877 294 14
0.8964 -0.1950 -0.4148 0.4141 294 14
0.8967 -0.1289 -0.4096 0.4193 294 14
0.8924 -0.0638 -0.4045 0.4246 294 14
0.8839 -0.0000 -0.3997 0.4297 294 14
0.8714 0.0623 -0.3950 0.4348 294 14
0.8550 0.1229 -0.3906 0.4397 294 14
3.8895 0.8461 -1.7998 0.4129 0 1
3.8193 1.1214 -1.7998 0.4129 0 1
3.7297 1.3911 -1.7999 0.4129 0 1
3.6211 1.6536 -1.8000 0.4129 0 1
3.4941 1.9078 -1.8000 0.4129 0 1
3.3492 2.1523 -1.8002 0.4129 0 1
3.0284 2.2670 -1.7105 0.6356 0 2
2.8507 2.4700 -1.7055 0.6865 0 2
2.7566 -2.7565 -1.8015 0.4200 0 1
0.7479 -0.6481 -0.4573 0.3057 294 14
0.7889 -0.5906 -0.4554 0.3069 294 14
0.8241 -0.5296 -0.4527 0.3088 294 14
0.8531 -0.4659 -0.4492 0.3112 294 14
0.8758 -0.4000 -0.4449 0.3762 294 14
0.8801 -0.3283 -0.4341 0.3856 294 14
0.8795 -0.2583 -0.4236 0.3952 294 14
0.8773 -0.1909 -0.4149 0.4215 294 14
0.8777 -0.1262 -0.4098 0.4268 294 14
0.8738 -0.0625 -0.4048 0.4320 294 14
0.8657 -0.0000 -0.4001 0.4371 294 14
0.8537 0.0610 -0.3955 0.4422 294 14
3.8552 0.5543 -1.7999 0.4204 0 1
3.8058 0.8279 -1.7999 0.4204 0 1
3.7371 1.0973 -1.7999 0.4204 0 1
3.6494 1.3612 -1.8000 0.4204 0 1
3.5431 1.6181 -1.8000 0.4204 0 1
3.4188 1.8668 -1.8001 0.4204 0 1
3.2771 2.1060 -1.8002 0.4204 0 1
3.0177 2.2589 -1.7420 0.6355 0 2
2.7759 2.4053 -1.6974 0.4203 0 2
0.6812 -0.6812 -0.4549 0.3128 294 14
0.7264 -0.6295 -0.4538 0.3135 294 14
0.7663 -0.5737 -0.4520 0.3148 294 14
0.8006 -0.5146 -0.4494 0.3166 294 14
0.8290 -0.4527 -0.4460 0.3190 294 14
0.8514 -0.3889 -0.4420 0.3219 294 14
0.8600 -0.3208 -0.4334 0.3931 294 14
0.8599 -0.2525 -0.4231 0.4027 294 14
0.8587 -0.1868 -0.4150 0.4290 294 14
0.8594 -0.1236 -0.4099 0.4342 294 14
0.8558 -0.0612 -0.4051 0.4394 294 14
0.8481 -0.0000 -0.4004 0.4445 294 14
0.8365 0.0598 -0.3960 0.4495 294 14
3.7733 0.5425 -1.8000 0.4279 0 1
3.7250 0.8103 -1.8000 0.4279 0 1
3.6578 1.0740 -1.8000 0.4279 0 1
3.5719 1.3323 -1.8001 0.4279 0 1
3.4679 1.5838 -1.8001 0.4279 0 1
3.3462 1.8271 -1.8002 0.4278 0 1
3.2076 2.0613 -1.8003 0.4278 0 1
3.0159 2.2576 -1.7788 0.5462 0 2
2.7170 2.3542 -1.6975 0.4278 0 2
0.6620 -0.6620 -0.4515 0.3206 294 14
0.7059 -0.6117 -0.4505 0.3213 294 14
0.7448 -0.5576 -0.4487 0.3226 294 14
0.7783 -0.5002 -0.4462 0.3244 294 14
0.8061 -0.4402 -0.4429 0.3268 294 14
0.8281 -0.3782 -0.4390 0.3297 294 14
0.8406 -0.3136 -0.4327 0.4006 294 14
0.8410 -0.2470 -0.4227 0.4101 294 14
0.8409 -0.1829 -0.4150 0.4364 294 14
0.8417 -0.1210 -0.4101 0.4416 294 14
0.8384 -0.0600 -0.4054 0.4467 294 14
0.8310 -0.0000 -0.4008 0.4519 294 14
3.7228 0.2662 -1.8001 0.4353 0 1
3.6943 0.5312 -1.8001 0.4353 0 1
3.6470 0.7933 -1.8001 0.4353 0 1
3.5812 1.0515 -1.8001 0.4353 0 1
3.4971 1.3044 -1.8001 0.4353 0 1
3.3953 1.5505 -1.8002 0.4353 0 1
3.2762 1.7888 -1.8003 0.4353 0 1
3.1404 2.0181 -1.8004 0.4353 0 1
1.5848 1.1863 -0.9548 0.4095 294 14
2.6601 2.3049 -1.6976 0.4352 0 2
2.5868 -2.5867 -1.8017 0.4424 0 1
0.6865 -0.5948 -0.4473 0.3291 294 14
0.7243 -0.5422 -0.4456 0.3304 294 14
0.7570 -0.4865 -0.4432 0.3322 294 14
0.7842 -0.4282 -0.4400 0.3346 294 14
0.8058 -0.3680 -0.4363 0.3375 294 14
0.8217 -0.3065 -0.4319 0.3409 294 14
0.8227 -0.2416 -0.4223 0.4175 294 14
0.8236 -0.1792 -0.4151 0.4437 294 14
0.8246 -0.1186 -0.4103 0.4489 294 14
0.8215 -0.0588 -0.4056 0.4541 294 14
3.6552 -0.0000 -1.8002 0.4427 0 1
3.6458 0.2607 -1.8002 0.4427 0 1
3.6179 0.5202 -1.8001 0.4427 0 1
3.5716 0.7770 -1.8002 0.4427 0 1
3.5071 1.0298 -1.8002 0.4427 0 1
3.4248 1.2774 -1.8002 0.4427 0 1
3.3251 1.5185 -1.8003 0.4427 0 1
3.2084 1.7518 -1.8004 0.4427 0 1
3.0754 1.9764 -1.8005 0.4427 0 1
1.6027 1.1997 -0.9860 0.4033 294 14
2.6202 2.2703 -1.7075 0.6828 0 2
2.5339 -2.5339 -1.8017 0.4497 0 1
2.7079 -2.3464 -1.8015 0.4498 0 1
0.7048 -0.5276 -0.4426 0.3382 294 14
0.7367 -0.4735 -0.4403 0.3400 294 14
0.7633 -0.4168 -0.4373 0.3423 294 14
0.7845 -0.3583 -0.4336 0.3452 294 14
0.8002 -0.2985 -0.4294 0.3486 294 14
0.8051 -0.2364 -0.4219 0.4249 294 14
0.8069 -0.1755 -0.4152 0.4511 294 14
0.8080 -0.1162 -0.4104 0.4563 294 14
3.5716 -0.2555 -1.8003 0.4501 0 1
3.5806 0.0000 -1.8003 0.4501 0 1
3.5714 0.2554 -1.8002 0.4501 0 1
3.5440 0.5096 -1.8002 0.4501 0 1
3.4987 0.7611 -1.8002 0.4501 0 1
3.4355 1.0087 -1.8003 0.4501 0 1
3.3549 1.2513 -1.8003 0.4501 0 1
3.2572 1.4875 -1.8004 0.4501 0 1
3.1429 1.7161 -1.8004 0.4501 0 1
3.0126 1.9360 -1.8005 0.4500 0 1
1.6211 1.2136 -1.0181 0.3971 294 14
2.6114 2.2627 -1.7373 0.6823 0 2
2.4827 -2.4827 -1.8018 0.4571 0 1
2.6532 -2.2991 -1.8016 0.4571 0 1
2.8102 -2.1037 -1.8014 0.4572 0 1
0.7173 -0.4610 -0.4375 0.3477 294 14
0.7433 -0.4059 -0.4346 0.3501 294 14
0.7641 -0.3490 -0.4311 0.3529 294 14
0.7796 -0.2908 -0.4270 0.3563 294 14
0.7881 -0.2314 -0.4215 0.4322 294 14
0.7907 -0.1720 -0.4152 0.4584 294 14
3.4729 -0.4994 -1.8005 0.4574 0 1
3.4995 -0.2503 -1.8004 0.4574 0 1
3.5083 -0.0000 -1.8003 0.4575 0 1
3.4993 0.2503 -1.8003 0.4575 0 1
3.4725 0.4993 -1.8003 0.4575 0 1
3.4281 0.7457 -1.8003 0.4575 0 1
3.3662 0.9884 -1.8003 0.4575 0 1
3.2872 1.2261 -1.8004 0.4575 0 1
3.1915 1.4575 -1.8004 0.4574 0 1
3.0795 1.6814 -1.8005 0.4574 0 1
1.5953 1.0252 -0.9731 0.4223 294 14
1.6401 1.2278 -1.0514 0.3909 294 14
2.6084 2.2601 -1.7711 0.5866 0 2
2.4332 -2.4332 -1.8018 0.4644 0 1
2.6003 -2.2532 -1.8016 0.4645 0 1
2.7541 -2.0618 -1.8014 0.4645 0 1
2.8939 -1.8598 -1.8013 0.4646 0 1
3.0189 -1.6485 -1.8011 0.4646 0 1
0.7446 -0.3401 -0.4286 0.3606 294 14
0.7599 -0.2835 -0.4247 0.3640 294 14
0.7700 -0.2261 -0.4202 0.3678 294 14
3.3602 -0.7310 -1.8006 0.4647 0 1
3.4036 -0.4894 -1.8005 0.4647 0 1
3.4297 -0.2453 -1.8005 0.4648 0 1
3.4384 -0.0000 -1.8004 0.4648 0 1
3.4296 0.2453 -1.8004 0.4648 0 1
3.4033 0.4893 -1.8004 0.4648 0 1
3.3597 0.7309 -1.8004 0.4648 0 1
3.2991 0.9687 -1.8004 0.4648 0 1
3.2216 1.2016 -1.8004 0.4648 0 1
3.1278 1.4284 -1.8005 0.4648 0 1
3.0181 1.6479 -1.8006 0.4647 0 1
1.6129 1.0366 -1.0040 0.4159 294 14
1.6598 1.2425 -1.0856 0.3846 294 14
2.5993 2.2522 -1.8009 0.4646 0 1
2.3852 -2.3852 -1.8019 0.4717 0 1
2.5490 -2.2088 -1.8017 0.4717 0 1
2.6998 -2.0211 -1.8015 0.4718 0 1
2.8368 -1.8231 -1.8013 0.4718 0 1
2.9594 -1.6160 -1.8012 0.4719 0 1
3.0669 -1.4006 -1.8010 0.4719 0 1
3.1588 -1.1782 -1.8009 0.4720 0 1
3.2346 -0.9498 -1.8008 0.4720 0 1
3.2939 -0.7166 -1.8007 0.4720 0 1
3.3365 -0.4797 -1.8006 0.4720 0 1
3.3621 -0.2405 -1.8005 0.4720 0 1
3.3706 -0.0000 -1.8005 0.4721 0 1
3.3619 0.2404 -1.8004 0.4721 0 1
3.3362 0.4797 -1.8004 0.4721 0 1
3.2935 0.7164 -1.8004 0.4721 0 1
3.2340 0.9496 -1.8005 0.4721 0 1
3.1581 1.1779 -1.8005 0.4721 0 1
3.0661 1.4003 -1.8006 0.4720 0 1
1.5934 0.8701 -0.9698 0.4373 294 14
1.6312 1.0483 -1.0358 0.4094 294 14
1.6801 1.2577 -1.1211 0.3783 294 14
1.3369 1.1584 -0.9449 0.3321 294 14
2.3386 -2.3387 -1.8019 0.4790 0 1
2.4992 -2.1656 -1.8017 0.4790 0 1
2.6471 -1.9816 -1.8015 0.4791 0 1
2.7815 -1.7876 -1.8014 0.4791 0 1
2.9017 -1.5845 -1.8012 0.4791 0 1
1.5799 -0.7215 -0.9463 0.4551 294 14
3.0972 -1.1552 -1.8009 0.4792 0 1
3.1715 -0.9312 -1.8008 0.4792 0 1
3.2297 -0.7026 -1.8007 0.4793 0 1
3.2714 -0.4704 -1.8007 0.4793 0 1
3.2965 -0.2358 -1.8006 0.4793 0 1
3.3048 -0.0000 -1.8005 0.4793 0 1
3.2964 0.2357 -1.8005 0.4793 0 1
3.2711 0.4703 -1.8005 0.4793 0 1
3.2293 0.7025 -1.8005 0.4793 0 1
3.1709 0.9311 -1.8005 0.4793 0 1
3.0965 1.1549 -1.8006 0.4793 0 1
3.0063 1.3729 -1.8006 0.4793 0 1
1.6105 0.8794 -0.9998 0.4307 294 14
1.6500 1.0604 -1.0686 0.4030 294 14
1.6884 1.2639 -1.1490 0.6498 294 14
1.3008 1.1271 -0.9378 0.3398 294 14
2.2935 -2.2935 -1.8019 0.4862 0 1
2.4510 -2.1238 -1.8017 0.4862 0 1
2.5960 -1.9434 -1.8016 0.4863 0 1
2.7278 -1.7531 -1.8014 0.4863 0 1
2.8456 -1.5539 -1.8013 0.4864 0 1
1.5963 -0.7290 -0.9750 0.4483 294 14
3.0374 -1.1329 -1.8010 0.4864 0 1
3.1103 -0.9133 -1.8009 0.4865 0 1
3.1673 -0.6890 -1.8008 0.4865 0 1
3.2083 -0.4613 -1.8007 0.4865 0 1
3.2329 -0.2312 -1.8007 0.4865 0 1
3.2411 -0.0000 -1.8006 0.4865 0 1
3.2328 0.2312 -1.8006 0.4865 0 1
3.2080 0.4612 -1.8006 0.4865 0 1
3.1669 0.6889 -1.8006 0.4865 0 1
3.1098 0.9131 -1.8006 0.4865 0 1
3.0368 1.1326 -1.8006 0.4865 0 1
2.9483 1.3464 -1.8007 0.4865 0 1
1.6283 0.8891 -1.0307 0.4241 294 14
1.6694 1.0729 -1.1025 0.3965 294 14
1.6909 1.2658 -1.1735 0.6459 294 14
1.2664 1.0973 -0.9309 0.3474 294 14
2.2496 -2.2497 -1.8020 0.4934 0 1
2.4041 -2.0832 -1.8018 0.4934 0 1
2.5464 -1.9062 -1.8016 0.4935 0 1
2.6756 -1.7196 -1.8015 0.4935 0 1
2.7912 -1.5242 -1.8013 0.4935 0 1
1.6133 -0.7368 -1.0046 0.4416 294 14
1.5876 -0.5921 -0.9597 0.4622 294 14
3.0508 -0.8958 -1.8009 0.4936 0 1
3.1068 -0.6759 -1.8009 0.4937 0 1
3.1470 -0.4525 -1.8008 0.4937 0 1
3.1711 -0.2268 -1.8007 0.4937 0 1
3.1791 -0.0000 -1.8007 0.4937 0 1
3.1710 0.2268 -1.8006 0.4937 0 1
3.1467 0.4524 -1.8006 0.4937 0 1
3.1064 0.6757 -1.8006 0.4937 0 1
3.0504 0.8956 -1.8007 0.4937 0 1
2.9787 1.1110 -1.8007 0.4937 0 1
2.8920 1.3207 -1.8008 0.4937 0 1
1.6466 0.8991 -1.0626 0.4175 294 14
1.6870 1.0842 -1.1358 0.6772 294 14
1.3506 1.0111 -0.9556 0.5214 294 14
1.2334 1.0687 -0.9243 0.3551 294 14
2.2070 -2.2071 -1.8020 0.5005 0 1
2.3586 -2.0438 -1.8018 0.5006 0 1
2.4982 -1.8702 -1.8017 0.5006 0 1
2.6250 -1.6870 -1.8015 0.5007 0 1
2.7384 -1.4953 -1.8014 0.5007 0 1
1.6308 -0.7448 -1.0351 0.4348 294 14
1.6041 -0.5983 -0.9884 0.4553 294 14
1.5838 -0.4650 -0.9530 0.4723 294 14
3.0480 -0.6631 -1.8009 0.5008 0 1
