ply
format ascii 1.0
element vertex 609
property float32 x
property float32 y
property float32 z
property float32 CosAngle
property uint32 ObjIdx
property uint32 ObjTag
end_header
18.428770065307617 10.456835746765137 3.6161723136901855 0.5307154655456543 0 9
18.678789138793945 10.378222465515137 3.6468138694763184 0.7864047884941101 0 9
18.542205810546875 10.085585594177246 3.602322816848755 0.5770570635795593 0 9
18.40347671508789 9.797109603881836 3.5581445693969727 0.5842219591140747 0 9
17.190624237060547 8.954336166381836 3.307974100112915 0.2221490442752838 0 9
17.94548797607422 9.143730163574219 3.4373064041137695 0.21379061043262482 0 9
18.00679588317871 8.972265243530273 3.4334819316864014 0.605434238910675 0 9
17.880643844604492 8.709921836853027 3.3943779468536377 0.6124086976051331 0 9
22.825761795043945 10.866386413574219 4.314443111419678 0.9962310791015625 0 9
22.90591812133789 10.653417587280273 4.311347484588623 0.9969469308853149 0 9
36.75117111206055 16.693222045898438 6.888826847076416 0.7996960282325745 0 9
36.993614196777344 16.404375076293945 6.906385898590088 0.9647942781448364 0 9
37.22624969482422 16.109256744384766 6.922548770904541 0.9625425934791565 0 9
31.59339714050293 13.336308479309082 5.852566242218018 0.3588525056838989 0 9
31.394804000854492 12.921757698059082 5.794069290161133 0.36247581243515015 0 9
31.199159622192383 12.514941215515137 5.736995697021484 0.3660818338394165 0 9
32.96568298339844 12.88124942779541 6.040322303771973 0.7507500648498535 0 9
32.875701904296875 12.507128715515137 6.003026008605957 0.7554143667221069 0 9
32.72517395019531 12.114765167236328 5.955447196960449 0.3894422948360443 0 9
33.471580505371094 12.050546646118164 6.071344375610352 0.3820081651210785 0 9
31.99740219116211 11.196406364440918 5.785480976104736 0.755175769329071 0 9
32.012107849121094 10.880058288574219 5.77025842666626 0.7571679353713989 0 9
32.026405334472656 10.565214157104492 5.755500316619873 0.7591090798377991 0 9
32.040157318115234 10.251776695251465 5.741207599639893 0.7609991431236267 0 9
32.0534553527832 9.93978500366211 5.727365493774414 0.7628375887870789 0 9
32.06626892089844 9.629101753234863 5.713984966278076 0.7646247148513794 0 9
32.07861328125 9.31972599029541 5.701047420501709 0.7663601040840149 0 9
32.09046936035156 9.011640548706055 5.688549518585205 0.7680436372756958 0 9
32.10183334350586 8.70474624633789 5.676485538482666 0.7696751356124878 0 9
33.59001922607422 8.785370826721191 5.925454139709473 0.7529174089431763 0 9
36.61101531982422 9.225234031677246 6.443506717681885 0.7789998054504395 0 9
47.94931411743164 10.718066215515137 8.385190963745117 0.9909285306930542 0 9
47.47623062133789 10.165741920471191 8.28616714477539 0.469797819852829 0 9
48.053924560546875 9.839179039001465 8.371243476867676 0.9925800561904907 0 9
22.54701042175293 -9.280038833618164 4.1611552238464355 0.9090676307678223 0 3
22.082754135131836 -9.32162094116211 4.090753555297852 0.38958466053009033 0 3
21.54947280883789 -9.325273513793945 4.00731086730957 0.397696852684021 0 3
21.037479400634766 -9.328788757324219 3.927513360977173 0.40577682852745056 0 3
20.545467376708984 -9.33218765258789 3.8511407375335693 0.4138236343860626 0 3
20.072168350219727 -9.335410118103027 3.7779791355133057 0.42183756828308105 0 3
19.41615104675293 -9.243183135986328 3.6699774265289307 0.88721764087677 0 3
19.07011604309082 -9.289336204528809 3.6201860904693604 0.4377628564834595 0 3
18.649003982543945 -9.292226791381836 3.55592942237854 0.4456729292869568 0 3
18.24251937866211 -9.295000076293945 3.494194269180298 0.45354723930358887 0 3
17.776386260986328 -9.259413719177246 3.420696973800659 0.4613848030567169 0 3
17.398418426513672 -9.262011528015137 3.363823175430298 0.4691852331161499 0 3
14.359335899353027 -7.810390472412109 2.789691925048828 0.47694826126098633 0 3
14.060976028442383 -7.812421798706055 2.7452328205108643 0.48467200994491577 0 3
13.771894454956055 -7.814433574676514 2.702380657196045 0.4923575520515442 0 3
13.516679763793945 -7.830820083618164 2.6659910678863525 0.5144560933113098 0 3
13.223456382751465 -7.8203125 2.621891498565674 0.845119297504425 0 3
13.25374984741211 -7.999687194824219 2.6420419216156006 0.4533914029598236 0 3
13.24697208404541 -8.158671379089355 2.6551766395568848 0.8008649349212646 0 3
13.239863395690918 -8.319140434265137 2.668614149093628 0.7968323230743408 0 3
13.232421875 -8.481074333190918 2.6823418140411377 0.7900419235229492 0 3
13.229082107543945 -8.6474609375 2.6972899436950684 0.821494996547699 0 3
13.230253219604492 -8.818671226501465 2.7135586738586426 0.8165702223777771 0 3
13.231425285339355 -8.99203109741211 2.730243444442749 0.8115798234939575 0 3
13.232636451721191 -9.167558670043945 2.747358560562134 0.8065237998962402 0 3
13.23378849029541 -9.345293045043945 2.7649149894714355 0.8014023900032043 0 3
13.23501968383789 -9.525351524353027 2.7829225063323975 0.7962169051170349 0 3
8.808964729309082 -6.460663795471191 1.864382266998291 0.7909671068191528 0 3
13.237519264221191 -9.892617225646973 2.8203375339508057 0.7856540679931641 0 3
13.238808631896973 -10.080039024353027 2.839773178100586 0.7802771925926208 0 3
13.23876953125 -10.269022941589355 2.8594257831573486 0.7844496965408325 0 3
13.238691329956055 -10.460644721984863 2.879574775695801 0.7789605855941772 0 3
8.964980125427246 -7.215371131896973 1.9639992713928223 0.1676945686340332 0 3
8.899687767028809 -7.295429706573486 1.9639654159545898 0.16769732534885406 0 3
8.833730697631836 -7.374882698059082 1.9639312028884888 0.16770011186599731 0 3
8.76699161529541 -7.453749656677246 1.9638961553573608 0.16770325601100922 0 3
8.69955062866211 -7.531972408294678 1.9638609886169434 0.16770626604557037 0 3
8.631444931030273 -7.609628677368164 1.963824987411499 0.1677093803882599 0 3
8.562636375427246 -7.686679363250732 1.9637887477874756 0.1677124798297882 0 3
8.493124961853027 -7.763046741485596 1.963751196861267 0.16771560907363892 0 3
8.422948837280273 -7.838828086853027 1.9637140035629272 0.1677188277244568 0 3
8.352128982543945 -7.913984298706055 1.9636766910552979 0.16772201657295227 0 3
8.280585289001465 -7.988476276397705 1.9636385440826416 0.16772519052028656 0 3
8.20839786529541 -8.06234359741211 1.9635998010635376 0.16772828996181488 0 3
18.247108459472656 18.247108459472656 4.185366630554199 0.40731555223464966 0 9
18.30025291442871 17.974647521972656 4.160384654998779 0.4097617566585541 0 9
18.353221893310547 17.705801010131836 4.13612699508667 0.4121648073196411 0 9
15.360487937927246 14.554784774780273 3.4321019649505615 0.21407848596572876 0 9
15.657793045043945 14.57201099395752 3.4691691398620605 0.2117910236120224 0 9
15.962538719177246 14.590449333190918 3.5075254440307617 0.20947489142417908 0 9
16.2750186920166 14.610116958618164 3.547231435775757 0.20713022351264954 0 9
16.595624923706055 14.631053924560547 3.5883421897888184 0.20475728809833527 0 9
15.897167205810547 13.763710975646973 3.410473585128784 0.8072214126586914 0 9
16.085721969604492 13.676230430603027 3.424442768096924 0.8039281368255615 0 9
16.27568244934082 13.587909698486328 3.438775062561035 0.8005774021148682 0 9
16.436288833618164 13.473495483398438 3.447021961212158 0.8524850010871887 0 9
16.565311431884766 13.332499504089355 3.448845148086548 0.2775128483772278 0 9
16.73208999633789 13.220995903015137 3.4587206840515137 0.8496018648147583 0 9
16.88054656982422 13.09390640258789 3.464966297149658 0.8480694890022278 0 9
15.880565643310547 12.091504096984863 3.2373015880584717 0.2656245231628418 0 9
16.515684127807617 12.34251880645752 3.3440513610839844 0.2571447491645813 0 9
17.194082260131836 12.61050796508789 3.4583489894866943 0.2486463338136673 0 9
17.422285079956055 12.539003372192383 3.481480121612549 0.8893625140190125 0 9
17.255956649780273 12.185664176940918 3.426243782043457 0.3107435703277588 0 9
17.034530639648438 11.801620483398438 3.3611137866973877 0.3167652487754822 0 9
16.8209171295166 11.431503295898438 3.2985777854919434 0.3227704167366028 0 9
16.61458969116211 11.074589729309082 3.238497734069824 0.3287583589553833 0 9
18.067968368530273 11.810526847839355 3.5009844303131104 0.4376184046268463 0 9
17.857284545898438 11.4453706741333 3.440117835998535 0.4453608989715576 0 9
17.653690338134766 11.092577934265137 3.381573438644409 0.4530716836452484 0 9
17.660390853881836 10.876933097839355 3.364017963409424 0.15437312424182892 0 9
18.639394760131836 11.250350952148438 3.53112530708313 0.8768587112426758 0 9
17.82304573059082 10.5405855178833 3.358421564102173 0.17389503121376038 0 9
18.913358688354492 10.957382202148438 3.5451817512512207 0.873381495475769 0 9
18.74152374267578 10.6343355178833 3.494943141937256 0.7809033393859863 0 9
18.688495635986328 10.383593559265137 3.4675328731536865 0.5705044269561768 0 9
18.546171188354492 10.087773323059082 3.424190044403076 0.5777254700660706 0 9
18.40738296508789 9.799179077148438 3.3821861743927 0.5849006175994873 0 9
18.271894454956055 9.517578125 3.3414647579193115 0.5920285582542419 0 9
17.802831649780273 9.070996284484863 3.240659713745117 0.21580004692077637 0 9
18.525585174560547 9.230742454528809 3.356997489929199 0.8129917979240417 0 9
18.49103546142578 9.007304191589355 3.335960626602173 0.8181185126304626 0 9
18.456953048706055 8.786561965942383 3.315444231033325 0.8231815099716187 0 9
22.935155868530273 10.667011260986328 4.102509498596191 0.9970422387123108 0 9
34.90834045410156 15.856171607971191 6.218493461608887 0.5492939352989197 0 9
37.07122802734375 16.438827514648438 6.5772385597229 0.9640953540802002 0 9
32.472049713134766 14.051972389221191 5.738631248474121 0.34828323125839233 0 9
32.259239196777344 13.617402076721191 5.679194927215576 0.351928174495697 0 9
32.04978561401367 13.19130802154541 5.6212382316589355 0.3555561900138855 0 9
31.843475341796875 12.773378372192383 5.564725399017334 0.359167218208313 0 9
31.600820541381836 12.347929000854492 5.502735614776611 0.40110376477241516 0 9
31.4443359375 11.962577819824219 5.456562519073486 0.7478289008140564 0 9
32.06626892089844 11.870820045471191 5.545777320861816 0.7052843570709229 0 9
32.60642623901367 11.739062309265137 5.620741844177246 0.7677856087684631 0 9
32.25888442993164 11.287909507751465 5.543145656585693 0.7500824928283691 0 9
32.273067474365234 10.96875 5.528439044952393 0.7520774602890015 0 9
32.28677749633789 10.651074409484863 5.51418924331665 0.7540213465690613 0 9
32.29996109008789 10.334921836853027 5.500381946563721 0.7559139132499695 0 9
32.31275177001953 10.020215034484863 5.487015247344971 0.7577548623085022 0 9
31.885038375854492 9.574667930603027 5.399562835693359 0.06864562630653381 0 9
32.33689498901367 9.394804000854492 5.4615983963012695 0.761282205581665 0 9
32.34828186035156 9.0840425491333 5.44952917098999 0.7629680633544922 0 9
32.35918045043945 8.774550437927246 5.437882423400879 0.7646021246910095 0 9
32.36970520019531 8.46621036529541 5.426657199859619 0.7661839127540588 0 9
32.379783630371094 8.159042358398438 5.415843963623047 0.7677132487297058 0 9
47.99911880493164 11.18246078491211 7.993471622467041 0.9892313480377197 0 9
46.182655334472656 10.323183059692383 7.675236225128174 0.630892276763916 0 9
46.366424560546875 9.928105354309082 7.690649032592773 0.629627525806427 0 9
46.55009841918945 9.531289100646973 7.706609725952148 0.6283230781555176 0 9
48.380760192871094 9.00439453125 7.98164176940918 0.3503173589706421 0 9
47.907615661621094 8.472128868103027 7.890719413757324 0.3543539345264435 0 9
22.547128677368164 -9.280097007751465 3.9545629024505615 0.9103106260299683 0 3
22.082754135131836 -9.321600914001465 3.8876378536224365 0.3901190757751465 0 3
21.549510955810547 -9.325273513793945 3.808342695236206 0.3982420861721039 0 3
21.037519454956055 -9.328808784484863 3.7325072288513184 0.40633323788642883 0 3
20.545488357543945 -9.332167625427246 3.659924268722534 0.41439104080200195 0 3
20.072187423706055 -9.335410118103027 3.590397834777832 0.42241600155830383 0 3
19.416250228881836 -9.243242263793945 3.48776912689209 0.8884308338165283 0 3
19.07013702392578 -9.289336204528809 3.440433979034424 0.4383631944656372 0 3
18.649003982543945 -9.292226791381836 3.379375457763672 0.44628414511680603 0 3
15.315937042236328 -7.80382776260376 2.7879674434661865 0.4541691243648529 0 3
14.986289024353027 -7.806093692779541 2.7406058311462402 0.46201786398887634 0 3
14.667635917663574 -7.808300495147705 2.6950435638427734 0.46982860565185547 0 3
14.395546913146973 -7.830078125 2.6578574180603027 0.4910818338394165 0 3
16.67886734008789 -9.266972541809082 3.0946550369262695 0.4853366017341614 0 3
16.33638572692871 -9.269570350646973 3.046431303024292 0.8552624583244324 0 3
16.16011619567871 -9.362284660339355 3.029111862182617 0.5006884336471558 0 3
13.223515510559082 -7.820371150970459 2.491720199584961 0.8462744951248169 0 3
13.253886222839355 -7.999765396118164 2.5108723640441895 0.4540098011493683 0 3
15.022343635559082 -9.252128601074219 2.861510753631592 0.5234121680259705 0 3
14.727910041809082 -9.254159927368164 2.8211357593536377 0.530903160572052 0 3
14.441659927368164 -9.256133079528809 2.7821054458618164 0.5383512377738953 0 3
14.163164138793945 -9.258047103881836 2.7443578243255615 0.545755922794342 0 3
13.892108917236328 -9.259882926940918 2.7078371047973633 0.5531169176101685 0 3
13.628183364868164 -9.261698722839355 2.672489881515503 0.560433030128479 0 3
13.371034622192383 -9.263437271118164 2.6382603645324707 0.5677036643028259 0 3
13.233925819396973 -9.34537124633789 2.6276464462280273 0.8024982213973999 0 3
13.23509693145752 -9.525390625 2.6447560787200928 0.797305166721344 0 3
8.809062004089355 -6.460741996765137 1.77181875705719 0.7920480370521545 0 3
13.237616539001465 -9.892675399780273 2.680314302444458 0.7867277264595032 0 3
13.238886833190918 -10.080097198486328 2.698786973953247 0.7813434600830078 0 3
13.240156173706055 -10.270097732543945 2.71773099899292 0.7758967876434326 0 3
13.241483688354492 -10.462831497192383 2.7371652126312256 0.7703871726989746 0 3
13.242812156677246 -10.65835952758789 2.757108211517334 0.7648152709007263 0 3
13.244159698486328 -10.85677719116211 2.777566432952881 0.7591820955276489 0 3
13.245527267456055 -11.058144569396973 2.7985565662384033 0.7534877061843872 0 3
13.24691390991211 -11.262617111206055 2.8200979232788086 0.7477328181266785 0 3
13.248339653015137 -11.4702730178833 2.8422021865844727 0.7419174909591675 0 3
13.249726295471191 -11.6812105178833 2.8648898601531982 0.7360422015190125 0 3
13.251191139221191 -11.895586013793945 2.8881754875183105 0.7301077246665955 0 3
8.880566596984863 -8.1171875 1.951375126838684 0.6709634065628052 0 3
8.820898056030273 -8.209198951721191 1.9543776512145996 0.7180629968643188 0 3
8.692168235778809 -8.236210823059082 1.9421602487564087 0.683851957321167 0 3
8.538496017456055 -8.237284660339355 1.9242589473724365 0.6902133822441101 0 3
8.38759708404541 -8.2383394241333 1.9068368673324585 0.6965199708938599 0 3
18.83980369567871 18.83980369567871 4.096139907836914 0.4063984155654907 0 9
19.051191329956055 18.712284088134766 4.1054229736328125 0.6900197267532349 0 9
19.541385650634766 18.852108001708984 4.174416542053223 0.9573708772659302 0 9
19.688026428222656 18.655332565307617 4.169808864593506 0.9584296941757202 0 9
19.434961318969727 18.08720588684082 4.081660270690918 0.11898831278085709 0 9
18.71761703491211 17.10871124267578 3.8986058235168457 0.04351700842380524 0 9
15.617773056030273 14.020097732543945 3.2266077995300293 0.8098141551017761 0 9
15.805136680603027 13.93408203125 3.239333391189575 0.8066319227218628 0 9
15.993788719177246 13.847304344177246 3.2524003982543945 0.8033918142318726 0 9
16.183847427368164 13.75966739654541 3.2658050060272217 0.8000941872596741 0 9
16.375410079956055 13.671152114868164 3.279557466506958 0.7967389822006226 0 9
16.538066864013672 13.556952476501465 3.2876391410827637 0.8483415842056274 0 9
16.532655715942383 13.3062105178833 3.262685775756836 0.27842336893081665 0 9
16.83609390258789 13.303163528442383 3.2988646030426025 0.8454546332359314 0 9
16.985624313354492 13.175429344177246 3.304863214492798 0.8439205288887024 0 9
15.963418006896973 12.154569625854492 3.0846176147460938 0.2645902633666992 0 9
16.604745864868164 12.40902328491211 3.186889171600342 0.25609901547431946 0 9
17.168495178222656 12.591776847839355 3.273270845413208 0.6494396328926086 0 9
17.393924713134766 12.518593788146973 3.2946929931640625 0.6452165246009827 0 9
17.588769912719727 12.420663833618164 3.31033992767334 0.3052617013454437 0 9
17.03580093383789 11.802518844604492 3.186211109161377 0.08912339806556702 0 9
17.13294792175293 11.643593788146973 3.184704542160034 0.31730422377586365 0 9
16.9171085357666 11.276249885559082 3.1256392002105713 0.32330018281936646 0 9
18.16195297241211 11.871992111206055 3.335818290710449 0.4359203577041626 0 9
17.948593139648438 11.50390625 3.2775323390960693 0.443673312664032 0 9
17.742401123046875 11.148320198059082 3.2214741706848145 0.4513932764530182 0 9
18.604843139648438 11.458593368530273 3.359257221221924 0.8748302459716797 0 9
18.71355438232422 11.29515552520752 3.3604490756988525 0.14667542278766632 0 9
17.940820693969727 10.610214233398438 3.2044477462768555 0.17297910153865814 0 9
19.018104553222656 11.018085479736328 3.379061222076416 0.8697025775909424 0 9
18.76738166809082 10.648964881896973 3.3173937797546387 0.7808446884155273 0 9
18.69255828857422 10.385839462280273 3.2875590324401855 0.5711238384246826 0 9
18.550174713134766 10.0899019241333 3.246457815170288 0.5783547759056091 0 9
18.41126823425293 9.801249504089355 3.206624746322632 0.5855388045310974 0 9
18.620702743530273 9.699257850646973 3.227810859680176 0.8025161027908325 0 9
20.228281021118164 10.306855201721191 3.4902923107147217 0.4966509938240051 0 9
22.72298812866211 11.32216739654541 3.9030468463897705 0.9946808815002441 0 9
22.803632736206055 11.108007431030273 3.899617910385132 0.9955556392669678 0 9
22.88412094116211 10.894160270690918 3.8965024948120117 0.9963518977165222 0 9
22.964433670043945 10.680644035339355 3.8936948776245117 0.9970698356628418 0 9
36.91599655151367 16.768085479736328 6.233458518981934 0.965514063835144 0 9
30.94870948791504 13.72386646270752 5.204845905303955 0.53404700756073 0 9
37.305782318115234 16.1436710357666 6.249319553375244 0.46701768040657043 0 9
32.632850646972656 13.775096893310547 5.445601463317871 0.355995237827301 0 9
32.7307014465332 13.47158145904541 5.441537857055664 0.34861308336257935 0 9
31.20163917541504 12.515897750854492 5.168437957763672 0.40532228350639343 0 9
31.351015090942383 12.250292778015137 5.174759864807129 0.7484378814697266 0 9
31.64253807067871 12.037968635559082 5.204832553863525 0.744113564491272 0 9
31.93716812133789 11.823026657104492 5.235627174377441 0.7397362589836121 0 9
32.514060974121094 11.705820083618164 5.312765598297119 0.7709692716598511 0 9
32.523963928222656 11.380682945251465 5.297479629516602 0.7449382543563843 0 9
32.537559509277344 11.0586519241333 5.2833099365234375 0.746936023235321 0 9
32.550682067871094 10.73818302154541 5.2695817947387695 0.7488824129104614 0 9
32.563358306884766 10.419198989868164 5.2562785148620605 0.7507774233818054 0 9
31.993045806884766 9.921034812927246 5.149636268615723 0.1510339081287384 0 9
32.58738327026367 9.785566329956055 5.2309489250183105 0.7544127702713013 0 9
32.59870910644531 9.47085952758789 5.218914031982422 0.756152868270874 0 9
32.609588623046875 9.157422065734863 5.207291126251221 0.7578410506248474 0 9
32.62003707885742 8.845293045043945 5.19606876373291 0.7594768404960632 0 9
32.63007736206055 8.53433609008789 5.185261249542236 0.7610607147216797 0 9
35.71939468383789 9.000566482543945 5.663118362426758 0.9582954049110413 0 9
48.10175704956055 11.20638656616211 7.593148708343506 0.9884071946144104 0 9
45.66284942626953 10.206972122192383 7.193399429321289 0.5614950060844421 0 9
46.89722442626953 10.041757583618164 7.37335729598999 0.6233127117156982 0 9
47.08412170410156 9.640604972839355 7.3888373374938965 0.6220065951347351 0 9
46.93767547607422 9.172460556030273 7.352639198303223 0.4782150983810425 0 9
47.45798873901367 8.832636833190918 7.421419620513916 0.6192755699157715 0 9
37.62574005126953 5.268847465515137 5.840980052947998 0.795347273349762 0 6
22.547245025634766 -9.280136108398438 3.7485179901123047 0.9114919900894165 0 3
22.08283233642578 -9.321640014648438 3.6850695610046387 0.3906264007091522 0 3
21.549570083618164 -9.325292587280273 3.609903573989868 0.39876002073287964 0 3
21.037578582763672 -9.328847885131836 3.5380187034606934 0.40686196088790894 0 3
20.5455265045166 -9.33218765258789 3.4692180156707764 0.41493064165115356 0 3
20.072284698486328 -9.335468292236328 3.403315305709839 0.42296573519706726 0 3
16.377363204956055 -7.796523094177246 2.7885961532592773 0.4309673309326172 0 3
16.010761260986328 -7.799042701721191 2.737980842590332 0.4389340281486511 0 3
15.659316062927246 -7.802538871765137 2.689744710922241 0.46057286858558655 0 3
15.363378524780273 -7.828027248382568 2.650885820388794 0.4673249423503876 0 3
17.776445388793945 -9.259452819824219 3.081458330154419 0.462619423866272 0 3
17.398475646972656 -9.262030601501465 3.030233144760132 0.4704399108886719 0 3
17.0328311920166 -9.264570236206055 2.980912685394287 0.4782237708568573 0 3
16.67888641357422 -9.26699161529541 2.933401346206665 0.4859684705734253 0 3
16.290292739868164 -9.243417739868164 2.8795394897460938 0.49367451667785645 0 3
15.95888614654541 -9.245702743530273 2.8355114459991455 0.5013402700424194 0 3
13.223612785339355 -7.820409774780273 2.3618948459625244 0.84737229347229 0 3
13.253984451293945 -7.999804496765137 2.3800597190856934 0.4545978605747223 0 3
15.022323608398438 -9.25210952758789 2.7124083042144775 0.524093747138977 0 3
14.727949142456055 -9.254159927368164 2.67413592338562 0.5315940380096436 0 3
14.441620826721191 -9.256113052368164 2.6371374130249023 0.5390523076057434 0 3
14.163203239440918 -9.258047103881836 2.6013591289520264 0.5464667081832886 0 3
13.892108917236328 -9.259902000427246 2.566739082336426 0.5538372993469238 0 3
13.628222465515137 -9.261737823486328 2.5332329273223877 0.5611624717712402 0 3
13.371034622192383 -9.263457298278809 2.5007879734039307 0.5684431195259094 0 3
13.2339448928833 -9.345410346984863 2.490739583969116 0.8035385012626648 0 3
13.235175132751465 -9.5254487991333 2.506958246231079 0.7983392477035522 0 3
8.809101104736328 -6.460761547088623 1.6795034408569336 0.7930750846862793 0 3
13.23769474029541 -9.892753601074219 2.5406670570373535 0.7877478003501892 0 3
13.238945007324219 -10.080156326293945 2.558173418045044 0.7823567390441895 0 3
13.240253448486328 -10.27017593383789 2.5761327743530273 0.776902437210083 0 3
13.241561889648438 -10.462929725646973 2.5945563316345215 0.7713857293128967 0 3
13.24290943145752 -10.658437728881836 2.613457202911377 0.7658069133758545 0 3
13.244237899780273 -10.856816291809082 2.6328506469726562 0.760166347026825 0 3
13.245624542236328 -11.058202743530273 2.652747392654419 0.7544645071029663 0 3
13.247011184692383 -11.2626953125 2.6731648445129395 0.748701810836792 0 3
13.248417854309082 -11.470351219177246 2.6941182613372803 0.7428792119026184 0 3
13.24984359741211 -11.681288719177246 2.715623378753662 0.7369963526725769 0 3
13.251288414001465 -11.895683288574219 2.73769474029541 0.7310541272163391 0 3
8.880585670471191 -8.117206573486328 1.8496932983398438 0.671837329864502 0 3
8.820996284484863 -8.209277153015137 1.8525521755218506 0.7189935445785522 0 3
8.692206382751465 -8.236249923706055 1.8409606218338013 0.6847426891326904 0 3
8.538496017456055 -8.2373046875 1.823991298675537 0.6911123394966125 0 3
8.387557983398438 -8.238320350646973 1.8074761629104614 0.6974272131919861 0 3
18.98857307434082 18.988632202148438 3.9021122455596924 0.6533585786819458 0 9
19.0606632232666 18.721582412719727 3.882239818572998 0.6905271410942078 0 9
19.610254287719727 18.9185733795166 3.9594297409057617 0.955184817314148 0 9
19.757343292236328 18.72101593017578 3.955040693283081 0.956244945526123 0 9
19.239315032958984 17.905136108398438 3.8190135955810547 0.12034666538238525 0 9
15.524785041809082 14.190292358398438 3.0562679767608643 0.8090658187866211 0 9
15.712265014648438 14.104921340942383 3.068131446838379 0.8059378862380981 0 9
15.901093482971191 14.018730163574219 3.0803074836730957 0.8027516603469849 0 9
15.761679649353027 13.646367073059082 3.029449701309204 0.21784000098705292 0 9
16.063085556030273 13.65697193145752 3.063692331314087 0.21540504693984985 0 9
16.37220573425293 13.668535232543945 3.0991220474243164 0.21294234693050385 0 9
16.64091682434082 13.641230583190918 3.1266844272613525 0.8441407084465027 0 9
16.500213623046875 13.280077934265137 3.0777299404144287 0.27931517362594604 0 9
16.94109344482422 13.386152267456055 3.137427806854248 0.8412501215934753 0 9
17.091777801513672 13.257773399353027 3.14316725730896 0.8397141695022583 0 9
16.046972274780273 12.21816349029541 2.9307351112365723 0.26353734731674194 0 9
16.69451141357422 12.4761323928833 3.028428554534912 0.2550360858440399 0 9
17.061248779296875 12.513105392456055 3.0744566917419434 0.6543287634849548 0 9
17.284570693969727 12.439882278442383 3.094451904296875 0.6501001715660095 0 9
16.958105087280273 11.975351333618164 3.0166432857513428 0.08908112347126007 0 9
17.690370559692383 12.255956649780273 3.1272079944610596 0.3057958483695984 0 9
17.456035614013672 11.863143920898438 3.0668325424194336 0.31181594729423523 0 9
17.230058670043945 11.484843254089355 3.008901834487915 0.3178197145462036 0 9
18.256776809692383 11.93392562866211 3.1693568229675293 0.4341926872730255 0 9
18.040586471557617 11.562870979309082 3.113692283630371 0.4419551193714142 0 9
17.831777572631836 11.20449161529541 3.0601696968078613 0.4496849477291107 0 9
17.629901885986328 10.858124732971191 3.008671522140503 0.4573817849159241 0 9
18.61164093017578 11.233593940734863 3.1588757038116455 0.1476612240076065 0 9
18.059804916381836 10.680585861206055 3.048828363418579 0.17205137014389038 0 9
19.123769760131836 11.079297065734863 3.211519479751587 0.8659647703170776 0 9
19.2632999420166 10.930410385131836 3.2183473110198975 0.8641269207000732 0 9
18.69658088684082 10.388124465942383 3.107966899871826 0.5717042088508606 0 9
21.726015090942383 11.817343711853027 3.593766450881958 0.29838407039642334 0 9
22.46630859375 11.959921836853027 3.698315382003784 0.2899492681026459 0 9
22.589941024780273 11.76675796508789 3.7011327743530273 0.9926511645317078 0 9
22.67107391357422 11.55150318145752 3.69728684425354 0.9936836957931519 0 9
22.752031326293945 11.336640357971191 3.693742513656616 0.9946376085281372 0 9
22.832733154296875 11.122187614440918 3.69049072265625 0.995513379573822 0 9
22.91326141357422 10.908065795898438 3.6875383853912354 0.9963105916976929 0 9
22.993690490722656 10.69423770904541 3.6848809719085693 0.9970293045043945 0 9
34.67970657348633 15.75228500366211 5.534750938415527 0.9801710247993469 0 9
31.298418045043945 13.878925323486328 4.975032329559326 0.5287312269210815 0 9
31.135311126708984 13.47347640991211 4.929681777954102 0.5335957407951355 0 9
30.974628448486328 13.075156211853027 4.885463714599609 0.5384255051612854 0 9
32.69978332519531 13.45888614654541 5.138304710388184 0.2389308214187622 0 9
31.256776809692383 12.538065910339355 4.893672943115234 0.7489537596702576 0 9
31.548202514648438 12.327343940734863 4.9217705726623535 0.7446773648262024 0 9
31.842695236206055 12.114120483398438 4.950556755065918 0.7403480410575867 0 9
32.14040756225586 11.89828109741211 4.980035305023193 0.7359651327133179 0 9
32.10831832885742 11.559784889221191 4.9587883949279785 0.708466649055481 0 9
32.97665786743164 11.539101600646973 5.076684951782227 0.4576851725578308 0 9
32.52310562133789 11.053730010986328 4.991390228271484 0.46550679206848145 0 9
32.818260192871094 10.826444625854492 5.021580219268799 0.7436925172805786 0 9
31.770389556884766 10.165468215942383 4.847079277038574 0.15185008943080902 0 9
32.84206771850586 10.184296607971191 4.996424674987793 0.7474355101585388 0 9
32.8532600402832 9.865448951721191 4.984464645385742 0.7492296695709229 0 9
32.86408233642578 9.547968864440918 4.972902297973633 0.7509717345237732 0 9
32.874473571777344 9.23183536529541 4.961737155914307 0.752661943435669 0 9
32.88443374633789 8.916953086853027 4.950963020324707 0.7543001174926758 0 9
32.89402389526367 8.603320121765137 4.940572261810303 0.755885660648346 0 9
35.67695236206055 8.989882469177246 5.346229076385498 0.9606188535690308 0 9
44.36370849609375 10.756230354309082 6.633208274841309 0.6609840393066406 0 9
47.05853271484375 10.963358879089355 7.02114200592041 0.6194513440132141 0 9
45.84101486206055 10.246796607971191 6.825488090515137 0.5600027441978455 0 9
46.87193298339844 10.036347389221191 6.965291976928711 0.888005793094635 0 9
47.6240234375 9.751172065734863 7.0637640953063965 0.3555378317832947 0 9
47.16279220581055 9.216444969177246 6.9828009605407715 0.3596603274345398 0 9
48.00972366333008 8.935332298278809 7.0960373878479 0.6129137873649597 0 9
48.20017623901367 8.523866653442383 7.112587928771973 0.6114872097969055 0 9
37.62126922607422 5.612948894500732 5.527210712432861 0.5573984980583191 0 6
22.547401428222656 -9.280195236206055 3.5429954528808594 0.912611186504364 0 3
22.08283233642578 -9.321640014648438 3.48300838470459 0.3911077678203583 0 3
21.549570083618164 -9.325292587280273 3.41196346282959 0.39925146102905273 0 3
17.56380844116211 -7.788398265838623 2.7918503284454346 0.4073629677295685 0 3
17.15298843383789 -7.791249752044678 2.7375569343566895 0.4154418706893921 0 3
16.76494026184082 -7.797265529632568 2.6866817474365234 0.43635204434394836 0 3
16.414941787719727 -7.814433574676514 2.641732931137085 0.8268203735351562 0 3
19.070215225219727 -9.28939437866211 3.0823452472686768 0.43947485089302063 0 3
18.64908218383789 -9.292265892028809 3.027643918991089 0.4474155604839325 0 3
18.242616653442383 -9.295039176940918 2.9750819206237793 0.4553203582763672 0 3
17.776464462280273 -9.259452819824219 2.912498950958252 0.463189035654068 0 3
17.398515701293945 -9.262069702148438 2.864074230194092 0.4710196256637573 0 3
17.03285026550293 -9.264570236206055 2.817458152770996 0.478813111782074 0 3
16.67888641357422 -9.267011642456055 2.7725584506988525 0.48656728863716125 0 3
16.29033088684082 -9.243417739868164 2.7216484546661377 0.49428245425224304 0 3
15.95888614654541 -9.245702743530273 2.6800355911254883 0.5019581317901611 0 3
13.2236909866333 -7.820468425750732 2.23239803314209 0.8484122157096863 0 3
13.254120826721191 -7.999882698059082 2.249570369720459 0.45515429973602295 0 3
15.02236270904541 -9.252128601074219 2.563680410385132 0.5247392654418945 0 3
14.727949142456055 -9.254159927368164 2.5275070667266846 0.5322492122650146 0 3
14.441659927368164 -9.256133079528809 2.492539644241333 0.5397161841392517 0 3
14.16324234008789 -9.258047103881836 2.45872163772583 0.5471397638320923 0 3
13.8921480178833 -9.259882926940918 2.4260001182556152 0.554519534111023 0 3
13.62826156616211 -9.261698722839355 2.3943307399749756 0.5618537068367004 0 3
13.371073722839355 -9.263476371765137 2.3636648654937744 0.5691433548927307 0 3
13.23404312133789 -9.345468521118164 2.3541781902313232 0.8045243620872498 0 3
13.235273361206055 -9.525507926940918 2.3695106506347656 0.799318790435791 0 3
8.809160232543945 -6.460820198059082 1.5874221324920654 0.7940483093261719 0 3
13.23779296875 -9.892831802368164 2.401369571685791 0.788714587688446 0 3
13.239042282104492 -10.08023452758789 2.4179155826568604 0.783316433429718 0 3
13.240351676940918 -10.270254135131836 2.434890031814575 0.7778558135032654 0 3
13.241660118103027 -10.462987899780273 2.452305316925049 0.7723323106765747 0 3
13.242987632751465 -10.658514976501465 2.470167875289917 0.7667466402053833 0 3
13.244316101074219 -10.856894493103027 2.488497495651245 0.7610989212989807 0 3
13.245683670043945 -11.058300971984863 2.5073070526123047 0.7553900480270386 0 3
13.247089385986328 -11.262773513793945 2.5266032218933105 0.7496204376220703 0 3
13.248515129089355 -11.470429420471191 2.5464084148406982 0.7437904477119446 0 3
13.249940872192383 -11.68138599395752 2.5667359828948975 0.7379001975059509 0 3
13.251386642456055 -11.895780563354492 2.587599992752075 0.731950581073761 0 3
8.880624771118164 -8.117226600646973 1.748271107673645 0.6726648211479187 0 3
8.821035385131836 -8.20931625366211 1.7509822845458984 0.7198755741119385 0 3
8.69222640991211 -8.236249923706055 1.7400166988372803 0.6855860352516174 0 3
8.538496017456055 -8.237284660339355 1.7239775657653809 0.691964328289032 0 3
8.387557983398438 -8.238320350646973 1.7083685398101807 0.6982870101928711 0 3
19.004432678222656 19.004451751708984 3.679344415664673 0.6535743474960327 0 9
19.07013702392578 18.730878829956055 3.6593644618988037 0.6909879446029663 0 9
19.679471969604492 18.98531150817871 3.7434399127960205 0.9529337882995605 0 9
19.827030181884766 18.786991119384766 3.739276647567749 0.9539951682090759 0 9
15.43099594116211 14.360937118530273 2.8857829570770264 0.8082112669944763 0 9
15.618671417236328 14.276132583618164 2.896799325942993 0.805138111114502 0 9
15.8076753616333 14.190546989440918 2.908109664916992 0.8020067811012268 0 9
15.998046875 14.104179382324219 2.919724702835083 0.7988169193267822 0 9
16.189804077148438 14.017030715942383 2.931640148162842 0.7955691814422607 0 9
16.383026123046875 13.929003715515137 2.9438729286193848 0.7922635078430176 0 9
16.57777214050293 13.840155601501465 2.956423282623291 0.7889003753662109 0 9
16.118242263793945 13.212753295898438 2.853198766708374 0.21816346049308777 0 9
16.425975799560547 13.220332145690918 2.88655424118042 0.2156427800655365 0 9
16.099334716796875 12.721074104309082 2.8089776039123535 0.2886617183685303 0 9
17.065996170043945 13.23779296875 2.956784248352051 0.21052077412605286 0 9
16.13115119934082 12.282304763793945 2.7756025791168213 0.2624672055244446 0 9
16.7373046875 12.508066177368164 2.8604631423950195 0.6633477210998535 0 9
16.95556640625 12.435644149780273 2.8785812854766846 0.6591730117797852 0 9
17.176836013793945 12.362323760986328 2.897188425064087 0.6549394726753235 0 9
17.401113510131836 12.288164138793945 2.9162936210632324 0.650648295879364 0 9
17.6285343170166 12.21312427520752 2.9359188079833984 0.6462989449501038 0 9
17.7906436920166 12.090585708618164 2.9447295665740967 0.3063071370124817 0 9
17.55404281616211 11.700780868530273 2.8880560398101807 0.31231752038002014 0 9
18.330801010131836 11.982304573059082 2.9980382919311523 0.6329078674316406 0 9
18.133338928222656 11.62230396270752 2.9485647678375244 0.4402067959308624 0 9
17.921875 11.261054039001465 2.897620439529419 0.44794589281082153 0 9
17.71744155883789 10.912050247192383 2.848621368408203 0.4556514620780945 0 9
18.510976791381836 11.172890663146973 2.9599623680114746 0.14863675832748413 0 9
18.180097579956055 10.751737594604492 2.8915045261383057 0.17111200094223022 0 9
19.23031234741211 11.141054153442383 3.0425119400024414 0.8621677160263062 0 9
19.370878219604492 10.991483688354492 3.049018383026123 0.8603280186653137 0 9
22.37386703491211 12.431249618530273 3.5039873123168945 0.988968014717102 0 9
21.686561584472656 11.795878410339355 3.3796305656433105 0.29927459359169006 0 9
22.42429542541504 11.937578201293945 3.4777629375457764 0.29083052277565 0 9
22.61880874633789 11.781816482543945 3.4913835525512695 0.9925379753112793 0 9
22.70003890991211 11.56624984741211 3.48775315284729 0.9935716390609741 0 9
22.780975341796875 11.3511323928833 3.484405994415283 0.9945268630981445 0 9
36.37302780151367 17.71790885925293 5.538785457611084 0.9699087738990784 0 9
36.604705810546875 17.425975799560547 5.550020694732666 0.9679458737373352 0 9
34.488983154296875 16.04066276550293 5.207193374633789 0.9749401807785034 0 9
34.67314529418945 15.749316215515137 5.213437557220459 0.9814980626106262 0 9
31.3736515045166 13.912303924560547 4.698368549346924 0.5888245105743408 0 9
31.123748779296875 13.468534469604492 4.642654895782471 0.5958904027938843 0 9
31.321327209472656 13.221503257751465 4.654230117797852 0.5330852270126343 0 9
31.15818214416504 12.824336051940918 4.61269998550415 0.5378854274749756 0 9
31.45296859741211 12.616796493530273 4.6393914222717285 0.745147705078125 0 9
31.74736213684082 12.405214309692383 4.666197299957275 0.7408666014671326 0 9
32.00996017456055 12.177734375 4.688533306121826 0.8066644072532654 0 9
32.27310562133789 11.947362899780273 4.711177825927734 0.8027873039245605 0 9
32.21466827392578 11.598066329956055 4.6872687339782715 0.7069500684738159 0 9
32.248435974121094 11.284257888793945 4.677250385284424 0.7816717028617859 0 9
31.66290855407715 10.761366844177246 4.578135967254639 0.13042493164539337 0 9
31.54505729675293 10.406425476074219 4.547403335571289 0.1526666283607483 0 9
33.02228546142578 10.566015243530273 4.746488571166992 0.14626339077949524 0 9
33.11224365234375 10.2681245803833 4.745987892150879 0.7421994805335999 0 9
33.12290954589844 9.94644546508789 4.734528541564941 0.7439955472946167 0 9
31.18035125732422 9.058808326721191 4.445059776306152 0.07064410299062729 0 9
32.90765380859375 9.241132736206055 4.679283142089844 0.8034947514533997 0 9
33.15251922607422 8.989667892456055 4.7024455070495605 0.7490717768669128 0 9
35.55226516723633 9.298613548278809 5.030789852142334 0.9628885984420776 0 9
44.84585952758789 11.300272941589355 6.331258296966553 0.6531879305839539 0 9
44.50398254394531 10.790253639221191 6.269069671630859 0.4908539354801178 0 9
44.79576110839844 10.436210632324219 6.296725273132324 0.6567704677581787 0 9
45.30867004394531 10.127792358398438 6.35578727722168 0.47535356879234314 0 9
44.70542907714844 9.57242202758789 6.258852005004883 0.48271504044532776 0 9
46.73128890991211 9.568378448486328 6.530201435089111 0.8933923840522766 0 9
47.64501953125 9.310683250427246 6.645929336547852 0.4722456634044647 0 9
47.018280029296875 8.750800132751465 6.547287464141846 0.47936078906059265 0 9
37.63077926635742 6.654706954956055 5.2315497398376465 0.4827437698841095 0 6
37.61650466918945 6.304511547088623 5.221480369567871 0.8796882033348083 0 6
18.90068244934082 -7.779238224029541 2.7980797290802 0.3833775818347931 0 3
18.436464309692383 -7.782421588897705 2.739593744277954 0.3915623724460602 0 3
18.001855850219727 -7.790078163146973 2.6852927207946777 0.4117899239063263 0 3
17.633808135986328 -7.81945276260376 2.6407570838928223 0.4187343716621399 0 3
20.545644760131836 -9.332245826721191 3.089228391647339 0.4159244894981384 0 3
20.072284698486328 -9.33544921875 3.030540704727173 0.4239792823791504 0 3
16.415019989013672 -7.814453125 2.488849401473999 0.8277792930603027 0 3
19.070234298706055 -9.28939437866211 2.9039599895477295 0.4399856626987457 0 3
18.649120330810547 -9.292304039001465 2.8524229526519775 0.4479356110095978 0 3
18.24263572692871 -9.29507827758789 2.8029000759124756 0.4558500647544861 0 3
17.77650260925293 -9.259491920471191 2.743938446044922 0.46372750401496887 0 3
17.398534774780273 -9.262089729309082 2.6983187198638916 0.4715676009654999 0 3
17.03287124633789 -9.264570236206055 2.654397487640381 0.4793698191642761 0 3
16.678924560546875 -9.267011642456055 2.612095832824707 0.4871330261230469 0 3
16.29033088684082 -9.243417739868164 2.564136028289795 0.49485722184181213 0 3
15.958925247192383 -9.245741844177246 2.5249273777008057 0.5025418400764465 0 3
13.223769187927246 -7.820507526397705 2.1032087802886963 0.8493946194648743 0 3
13.25423812866211 -7.999980449676514 2.119396209716797 0.45568007230758667 0 3
15.022382736206055 -9.252128601074219 2.415309190750122 0.5253495573997498 0 3
14.727988243103027 -9.254199028015137 2.381230115890503 0.5328678488731384 0 3
14.441699028015137 -9.256152153015137 2.3482844829559326 0.5403439402580261 0 3
14.16324234008789 -9.258066177368164 2.3164238929748535 0.5477761626243591 0 3
13.892187118530273 -9.259902000427246 2.2855992317199707 0.5551639795303345 0 3
13.628222465515137 -9.261737823486328 2.2557590007781982 0.5625078082084656 0 3
13.371073722839355 -9.263495445251465 2.226870059967041 0.5698054432868958 0 3
13.234140396118164 -9.34554672241211 2.217942476272583 0.8054558634757996 0 3
13.235370635986328 -9.525605201721191 2.2323873043060303 0.8002442121505737 0 3
8.809199333190918 -6.460839748382568 1.4955577850341797 0.7949674725532532 0 3
13.2378511428833 -9.892870903015137 2.262402057647705 0.7896273732185364 0 3
13.239140510559082 -10.080292701721191 2.2779924869537354 0.7842232584953308 0 3
13.240448951721191 -10.270312309265137 2.2939867973327637 0.7787560224533081 0 3
13.241777420043945 -10.46304702758789 2.3103902339935303 0.773226261138916 0 3
13.243046760559082 -10.658554077148438 2.327223539352417 0.7676340937614441 0 3
13.244433403015137 -10.856972694396973 2.3444881439208984 0.761979877948761 0 3
13.245800018310547 -11.058378219604492 2.3622097969055176 0.756264328956604 0 3
13.247187614440918 -11.26285171508789 2.3803906440734863 0.750487744808197 0 3
13.248613357543945 -11.470526695251465 2.3990511894226074 0.7446510195732117 0 3
13.250019073486328 -11.68148422241211 2.418200731277466 0.7387539148330688 0 3
13.251483917236328 -11.895858764648438 2.437854528427124 0.7327976226806641 0 3
8.880605697631836 -8.117226600646973 1.6470904350280762 0.67344731092453 0 3
8.821093559265137 -8.209355354309082 1.649656057357788 0.7207082509994507 0 3
8.692206382751465 -8.23622989654541 1.6393145322799683 0.6863836646080017 0 3
8.538535118103027 -8.237323760986328 1.6242024898529053 0.6927694082260132 0 3
8.387617111206055 -8.238359451293945 1.6094955205917358 0.6990985870361328 0 3
19.020254135131836 19.020233154296875 3.456700325012207 0.6537459492683411 0 9
19.390722274780273 19.04574203491211 3.492818593978882 0.6469849944114685 0 9
19.749042510986328 19.05238151550293 3.52641224861145 0.9506181478500366 0 9
20.08232307434082 19.028886795043945 3.555281400680542 0.41929757595062256 0 9
15.524296760559082 14.447793006896973 2.7252886295318604 0.8042329549789429 0 9
15.713457107543945 14.362812042236328 2.735752820968628 0.801156222820282 0 9
15.903984069824219 14.277050018310547 2.746497392654419 0.7980210781097412 0 9
16.095916748046875 14.1904878616333 2.7575337886810303 0.7948276996612549 0 9
16.289335250854492 14.103124618530273 2.7688615322113037 0.7915762066841125 0 9
16.484140396118164 14.014921188354492 2.7804863452911377 0.7882671356201172 0 9
16.680526733398438 13.925898551940918 2.7924118041992188 0.7849003672599792 0 9
16.8257999420166 13.792851448059082 2.7959022521972656 0.2725343704223633 0 9
16.43585968017578 13.228339195251465 2.7112627029418945 0.2810418903827667 0 9
16.068925857543945 12.696991920471191 2.6318228244781494 0.2895248830318451 0 9
16.48273468017578 12.785351753234863 2.680696725845337 0.21820877492427826 0 9
16.216014862060547 12.346933364868164 2.619190216064453 0.2613794207572937 0 9
16.876346588134766 12.612030982971191 2.7074532508850098 0.25285863876342773 0 9
17.452245712280273 12.7998628616333 2.781294107437134 0.21031659841537476 0 9
17.07064437866211 12.285917282104492 2.7027995586395264 0.6597347259521484 0 9
17.292831420898438 12.211737632751465 2.7205159664154053 0.6554384827613831 0 9
17.518125534057617 12.136640548706055 2.738704204559326 0.6510844230651855 0 9
17.746620178222656 12.0606050491333 2.7573912143707275 0.6466729640960693 0 9
17.889629364013672 11.92447280883789 2.7628698348999023 0.30679410696029663 0 9
18.213573455810547 11.905702590942383 2.79628324508667 0.6376787424087524 0 9
18.226835250854492 11.6821870803833 2.7821059226989746 0.43842852115631104 0 9
18.012598037719727 11.318143844604492 2.733797311782837 0.446176141500473 0 9
17.80562400817871 10.966386795043945 2.687333345413208 0.4538903832435608 0 9
18.411699295043945 11.112929344177246 2.7636358737945557 0.14960195124149323 0 9
18.301738739013672 10.823691368103027 2.7324416637420654 0.17016032338142395 0 9
22.887557983398438 13.259862899780273 3.3991856575012207 0.6577592492103577 0 9
22.872283935546875 12.978202819824219 3.3794798851013184 0.5844337344169617 0 9
22.791112899780273 12.663105010986328 3.35056209564209 0.5894771814346313 0 9
22.711639404296875 12.35341739654541 3.322435140609741 0.5944679379463196 0 9
22.63359260559082 12.048964500427246 3.2950663566589355 0.5994055271148682 0 9
37.68992233276367 19.632108688354492 5.46113920211792 0.4979671239852905 0 9
39.17304611206055 19.959667205810547 5.649850368499756 0.8439837098121643 0 9
36.217166900634766 18.045976638793945 5.199960708618164 0.9708463549613953 0 9
36.44865036010742 17.75472640991211 5.210102558135986 0.9689569473266602 0 9
31.219804763793945 14.862480163574219 4.44342565536499 0.6945708394050598 0 9
31.63541030883789 14.713457107543945 4.48359489440918 0.6883479356765747 0 9
31.606210708618164 14.356249809265137 4.461014270782471 0.582779586315155 0 9
31.35072135925293 13.902070045471191 4.407164096832275 0.5899012684822083 0 9
30.874061584472656 13.360390663146973 4.323117733001709 0.6159813404083252 0 9
31.065818786621094 13.113652229309082 4.333320140838623 0.7497001886367798 0 9
31.357011795043945 12.906190872192383 4.357605934143066 0.7455227375030518 0 9
31.34130859375 12.571952819824219 4.339563369750977 0.5372839570045471 0 9
31.17822265625 12.18277359008789 4.301660060882568 0.542017936706543 0 9
32.17849349975586 12.241894721984863 4.424336910247803 0.8033172488212585 0 9
32.32511520385742 11.966659545898438 4.429550647735596 0.7756413221359253 0 9
32.24156188964844 11.607694625854492 4.403640270233154 0.7802047729492188 0 9
31.58574104309082 11.052382469177246 4.3003458976745605 0.13048189878463745 0 9
32.72519302368164 11.122441291809082 4.441713809967041 0.46367746591567993 0 9
32.779747009277344 10.813730239868164 4.435763359069824 0.1470772624015808 0 9
33.442909240722656 10.700624465942383 4.512320041656494 0.9326857924461365 0 9
33.314571380615234 10.330839157104492 4.482310771942139 0.7882537245750427 0 9
33.178924560546875 9.963241577148438 4.451850414276123 0.7936473488807678 0 9
32.21029281616211 9.358007431030273 4.310435771942139 0.06846004724502563 0 9
32.913047790527344 9.242636680603027 4.3931989669799805 0.804242730140686 0 9
33.424373626708984 9.06337833404541 4.450417518615723 0.7437926530838013 0 9
44.9269905090332 11.750585556030273 5.96768856048584 0.8130238056182861 0 9
44.23788833618164 11.147069931030273 5.862629413604736 0.3494972884654999 0 9
44.503963470458984 10.790273666381836 5.884822845458984 0.4913915693759918 0 9
43.498985290527344 10.134061813354492 5.739668846130371 0.3649936020374298 0 9
44.24962615966797 9.891093254089355 5.826766014099121 0.35953766107559204 0 9
44.53335952758789 9.535585403442383 5.85261869430542 0.48511096835136414 0 9
46.270565032958984 9.474042892456055 6.06950569152832 0.06463692337274551 0 9
47.14888381958008 9.21371078491211 6.173621654510498 0.7877309322357178 0 9
47.36867141723633 8.815996170043945 6.1917924880981445 0.47633588314056396 0 9
20.420955657958984 -7.76882791519165 2.807750701904297 0.3590327203273773 0 3
19.89140510559082 -7.7724609375 2.7444231510162354 0.36731693148612976 0 3
19.397207260131836 -7.78076171875 2.6857635974884033 0.386904776096344 0 3
22.54767608642578 -9.2802734375 3.133371114730835 0.9146636724472046 0 3
22.082988739013672 -9.321699142456055 3.0803112983703613 0.3919900953769684 0 3
21.549667358398438 -9.32535171508789 3.0174789428710938 0.40015244483947754 0 3
20.775644302368164 -9.212676048278809 2.9205610752105713 0.40828222036361694 0 3
20.289745330810547 -9.216034889221191 2.8637640476226807 0.41637924313545227 0 3
19.822284698486328 -9.219199180603027 2.8093583583831787 0.42444297671318054 0 3
16.415077209472656 -7.814511775970459 2.3363113403320312 0.8286823034286499 0 3
19.070253372192383 -9.28939437866211 2.725975513458252 0.44046658277511597 0 3
18.649160385131836 -9.292284965515137 2.6775918006896973 0.44842529296875 0 3
