ply
format ascii 1.0
element vertex 613
property float32 x
property float32 y
property float32 z
property float32 CosAngle
property uint32 ObjIdx
property uint32 ObjTag
end_header
23.16191291809082 11.932870864868164 8.274696350097656 0.4204106330871582 0 9
23.012557983398438 11.725526809692383 8.202461242675781 0.4241132140159607 0 9
22.865644454956055 11.521679878234863 8.131574630737305 0.42781007289886475 0 9
22.72115135192871 11.321308135986328 8.06203556060791 0.43149998784065247 0 9
23.554412841796875 11.604843139648438 8.339128494262695 0.46251827478408813 0 9
23.634355545043945 11.512675285339355 8.349065780639648 0.4619680345058441 0 9
23.71468734741211 11.420429229736328 8.359258651733398 0.46140456199645996 0 9
23.795488357543945 11.328046798706055 8.36972427368164 0.4608275294303894 0 9
23.876659393310547 11.23550796508789 8.38046932220459 0.46023687720298767 0 9
23.95829963684082 11.14291000366211 8.391483306884766 0.4596327245235443 0 9
27.02212905883789 -7.06749963760376 8.87048053741455 0.4196474850177765 0 3
26.74332046508789 -7.122968673706055 8.789356231689453 0.4235204756259918 0 3
26.469491958618164 -7.177441120147705 8.709868431091309 0.42738574743270874 0 3
26.200565338134766 -7.230917930603027 8.631973266601562 0.43124255537986755 0 3
25.95863151550293 -7.289628505706787 8.562956809997559 0.4932297468185425 0 3
25.722421646118164 -7.348027229309082 8.495838165283203 0.415734201669693 0 3
25.453807830810547 -7.394999980926514 8.417984008789062 0.4195791184902191 0 3
25.190019607543945 -7.441152095794678 8.341710090637207 0.42341551184654236 0 3
20.31560516357422 -6.100507736206055 6.736546516418457 0.42725682258605957 0 3
20.108320236206055 -6.136757850646973 6.676871299743652 0.43107548356056213 0 3
19.947284698486328 -6.185605525970459 6.632556438446045 0.8478777408599854 0 3
19.911151885986328 -6.272500038146973 6.629831314086914 0.4386880695819855 0 3
19.712383270263672 -6.30724573135376 6.573004722595215 0.4424806535243988 0 3
19.516952514648438 -6.341444969177246 6.517269611358643 0.4462648034095764 0 3
19.1212100982666 -6.30789041519165 6.39449405670166 0.45862528681755066 0 3
19.00370979309082 -6.363847732543945 6.3647003173828125 0.8379056453704834 0 3
18.972206115722656 -6.448124885559082 6.363774299621582 0.4575624465942383 0 3
18.78919792175293 -6.48009729385376 6.312079429626465 0.46131011843681335 0 3
18.609121322631836 -6.511601448059082 6.261346340179443 0.46504801511764526 0 3
18.43195343017578 -6.542577743530273 6.2115349769592285 0.46877703070640564 0 3
18.045391082763672 -6.496737957000732 6.091035842895508 0.4655176103115082 0 3
17.91191291809082 -6.539609432220459 6.055821895599365 0.8253824710845947 0 3
17.895877838134766 -6.624960899353027 6.060395240783691 0.4799068570137024 0 3
17.7296085357666 -6.654042720794678 6.014148235321045 0.4835975766181946 0 3
17.56587791442871 -6.682656288146973 5.968717098236084 0.4872782528400421 0 3
17.40458869934082 -6.710878849029541 5.924083709716797 0.4909496307373047 0 3
17.245664596557617 -6.738652229309082 5.880229473114014 0.4946109652519226 0 3
17.089139938354492 -6.766054630279541 5.8371453285217285 0.4982619285583496 0 3
16.934804916381836 -6.793027400970459 5.794793128967285 0.5019033551216125 0 3
16.608261108398438 -6.748691082000732 5.693362712860107 0.5138533115386963 0 3
16.479902267456055 -6.782890319824219 5.659714221954346 0.8054777383804321 0 3
16.49622917175293 -6.876367092132568 5.675897121429443 0.803183913230896 0 3
16.358379364013672 -6.905234336853027 5.63906717300415 0.5163685083389282 0 3
16.21449089050293 -6.930390357971191 5.600132942199707 0.51995849609375 0 3
16.072616577148438 -6.955214500427246 5.5618462562561035 0.5235375761985779 0 3
15.932636260986328 -6.979687213897705 5.524183750152588 0.5271027088165283 0 3
15.7944917678833 -7.003847599029541 5.487145900726318 0.5306612849235535 0 3
15.477519035339355 -6.946601390838623 5.387804985046387 0.5343273282051086 0 3
15.344609260559082 -6.969862937927246 5.352378845214844 0.5378638505935669 0 3
15.292089462280273 -7.028964519500732 5.345008373260498 0.7842597961425781 0 3
15.242206573486328 -7.089042663574219 5.338630199432373 0.5447890758514404 0 3
15.11302661895752 -7.111640453338623 5.304508686065674 0.5482933521270752 0 3
14.977656364440918 -7.130234241485596 5.268176555633545 0.5577992796897888 0 3
14.852831840515137 -7.152714729309082 5.235504150390625 0.5612801313400269 0 3
14.729531288146973 -7.17492151260376 5.203336715698242 0.564750611782074 0 3
14.60765552520752 -7.196933269500732 5.171658992767334 0.5682097673416138 0 3
14.4873628616333 -7.218593597412109 5.140470504760742 0.5716568231582642 0 3
14.368436813354492 -7.24001932144165 5.109761714935303 0.575093150138855 0 3
14.039823532104492 -7.153652191162109 5.004268646240234 0.5725092887878418 0 3
13.92455005645752 -7.173789024353027 4.974605083465576 0.5759236216545105 0 3
13.810625076293945 -7.193730354309082 4.9453911781311035 0.5793256163597107 0 3
13.683711051940918 -7.205878734588623 4.911469459533691 0.643831729888916 0 3
13.617323875427246 -7.249179363250732 4.8992743492126465 0.30290693044662476 0 3
13.584726333618164 -7.310273170471191 4.899308204650879 0.30323082208633423 0 3
13.551855087280273 -7.371191024780273 4.899329662322998 0.3032293915748596 0 3
13.459159851074219 -7.39919900894165 4.877766132354736 0.5734298825263977 0 3
13.348456382751465 -7.416601181030273 4.84967041015625 0.576752245426178 0 3
13.239062309265137 -7.433749675750732 4.821990966796875 0.580062747001648 0 3
13.130898475646973 -7.450722694396973 4.794733047485352 0.5831248164176941 0 3
13.023944854736328 -7.467480182647705 4.767857551574707 0.5864114165306091 0 3
12.91812515258789 -7.484081745147705 4.7413835525512695 0.5896859169006348 0 3
12.8135347366333 -7.50048828125 4.715295791625977 0.5929481983184814 0 3
12.710097312927246 -7.51671838760376 4.6895976066589355 0.5961976051330566 0 3
12.607733726501465 -7.532792568206787 4.66426944732666 0.5994350910186768 0 3
12.50658130645752 -7.548691272735596 4.639314651489258 0.6026595830917358 0 3
12.406445503234863 -7.564394474029541 4.614716529846191 0.605871856212616 0 3
12.307324409484863 -7.580019474029541 4.590471267700195 0.6090717911720276 0 3
12.20931625366211 -7.595429420471191 4.566578388214111 0.6122586131095886 0 3
12.112323760986328 -7.610683441162109 4.543029308319092 0.6154323816299438 0 3
12.016308784484863 -7.625781059265137 4.519811153411865 0.6185938715934753 0 3
11.921308517456055 -7.640780925750732 4.496922492980957 0.6217421293258667 0 3
11.827265739440918 -7.655566215515137 4.474361896514893 0.6248770952224731 0 3
11.734140396118164 -7.670253753662109 4.452114582061768 0.6279997229576111 0 3
11.641972541809082 -7.684784889221191 4.430180549621582 0.6311089396476746 0 3
11.550703048706055 -7.699199199676514 4.408550262451172 0.6342049241065979 0 3
11.463496208190918 -7.71560525894165 4.388448238372803 0.6807036399841309 0 3
11.377480506896973 -7.732109069824219 4.368751525878906 0.6837725043296814 0 3
11.292187690734863 -7.748476505279541 4.349315166473389 0.6868284344673157 0 3
11.207636833190918 -7.764687538146973 4.330135345458984 0.6898705959320068 0 3
11.12386703491211 -7.780722618103027 4.311206340789795 0.6928995847702026 0 3
11.040781021118164 -7.79665994644165 4.292526721954346 0.6959143280982971 0 3
10.958436965942383 -7.812421798706055 4.274089813232422 0.6989163756370544 0 3
10.876737594604492 -7.828085899353027 4.255896091461182 0.7019045352935791 0 3
10.79574203491211 -7.843554496765137 4.237934589385986 0.7048788666725159 0 3
8.291289329528809 -6.080996036529541 3.2654783725738525 0.6876710653305054 0 3
8.228593826293945 -6.091952800750732 3.2515079975128174 0.6906253695487976 0 3
8.16634750366211 -6.102870941162109 3.2377214431762695 0.6935667991638184 0 3
8.104687690734863 -6.113652229309082 3.2241156101226807 0.6964933276176453 0 3
8.043535232543945 -6.124355316162109 3.210688352584839 0.699406087398529 0 3
7.982871055603027 -6.134960651397705 3.1974358558654785 0.7023054957389832 0 3
7.922714710235596 -6.145488262176514 3.184356689453125 0.705190122127533 0 3
7.909042835235596 -6.191933631896973 3.190020799636841 0.6378096342086792 0 3
7.908671855926514 -6.249101638793945 3.201127290725708 0.7108712196350098 0 3
7.849160194396973 -6.259491920471191 3.188382387161255 0.7137126326560974 0 3
7.79015588760376 -6.26980447769165 3.1757988929748535 0.7165399193763733 0 3
7.731542587280273 -6.280077934265137 3.163386821746826 0.7193530201911926 0 3
7.673417568206787 -6.290253639221191 3.1511218547821045 0.7221522331237793 0 3
7.615800380706787 -6.300312519073486 3.1390202045440674 0.7249358892440796 0 3
7.558554649353027 -6.31033182144165 3.12707257270813 0.7277052402496338 0 3
7.501777172088623 -6.320273399353027 3.115278959274292 0.7304602861404419 0 3
7.445390224456787 -6.330117225646973 3.103635787963867 0.7332003116607666 0 3
7.389452934265137 -6.339882850646973 3.0921435356140137 0.7359257340431213 0 3
7.333906173706055 -6.349609375 3.080798387527466 0.7386360168457031 0 3
7.181015491485596 -6.273867130279541 3.028373956680298 0.7476308345794678 0 3
7.127519607543945 -6.283769607543945 3.017683744430542 0.7502793669700623 0 3
7.074413776397705 -6.29357385635376 3.0071184635162354 0.7467836737632751 0 3
7.021191120147705 -6.302870750427246 2.9964873790740967 0.7494335174560547 0 3
6.968300819396973 -6.312148094177246 2.9859869480133057 0.752069354057312 0 3
6.964863300323486 -6.366113185882568 2.9966979026794434 0.5819850564002991 0 3
6.966503620147705 -6.425273418426514 3.0097954273223877 0.7571902871131897 0 3
6.913925647735596 -6.434453010559082 2.999534845352173 0.7597805261611938 0 3
6.861718654632568 -6.443613052368164 2.9894042015075684 0.7623552083969116 0 3
6.809863090515137 -6.452695369720459 2.9794018268585205 0.7649141550064087 0 3
6.758398056030273 -6.461659908294678 2.96952748298645 0.767457902431488 0 3
6.707206726074219 -6.470624923706055 2.95977783203125 0.7699865698814392 0 3
6.656386375427246 -6.479531288146973 2.950148344039917 0.7724989652633667 0 3
6.605898380279541 -6.488320350646973 2.9406402111053467 0.7749966979026794 0 3
6.555742263793945 -6.497109413146973 2.931255340576172 0.777478039264679 0 3
14.710527420043945 14.710546493530273 6.228264808654785 0.30449363589286804 0 9
14.893632888793945 14.760604858398438 6.277704238891602 0.17485474050045013 0 9
14.921053886413574 14.655624389648438 6.261470794677734 0.17530804872512817 0 9
14.947890281677246 14.550703048706055 6.245245456695557 0.17576342821121216 0 9
14.944491386413574 14.417363166809082 6.216733932495117 0.3747738003730774 0 9
14.999608993530273 14.341132164001465 6.2128167152404785 0.1766807585954666 0 9
15.024511337280273 14.236445426940918 6.196618556976318 0.17714253067970276 0 9
6.68435525894165 6.277070045471191 2.7450249195098877 0.5655684471130371 0 6
6.702050685882568 6.237285137176514 2.7409539222717285 0.9409553408622742 0 6
6.753339767456055 6.228691101074219 2.750458240509033 0.5077221989631653 0 6
15.118124961853027 13.818632125854492 6.1319169998168945 0.17901185154914856 0 9
15.140058517456055 13.714452743530273 6.1157755851745605 0.17948423326015472 0 9
15.161308288574219 13.610331535339355 6.099643230438232 0.17995910346508026 0 9
15.689745903015137 13.9580659866333 6.286948204040527 0.8150926828384399 0 9
15.73769474029541 13.874706268310547 6.281169891357422 0.8158429265022278 0 9
15.785663604736328 13.7915620803833 6.27554178237915 0.8165748119354248 0 9
15.8335542678833 13.708574295043945 6.27005672454834 0.8172889947891235 0 9
16.975936889648438 14.564882278442383 6.696477890014648 0.6987156867980957 0 9
16.996015548706055 14.450175285339355 6.678752422332764 0.7005703449249268 0 9
17.016016006469727 14.336112976074219 6.661258220672607 0.7024098634719849 0 9
17.03597640991211 14.2227144241333 6.644021987915039 0.7042323350906372 0 9
17.055917739868164 14.1099214553833 6.627019882202148 0.7060391306877136 0 9
17.075702667236328 13.997694969177246 6.610257625579834 0.7078292369842529 0 9
17.09554672241211 13.88613224029541 6.5937323570251465 0.7096037268638611 0 9
25.88880729675293 20.836406707763672 9.949100494384766 0.8396697044372559 0 9
25.784198760986328 20.56218719482422 9.873327255249023 0.1826953887939453 0 9
26.0953311920166 20.619413375854492 9.956934928894043 0.8390090465545654 0 9
17.00261688232422 13.311249732971191 6.4646735191345215 0.6037355661392212 0 9
26.30238151550293 20.402225494384766 9.965659141540527 0.8382744193077087 0 9
19.101503372192383 14.679862976074219 7.212308406829834 0.8381230235099792 0 9
19.217676162719727 14.632402420043945 7.231290817260742 0.8091952800750732 0 9
19.012929916381836 14.34218692779541 7.129964828491211 0.9341755509376526 0 9
16.36210823059082 12.227714538574219 6.115254878997803 0.7267501950263977 0 9
16.450117111206055 12.178828239440918 6.127656936645508 0.7252795100212097 0 9
16.53837776184082 12.129648208618164 6.14019775390625 0.7078795433044434 0 9
16.625741958618164 12.079355239868164 6.152449607849121 0.7064697742462158 0 9
16.71355438232422 12.028905868530273 6.164896488189697 0.7050434947013855 0 9
16.801738739013672 11.978281021118164 6.177536964416504 0.7036006450653076 0 9
16.890350341796875 11.92747974395752 6.190371990203857 0.702141523361206 0 9
16.979433059692383 11.8765230178833 6.20341157913208 0.7006657123565674 0 9
17.068885803222656 11.825390815734863 6.216657638549805 0.6991735100746155 0 9
17.15884780883789 11.774101257324219 6.230098724365234 0.6976648569107056 0 9
17.24915885925293 11.72255802154541 6.243744850158691 0.6961400508880615 0 9
17.33997917175293 11.670859336853027 6.257595062255859 0.694598913192749 0 9
17.4312686920166 11.61898422241211 6.271658897399902 0.6930414438247681 0 9
17.5230655670166 11.566913604736328 6.285933017730713 0.6914677619934082 0 9
17.615293502807617 11.514628410339355 6.300419330596924 0.6898778080940247 0 9
15.486738204956055 10.024335861206055 5.52297306060791 0.694659948348999 0 9
15.48671817779541 9.925976753234863 5.507010459899902 0.6966733336448669 0 9
15.486542701721191 9.828104972839355 5.491218090057373 0.6986770033836365 0 9
15.486328125 9.730741500854492 5.475593090057373 0.7006707191467285 0 9
15.24886703491211 9.486347198486328 5.376513957977295 0.851594865322113 0 9
15.313925743103027 9.431737899780273 5.38447904586792 0.8503358960151672 0 9
15.379100799560547 9.376953125 5.3925461769104 0.849063515663147 0 9
15.484492301940918 9.346132278442383 5.414730548858643 0.7085460424423218 0 9
15.48378849029541 9.251172065734863 5.39992094039917 0.7104897499084473 0 9
15.483027458190918 9.156660079956055 5.385265350341797 0.7124230861663818 0 9
15.482187271118164 9.062636375427246 5.370765686035156 0.7143466472625732 0 9
15.481249809265137 8.969042778015137 5.356419086456299 0.7162595391273499 0 9
15.480155944824219 8.875859260559082 5.342228889465332 0.7181623578071594 0 9
15.4790620803833 8.783124923706055 5.328184604644775 0.7200550436973572 0 9
15.477890014648438 8.690878868103027 5.314297199249268 0.7219372987747192 0 9
16.15705108642578 8.977128982543945 5.533600330352783 0.6102045774459839 0 9
16.13994026184082 8.873026847839355 5.514040470123291 0.6123692393302917 0 9
16.12300682067871 8.769726753234863 5.494749546051025 0.6145185232162476 0 9
16.10626983642578 8.667167663574219 5.475729942321777 0.6166532635688782 0 9
16.08966827392578 8.565351486206055 5.456968307495117 0.6187729239463806 0 9
16.0732421875 8.464218139648438 5.4384684562683105 0.6208780407905579 0 9
16.057010650634766 8.363847732543945 5.420220375061035 0.6229685544967651 0 9
21.156034469604492 10.899433135986328 7.124861717224121 0.5843653678894043 0 9
16.421972274780273 8.367422103881836 5.5178375244140625 0.6728571653366089 0 9
16.523300170898438 8.325859069824219 5.539261817932129 0.6702548265457153 0 9
16.62529182434082 8.283905982971191 5.560935974121094 0.6676420569419861 0 9
16.72798728942871 8.241581916809082 5.582869529724121 0.6650192737579346 0 9
16.831445693969727 8.198847770690918 5.60506010055542 0.6623865962028503 0 9
16.935644149780273 8.1558198928833 5.627508640289307 0.659744381904602 0 9
17.040605545043945 8.1123046875 5.650223255157471 0.6570916771888733 0 9
23.26593780517578 10.948163986206055 7.698014259338379 0.4747461676597595 0 9
23.3447265625 10.857500076293945 7.707878112792969 0.4741387665271759 0 9
28.901445388793945 -6.73318338394165 8.884228706359863 0.37483853101730347 0 3
28.56962776184082 -6.791210651397705 8.791522026062012 0.37879133224487305 0 3
28.266639709472656 -6.853320121765137 8.70765209197998 0.43846672773361206 0 3
27.986366271972656 -6.918554306030273 8.63080883026123 0.4086686670780182 0 3
27.7217960357666 -6.985253810882568 8.558777809143066 0.46374255418777466 0 3
27.44511604309082 -7.046718597412109 8.483040809631348 0.3945050835609436 0 3
27.143943786621094 -7.099355220794678 8.39970588684082 0.3984297513961792 0 3
26.84861183166504 -7.151015281677246 8.318167686462402 0.40233540534973145 0 3
26.55892562866211 -7.201679706573486 8.238354682922363 0.4062332510948181 0 3
26.274803161621094 -7.251347541809082 8.160221099853516 0.4101226329803467 0 3
25.989120483398438 -7.298202991485596 8.081603050231934 0.40110883116722107 0 3
25.708086013793945 -7.343945026397705 8.004379272460938 0.40492886304855347 0 3
25.43242073059082 -7.38878870010376 7.928787708282471 0.4087892472743988 0 3
25.161874771118164 -7.432792663574219 7.854763031005859 0.4126417934894562 0 3
20.315624237060547 -6.100527286529541 6.350405216217041 0.42949768900871277 0 3
20.10835838317871 -6.136738300323486 6.294153690338135 0.43333613872528076 0 3
19.947031021118164 -6.185546875 6.252288818359375 0.8522477149963379 0 3
19.911073684692383 -6.272480487823486 6.249783039093018 0.44094473123550415 0 3
19.712265014648438 -6.30724573135376 6.196208953857422 0.4447573721408844 0 3
19.516874313354492 -6.34142541885376 6.143662452697754 0.4485609829425812 0 3
19.122655868530273 -6.30837869644165 6.028410911560059 0.46094810962677 0 3
19.003475189208984 -6.363749980926514 5.99980354309082 0.8422238826751709 0 3
18.97212791442871 -6.448085784912109 5.998976707458496 0.45991647243499756 0 3
18.789159774780273 -6.480077743530273 5.950236797332764 0.46368318796157837 0 3
18.60906219482422 -6.511581897735596 5.902411460876465 0.46744096279144287 0 3
18.431835174560547 -6.542558670043945 5.8554534912109375 0.47118905186653137 0 3
18.04654312133789 -6.497148513793945 5.742258548736572 0.4750387966632843 0 3
17.911659240722656 -6.539531230926514 5.708618640899658 0.8296366930007935 0 3
17.89583969116211 -6.624921798706055 5.712986946105957 0.48237574100494385 0 3
17.729530334472656 -6.654003620147705 5.6693902015686035 0.48608535528182983 0 3
17.565799713134766 -6.682636737823486 5.626562595367432 0.48978540301322937 0 3
17.404510498046875 -6.710839748382568 5.584489822387695 0.493475079536438 0 3
17.24560546875 -6.738632678985596 5.543150901794434 0.49715542793273926 0 3
17.08904266357422 -6.766015529632568 5.502533435821533 0.5008254647254944 0 3
16.93474578857422 -6.793027400970459 5.462611675262451 0.504485547542572 0 3
16.608417510986328 -6.748788833618164 5.367074489593506 0.5082186460494995 0 3
16.47962760925293 -6.782812118530273 5.335237979888916 0.8096291422843933 0 3
16.495996475219727 -6.876288890838623 5.350461483001709 0.8073240518569946 0 3
16.358339309692383 -6.905195236206055 5.315822124481201 0.5190244913101196 0 3
16.2144718170166 -6.930370807647705 5.279109954833984 0.5226330757141113 0 3
16.072519302368164 -6.95519495010376 5.243024826049805 0.5262308716773987 0 3
15.932538986206055 -6.979667663574219 5.207517623901367 0.5298144817352295 0 3
15.794452667236328 -7.003828048706055 5.172595024108887 0.5333909392356873 0 3
15.477636337280273 -6.946660041809082 5.07900857925415 0.5370697379112244 0 3
15.344745635986328 -6.969882488250732 5.045612812042236 0.5406246781349182 0 3
15.143320083618164 -6.96056604385376 4.989600658416748 0.5445641279220581 0 3
15.014531135559082 -6.983144283294678 4.9574384689331055 0.5475914478302002 0 3
14.8872652053833 -7.005429744720459 4.92575740814209 0.5511133670806885 0 3
14.773573875427246 -7.033066272735596 4.898534297943115 0.28736430406570435 0 3
14.741913795471191 -7.099335670471191 4.898555755615234 0.2873631417751312 0 3
14.710000038146973 -7.165449142456055 4.8985772132873535 0.28736191987991333 0 3
14.609824180603027 -7.197988033294678 4.8759331703186035 0.5433236360549927 0 3
14.485214233398438 -7.217538833618164 4.845104694366455 0.5467807650566101 0 3
14.36214828491211 -7.236875057220459 4.814759254455566 0.5502271056175232 0 3
14.240644454956055 -7.255956649780273 4.7848920822143555 0.5536615252494812 0 3
14.12060546875 -7.274843692779541 4.755490779876709 0.5570846199989319 0 3
14.00210952758789 -7.29345703125 4.7265496253967285 0.5604957342147827 0 3
13.88492202758789 -7.311816215515137 4.6980133056640625 0.5631537437438965 0 3
13.769160270690918 -7.330019474029541 4.669939994812012 0.5674310326576233 0 3
13.654882431030273 -7.347988128662109 4.642317295074463 0.5708076357841492 0 3
13.541972160339355 -7.365781307220459 4.615115165710449 0.5741715431213379 0 3
13.430312156677246 -7.383398056030273 4.588325023651123 0.5775241255760193 0 3
13.32005786895752 -7.400781154632568 4.561947345733643 0.5809535980224609 0 3
13.211054801940918 -7.417988300323486 4.535972595214844 0.5842806100845337 0 3
13.103241920471191 -7.43505859375 4.510375499725342 0.5873590707778931 0 3
12.996660232543945 -7.451855182647705 4.4851508140563965 0.5906626582145691 0 3
12.891249656677246 -7.468476295471191 4.460296154022217 0.5939540863037109 0 3
12.787050247192383 -7.484941005706787 4.435810565948486 0.5972324013710022 0 3
12.68392562866211 -7.50124979019165 4.411678791046143 0.6004992127418518 0 3
12.58519458770752 -7.51931619644165 4.3890380859375 0.6448971629142761 0 3
12.488574028015137 -7.537831783294678 4.367092609405518 0.6481376886367798 0 3
12.39291000366211 -7.556171894073486 4.3454508781433105 0.6513653993606567 0 3
12.298144340515137 -7.57433557510376 4.324104309082031 0.6545807719230652 0 3
12.204316139221191 -7.59228515625 4.303051471710205 0.6577839255332947 0 3
12.1113862991333 -7.610097408294678 4.282285213470459 0.6609737873077393 0 3
12.019354820251465 -7.627695083618164 4.2617998123168945 0.6641506552696228 0 3
11.928144454956055 -7.645175457000732 4.241591930389404 0.6673144698143005 0 3
11.837831497192383 -7.662421703338623 4.221662521362305 0.670464813709259 0 3
11.748339653015137 -7.679531097412109 4.201995849609375 0.6736030578613281 0 3
11.65966796875 -7.696484088897705 4.182592868804932 0.6767276525497437 0 3
11.571796417236328 -7.713281154632568 4.163450717926025 0.6798391938209534 0 3
11.484725952148438 -7.729902267456055 4.144563674926758 0.6829372048377991 0 3
11.398456573486328 -7.74636697769165 4.125931739807129 0.6860218048095703 0 3
11.312929153442383 -7.7626953125 4.107533931732178 0.6890936493873596 0 3
11.228124618530273 -7.778886318206787 4.089390277862549 0.6921516060829163 0 3
11.144082069396973 -7.794902324676514 4.071483135223389 0.6951957941055298 0 3
11.060781478881836 -7.810781002044678 4.053808689117432 0.6982265710830688 0 3
10.97818374633789 -7.826523303985596 4.036366939544678 0.7012433409690857 0 3
10.896307945251465 -7.842109203338623 4.019152641296387 0.7042469382286072 0 3
10.815038681030273 -7.857616901397705 4.002160549163818 0.7072368264198303 0 3
8.291289329528809 -6.081015586853027 3.078303098678589 0.6912050247192383 0 3
8.228554725646973 -6.091991901397705 3.0651323795318604 0.6941751837730408 0 3
8.166366577148438 -6.102870941162109 3.052135467529297 0.6971310377120972 0 3
8.104687690734863 -6.113652229309082 3.039310932159424 0.7000733017921448 0 3
8.043535232543945 -6.124355316162109 3.026650905609131 0.703001081943512 0 3
7.982890605926514 -6.134960651397705 3.014158248901367 0.7059147357940674 0 3
7.922753810882568 -6.145488262176514 3.0018255710601807 0.7088142037391663 0 3
7.908925533294678 -6.191796779632568 3.007097005844116 0.6410998702049255 0 3
7.908671855926514 -6.249062538146973 3.017627477645874 0.7145273089408875 0 3
7.849160194396973 -6.259452819824219 3.00561261177063 0.7173832058906555 0 3
7.790097713470459 -6.26980447769165 2.993751049041748 0.7202258110046387 0 3
7.731542587280273 -6.280038833618164 2.982045888900757 0.7230527400970459 0 3
7.673417568206787 -6.290214538574219 2.970491886138916 0.7258661389350891 0 3
7.615761756896973 -6.300312519073486 2.9590837955474854 0.7286641597747803 0 3
7.558535099029541 -6.310292720794678 2.947819709777832 0.7314478158950806 0 3
7.501757621765137 -6.320234298706055 2.9367027282714844 0.7342169284820557 0 3
7.445390224456787 -6.330078125 2.9257256984710693 0.7369712591171265 0 3
7.389413833618164 -6.339882850646973 2.914893627166748 0.7397106289863586 0 3
7.333847522735596 -6.349609375 2.9041967391967773 0.7424355149269104 0 3
7.181327819824219 -6.274159908294678 2.8549139499664307 0.7514397501945496 0 3
7.127871036529541 -6.284042835235596 2.8448333740234375 0.7541018128395081 0 3
7.074452877044678 -6.293632507324219 2.8347692489624023 0.7506178617477417 0 3
7.021191120147705 -6.302948951721191 2.824739933013916 0.7532824277877808 0 3
6.968320369720459 -6.312206745147705 2.814836263656616 0.7559311389923096 0 3
6.964687347412109 -6.366034984588623 2.82489013671875 0.5849857926368713 0 3
6.966503620147705 -6.425234317779541 2.837263822555542 0.7610844969749451 0 3
6.913945198059082 -6.434413909912109 2.827592134475708 0.7636879086494446 0 3
6.861699104309082 -6.443573951721191 2.8180437088012695 0.7662760615348816 0 3
6.809863090515137 -6.452656269073486 2.808612108230591 0.7688480019569397 0 3
6.758339881896973 -6.461659908294678 2.799302816390991 0.7714056968688965 0 3
6.707206726074219 -6.470585823059082 2.7901134490966797 0.7739465236663818 0 3
6.656386375427246 -6.4794921875 2.781036376953125 0.7764718532562256 0 3
6.605878829956055 -6.488320350646973 2.772076368331909 0.7789821028709412 0 3
6.555722713470459 -6.4970703125 2.7632269859313965 0.7814764976501465 0 3
14.690468788146973 14.6904878616333 5.845314025878906 0.30638399720191956 0 9
14.955780982971191 14.82216739654541 5.924360275268555 0.30229634046554565 0 9
14.919023513793945 14.653613090515137 5.883693218231201 0.3739479184150696 0 9
14.839999198913574 14.445683479309082 5.826898574829102 0.37759315967559814 0 9
14.762557983398438 14.241835594177246 5.771336555480957 0.38122841715812683 0 9
15.207695007324219 14.540078163146973 5.919788837432861 0.8174669742584229 0 9
15.255995750427246 14.455780982971191 5.9132914543151855 0.8183658123016357 0 9
6.683808326721191 6.276503562927246 2.5798356533050537 0.5683501958847046 0 6
6.701738357543945 6.237011432647705 2.5759031772613525 0.9455323815345764 0 6
6.752851486206055 6.228241920471191 2.584678888320923 0.5102161169052124 0 6
15.448593139648438 14.120702743530273 5.88871431350708 0.8217806816101074 0 9
15.49658203125 14.037421226501465 5.882930278778076 0.822589099407196 0 9
15.544511795043945 13.954316139221191 5.877281188964844 0.823379397392273 0 9
15.94710922241211 14.187030792236328 6.005383014678955 0.9932680726051331 0 9
16.344022750854492 14.409276962280273 6.130439758300781 0.6212023496627808 0 9
16.66060447692871 14.555956840515137 6.224608421325684 0.6469848155975342 0 9
16.7149600982666 14.471718788146973 6.220588207244873 0.6474027633666992 0 9
16.76935577392578 14.387636184692383 6.216732501983643 0.6478047966957092 0 9
16.349882125854492 13.900839805603027 6.038053035736084 0.5025471448898315 0 9
16.872968673706055 14.215624809265137 6.207591533660889 0.7117921710014343 0 9
16.893104553222656 14.10341739654541 6.191660404205322 0.7136240005493164 0 9
16.9132022857666 13.991874694824219 6.1759490966796875 0.7154393196105957 0 9
16.93326187133789 13.8809175491333 6.160458087921143 0.7172384262084961 0 9
16.9532413482666 13.7705659866333 6.145186424255371 0.7190208435058594 0 9
16.973203659057617 13.660780906677246 6.130121231079102 0.7207874655723572 0 9
20.265663146972656 16.161405563354492 7.293002128601074 0.7912068963050842 0 9
20.405780792236328 16.123807907104492 7.317286014556885 0.7885802984237671 0 9
17.285253524780273 13.532538414001465 6.17647123336792 0.5852422714233398 0 9
27.122167587280273 21.038124084472656 9.657585144042969 0.7184059619903564 0 9
19.07732391357422 14.661288261413574 6.769530296325684 0.8432434797286987 0 9
19.168066024780273 14.594648361206055 6.778411865234375 0.9279348850250244 0 9
19.310039520263672 14.56630802154541 6.805415630340576 0.8119779229164124 0 9
26.001893997192383 19.431678771972656 9.132986068725586 0.6395468711853027 0 9
26.208925247192383 19.403690338134766 9.17502498626709 0.6366170644760132 0 9
16.379667282104492 12.013222694396973 5.715147018432617 0.7181971073150635 0 9
22.41468620300293 16.285253524780273 7.795295238494873 0.6418842673301697 0 9
22.35542869567871 16.089414596557617 7.749497413635254 0.5010493993759155 0 9
22.534082412719727 16.064979553222656 7.7863664627075195 0.9095287322998047 0 9
22.562049865722656 15.932695388793945 7.771229267120361 0.9113003015518188 0 9
22.58984375 15.8008394241333 7.756292343139648 0.9130551218986511 0 9
22.617460250854492 15.669472694396973 7.741556644439697 0.914793074131012 0 9
22.644941329956055 15.53857421875 7.727020740509033 0.9165143370628357 0 9
15.77269458770752 10.71914005279541 5.365565299987793 0.6752411723136902 0 9
15.77220630645752 10.615644454956055 5.34915018081665 0.6773134469985962 0 9
15.771678924560547 10.512773513793945 5.332912921905518 0.679375946521759 0 9
15.7710542678833 10.410409927368164 5.316845417022705 0.6814285516738892 0 9
15.770331382751465 10.3086519241333 5.3009538650512695 0.6834715604782104 0 9
15.192461013793945 9.833847045898438 5.091826438903809 0.8491604328155518 0 9
15.258183479309082 9.779492378234863 5.0991034507751465 0.8479492664337158 0 9
15.32412052154541 9.725019454956055 5.106479167938232 0.8467240333557129 0 9
15.390077590942383 9.670272827148438 5.113958835601807 0.8454858064651489 0 9
15.349003791809082 9.548651695251465 5.086028099060059 0.4688010513782501 0 9
15.51644515991211 9.55648422241211 5.127230644226074 0.46503353118896484 0 9
15.588886260986328 9.504843711853027 5.137022018432617 0.8416897058486938 0 9
15.655409812927246 9.449316024780273 5.144918918609619 0.8403980731964111 0 9
15.722089767456055 9.393534660339355 5.152920246124268 0.839092493057251 0 9
15.75853443145752 9.319589614868164 5.151106357574463 0.703354001045227 0 9
15.7568941116333 9.223418235778809 5.136989593505859 0.7052867412567139 0 9
15.755194664001465 9.127734184265137 5.123030662536621 0.7072089910507202 0 9
15.56224536895752 8.9229097366333 5.047209739685059 0.6375570893287659 0 9
15.678847312927246 8.896523475646973 5.072031021118164 0.6912567615509033 0 9
15.749608993530273 8.843457221984863 5.08203125 0.7129141092300415 0 9
15.74755859375 8.749589920043945 5.068658351898193 0.7147949934005737 0 9
15.745468139648438 8.656171798706055 5.055428504943848 0.7166653871536255 0 9
15.743339538574219 8.563222885131836 5.042343616485596 0.7185254096984863 0 9
15.923534393310547 8.56884765625 5.0876994132995605 0.6267451047897339 0 9
15.907793045043945 8.468496322631836 5.070465564727783 0.6288754940032959 0 9
15.718398094177246 8.277362823486328 4.998208522796631 0.21312980353832245 0 9
15.46718692779541 8.056620597839355 4.9067792892456055 0.21710112690925598 0 9
15.225038528442383 7.843827724456787 4.8187479972839355 0.2210669368505478 0 9
16.679609298706055 8.49869155883789 5.26699161529541 0.6656690239906311 0 9
16.78353500366211 8.456992149353027 5.287768840789795 0.6630535125732422 0 9
16.88818359375 8.414901733398438 5.308788299560547 0.6604284644126892 0 9
16.993574142456055 8.372421264648438 5.330055236816406 0.6577930450439453 0 9
17.0997257232666 8.329530715942383 5.35158109664917 0.655147910118103 0 9
17.20671844482422 8.286328315734863 5.373359203338623 0.6524922847747803 0 9
17.314434051513672 8.24267578125 5.395393371582031 0.6498273015022278 0 9
19.680721282958984 9.26107406616211 6.119738578796387 0.8999075293540955 0 9
19.718807220458984 9.171113014221191 6.118718147277832 0.9000574946403503 0 9
19.75679588317871 9.081151962280273 6.117795467376709 0.9001928567886353 0 9
29.593202590942383 -6.614882469177246 8.531717300415039 0.3870508372783661 0 3
29.262557983398438 -6.67898416519165 8.44494342803955 0.39102765917778015 0 3
28.938514709472656 -6.74181604385376 8.360075950622559 0.39499717950820923 0 3
28.68474578857422 -6.818554401397705 8.295517921447754 0.4002947211265564 0 3
28.37367057800293 -6.879316329956055 8.214405059814453 0.4042472839355469 0 3
28.063827514648438 -6.937675476074219 8.133634567260742 0.3764009475708008 0 3
27.74165916442871 -6.990293025970459 8.049272537231445 0.380258709192276 0 3
27.42607307434082 -7.041796684265137 7.966784954071045 0.3841957151889801 0 3
27.11685562133789 -7.092304706573486 7.886142253875732 0.38812482357025146 0 3
26.813886642456055 -7.141757488250732 7.80726957321167 0.3920455574989319 0 3
26.516874313354492 -7.190273284912109 7.7301154136657715 0.39595893025398254 0 3
26.22572135925293 -7.237832069396973 7.654626369476318 0.3998635709285736 0 3
25.940214157104492 -7.284472465515137 7.580753803253174 0.40376007556915283 0 3
25.66015625 -7.330234050750732 7.508458614349365 0.4076479971408844 0 3
25.327733993530273 -7.3583984375 7.420776844024658 0.463033527135849 0 3
25.087440490722656 -7.410839557647705 7.360042572021484 0.4668542444705963 0 3
20.315702438354492 -6.100507736206055 5.968100070953369 0.43157467246055603 0 3
20.10835838317871 -6.136796951293945 5.915229797363281 0.4354320764541626 0 3
19.94677734375 -6.185449123382568 5.875799655914307 0.8563817739486694 0 3
19.91097640991211 -6.272441387176514 5.873490333557129 0.44307994842529297 0 3
19.71222686767578 -6.307207107543945 5.82314395904541 0.4469107389450073 0 3
19.51677703857422 -6.341386795043945 5.773769855499268 0.4507327973842621 0 3
19.123945236206055 -6.308788776397705 5.66586971282959 0.45410773158073425 0 3
19.00322151184082 -6.363652229309082 5.638495445251465 0.8463099598884583 0 3
18.972070693969727 -6.448046684265137 5.637784481048584 0.46214357018470764 0 3
18.7890625 -6.480058670043945 5.59198522567749 0.46592825651168823 0 3
18.608983993530273 -6.511562347412109 5.547041893005371 0.46970394253730774 0 3
18.43179702758789 -6.542558670043945 5.5029168128967285 0.47347021102905273 0 3
18.04669952392578 -6.49718713760376 5.396596431732178 0.47733286023139954 0 3
17.91142463684082 -6.539453029632568 5.364866733551025 0.8336612582206726 0 3
17.895721435546875 -6.624902248382568 5.369020462036133 0.4847114682197571 0 3
17.72945213317871 -6.653984069824219 5.328047275543213 0.4884391725063324 0 3
17.56574249267578 -6.682597637176514 5.287800312042236 0.4921568036079407 0 3
17.40445327758789 -6.710839748382568 5.248258113861084 0.4958643317222595 0 3
17.245527267456055 -6.738632678985596 5.209409713745117 0.49956241250038147 0 3
17.088964462280273 -6.765995979309082 5.171236038208008 0.5032505989074707 0 3
16.9346866607666 -6.792988300323486 5.133718013763428 0.5069279670715332 0 3
16.456113815307617 -6.686913967132568 4.997694969177246 0.510589599609375 0 3
16.309160232543945 -6.712616920471191 4.962151527404785 0.51424640417099 0 3
16.187734603881836 -6.747734069824219 4.9343743324279785 0.5736531019210815 0 3
16.077871322631836 -6.786835670471191 4.910130500793457 0.5764846801757812 0 3
16.006738662719727 -6.841601371765137 4.897730827331543 0.27139976620674133 0 3
15.975936889648438 -6.913398265838623 4.897751808166504 0.2714133560657501 0 3
15.912734031677246 -6.970995903015137 4.887913703918457 0.5118259191513062 0 3
15.770819664001465 -6.993359088897705 4.853914737701416 0.515410840511322 0 3
15.630898475646973 -7.01540994644165 4.820489883422852 0.518984854221344 0 3
15.492870330810547 -7.037168025970459 4.787619590759277 0.5225483775138855 0 3
15.356718063354492 -7.058652400970459 4.755285739898682 0.5261009335517883 0 3
15.222421646118164 -7.079843521118164 4.7234907150268555 0.5296425223350525 0 3
15.089921951293945 -7.100741863250732 4.692215442657471 0.5331730246543884 0 3
14.959139823913574 -7.121406078338623 4.661444664001465 0.5366919040679932 0 3
14.830117225646973 -7.141777038574219 4.631175518035889 0.5401999950408936 0 3
14.702714920043945 -7.16189432144165 4.601385593414307 0.5436972975730896 0 3
14.576972007751465 -7.181796550750732 4.572077751159668 0.5471826791763306 0 3
14.452851295471191 -7.201406002044678 4.543231010437012 0.550656795501709 0 3
14.33031177520752 -7.220781326293945 4.514842987060547 0.5541192293167114 0 3
14.20921802520752 -7.239960670471191 4.4868998527526855 0.5575700402259827 0 3
14.089648246765137 -7.258866786956787 4.459388732910156 0.5610097050666809 0 3
13.971601486206055 -7.277538776397705 4.432308673858643 0.5644378066062927 0 3
13.854902267456055 -7.296054363250732 4.405644416809082 0.5678540468215942 0 3
13.744765281677246 -7.31701135635376 4.381016731262207 0.6101185083389282 0 3
13.636014938354492 -7.337831974029541 4.356797218322754 0.613510012626648 0 3
13.528398513793945 -7.358437538146973 4.332927227020264 0.6168898344039917 0 3
13.421972274780273 -7.378788948059082 4.30940055847168 0.620257556438446 0 3
13.316679000854492 -7.398906230926514 4.2862138748168945 0.6236131191253662 0 3
13.212519645690918 -7.418828010559082 4.2633538246154785 0.6269567012786865 0 3
13.109394073486328 -7.438535213470459 4.2408246994018555 0.6302880644798279 0 3
13.007421493530273 -7.458027362823486 4.2186102867126465 0.6336066126823425 0 3
12.906444549560547 -7.477304458618164 4.1967082023620605 0.636913537979126 0 3
12.80654239654541 -7.49636697769165 4.175114631652832 0.6402072310447693 0 3
12.707597732543945 -7.51525354385376 4.1538238525390625 0.6434887647628784 0 3
12.609686851501465 -7.533945083618164 4.132823944091797 0.6467582583427429 0 3
12.512792587280273 -7.552402019500732 4.112122535705566 0.6500142812728882 0 3
12.416776657104492 -7.570722579956055 4.091705322265625 0.6532583236694336 0 3
12.321738243103027 -7.5888671875 4.071568012237549 0.6564890742301941 0 3
12.2275972366333 -7.606796741485596 4.0517072677612305 0.659707248210907 0 3
12.134394645690918 -7.624550819396973 4.032115936279297 0.6629124283790588 0 3
12.042070388793945 -7.642128944396973 4.012790203094482 0.6661044955253601 0 3
11.95058536529541 -7.659550666809082 3.993730306625366 0.6692838668823242 0 3
11.859999656677246 -7.676777362823486 3.974926710128784 0.6724500060081482 0 3
11.77025318145752 -7.693828105926514 3.9563755989074707 0.6756030321121216 0 3
11.681347846984863 -7.710741996765137 3.9380760192871094 0.6787423491477966 0 3
11.592734336853027 -7.727265357971191 3.9198765754699707 0.6639047861099243 0 3
11.503886222839355 -7.74279260635376 3.901533842086792 0.6670260429382324 0 3
11.415820121765137 -7.758203029632568 3.8834362030029297 0.6701342463493347 0 3
11.328593254089355 -7.7734375 3.865586996078491 0.6732286214828491 0 3
11.12222671508789 -7.705488204956055 3.8069376945495605 0.6833325028419495 0 3
11.038436889648438 -7.720995903015137 3.790093183517456 0.6863711476325989 0 3
10.955018997192383 -7.736073970794678 3.7733213901519775 0.6856917142868042 0 3
10.87197208404541 -7.750820159912109 3.7566661834716797 0.6887311935424805 0 3
10.789668083190918 -7.765429496765137 3.740234375 0.6917569637298584 0 3
10.7080659866333 -7.779882431030273 3.724017858505249 0.6947692632675171 0 3
8.291289329528809 -6.081035137176514 2.8929779529571533 0.6945488452911377 0 3
8.2285737991333 -6.092011451721191 2.8806023597717285 0.6975326538085938 0 3
8.16640567779541 -6.102870941162109 2.8683879375457764 0.7005026340484619 0 3
8.104706764221191 -6.113652229309082 2.856332302093506 0.7034593224525452 0 3
8.043554306030273 -6.124355316162109 2.8444371223449707 0.7064010500907898 0 3
7.982929706573486 -6.134941101074219 2.832695960998535 0.7093287706375122 0 3
7.922734260559082 -6.1455078125 2.8211071491241455 0.7122424244880676 0 3
7.908769130706787 -6.191738128662109 2.825991153717041 0.6442130208015442 0 3
7.908632755279541 -6.249062538146973 2.8359453678131104 0.7179860472679138 0 3
7.849140644073486 -6.259472370147705 2.8246538639068604 0.7208560109138489 0 3
7.790097713470459 -6.269784927368164 2.8135106563568115 0.7237113118171692 0 3
7.731523036956787 -6.28005838394165 2.802506685256958 0.7265529036521912 0 3
7.673398494720459 -6.290214538574219 2.791644811630249 0.7293797731399536 0 3
7.615761756896973 -6.300273418426514 2.780923366546631 0.7321913242340088 0 3
7.558515548706055 -6.310292720794678 2.770336866378784 0.7349885702133179 0 3
7.50173807144165 -6.320214748382568 2.759894371032715 0.7377709746360779 0 3
7.445351600646973 -6.330078125 2.749577045440674 0.7405384182929993 0 3
7.389394283294678 -6.339863300323486 2.739394426345825 0.7432913184165955 0 3
7.333847522735596 -6.349589824676514 2.729339599609375 0.7460293173789978 0 3
7.181660175323486 -6.2744140625 2.683154821395874 0.7550415992736816 0 3
7.128085613250732 -6.284277439117432 2.6736626625061035 0.7515528202056885 0 3
7.07449197769165 -6.293652057647705 2.6641125679016113 0.7542450428009033 0 3
7.02126932144165 -6.302968502044678 2.6546947956085205 0.75692218542099 0 3
6.968339920043945 -6.312226295471191 2.645388126373291 0.7595845460891724 0 3
6.964550495147705 -6.365917682647705 2.6547539234161377 0.5878275632858276 0 3
6.966464519500732 -6.425234317779541 2.666440486907959 0.7647684812545776 0 3
6.913886547088623 -6.434453010559082 2.657351016998291 0.76738440990448 0 3
6.861679553985596 -6.443593502044678 2.6483795642852783 0.7699849605560303 0 3
6.809823989868164 -6.45263671875 2.6395177841186523 0.772570013999939 0 3
6.758320331573486 -6.461640357971191 2.630768299102783 0.775139331817627 0 3
6.707167625427246 -6.470605373382568 2.622129440307617 0.7776925563812256 0 3
6.65636682510376 -6.479453086853027 2.613600492477417 0.7802309393882751 0 3
6.605878829956055 -6.488300800323486 2.6051788330078125 0.7827525734901428 0 3
6.555683612823486 -6.497089862823486 2.5968616008758545 0.7852596640586853 0 3
14.67064380645752 14.670682907104492 5.466970920562744 0.30818992853164673 0 9
14.81566333770752 14.683300018310547 5.496402263641357 0.37659409642219543 0 9
14.737812042236328 14.475605010986328 5.443349361419678 0.380264550447464 0 9
14.66146469116211 14.271913528442383 5.391446590423584 0.3839256465435028 0 9
15.065780639648438 14.534374237060547 5.516087055206299 0.8253462910652161 0 9
15.113984107971191 14.450488090515137 5.509938716888428 0.826267421245575 0 9
15.162128448486328 14.366835594177246 5.503923416137695 0.8271702527999878 0 9
6.683202743530273 6.275957107543945 2.4157609939575195 0.5709831714630127 0 6
6.701425552368164 6.236699104309082 2.412226915359497 0.9498722553253174 0 6
6.752363204956055 6.227792739868164 2.420466899871826 0.5125694274902344 0 6
15.866522789001465 14.50267505645752 5.664192199707031 0.9907407760620117 0 9
15.92812442779541 14.428319931030273 5.663007736206055 0.990947961807251 0 9
16.258359909057617 14.595155715942383 5.757063388824463 0.65810626745224 0 9
16.312070846557617 14.51171875 5.752968788146973 0.6585745215415955 0 9
16.365781784057617 14.42845630645752 5.749022006988525 0.6590266227722168 0 9
16.4195499420166 14.34537124633789 5.745217323303223 0.6594628691673279 0 9
16.4732608795166 14.262460708618164 5.741566181182861 0.6598825454711914 0 9
16.52699089050293 14.1796875 5.738054275512695 0.660286545753479 0 9
16.58072280883789 14.097089767456055 5.734686374664307 0.6606741547584534 0 9
16.634490966796875 14.014687538146973 5.731461524963379 0.6610457897186279 0 9
16.688222885131836 13.932382583618164 5.728382587432861 0.6614011526107788 0 9
16.74199104309082 13.850234031677246 5.725451469421387 0.6617401838302612 0 9
16.794452667236328 13.767128944396973 5.7221903800964355 0.7264492511749268 0 9
16.81460952758789 13.657929420471191 5.708118915557861 0.728239893913269 0 9
16.834726333618164 13.54931640625 5.694244861602783 0.7300143241882324 0 9
16.85478401184082 13.44124984741211 5.680563926696777 0.7317726016044617 0 9
20.5362491607666 16.226932525634766 6.896729469299316 0.7871252298355103 0 9
17.574745178222656 13.759199142456055 5.88136100769043 0.5782144069671631 0 9
18.944608688354492 14.694979667663574 6.31764554977417 0.8500549793243408 0 9
19.05351448059082 14.64296817779541 6.331976890563965 0.8481309413909912 0 9
19.168554306030273 14.595019340515137 6.348392963409424 0.8188905715942383 0 9
19.285409927368164 14.54769515991211 6.365394592285156 0.8167030215263367 0 9
21.404335021972656 15.995917320251465 7.041004657745361 0.7709960341453552 0 9
21.552459716796875 15.956347465515137 7.066093444824219 0.7682584524154663 0 9
26.290878295898438 19.282304763793945 8.591143608093262 0.6396243572235107 0 9
26.500213623046875 19.2535343170166 8.63123607635498 0.6366534233093262 0 9
22.622461318969727 16.281620025634766 7.344370365142822 0.6409515142440796 0 9
22.599628448486328 16.111698150634766 7.313416481018066 0.4994874596595764 0 9
22.69011688232422 16.02312469482422 7.31934118270874 0.9102689623832703 0 9
22.717830657958984 15.890351295471191 7.305202484130859 0.9120315909385681 0 9
22.745330810546875 15.758066177368164 7.29124116897583 0.9137775301933289 0 9
17.95992088317871 12.323769569396973 5.739441871643066 0.6778427958488464 0 9
17.970800399780273 12.212968826293945 5.725346565246582 0.6795113682746887 0 9
17.981542587280273 12.102656364440918 5.711406230926514 0.6811701059341431 0 9
15.198652267456055 10.130820274353027 4.813006401062012 0.8451583981513977 0 9
15.265214920043945 10.076522827148438 4.8197150230407715 0.8439818620681763 0 9
15.331913948059082 10.022050857543945 4.82651948928833 0.8427919745445251 0 9
15.398730278015137 9.967363357543945 4.8334221839904785 0.8415883779525757 0 9
15.438456535339355 9.89501953125 4.831897258758545 0.5297608971595764 0 9
14.864413261413574 9.43326187133789 4.638940811157227 0.7110385298728943 0 9
14.957128524780273 9.398202896118164 4.654670715332031 0.7086355686187744 0 9
15.050429344177246 9.362890243530273 4.670580863952637 0.7062215209007263 0 9
15.14437484741211 9.327323913574219 4.68667459487915 0.7037961483001709 0 9
15.238808631896973 9.29140567779541 4.702952861785889 0.7013604044914246 0 9
15.33382797241211 9.255194664001465 4.719423770904541 0.6989130973815918 0 9
15.429471969604492 9.218710899353027 4.736080646514893 0.6964549422264099 0 9
15.525741577148438 9.181914329528809 4.752930164337158 0.6939855813980103 0 9
15.622655868530273 9.144843101501465 4.7699761390686035 0.6915052533149719 0 9
15.720136642456055 9.107440948486328 4.787222385406494 0.6890146732330322 0 9
15.818281173706055 9.069706916809082 4.804665565490723 0.6865131258964539 0 9
15.823984146118164 8.97884750366211 4.794111728668213 0.6257414817810059 0 9
15.808202743530273 8.876347541809082 4.7772111892700195 0.6279554963111877 0 9
15.792558670043945 8.77457046508789 4.760538101196289 0.6301551461219788 0 9
15.77708911895752 8.673535346984863 4.744088172912598 0.6323397159576416 0 9
15.761796951293945 8.5732421875 4.727869033813477 0.6345093846321106 0 9
15.746621131896973 8.473612785339355 4.7118659019470215 0.6366643309593201 0 9
15.64638614654541 8.329355239868164 4.67064094543457 0.2145719826221466 0 9
15.39687442779541 8.10806655883789 4.58525276184082 0.21856793761253357 0 9
15.702031135559082 8.178945541381836 4.665153503417969 0.6430389285087585 0 9
15.6875 8.0820894241333 4.6500067710876465 0.6451334953308105 0 9
16.942949295043945 8.6328706741333 5.0106048583984375 0.6582968235015869 0 9
17.049589157104492 8.591054916381836 5.030683994293213 0.655669629573822 0 9
17.156972885131836 8.548828125 5.050997734069824 0.6530324220657349 0 9
17.26513671875 8.506210327148438 5.071557998657227 0.6503852009773254 0 9
17.374120712280273 8.46322250366211 5.0923638343811035 0.6477276682853699 0 9
17.483945846557617 8.419843673706055 5.113420486450195 0.6450605392456055 0 9
