ply
format ascii 1.0
element vertex 605
property float32 x
property float32 y
property float32 z
property float32 CosAngle
property uint32 ObjIdx
property uint32 ObjTag
end_header
13.88499927520752 9.805058479309082 1.3342453241348267 0.5750743746757507 0 3
14.239140510559082 9.864794731140137 1.3597097396850586 0.5677406787872314 0 3
14.515742301940918 9.864794731140137 1.377612829208374 0.5603622794151306 0 3
14.799765586853027 9.864794731140137 1.3961083889007568 0.5529388189315796 0 3
15.091523170471191 9.864794731140137 1.4152218103408813 0.5454713702201843 0 3
15.29824161529541 9.805058479309082 1.4262911081314087 0.5379599332809448 0 3
15.699843406677246 9.864774703979492 1.455424427986145 0.5304033160209656 0 3
16.017187118530273 9.864774703979492 1.4765771627426147 0.5228050947189331 0 3
16.343984603881836 9.864774703979492 1.4984756708145142 0.5151652693748474 0 3
16.632537841796875 9.836386680603027 1.516778588294983 0.8581007122993469 0 3
41.77167892456055 0.562451183795929 3.2791357040405273 0.7941977977752686 0 6
47.82023239135742 -10.239325523376465 3.8386943340301514 0.20873203873634338 0 3
47.41757583618164 -10.599101066589355 3.8138561248779297 0.9729243516921997 0 3
47.479373931884766 -11.061259269714355 3.826652765274048 0.9709332585334778 0 3
47.479373931884766 -11.511503219604492 3.8348264694213867 0.968863844871521 0 3
47.47933578491211 -11.963729858398438 3.843345880508423 0.9667162299156189 0 3
47.41761779785156 -12.401884078979492 3.8472044467926025 0.9644908905029297 0 3
47.41759490966797 -12.857714653015137 3.8564140796661377 0.9621877074241638 0 3
47.32624816894531 -13.2900972366333 3.858530282974243 0.9598071575164795 0 3
47.46015548706055 -13.788436889648438 3.8793821334838867 0.9573493003845215 0 3
47.41761779785156 -14.23885726928711 3.886197328567505 0.9548142552375793 0 3
47.41757583618164 -14.704111099243164 3.8968474864959717 0.9522023797035217 0 3
47.34775161743164 -15.149608612060547 3.902139902114868 0.9495136141777039 0 3
21.857284545898438 -11.13680648803711 1.925539493560791 0.5048034191131592 0 6
21.81429672241211 -11.362685203552246 1.9306594133377075 0.2734660506248474 0 6
21.989959716796875 -12.217900276184082 1.9746170043945312 0.716457724571228 0 6
21.890975952148438 -12.421366691589355 1.975663661956787 0.26509788632392883 0 6
20.994062423706055 -12.671552658081055 1.9248180389404297 0.4990808963775635 0 6
20.88671875 -12.863935470581055 1.92548668384552 0.41980552673339844 0 6
15.95003890991211 -10.222890853881836 1.4870697259902954 0.5379468202590942 0 3
15.639257431030273 -10.222890853881836 1.4665905237197876 0.5454583168029785 0 3
15.336874961853027 -10.222890853881836 1.4467809200286865 0.5529273152351379 0 3
15.0425386428833 -10.222890853881836 1.4276152849197388 0.5603505373001099 0 3
11.112577438354492 -7.698837757110596 1.061178207397461 0.5677297115325928 0 3
10.97738265991211 -7.751864910125732 1.0548473596572876 0.5750618577003479 0 3
10.77089786529541 -7.751845359802246 1.0416488647460938 0.582348644733429 0 3
10.56949234008789 -7.751845359802246 1.028859257698059 0.5895874500274658 0 3
10.37294864654541 -7.751855373382568 1.0164605379104614 0.5967792272567749 0 3
10.181074142456055 -7.751855373382568 1.0044363737106323 0.6039233207702637 0 3
9.99365234375 -7.751855373382568 0.9927731156349182 0.611018717288971 0 3
9.810565948486328 -7.751835823059082 0.9814556837081909 0.6180645227432251 0 3
9.631543159484863 -7.751855373382568 0.9704702496528625 0.6250609755516052 0 3
9.456503868103027 -7.751855373382568 0.9598046541213989 0.6320059895515442 0 3
9.285253524780273 -7.751855373382568 0.9494457840919495 0.63890141248703 0 3
9.117636680603027 -7.751855373382568 0.9393835067749023 0.6457450985908508 0 3
8.953535079956055 -7.751835823059082 0.9296066164970398 0.6525369882583618 0 3
8.792792320251465 -7.751835823059082 0.9201043248176575 0.6592757701873779 0 3
8.63525390625 -7.751855373382568 0.9108675718307495 0.6659614443778992 0 3
8.480897903442383 -7.751835823059082 0.9018856883049011 0.6725934743881226 0 3
8.32949161529541 -7.751835823059082 0.8931500315666199 0.6791716814041138 0 3
8.181015014648438 -7.751816272735596 0.8846545219421387 0.6856943964958191 0 3
8.03531265258789 -7.751816272735596 0.876387894153595 0.6921623945236206 0 3
7.892265319824219 -7.751835823059082 0.8683434724807739 0.6985750198364258 0 3
9.930761337280273 9.93082046508789 0.9859328866004944 0.9273772239685059 0 5
12.419921875 12.198798179626465 1.2221450805664062 0.7116721272468567 0 3
12.360175132751465 11.924081802368164 1.2056893110275269 0.7179170846939087 0 3
12.419882774353027 11.768290519714355 1.2011605501174927 0.7241047620773315 0 3
12.419882774353027 11.55850601196289 1.1910784244537354 0.7302340865135193 0 3
12.419862747192383 11.352187156677246 1.181258201599121 0.7363045811653137 0 3
12.419882774353027 11.149237632751465 1.1716927289962769 0.7423155903816223 0 3
12.36019515991211 10.89687442779541 1.1567760705947876 0.748267412185669 0 3
12.397811889648438 10.733818054199219 1.151242971420288 0.6529472470283508 0 3
12.419882774353027 10.5593843460083 1.1444451808929443 0.7599890828132629 0 3
12.419882774353027 10.368759155273438 1.1358230113983154 0.7657585740089417 0 3
12.419882774353027 10.180986404418945 1.1274197101593018 0.7714659571647644 0 3
12.419901847839355 9.99593734741211 1.1192296743392944 0.777111291885376 0 3
12.409159660339355 9.80507755279541 1.110286831855774 0.6184553503990173 0 3
12.717753410339355 9.8648042678833 1.129929780960083 0.6114040613174438 0 3
12.956230163574219 9.8648042678833 1.1432045698165894 0.6043045520782471 0 3
13.200409889221191 9.8648042678833 1.1568889617919922 0.5971567034721375 0 3
13.45052719116211 9.8648042678833 1.171000599861145 0.5899606347084045 0 3
13.702226638793945 9.86147403717041 1.1851601600646973 0.8096524477005005 0 3
13.88499927520752 9.805058479309082 1.19330894947052 0.5754269957542419 0 3
14.239140510559082 9.864794731140137 1.2160836458206177 0.5680888295173645 0 3
14.515742301940918 9.864794731140137 1.2320959568023682 0.5607060194015503 0 3
14.799765586853027 9.864794731140137 1.2486376762390137 0.5532779097557068 0 3
15.091562271118164 9.864794731140137 1.2657324075698853 0.5458053350448608 0 3
15.29824161529541 9.805058479309082 1.2756551504135132 0.5382897853851318 0 3
15.699843406677246 9.864774703979492 1.301688551902771 0.5307285189628601 0 3
16.017187118530273 9.864774703979492 1.3206067085266113 0.5231257677078247 0 3
16.343984603881836 9.864774703979492 1.340192198753357 0.515481173992157 0 3
16.632537841796875 9.836386680603027 1.3565618991851807 0.8586270213127136 0 3
41.77068328857422 0.562451183795929 2.9327011108398438 0.7947037220001221 0 6
47.82027053833008 -10.239306449890137 3.4332151412963867 0.20885996520519257 0 3
47.06464767456055 -10.520195007324219 3.385610818862915 0.973520815372467 0 20
47.06464767456055 -10.964648246765137 3.3925535678863525 0.9715284705162048 0 20
47.06464767456055 -11.410985946655273 3.399799108505249 0.969457745552063 0 20
47.47933578491211 -11.963729858398438 3.4373741149902344 0.9673090577125549 0 3
47.41759490966797 -12.401894569396973 3.4408257007598877 0.9650823473930359 0 3
47.22117233276367 -12.80443286895752 3.4347734451293945 0.26106497645378113 0 20
47.064666748046875 -13.21664047241211 3.4318809509277344 0.9603954553604126 0 20
47.06464767456055 -13.673534393310547 3.4406914710998535 0.95793616771698 0 20
47.41761779785156 -14.238866806030273 3.4756927490234375 0.955399751663208 0 3
47.41759490966797 -14.704120635986328 3.4852283000946045 0.9527862071990967 0 3
47.06464767456055 -15.059032440185547 3.4690845012664795 0.950095534324646 0 20
47.06464767456055 -15.526073455810547 3.4792168140411377 0.9473287463188171 0 20
23.126367568969727 -12.849296569824219 1.8573052883148193 0.4417707026004791 0 6
23.000429153442383 -13.050848960876465 1.8565233945846558 0.3490713834762573 0 6
15.95003890991211 -10.222890853881836 1.3299908638000488 0.5382772088050842 0 3
15.639257431030273 -10.222890853881836 1.3116744756698608 0.5457928776741028 0 3
15.336874961853027 -10.222890853881836 1.2939578294754028 0.5532664656639099 0 3
11.32851505279541 -7.698837757110596 0.9615731835365295 0.5606953501701355 0 3
11.189179420471191 -7.751864910125732 0.9556097388267517 0.568077027797699 0 3
10.97738265991211 -7.751864910125732 0.943424642086029 0.5754144787788391 0 3
10.77089786529541 -7.751864910125732 0.9316207766532898 0.582705020904541 0 3
10.569453239440918 -7.751864910125732 0.9201812744140625 0.5899497270584106 0 3
10.37294864654541 -7.751855373382568 0.9090914726257324 0.5971451997756958 0 3
10.181074142456055 -7.751855373382568 0.8983386158943176 0.6042936444282532 0 3
9.99365234375 -7.751855373382568 0.8879058361053467 0.611393392086029 0 3
9.810565948486328 -7.751835823059082 0.8777840733528137 0.6184435486793518 0 3
9.631543159484863 -7.751855373382568 0.8679592609405518 0.6254442930221558 0 3
9.456503868103027 -7.751835823059082 0.8584203720092773 0.6323943138122559 0 3
9.285253524780273 -7.751855373382568 0.8491561412811279 0.6392932534217834 0 3
9.117636680603027 -7.751855373382568 0.8401565551757812 0.6461410522460938 0 3
8.953535079956055 -7.751835823059082 0.8314126133918762 0.652937114238739 0 3
8.792792320251465 -7.751835823059082 0.8229144215583801 0.6596800684928894 0 3
8.63525390625 -7.751855373382568 0.8146523833274841 0.6663698554039001 0 3
8.480897903442383 -7.751835823059082 0.8066195249557495 0.673005998134613 0 3
8.32949161529541 -7.751835823059082 0.798807680606842 0.6795881986618042 0 3
8.181015014648438 -7.751816272735596 0.7912085056304932 0.6861148476600647 0 3
8.03531265258789 -7.751816272735596 0.7838156223297119 0.6925868391990662 0 3
7.892265319824219 -7.751835823059082 0.7766211032867432 0.6990034580230713 0 3
9.930761337280273 9.93082046508789 0.8696203231811523 0.9278825521469116 0 5
12.419921875 12.198798179626465 1.077972412109375 0.7120599150657654 0 3
12.360175132751465 11.924081802368164 1.06345796585083 0.7183082103729248 0 3
12.419882774353027 11.768290519714355 1.0594637393951416 0.7244990468025208 0 3
12.419882774353027 11.55850601196289 1.050567865371704 0.7306318879127502 0 3
12.419862747192383 11.352187156677246 1.041908860206604 0.7367058396339417 0 3
12.419882774353027 11.1492280960083 1.033471941947937 0.7427203059196472 0 3
12.36019515991211 10.89687442779541 1.0203200578689575 0.7486751675605774 0 3
12.397811889648438 10.733818054199219 1.0154345035552979 0.6533030271530151 0 3
12.419862747192383 10.559374809265137 1.0094387531280518 0.7604034543037415 0 3
12.419882774353027 10.368759155273438 1.0018337965011597 0.7661758065223694 0 3
12.419882774353027 10.180986404418945 0.994421660900116 0.7718862295150757 0 3
12.419901847839355 9.99593734741211 0.9871975779533386 0.7775347232818604 0 3
12.409159660339355 9.80507755279541 0.9793093800544739 0.6187922954559326 0 3
12.717753410339355 9.8648042678833 0.9966335892677307 0.6117372512817383 0 3
12.956230163574219 9.8648042678833 1.0083444118499756 0.6046338677406311 0 3
13.200409889221191 9.8648042678833 1.0204150676727295 0.5974820852279663 0 3
13.45052719116211 9.8648042678833 1.032861590385437 0.590282142162323 0 3
13.702226638793945 9.86147403717041 1.0453417301177979 0.8100935816764832 0 3
13.88499927520752 9.805058479309082 1.0525344610214233 0.5757405161857605 0 3
14.239140510559082 9.864794731140137 1.072625994682312 0.5683983564376831 0 3
14.515742301940918 9.864794731140137 1.0867499113082886 0.5610114932060242 0 3
14.799726486206055 9.864794731140137 1.1013391017913818 0.5535798668861389 0 3
15.091562271118164 9.864794731140137 1.116418480873108 0.54610276222229 0 3
15.29824161529541 9.805058479309082 1.1251498460769653 0.5385830998420715 0 3
15.699843406677246 9.864774703979492 1.1481292247772217 0.5310181975364685 0 3
16.017187118530273 9.864774703979492 1.1648184061050415 0.5234107971191406 0 3
16.343984603881836 9.864774703979492 1.1820937395095825 0.5157620310783386 0 3
16.632537841796875 9.836386680603027 1.1965322494506836 0.8590946793556213 0 3
41.76970672607422 0.5624316334724426 2.5866899490356445 0.7951556444168091 0 6
47.82023239135742 -10.239325523376465 3.028208017349243 0.20897383987903595 0 3
47.41757583618164 -10.599101066589355 3.008615016937256 0.9740514159202576 0 3
47.41761779785156 -11.046903610229492 3.014785051345825 0.9720579385757446 0 3
47.41759490966797 -11.49658203125 3.0212249755859375 0.9699861407279968 0 3
47.41761779785156 -11.948203086853027 3.0279362201690674 0.9678362011909485 0 3
47.41759490966797 -12.401894569396973 3.034921169281006 0.9656081199645996 0 3
47.22624969482422 -12.80580997467041 3.0299084186553955 0.2284023016691208 0 20
47.06867218017578 -13.217723846435547 3.0272886753082275 0.7231734395027161 0 20
47.06464767456055 -13.673534393310547 3.034802198410034 0.9584581255912781 0 20
47.41761779785156 -14.238866806030273 3.0656797885894775 0.9559202194213867 0 3
47.41759490966797 -14.704120635986328 3.0740885734558105 0.9533053040504456 0 3
47.06464767456055 -15.059032440185547 3.059847354888916 0.9506132006645203 0 20
47.06464767456055 -15.526073455810547 3.068777322769165 0.947844922542572 0 20
47.0812873840332 -16.474424362182617 3.0886566638946533 0.32964688539505005 0 20
15.95003890991211 -10.222890853881836 1.173095941543579 0.538569986820221 0 3
15.639257431030273 -10.222890853881836 1.1569405794143677 0.5460906624794006 0 3
15.336874961853027 -10.222890853881836 1.1413140296936035 0.5535678863525391 0 3
11.406561851501465 -7.751884460449219 0.853977620601654 0.5610002279281616 0 3
11.189179420471191 -7.751864910125732 0.8428786993026733 0.5683865547180176 0 3
10.97738265991211 -7.751864910125732 0.8321316242218018 0.5757279992103577 0 3
10.77089786529541 -7.751864910125732 0.8217196464538574 0.5830225348472595 0 3
10.569453239440918 -7.751864910125732 0.8116286993026733 0.5902711749076843 0 3
10.37294864654541 -7.751855373382568 0.801849365234375 0.5974705219268799 0 3
10.181074142456055 -7.751855373382568 0.7923644781112671 0.6046229004859924 0 3
9.99365234375 -7.751855373382568 0.7831615805625916 0.6117265224456787 0 3
9.810565948486328 -7.751835823059082 0.774235188961029 0.6187804341316223 0 3
9.631543159484863 -7.751855373382568 0.7655685544013977 0.6257850527763367 0 3
9.456503868103027 -7.751835823059082 0.7571551203727722 0.6327393651008606 0 3
9.285253524780273 -7.751855373382568 0.7489840388298035 0.6396415829658508 0 3
9.117636680603027 -7.751855373382568 0.741046130657196 0.646493136882782 0 3
8.892265319824219 -7.698789119720459 0.7283160090446472 0.6532924771308899 0 3
8.732656478881836 -7.698789119720459 0.720872163772583 0.6600393652915955 0 3
8.576171875 -7.698808193206787 0.7136346101760864 0.6667329668998718 0 3
8.4228515625 -7.698808193206787 0.7065966725349426 0.673373281955719 0 3
8.272539138793945 -7.698789119720459 0.699753999710083 0.6799586415290833 0 3
8.125039100646973 -7.698808193206787 0.6930975317955017 0.6864888072013855 0 3
7.980390548706055 -7.698808193206787 0.6866210699081421 0.6929634809494019 0 3
7.838320255279541 -7.698808193206787 0.680318295955658 0.6993837952613831 0 3
9.930761337280273 9.93082046508789 0.7534149289131165 0.928324818611145 0 5
12.419921875 12.198798179626465 0.9339455962181091 0.7123989462852478 0 3
12.360175132751465 11.924081802368164 0.921360433101654 0.7186505794525146 0 3
12.419882774353027 11.768290519714355 0.9179092049598694 0.7248446345329285 0 3
12.419882774353027 11.55850601196289 0.9102041125297546 0.7309800982475281 0 3
12.419862747192383 11.352187156677246 0.9026995897293091 0.7370569109916687 0 3
12.419882774353027 11.1492280960083 0.8953893780708313 0.7430742979049683 0 3
12.360175132751465 10.896855354309082 0.8840051293373108 0.749032199382782 0 3
12.397811889648438 10.733818054199219 0.8797628879547119 0.6536144018173218 0 3
12.419862747192383 10.559374809265137 0.8745678663253784 0.7607658505439758 0 3
12.419882774353027 10.368759155273438 0.8679782152175903 0.7665410041809082 0 3
12.419901847839355 10.180975914001465 0.8615570068359375 0.772254467010498 0 3
12.419862747192383 9.99593734741211 0.8552981615066528 0.7779055833816528 0 3
12.409159660339355 9.80507755279541 0.8484896421432495 0.6190871596336365 0 3
12.717753410339355 9.8648042678833 0.8634753227233887 0.6120287775993347 0 3
12.956230163574219 9.8648042678833 0.8736199736595154 0.6049220561981201 0 3
13.200409889221191 9.8648042678833 0.8840771317481995 0.5977668166160583 0 3
13.45052719116211 9.8648042678833 0.894861102104187 0.5905634760856628 0 3
13.702226638793945 9.86147403717041 0.9056780934333801 0.8104796409606934 0 3
13.88499927520752 9.805058479309082 0.9119088649749756 0.5760149359703064 0 3
14.239140510559082 9.864794731140137 0.9293130040168762 0.568669319152832 0 3
14.515742301940918 9.864794731140137 0.9415493607521057 0.5612788796424866 0 3
14.799765586853027 9.864794731140137 0.9541900157928467 0.5538432002067566 0 3
15.091523170471191 9.864794731140137 0.9672536849975586 0.5463634729385376 0 3
15.29824161529541 9.805058479309082 0.9748446345329285 0.5388397574424744 0 3
15.699843406677246 9.864774703979492 0.994730532169342 0.5312707424163818 0 3
16.017187118530273 9.864774703979492 1.009187936782837 0.5236602425575256 0 3
16.343984603881836 9.864774703979492 1.0241543054580688 0.5160078406333923 0 3
16.632537841796875 9.836386680603027 1.0366637706756592 0.859504222869873 0 3
21.558788299560547 9.79248046875 1.270304560661316 0.9931022524833679 0 5
41.76871109008789 0.5624316334724426 2.2410173416137695 0.7955536246299744 0 6
47.82023239135742 -10.239306449890137 2.623610258102417 0.2090735137462616 0 3
47.41757583618164 -10.599101066589355 2.6066339015960693 0.9745156764984131 0 3
47.41761779785156 -11.046903610229492 2.6119790077209473 0.9725212454795837 0 3
47.41761779785156 -11.496562004089355 2.6175589561462402 0.9704484343528748 0 3
47.41761779785156 -11.948203086853027 2.62337327003479 0.9682973623275757 0 3
47.41759490966797 -12.401894569396973 2.629434108734131 0.9660683870315552 0 3
47.41757583618164 -12.857705116271973 2.6357204914093018 0.9637615084648132 0 3
47.41759490966797 -13.31576156616211 2.642258644104004 0.961376965045929 0 3
47.41761779785156 -13.776103019714355 2.6490418910980225 0.958915114402771 0 3
47.41761779785156 -14.238866806030273 2.6560747623443604 0.956375777721405 0 3
47.41757583618164 -14.704111099243164 2.663360834121704 0.9537597894668579 0 3
47.41759490966797 -15.171972274780273 2.6709020137786865 0.9510666728019714 0 3
24.364160537719727 -14.705644607543945 1.526723027229309 0.5160042643547058 0 3
23.877050399780273 -14.705644607543945 1.5044115781784058 0.523656964302063 0 3
23.4039249420166 -14.705644607543945 1.4828600883483887 0.5312677025794983 0 3
15.95003890991211 -10.222890853881836 1.0163592100143433 0.5388266444206238 0 3
15.639257431030273 -10.222890853881836 1.0023620128631592 0.5463510155677795 0 3
15.336874961853027 -10.222890853881836 0.9888232350349426 0.5538316965103149 0 3
11.406561851501465 -7.751884460449219 0.7398779392242432 0.561267614364624 0 3
11.112655639648438 -7.698837757110596 0.7252660989761353 0.5686569809913635 0 3
10.902265548706055 -7.698837757110596 0.71601802110672 0.5760021209716797 0 3
10.697187423706055 -7.698837757110596 0.7070593237876892 0.5833010673522949 0 3
10.497187614440918 -7.698837757110596 0.6983773708343506 0.5905521512031555 0 3
10.301992416381836 -7.698818206787109 0.6899612545967102 0.5977552533149719 0 3
10.111406326293945 -7.698818206787109 0.6817998886108398 0.6049107313156128 0 3
9.925312042236328 -7.698818206787109 0.6738830208778381 0.6120174527168274 0 3
9.743436813354492 -7.698818206787109 0.6661999225616455 0.6190756559371948 0 3
9.565664291381836 -7.698818206787109 0.6587432622909546 0.6260833144187927 0 3
9.391836166381836 -7.698818206787109 0.6515039205551147 0.6330404281616211 0 3
9.241328239440918 -7.715185165405273 0.6458432078361511 0.05332912877202034 0 3
9.171405792236328 -7.797568321228027 0.6458209156990051 0.05333240330219269 0 3
9.102479934692383 -7.880810260772705 0.6459243893623352 0.05076761543750763 0 3
9.035078048706055 -7.96544885635376 0.6461877226829529 0.051639288663864136 0 3
8.966327667236328 -8.049042701721191 0.646413266658783 0.0516212061047554 0 3
8.896796226501465 -8.132020950317383 0.6466378569602966 0.051603302359580994 0 3
8.823866844177246 -8.211884498596191 0.6466659307479858 0.0534878708422184 0 3
8.749648094177246 -8.290663719177246 0.6466571092605591 0.05348854884505272 0 3
8.674765586853027 -8.368749618530273 0.6466488242149353 0.05348929017782211 0 3
8.5991792678833 -8.446171760559082 0.6466400027275085 0.05349000170826912 0 3
9.930761337280273 9.93082046508789 0.6373565793037415 0.928703784942627 0 5
12.419921875 12.198798179626465 0.790047287940979 0.7126901149749756 0 3
12.36019515991211 11.924072265625 0.7793975472450256 0.7189443707466125 0 3
12.419882774353027 11.768290519714355 0.7764816284179688 0.7251405715942383 0 3
12.419882774353027 11.55850601196289 0.7699642777442932 0.7312785983085632 0 3
12.419901847839355 11.352187156677246 0.7636160254478455 0.7373576164245605 0 3
12.419882774353027 11.1492280960083 0.7574325203895569 0.7433777451515198 0 3
12.36019515991211 10.89687442779541 0.7477719187736511 0.7493378520011902 0 3
12.397811889648438 10.733818054199219 0.7442132234573364 0.653881311416626 0 3
12.419862747192383 10.559374809265137 0.7398189902305603 0.7610765099525452 0 3
12.419882774353027 10.368769645690918 0.7342450022697449 0.7668536305427551 0 3
12.419901847839355 10.180975914001465 0.7288125157356262 0.7725697755813599 0 3
12.419901847839355 9.99593734741211 0.7235180735588074 0.7782229781150818 0 3
12.409159660339355 9.80507755279541 0.7177318930625916 0.6193400025367737 0 3
12.717753410339355 9.8648042678833 0.7304354906082153 0.6122786998748779 0 3
12.956230163574219 9.8648042678833 0.7390167117118835 0.6051690578460693 0 3
13.200409889221191 9.8648042678833 0.7478628158569336 0.5980108976364136 0 3
13.45052719116211 9.8648042678833 0.7569851279258728 0.5908046364784241 0 3
13.702226638793945 9.86147403717041 0.7661206126213074 0.8108106851577759 0 3
13.88499927520752 9.805058479309082 0.7713955640792847 0.5762501955032349 0 3
14.239140510559082 9.864794731140137 0.7861291170120239 0.5689014792442322 0 3
14.515742301940918 9.864794731140137 0.7964800596237183 0.5615079998970032 0 3
14.799765586853027 9.864794731140137 0.8071731328964233 0.5540693998336792 0 3
15.091523170471191 9.864794731140137 0.8182238340377808 0.5465865731239319 0 3
15.29824161529541 9.805058479309082 0.8246209621429443 0.5390597581863403 0 3
15.699843406677246 9.864774703979492 0.841467559337616 0.5314877033233643 0 3
16.017187118530273 9.864774703979492 0.8536962866783142 0.5238745808601379 0 3
16.343984603881836 9.864774703979492 0.8663567900657654 0.5162185430526733 0 3
16.632558822631836 9.836366653442383 0.8769393563270569 0.8598553538322449 0 3
21.55875015258789 9.792470932006836 1.0745800733566284 0.9935078620910645 0 5
22.141094207763672 9.818212509155273 1.0991711616516113 0.39371928572654724 0 5
22.704492568969727 9.825126647949219 1.1227160692214966 0.38546255230903625 0 5
23.29261589050293 9.8323335647583 1.1473852396011353 0.3771747648715973 0 5
23.859960556030273 9.82045841217041 1.1709448099136353 0.23065751791000366 0 5
24.407949447631836 9.790741920471191 1.1934762001037598 0.36321592330932617 0 5
25.07077980041504 9.796318054199219 1.2215386629104614 0.34600281715393066 0 5
25.80171775817871 9.815888404846191 1.2528076171875 0.14013797044754028 0 5
29.117109298706055 9.896074295043945 1.395630121231079 0.9969778656959534 0 5
49.03890609741211 1.1006346940994263 2.2260501384735107 0.8774390816688538 0 3
41.76771545410156 0.5624120831489563 1.8956884145736694 0.7958974242210388 0 6
49.03921890258789 0.2200976461172104 2.2255263328552246 0.8776456117630005 0 3
49.03925704956055 -0.22007812559604645 2.2255260944366455 0.8776456117630005 0 3
49.039100646972656 -0.6602832078933716 2.225701332092285 0.8775767087936401 0 3
49.03890609741211 -1.1006152629852295 2.2260501384735107 0.8774392008781433 0 3
49.03857421875 -1.541103482246399 2.2265737056732178 0.8772327303886414 0 3
49.01076126098633 -1.9806933403015137 2.226027250289917 0.9981569647789001 0 3
49.037635803222656 -2.422861337661743 2.228146553039551 0.876613438129425 0 3
49.03697204589844 -2.864248037338257 2.229196071624756 0.8762007355690002 0 3
49.03624725341797 -3.306103467941284 2.230421781539917 0.875719428062439 0 3
49.03542709350586 -3.7484471797943115 2.231823682785034 0.8751693367958069 0 3
49.03443145751953 -4.191396236419678 2.2334020137786865 0.8745506405830383 0 3
49.03335952758789 -4.635029315948486 2.235158920288086 0.8738633394241333 0 3
24.56070327758789 -2.5442771911621094 1.1205804347991943 0.6157451272010803 26 7
49.03089904785156 -5.524433612823486 2.2392075061798096 0.8722834587097168 0 3
49.02956771850586 -5.970429420471191 2.2415010929107666 0.8713908195495605 0 3
49.028045654296875 -6.417372703552246 2.243975877761841 0.8704298138618469 0 3
49.02644348144531 -6.86526346206665 2.246631383895874 0.8694006204605103 0 3
49.02468490600586 -7.314345359802246 2.2494702339172363 0.8683032989501953 0 3
49.02288818359375 -7.764472484588623 2.2524945735931396 0.8671380877494812 0 3
49.010780334472656 -8.214140892028809 2.2552337646484375 0.985230028629303 0 3
47.82023239135742 -10.239325523376465 2.2193756103515625 0.20915880799293518 0 3
47.41757583618164 -10.599101066589355 2.2050161361694336 0.9749135971069336 0 3
47.41761779785156 -11.046903610229492 2.2095389366149902 0.9729183912277222 0 3
47.41761779785156 -11.496562004089355 2.21425724029541 0.9708447456359863 0 3
47.41757583618164 -11.948212623596191 2.219177722930908 0.9686927795410156 0 3
47.41761779785156 -12.401865005493164 2.2243003845214844 0.9664628505706787 0 3
47.41757583618164 -12.857705116271973 2.2296206951141357 0.9641550779342651 0 3
47.41757583618164 -13.315752029418945 2.235150098800659 0.9617696404457092 0 3
47.41759490966797 -13.77611255645752 2.240889310836792 0.9593065977096558 0 3
47.41761779785156 -14.238866806030273 2.246838331222534 0.9567663669586182 0 3
47.41759490966797 -14.704120635986328 2.2530019283294678 0.9541491270065308 0 3
47.41759490966797 -15.171972274780273 2.2593812942504883 0.9514549374580383 0 3
47.41759490966797 -15.642518997192383 2.265979051589966 0.9486842155456543 0 3
24.364160537719727 -14.705644607543945 1.291492223739624 0.5162149667739868 0 3
23.877050399780273 -14.705644607543945 1.272618055343628 0.5238708257675171 0 3
23.4039249420166 -14.705644607543945 1.254388451576233 0.5314843058586121 0 3
15.95003890991211 -10.222890853881836 0.8597634434700012 0.5390466451644897 0 3
15.639257431030273 -10.222890853881836 0.8479223251342773 0.546574056148529 0 3
15.336874961853027 -10.222890853881836 0.8364703059196472 0.5540578365325928 0 3
15.0425386428833 -10.222890853881836 0.825388491153717 0.5614966154098511 0 3
14.667909622192383 -10.161932945251465 0.8098046779632568 0.8211632370948792 0 3
14.576699256896973 -10.293574333190918 0.8098354935646057 0.5762372016906738 0 3
11.317265510559082 -8.145068168640137 0.6327871680259705 0.583538293838501 0 3
11.128457069396973 -8.161855697631836 0.6263061165809631 0.8055980801582336 0 3
11.1284761428833 -8.316473960876465 0.6304842829704285 0.8002631068229675 0 3
11.128457069396973 -8.473212242126465 0.6347588896751404 0.7948634028434753 0 3
11.26406192779541 -8.737236022949219 0.6469436287879944 0.04524482414126396 0 3
11.184999465942383 -8.837900161743164 0.6469348073005676 0.04524548351764679 0 3
11.105058670043945 -8.937792778015137 0.6469256281852722 0.045246828347444534 0 3
11.02425765991211 -9.036982536315918 0.6469165086746216 0.045247506350278854 0 3
10.94253921508789 -9.135449409484863 0.6469070315361023 0.04524810612201691 0 3
10.859941482543945 -9.233173370361328 0.646897554397583 0.045248787850141525 0 3
10.776445388793945 -9.330126762390137 0.6468881368637085 0.04524943232536316 0 3
10.692090034484863 -9.426347732543945 0.6468786597251892 0.04525016248226166 0 3
10.606913566589355 -9.5217866897583 0.6468685865402222 0.045250799506902695 0 3
10.52083969116211 -9.616464614868164 0.6468591094017029 0.0452515110373497 0 3
10.433944702148438 -9.71036148071289 0.646848738193512 0.04525216296315193 0 3
10.3462495803833 -9.803476333618164 0.6468389630317688 0.045252878218889236 0 3
10.25765609741211 -9.895780563354492 0.6468288898468018 0.04525360092520714 0 3
10.168280601501465 -9.987275123596191 0.6468185186386108 0.04525429755449295 0 3
9.930761337280273 9.93082046508789 0.5213290452957153 0.9290196895599365 0 5
12.419921875 12.198798179626465 0.6462542414665222 0.7129325866699219 0 3
12.36019515991211 11.924072265625 0.6375476121902466 0.719188928604126 0 3
12.419882774353027 11.768290519714355 0.6351574659347534 0.7253873348236084 0 3
12.419882774353027 11.55850601196289 0.6298266649246216 0.7315273880958557 0 3
12.419901847839355 11.352187156677246 0.6246343851089478 0.7376083731651306 0 3
12.419882774353027 11.149218559265137 0.6195752024650574 0.7436309456825256 0 3
12.36019515991211 10.89687442779541 0.6116824150085449 0.7495927214622498 0 3
12.397811889648438 10.733818054199219 0.6087622046470642 0.6541042923927307 0 3
12.419882774353027 10.5593843460083 0.605167806148529 0.7613351941108704 0 3
12.419882774353027 10.368759155273438 0.600608229637146 0.7671148180961609 0 3
12.419901847839355 10.180975914001465 0.596165120601654 0.7728325724601746 0 3
12.419862747192383 9.99593734741211 0.5918340682983398 0.7784879803657532 0 3
12.409159660339355 9.80507755279541 0.5871124267578125 0.6195507049560547 0 3
12.717753410339355 9.8648042678833 0.5974926352500916 0.6124869585037231 0 3
12.956230163574219 9.8648042678833 0.6045120358467102 0.6053749322891235 0 3
13.200409889221191 9.8648042678833 0.6117483377456665 0.5982143878936768 0 3
13.45052719116211 9.8648042678833 0.6192095875740051 0.5910050272941589 0 3
13.702187538146973 9.861494064331055 0.6266787648200989 0.8110862374305725 0 3
13.88499927520752 9.805058479309082 0.6309924125671387 0.5764461755752563 0 3
14.239140510559082 9.864794731140137 0.6430495977401733 0.5690950155258179 0 3
14.515742301940918 9.864794731140137 0.6515163779258728 0.5616990327835083 0 3
14.799726486206055 9.864794731140137 0.6602630615234375 0.5542583465576172 0 3
15.091523170471191 9.864794731140137 0.6693023443222046 0.5467724800109863 0 3
15.29824161529541 9.805058479309082 0.674572765827179 0.5392431616783142 0 3
15.699843406677246 9.864774703979492 0.688315749168396 0.531669020652771 0 3
16.017187118530273 9.864774703979492 0.6983193755149841 0.5240522623062134 0 3
16.343984603881836 9.864774703979492 0.7086761593818665 0.5163941383361816 0 3
16.632558822631836 9.836366653442383 0.7173476815223694 0.8601479530334473 0 3
29.127811431884766 16.875106811523438 1.2496490478515625 0.41826051473617554 0 5
29.124433517456055 16.525760650634766 1.2430907487869263 0.8611646890640259 0 5
29.12382698059082 16.18157196044922 1.2368152141571045 0.8655344843864441 0 5
29.12322235107422 15.84080982208252 1.2307006120681763 0.8698346018791199 0 5
29.122655868530273 15.503388404846191 1.224745512008667 0.874064028263092 0 5
29.122343063354492 15.169355392456055 1.2189583778381348 0.8855890035629272 0 5
29.122928619384766 14.838847160339355 1.2133581638336182 0.8896766901016235 0 5
29.123435974121094 14.511327743530273 1.2079052925109863 0.8936931490898132 0 5
29.12400245666504 14.186717987060547 1.202596664428711 0.8976378440856934 0 5
29.124452590942383 13.864912033081055 1.197430968284607 0.9015102386474609 0 5
29.125995635986328 13.54629898071289 1.192444086074829 0.5031809210777283 0 5
21.55875015258789 9.792470932006836 0.8789926171302795 0.9938458800315857 0 5
22.141094207763672 9.818212509155273 0.8991162180900574 0.39385294914245605 0 5
22.704492568969727 9.825126647949219 0.9183758497238159 0.3855936825275421 0 5
23.29261589050293 9.8323335647583 0.9385553002357483 0.37730303406715393 0 5
23.907129287719727 9.839882850646973 0.9597216844558716 0.36898189783096313 0 5
24.55011749267578 9.847763061523438 0.9819439649581909 0.36063152551651 0 5
25.22359275817871 9.856035232543945 1.0053030252456665 0.3522515594959259 0 5
25.929960250854492 9.864697456359863 1.029885172843933 0.3438437581062317 0 5
26.67183494567871 9.873798370361328 1.0557879209518433 0.3354077935218811 0 5
27.452030181884766 9.883378982543945 1.0831164121627808 0.32694506645202637 0 5
28.273788452148438 9.893446922302246 1.1119897365570068 0.3184557855129242 0 5
29.11714744567871 9.89608383178711 1.141618013381958 0.9973171353340149 0 5
41.766563415527344 0.5623828172683716 1.5506120920181274 0.7960880398750305 0 6
49.01076126098633 -1.9806933403015137 1.8208788633346558 0.9984965920448303 0 3
24.443124771118164 -2.5320897102355957 0.912241518497467 0.9095569252967834 26 7
49.010780334472656 -8.214140892028809 1.844767689704895 0.985560417175293 0 3
47.82023239135742 -10.239306449890137 1.8154369592666626 0.20923013985157013 0 3
47.41757583618164 -10.599101066589355 1.803690791130066 0.9752452969551086 0 3
47.41761779785156 -11.046903610229492 1.80739164352417 0.9732493758201599 0 3
47.41761779785156 -11.496562004089355 1.8112505674362183 0.9711750149726868 0 3
47.41761779785156 -11.948203086853027 1.8152740001678467 0.9690223932266235 0 3
47.41759490966797 -12.401894569396973 1.8194695711135864 0.966791570186615 0 3
47.41757583618164 -12.857705116271973 1.8238177299499512 0.9644830226898193 0 3
47.41757583618164 -13.315752029418945 1.8283416032791138 0.9620968103408813 0 3
47.41761779785156 -13.776103019714355 1.8330352306365967 0.9596330523490906 0 3
47.41761779785156 -14.238866806030273 1.8379021883010864 0.9570918679237366 0 3
47.31035232543945 -14.670848846435547 1.8387750387191772 0.9544736742973328 0 3
45.62347412109375 -14.597919464111328 1.7782338857650757 0.9517786502838135 0 3
47.30730438232422 -15.606162071228027 1.8492498397827148 0.037096794694662094 0 3
47.16535186767578 -16.03011703491211 1.8492494821548462 0.03709679841995239 0 3
47.019569396972656 -16.452871322631836 1.849249243736267 0.037096794694662094 0 3
46.869998931884766 -16.87422752380371 1.8492498397827148 0.03709679841995239 0 3
46.71664047241211 -17.29425811767578 1.8492498397827148 0.037096813321113586 0 3
46.55952835083008 -17.712881088256836 1.8492494821548462 0.03709679841995239 0 3
46.398651123046875 -18.1299991607666 1.8492498397827148 0.03709682077169418 0 3
46.23406219482422 -18.5457706451416 1.849249243736267 0.0370967872440815 0 3
46.06576156616211 -18.959999084472656 1.8492494821548462 0.03709679841995239 0 3
45.89371109008789 -19.372724533081055 1.8492494821548462 0.03709680587053299 0 3
45.71796798706055 -19.78389549255371 1.8492494821548462 0.037096794694662094 0 3
45.36101531982422 -20.114686965942383 1.8420367240905762 0.913526713848114 0 3
24.364160537719727 -14.705644607543945 1.0564340353012085 0.5163905620574951 0 3
23.877050399780273 -14.705644607543945 1.0409948825836182 0.5240490436553955 0 3
23.4039249420166 -14.705644607543945 1.0260827541351318 0.5316650867462158 0 3
15.95003890991211 -10.222890853881836 0.703281819820404 0.5392305850982666 0 3
15.639257431030273 -10.222890853881836 0.6935961842536926 0.5467595458030701 0 3
15.336874961853027 -10.222890853881836 0.6842275857925415 0.5542462468147278 0 3
15.0425386428833 -10.222890853881836 0.6751635670661926 0.5616875886917114 0 3
14.667909622192383 -10.161932945251465 0.6624154448509216 0.8214424848556519 0 3
14.57666015625 -10.293574333190918 0.662441074848175 0.5764337778091431 0 3
11.31722640991211 -8.145068168640137 0.5176162719726562 0.5837374329566956 0 3
11.128593444824219 -8.161932945251465 0.5123302936553955 0.8058633804321289 0 3
11.128613471984863 -8.316572189331055 0.5157327055931091 0.8005259037017822 0 3
11.128632545471191 -8.473310470581055 0.5192446708679199 0.795124351978302 0 3
13.179296493530273 -10.222861289978027 0.6191769242286682 0.6124759316444397 0 3
12.937772750854492 -10.222861289978027 0.6121178865432739 0.6195394396781921 0 3
12.701757431030273 -10.222861289978027 0.6052666902542114 0.6265514492988586 0 3
12.470898628234863 -10.222861289978027 0.5986148118972778 0.6335141658782959 0 3
12.245038986206055 -10.222861289978027 0.5921542048454285 0.6404258012771606 0 3
12.023944854736328 -10.222861289978027 0.5858786106109619 0.6472859978675842 0 3
11.807538986206055 -10.222851753234863 0.5797805786132812 0.6540933847427368 0 3
11.595585823059082 -10.222851753234863 0.5738546848297119 0.660848081111908 0 3
11.387890815734863 -10.222831726074219 0.5680932402610779 0.6675499677658081 0 3
11.184257507324219 -10.222851753234863 0.562491774559021 0.6741985082626343 0 3
10.984647750854492 -10.222851753234863 0.5570440292358398 0.6807918548583984 0 3
10.788827896118164 -10.222831726074219 0.5517452955245972 0.6873300075531006 0 3
10.5966796875 -10.222831726074219 0.5465893149375916 0.6938134431838989 0 3
10.408085823059082 -10.222831726074219 0.5415728688240051 0.7002407908439636 0 3
9.930761337280273 9.93082046508789 0.40542295575141907 0.929272472858429 0 5
12.419921875 12.198798179626465 0.5025500655174255 0.7131263017654419 0 3
12.360175132751465 11.924081802368164 0.49576079845428467 0.7193843126296997 0 3
12.419882774353027 11.768290519714355 0.4939208924770355 0.7255846858024597 0 3
12.419882774353027 11.55850601196289 0.48977506160736084 0.7317264080047607 0 3
12.419862747192383 11.352187156677246 0.48573699593544006 0.737809419631958 0 3
12.419882774353027 11.1492280960083 0.48180389404296875 0.7438329458236694 0 3
12.36019515991211 10.89687442779541 0.4756610095500946 0.7497966885566711 0 3
12.397811889648438 10.733818054199219 0.4733944535255432 0.65428227186203 0 3
12.419882774353027 10.5593843460083 0.47059935331344604 0.7615422606468201 0 3
12.419882774353027 10.368759155273438 0.4670538306236267 0.7673235535621643 0 3
12.419882774353027 10.180986404418945 0.4635986089706421 0.773042619228363 0 3
12.419901847839355 9.99593734741211 0.4602307081222534 0.7786995768547058 0 3
12.409159660339355 9.80507755279541 0.4565536379814148 0.6197192668914795 0 3
12.717753410339355 9.8648042678833 0.46463072299957275 0.6126536726951599 0 3
12.956230163574219 9.8648042678833 0.4700894057750702 0.6055397391319275 0 3
13.200409889221191 9.8648042678833 0.475716233253479 0.5983771681785583 0 3
13.45052719116211 9.8648042678833 0.4815191626548767 0.5911659002304077 0 3
13.702226638793945 9.86147403717041 0.48731932044029236 0.8113071918487549 0 3
13.88499927520752 9.805058479309082 0.49068358540534973 0.5766030550003052 0 3
14.239140510559082 9.864794731140137 0.5000573396682739 0.5692499279975891 0 3
14.515742301940918 9.864794731140137 0.5066418051719666 0.5618519186973572 0 3
14.799726486206055 9.864794731140137 0.5134432911872864 0.5544091463088989 0 3
15.091562271118164 9.864794731140137 0.520473301410675 0.5469207763671875 0 3
15.29824161529541 9.805058479309082 0.5245660543441772 0.5393899083137512 0 3
15.699843406677246 9.864774703979492 0.535257875919342 0.5318136811256409 0 3
16.017187118530273 9.864774703979492 0.5430374145507812 0.5241948962211609 0 3
16.343984603881836 9.864774703979492 0.5510910153388977 0.516534686088562 0 3
16.632537841796875 9.836386680603027 0.5578423738479614 0.8603816628456116 0 3
21.55875015258789 9.792470932006836 0.6835284233093262 0.9941163659095764 0 5
22.141094207763672 9.818212509155273 0.6991836428642273 0.3939604163169861 0 5
22.704492568969727 9.825126647949219 0.7141604423522949 0.3856985867023468 0 5
23.292537689208984 9.8323335647583 0.7298529148101807 0.3774060308933258 0 5
23.907129287719727 9.839882850646973 0.746311604976654 0.36908257007598877 0 5
24.55011749267578 9.847763061523438 0.7635934352874756 0.3607296645641327 0 5
25.22359275817871 9.856035232543945 0.7817577719688416 0.3523479104042053 0 5
25.929960250854492 9.864697456359863 0.8008742928504944 0.34393733739852905 0 5
26.67183494567871 9.873798370361328 0.8210171461105347 0.33549901843070984 0 5
27.452030181884766 9.883378982543945 0.8422689437866211 0.32703426480293274 0 5
28.27375030517578 9.893427848815918 0.8647213578224182 0.3185426592826843 0 5
29.11714744567871 9.89608383178711 0.8877615332603455 0.9975885152816772 0 5
49.01042938232422 1.0999902486801147 1.4151709079742432 0.9993318915367126 0 3
41.76447296142578 0.5623534917831421 1.2057501077651978 0.7963441014289856 0 6
49.01044845581055 0.219970703125 1.4148290157318115 0.9995734691619873 0 3
49.01042938232422 -0.2199414074420929 1.4148290157318115 0.9995734691619873 0 3
49.01042938232422 -0.6598925590515137 1.4149432182312012 0.9994929432868958 0 3
49.01042938232422 -1.0999706983566284 1.4151709079742432 0.9993318319320679 0 3
49.01044845581055 -1.540185570716858 1.415513277053833 0.9990902543067932 0 3
49.01044845581055 -1.9806933403015137 1.4159694910049438 0.9987682104110718 0 3
49.010467529296875 -2.4214842319488525 1.4165407419204712 0.9983657598495483 0 3
49.01044845581055 -2.862685441970825 1.4172261953353882 0.9978827834129333 0 3
49.01042938232422 -3.3043456077575684 1.4180264472961426 0.9973193407058716 0 3
49.01042938232422 -3.7465429306030273 1.4189422130584717 0.9966756105422974 0 3
49.01042938232422 -4.189355373382568 1.4199743270874023 0.9959515929222107 0 3
49.01042938232422 -4.632822036743164 1.4211214780807495 0.9951474070549011 0 3
24.455585479736328 -2.533378839492798 0.7097509503364563 0.6231181025505066 26 7
49.01044845581055 -5.522138595581055 1.423767328262329 0.9932982921600342 0 3
49.01042938232422 -5.968095779418945 1.4252660274505615 0.9922537207603455 0 3
49.01042938232422 -6.4150390625 1.4268834590911865 0.9911292195320129 0 3
49.01042938232422 -6.863027095794678 1.4286190271377563 0.9899249076843262 0 3
49.01042938232422 -7.312158107757568 1.4304741621017456 0.9886407852172852 0 3
49.01042938232422 -7.762470722198486 1.4324501752853394 0.9872770309448242 0 3
49.010467529296875 -8.214091300964355 1.434548020362854 0.9858335256576538 0 3
47.82027053833008 -10.239306449890137 1.4117467403411865 0.20928682386875153 0 3
47.41757583618164 -10.599101066589355 1.402612566947937 0.9755105972290039 0 3
41.83269500732422 -9.74576187133789 1.2399487495422363 0.4123724102973938 27 6
47.41968536376953 -11.497040748596191 1.4085519313812256 0.971756100654602 0 3
47.4196662902832 -11.948700904846191 1.411679983139038 0.9696024656295776 0 3
47.41759490966797 -12.401894569396973 1.4148766994476318 0.9670547246932983 0 3
47.41761779785156 -12.857685089111328 1.418263554573059 0.9647456407546997 0 3
47.3459358215332 -13.295615196228027 1.4196300506591797 0.9623585939407349 0 3
47.41761779785156 -13.776103019714355 1.4254320859909058 0.9598941802978516 0 3
47.41761779785156 -14.238866806030273 1.4292131662368774 0.957352340221405 0 3
47.31035232543945 -14.670848846435547 1.4298946857452393 0.9547334313392639 0 3
45.62347412109375 -14.597919464111328 1.3828158378601074 0.9520376324653625 0 3
24.364160537719727 -14.705644607543945 0.8215194344520569 0.5165308117866516 0 3
23.877050399780273 -14.705644607543945 0.8095132112503052 0.5241919755935669 0 3
23.4039249420166 -14.705644607543945 0.7979174852371216 0.5318098068237305 0 3
15.95003890991211 -10.222890853881836 0.5468960404396057 0.5393773317337036 0 3
15.639257431030273 -10.222890853881836 0.5393649339675903 0.5469086766242981 0 3
15.336874961853027 -10.222890853881836 0.5320797562599182 0.5543971061706543 0 3
15.0425386428833 -10.222890853881836 0.525030791759491 0.5618399977684021 0 3
14.667929649353027 -10.161943435668945 0.5151159763336182 0.8216657638549805 0 3
14.576699256896973 -10.293574333190918 0.5151373147964478 0.5765901207923889 0 3
11.31722640991211 -8.145068168640137 0.40251678228378296 0.583896279335022 0 3
11.12874984741211 -8.162031173706055 0.3983999490737915 0.8060730695724487 0 3
11.12874984741211 -8.316669464111328 0.4010586440563202 0.8007349967956543 0 3
11.128710746765137 -8.473407745361328 0.403787225484848 0.7953317165374756 0 3
13.179296493530273 -10.222861289978027 0.4814935326576233 0.6126425862312317 0 3
12.937772750854492 -10.222861289978027 0.4760040044784546 0.6197080016136169 0 3
12.701757431030273 -10.222861289978027 0.4706762731075287 0.626722514629364 0 3
12.470898628234863 -10.222861289978027 0.46550413966178894 0.6336865425109863 0 3
12.245038986206055 -10.222861289978027 0.460479736328125 0.6406000852584839 0 3
12.023944854736328 -10.222861289978027 0.45559966564178467 0.6474621295928955 0 3
11.807538986206055 -10.222851753234863 0.45085784792900085 0.6542713642120361 0 3
11.595585823059082 -10.222851753234863 0.4462493658065796 0.6610279083251953 0 3
11.387890815734863 -10.222831726074219 0.44176939129829407 0.6677316427230835 0 3
11.184257507324219 -10.222851753234863 0.4374130070209503 0.6743819713592529 0 3
10.984647750854492 -10.222851753234863 0.433174729347229 0.6809771060943604 0 3
10.788827896118164 -10.222831726074219 0.429055780172348 0.6875170469284058 0 3
10.5966796875 -10.222831726074219 0.4250466823577881 0.6940015554428101 0 3
10.408085823059082 -10.222831726074219 0.4211450219154358 0.7004312872886658 0 3
9.930761337280273 9.93082046508789 0.2895214855670929 0.929462194442749 0 5
12.419921875 12.198798179626465 0.35891616344451904 0.7132720947265625 0 3
12.360175132751465 11.924081802368164 0.35407835245132446 0.7195311188697815 0 3
12.419882774353027 11.768290519714355 0.3527531325817108 0.7257325053215027 0 3
12.419882774353027 11.55850601196289 0.34979233145713806 0.7318757176399231 0 3
12.419901847839355 11.352187156677246 0.34690871834754944 0.7379596829414368 0 3
12.419882774353027 11.1492280960083 0.34409910440444946 0.7439847588539124 0 3
12.360175132751465 10.896855354309082 0.33973264694213867 0.7499499917030334 0 3
12.397811889648438 10.733818054199219 0.3380934000015259 0.6544157862663269 0 3
12.419882774353027 10.5593843460083 0.33609724044799805 0.7616977095603943 0 3
12.419882774353027 10.368759155273438 0.333565354347229 0.7674801349639893 0 3
12.419901847839355 10.180975914001465 0.33109724521636963 0.7732005715370178 0 3
12.419862747192383 9.99593734741211 0.32869216799736023 0.7788587212562561 0 3
12.409159660339355 9.80507755279541 0.32607558369636536 0.6198456883430481 0 3
12.717753410339355 9.8648042678833 0.33183470368385315 0.6127786040306091 0 3
12.956230163574219 9.8648042678833 0.33573317527770996 0.6056632399559021 0 3
13.200409889221191 9.8648042678833 0.3397518992424011 0.5984992384910583 0 3
13.45052719116211 9.8648042678833 0.34389570355415344 0.5912870168685913 0 3
13.702226638793945 9.86147403717041 0.3480079472064972 0.8114727735519409 0 3
13.88499927520752 9.805058479309082 0.35044631361961365 0.576720654964447 0 3
14.239140510559082 9.864794731140137 0.35713592171669006 0.5693660378456116 0 3
14.515742301940918 9.864794731140137 0.3618382215499878 0.5619665384292603 0 3
14.799726486206055 9.864794731140137 0.36669614911079407 0.5545222759246826 0 3
15.091523170471191 9.864794731140137 0.3717164397239685 0.54703289270401 0 3
15.29824161529541 9.805058479309082 0.37464475631713867 0.5394999980926514 0 3
15.699843406677246 9.864774703979492 0.3822759985923767 0.5319217443466187 0 3
16.017187118530273 9.864774703979492 0.38783201575279236 0.5243017673492432 0 3
16.343984603881836 9.864774703979492 0.39358335733413696 0.5166401267051697 0 3
16.632558822631836 9.836366653442383 0.39840635657310486 0.8605574369430542 0 3
32.522361755371094 15.125926971435547 0.7394875884056091 0.944606602191925 25 7
21.55875015258789 9.792470932006836 0.48819059133529663 0.9943192601203918 0 5
22.141094207763672 9.818212509155273 0.4993496537208557 0.3940407931804657 0 5
22.704492568969727 9.825126647949219 0.5100463628768921 0.38577699661254883 0 5
23.29261589050293 9.8323335647583 0.5212530493736267 0.37748274207115173 0 5
23.907167434692383 9.839882850646973 0.5330083966255188 0.3691573441028595 0 5
24.55011749267578 9.847763061523438 0.5453503131866455 0.3608033061027527 0 5
