ply
format ascii 1.0
element vertex 606
property float32 x
property float32 y
property float32 z
property float32 CosAngle
property uint32 ObjIdx
property uint32 ObjTag
end_header
45.00847625732422 -7.959374904632568 3.2087512016296387 0.9372474551200867 0 3
43.83261489868164 -8.157832145690918 3.130013942718506 0.8334980010986328 0 3
43.918670654296875 -8.58242130279541 3.1415398120880127 0.9309643507003784 0 3
43.99357223510742 -9.007753372192383 3.1525487899780273 0.9277114272117615 0 3
44.06902313232422 -9.436113357543945 3.16390061378479 0.9243841171264648 0 3
44.14500045776367 -9.867636680603027 3.175588369369507 0.9209820032119751 0 3
44.221561431884766 -10.302343368530273 3.1876213550567627 0.9175058007240295 0 3
44.298728942871094 -10.740409851074219 3.200002908706665 0.9139556884765625 0 3
44.37648391723633 -11.181913375854492 3.212742805480957 0.9103320837020874 0 3
44.45486068725586 -11.6270112991333 3.2258427143096924 0.9066349267959595 0 3
44.533905029296875 -12.075800895690918 3.239312171936035 0.9028648138046265 0 3
44.61359405517578 -12.528359413146973 3.253157377243042 0.8990219235420227 0 3
44.69398498535156 -12.98486328125 3.267387628555298 0.8951065540313721 0 3
44.7751350402832 -13.445351600646973 3.2820098400115967 0.8911193013191223 0 3
12.89833927154541 -3.999765634536743 0.9480387568473816 0.29524508118629456 0 20
12.539668083190918 -4.012285232543945 0.9242884516716003 0.26478445529937744 0 20
12.49869155883789 -4.123183727264404 0.9239576458930969 0.07067302614450455 0 20
12.461543083190918 -4.235332012176514 0.9239829778671265 0.07067099958658218 0 20
12.423378944396973 -4.347128868103027 0.9240089058876038 0.0706690177321434 0 20
12.38417911529541 -4.458593845367432 0.9240354895591736 0.07066710293292999 0 20
12.36572265625 -4.577754020690918 0.9256861805915833 0.7114795446395874 0 20
12.362812042236328 -4.703261375427246 0.9285889863967896 0.7092547416687012 0 20
12.359785079956055 -4.829531192779541 0.9315815567970276 0.7069768309593201 0 20
12.35667896270752 -4.956640720367432 0.9346647262573242 0.7046459913253784 0 20
12.354315757751465 -5.084863185882568 0.9378995895385742 0.9225030541419983 0 20
12.354296684265137 -5.215019226074219 0.9414128065109253 0.9190596342086792 0 20
12.354276657104492 -5.346171855926514 0.945030927658081 0.9155424237251282 0 20
12.35423755645752 -5.478339672088623 0.9487519860267639 0.9119507670402527 0 20
12.354218482971191 -5.611581802368164 0.952580988407135 0.9082859754562378 0 20
5.598105430603027 -2.603632688522339 0.4334287941455841 0.28014424443244934 0 6
5.535976409912109 -2.635488271713257 0.43043333292007446 0.9846561551094055 0 6
5.546249866485596 -2.7016797065734863 0.43313536047935486 0.4829062819480896 0 6
37.70685577392578 -18.788183212280273 2.9575395584106445 0.9565533399581909 0 3
37.638084411621094 -19.17757797241211 2.9655303955078125 0.9539756178855896 0 3
37.56898498535156 -19.569042205810547 2.973803758621216 0.951321542263031 0 3
37.499473571777344 -19.962793350219727 2.982367992401123 0.9485904574394226 0 3
37.42953109741211 -20.35884666442871 2.9912219047546387 0.9457830190658569 0 3
37.35918045043945 -20.75728416442871 3.000368595123291 0.9428992867469788 0 3
21.207460403442383 -12.033554077148438 1.7118028402328491 0.7304328680038452 0 6
37.217185974121094 -21.56167984008789 3.0195648670196533 0.9369043707847595 0 3
37.071659088134766 -21.92411994934082 3.0235869884490967 0.933798611164093 0 3
10.298124313354492 -6.215742111206055 0.844440758228302 0.6227552890777588 0 3
10.128554344177246 -6.238124847412109 0.8350956439971924 0.6297250390052795 0 3
9.962695121765137 -6.260019302368164 0.8260224461555481 0.6691612005233765 0 3
9.809179306030273 -6.287050724029541 0.8179395794868469 0.6757742166519165 0 3
9.658632278442383 -6.313574314117432 0.8100767135620117 0.6823327541351318 0 3
9.510917663574219 -6.339570045471191 0.8024271726608276 0.6888371109962463 0 3
9.244882583618164 -6.282812595367432 0.7847080826759338 0.6954768300056458 0 3
9.104433059692383 -6.307578086853027 0.7775614857673645 0.7018689513206482 0 3
9.006093978881836 -6.359843730926514 0.7740049362182617 0.7026622891426086 0 3
8.95931625366211 -6.448105335235596 0.7749320864677429 0.7142928838729858 0 3
8.82421875 -6.471894264221191 0.7682408094406128 0.7205148339271545 0 3
8.691425323486328 -6.495273113250732 0.7617243528366089 0.726677656173706 0 3
8.560858726501465 -6.518280982971191 0.7553785443305969 0.7327818870544434 0 3
8.432421684265137 -6.540898323059082 0.7491975426673889 0.7388278245925903 0 3
8.306093215942383 -6.563124656677246 0.7431755065917969 0.7448142766952515 0 3
8.064667701721191 -6.490781307220459 0.7267570495605469 0.7508586049079895 0 3
7.944003582000732 -6.512011528015137 0.7211235165596008 0.7567250728607178 0 3
7.927538871765137 -6.618398189544678 0.7249922156333923 0.7624101638793945 0 3
7.809003829956055 -6.63927698135376 0.7195716500282288 0.7681540250778198 0 3
7.69216775894165 -6.659843444824219 0.7142890691757202 0.7738355994224548 0 3
7.577070236206055 -6.680117130279541 0.7091392278671265 0.7794545888900757 0 3
7.463613033294678 -6.700078010559082 0.7041196823120117 0.7850107550621033 0 3
7.351718425750732 -6.719785213470459 0.6992267966270447 0.790503978729248 0 3
7.241366863250732 -6.739218711853027 0.6944566369056702 0.7959336042404175 0 3
7.040585994720459 -6.671249866485596 0.6809150576591492 0.80148845911026 0 3
6.934531211853027 -6.68994140625 0.6764371991157532 0.8063587546348572 0 3
6.916327953338623 -6.79324197769165 0.6805875897407532 0.5796143412590027 0 3
33.31332015991211 33.31325912475586 2.917248487472534 0.6692495942115784 0 9
27.456443786621094 26.9677734375 2.3830583095550537 0.8698550462722778 0 9
27.802324295043945 26.821502685546875 2.392086982727051 0.4047059714794159 0 9
27.861034393310547 26.399471282958984 2.3766632080078125 0.3087036609649658 0 9
33.828826904296875 31.482831954956055 2.861515522003174 0.9998718500137329 0 9
30.950214385986328 28.2896671295166 2.5964300632476807 0.9916785359382629 0 9
31.169687271118164 27.980897903442383 2.5936663150787354 0.9790688753128052 0 9
31.477439880371094 27.750995635986328 2.5984466075897217 0.9772692918777466 0 9
31.786346435546875 27.520233154296875 2.603447914123535 0.9753910899162292 0 9
26.726484298706055 22.722909927368164 2.172224760055542 0.7822460532188416 0 9
27.14175796508789 22.659433364868164 2.189358711242676 0.7673572897911072 0 9
27.511093139648438 22.551815032958984 2.202735662460327 0.7626979947090149 0 9
27.885019302368164 22.442909240722656 2.216456413269043 0.7579761743545532 0 9
28.26380729675293 22.332733154296875 2.2305381298065186 0.7531914114952087 0 9
28.625038146972656 22.2037296295166 2.2432267665863037 0.8249912858009338 0 9
28.96306610107422 22.05240249633789 2.254110097885132 0.8210076689720154 0 9
33.96992111206055 25.38623046875 2.6259448528289795 0.7206695675849915 0 9
34.37058639526367 25.208045959472656 2.639315128326416 0.7170180082321167 0 9
28.80679702758789 20.732362747192383 2.1976943016052246 0.5808451175689697 0 9
29.261619567871094 20.66357421875 2.218155860900879 0.6577366590499878 0 9
29.751483917236328 20.61177635192871 2.241175889968872 0.6509814262390137 0 9
30.251659393310547 20.55888557434082 2.2648582458496094 0.6441733837127686 0 9
21.9591007232666 14.636874198913574 1.6341209411621094 0.743769645690918 0 9
22.268476486206055 14.556132316589355 1.6473546028137207 0.7377944588661194 0 9
24.691328048706055 15.825370788574219 1.8160037994384766 0.9397600293159485 0 9
24.914432525634766 15.654667854309082 1.822008490562439 0.9366641640663147 0 9
25.139101028442383 15.482871055603027 1.8281934261322021 0.9334930777549744 0 9
25.365253448486328 15.309823989868164 1.8345743417739868 0.9302472472190857 0 9
25.592967987060547 15.135546684265137 1.841149091720581 0.9269269704818726 0 9
40.79624938964844 23.1485538482666 2.904496431350708 0.6369674801826477 0 9
41.43929672241211 23.024198532104492 2.93544602394104 0.6302516460418701 0 9
33.995975494384766 18.491249084472656 2.396317958831787 0.28682810068130493 0 6
41.118045806884766 21.88912010192871 2.884390115737915 0.3431774973869324 0 9
43.81332015991211 22.82160186767578 3.0589630603790283 0.6523617506027222 0 9
35.193359375 17.931854248046875 2.4457945823669434 0.8722099661827087 0 9
35.53230285644531 17.704648971557617 2.458200216293335 0.867805004119873 0 9
35.81724548339844 17.447050094604492 2.466982841491699 0.4030333161354065 0 9
35.27654266357422 16.79359245300293 2.419255495071411 0.41098418831825256 0 9
34.916542053222656 16.23939323425293 2.3844807147979736 0.3163920044898987 0 9
39.26011657714844 17.832714080810547 2.6700658798217773 0.9688217043876648 0 9
39.49421691894531 17.51314353942871 2.6751842498779297 0.9669662117958069 0 9
39.72925567626953 17.192323684692383 2.6805474758148193 0.9650325179100037 0 9
39.785118103027344 16.794139862060547 2.67403507232666 0.18967962265014648 0 9
39.90195083618164 16.423046112060547 2.6718742847442627 0.5980465412139893 0 9
33.9453125 13.616386413574219 2.26473331451416 0.7225170135498047 0 9
33.21699142456055 12.979315757751465 2.2082746028900146 0.0947544276714325 0 9
34.63273239135742 13.17544937133789 2.294445514678955 0.7131605744361877 0 9
34.98349380493164 12.950663566589355 2.3098883628845215 0.7083929181098938 0 9
35.29623031616211 12.70736312866211 2.322906494140625 0.7841392159461975 0 9
35.58960723876953 12.45328140258789 2.3347744941711426 0.7801570892333984 0 9
41.81621170043945 14.212108612060547 2.7347748279571533 0.6642626523971558 0 9
42.16755676269531 13.910566329956055 2.749479293823242 0.6607108116149902 0 9
46.41384506225586 14.850780487060547 3.017540216445923 0.908942461013794 0 9
35.64234161376953 11.05257797241211 2.3106954097747803 0.6351966261863708 0 9
36.12849426269531 10.848847389221191 2.3358066082000732 0.6283680200576782 0 9
36.62546920776367 10.640604972839355 2.3616676330566406 0.6214876770973206 0 9
36.731075286865234 10.314687728881836 2.3624157905578613 0.7670568823814392 0 9
36.554100036621094 9.911913871765137 2.3452072143554688 0.7726823687553406 0 9
36.37966537475586 9.514902114868164 2.3284480571746826 0.7782452702522278 0 9
47.47072219848633 11.961562156677246 3.0313286781311035 0.4454764425754547 0 9
46.7373046875 11.331582069396973 2.9778783321380615 0.45347240567207336 0 9
48.352439880371094 11.264667510986328 3.074223041534424 0.5188048481941223 0 9
30.278202056884766 6.199472427368164 1.9139127731323242 0.9248294830322266 0 6
48.39284896850586 9.00650405883789 3.0480029582977295 0.9404292702674866 0 9
48.45167922973633 8.568242073059082 3.046739339828491 0.9408186674118042 0 9
48.51052474975586 8.130292892456055 3.045729875564575 0.941131055355072 0 9
48.569393157958984 7.692616939544678 3.044963836669922 0.9413661360740662 0 9
48.69562530517578 -7.265233993530273 3.0486717224121094 0.9466187953948975 0 3
47.38394546508789 -7.5048828125 2.970646858215332 0.9437419176101685 0 3
46.047264099121094 -7.717480182647705 2.8910515308380127 0.3326393961906433 0 3
45.008201599121094 -7.959335803985596 2.8302080631256104 0.9377637505531311 0 3
43.83409881591797 -8.158124923706055 2.760875701904297 0.833923876285553 0 3
43.91839599609375 -8.582382202148438 2.770925760269165 0.9314770102500916 0 3
43.99332046508789 -9.00771427154541 2.7806432247161865 0.9282223582267761 0 3
44.06876754760742 -9.436054229736328 2.7906494140625 0.9248931407928467 0 3
44.144744873046875 -9.867558479309082 2.800950765609741 0.9214892387390137 0 3
44.22132873535156 -10.302285194396973 2.811572313308716 0.9180112481117249 0 3
44.29847717285156 -10.740351676940918 2.822491407394409 0.914459228515625 0 3
44.37622833251953 -11.181855201721191 2.8337292671203613 0.9108335971832275 0 3
44.45460891723633 -11.626953125 2.8452813625335693 0.9071344137191772 0 3
14.752108573913574 -4.000195026397705 0.9464585781097412 0.26099348068237305 0 20
14.346327781677246 -4.028730392456055 0.92270427942276 0.062454547733068466 0 20
14.30996036529541 -4.157441139221191 0.9227293133735657 0.062452878803014755 0 20
14.2724609375 -4.285859107971191 0.922755241394043 0.06245115026831627 0 20
14.233827590942383 -4.413906097412109 0.9227811694145203 0.06244935095310211 0 20
14.194042205810547 -4.541621208190918 0.922808051109314 0.06244752183556557 0 20
14.153124809265137 -4.668984413146973 0.9228358268737793 0.06244562193751335 0 20
12.527304649353027 -4.257714748382568 0.8192875385284424 0.9450291991233826 0 20
14.0679292678833 -4.922597408294678 0.9228938221931458 0.06244172155857086 0 20
14.023632049560547 -5.048828125 0.922923743724823 0.06243973597884178 0 20
13.978221893310547 -5.174687385559082 0.9229548573493958 0.062437575310468674 0 20
13.931679725646973 -5.300117015838623 0.922987163066864 0.06243547797203064 0 20
13.88402271270752 -5.425136566162109 0.9230189323425293 0.06243341788649559 0 20
13.83529281616211 -5.549746036529541 0.923052191734314 0.062431007623672485 0 20
13.785409927368164 -5.673906326293945 0.9230857491493225 0.06242875009775162 0 20
13.7344331741333 -5.79763650894165 0.9231205582618713 0.06242638826370239 0 20
38.11189270019531 -16.49247932434082 2.5714268684387207 0.9709270596504211 0 3
12.6182222366333 -5.595429420471191 0.8547132611274719 0.9124532341957092 0 20
37.978084564208984 -17.250429153442383 2.582876443862915 0.9666224122047424 0 3
5.597304344177246 -2.6033008098602295 0.38224533200263977 0.2803356945514679 0 6
5.535742282867432 -2.6353514194488525 0.3796398937702179 0.9852367043495178 0 6
5.545761585235596 -2.7014453411102295 0.3819904923439026 0.4832141101360321 0 6
37.706600189208984 -18.788066864013672 2.6086277961730957 0.957080066204071 0 3
37.63785171508789 -19.177459716796875 2.6156811714172363 0.9545010328292847 0 3
37.56871032714844 -19.5689640045166 2.622976541519165 0.9518452882766724 0 3
37.499237060546875 -19.962675094604492 2.630527973175049 0.9491127729415894 0 3
37.42933654785156 -20.35871124267578 2.638336181640625 0.9463039636611938 0 3
37.35896301269531 -20.757186889648438 2.646404266357422 0.9434185028076172 0 3
21.28595733642578 -12.078085899353027 1.5154541730880737 0.7416185736656189 0 6
37.21695327758789 -21.5615234375 2.6633403301239014 0.9374203681945801 0 3
37.07144546508789 -21.92396354675293 2.666879892349243 0.9343128800392151 0 3
10.298086166381836 -6.215742111206055 0.7448222041130066 0.6230952739715576 0 3
10.128554344177246 -6.238105297088623 0.736581563949585 0.6300687789916992 0 3
9.962695121765137 -6.260019302368164 0.7285770773887634 0.6695265173912048 0 3
9.809199333190918 -6.287050724029541 0.7214460372924805 0.6761432886123657 0 3
9.658613204956055 -6.313574314117432 0.7145124673843384 0.6827059388160706 0 3
9.51089859008789 -6.339570045471191 0.707764744758606 0.6892131567001343 0 3
9.245136260986328 -6.283027172088623 0.6921592354774475 0.6958349943161011 0 3
9.104706764221191 -6.307753562927246 0.6858558654785156 0.7022302150726318 0 3
9.00601577758789 -6.359785079956055 0.6826872229576111 0.703050971031189 0 3
8.95931625366211 -6.448105335235596 0.6835151314735413 0.7146827578544617 0 3
8.82421875 -6.471874713897705 0.6776134967803955 0.7209071516990662 0 3
8.691445350646973 -6.495273113250732 0.6718639731407166 0.7270742654800415 0 3
8.560858726501465 -6.518261432647705 0.6662681698799133 0.733182430267334 0 3
8.432421684265137 -6.540878772735596 0.6608161926269531 0.7392317056655884 0 3
8.306074142456055 -6.563124656677246 0.6555038094520569 0.7452206611633301 0 3
8.064863204956055 -6.490937232971191 0.6410402059555054 0.7512475252151489 0 3
7.944199085235596 -6.51220703125 0.6360708475112915 0.7571170926094055 0 3
7.927538871765137 -6.618398189544678 0.6394667029380798 0.7628269195556641 0 3
7.808964729309082 -6.63927698135376 0.634685218334198 0.7685738801956177 0 3
7.69216775894165 -6.659843444824219 0.630024254322052 0.7742577195167542 0 3
7.577070236206055 -6.680097579956055 0.6254821419715881 0.7798798084259033 0 3
7.463593482971191 -6.700078010559082 0.6210559010505676 0.7854398488998413 0 3
7.351698875427246 -6.719785213470459 0.6167399287223816 0.7909358739852905 0 3
7.241366863250732 -6.739199161529541 0.612533688545227 0.7963677644729614 0 3
7.04080057144165 -6.671445369720459 0.6006045341491699 0.8019033074378967 0 3
6.934726238250732 -6.690097332000732 0.5966535806655884 0.8067780137062073 0 3
6.916269302368164 -6.793202877044678 0.6002868413925171 0.5799360275268555 0 3
33.303672790527344 33.30363082885742 2.526740312576294 0.6697623133659363 0 9
33.93888473510742 33.334922790527344 2.552131414413452 0.6631002426147461 0 9
32.931365966796875 31.76966667175293 2.4548234939575195 0.36071622371673584 0 9
32.180702209472656 30.492597579956055 2.3783676624298096 0.9981822371482849 0 6
33.843807220458984 31.49675750732422 2.4802911281585693 0.9999060034751892 0 9
34.130741119384766 31.196815490722656 2.480691909790039 0.9997430443763733 0 9
33.98630905151367 30.509471893310547 2.4501953125 0.9981043338775635 0 6
27.045156478881836 22.57878875732422 1.8900898694992065 0.770464301109314 0 9
27.41259765625 22.471054077148438 1.9016004800796509 0.7658030390739441 0 9
27.784589767456055 22.362089157104492 1.913398265838623 0.7610788345336914 0 9
28.161327362060547 22.25175666809082 1.9255155324935913 0.7562917470932007 0 9
28.538787841796875 22.1368350982666 1.9376544952392578 0.8278787732124329 0 9
28.875370025634766 21.985624313354492 1.947031021118164 0.8238933086395264 0 9
33.76966857910156 25.236581802368164 2.2616779804229736 0.7252894043922424 0 9
34.166873931884766 25.058631896972656 2.2731263637542725 0.721636176109314 0 9
29.745370864868164 20.6075382232666 1.9413297176361084 0.6514257788658142 0 9
30.245351791381836 20.554609298706055 1.9618433713912964 0.6446143984794617 0 9
21.96648406982422 14.641796112060547 1.4162647724151611 0.17138127982616425 0 9
22.26005744934082 14.55062484741211 1.4267115592956543 0.7384257316589355 0 9
30.73158073425293 19.69677734375 1.9582618474960327 0.7744194269180298 0 9
30.685312271118164 19.28076171875 1.9442018270492554 0.7800174355506897 0 9
41.68497848510742 25.673397064208984 2.626439094543457 0.6274477243423462 0 9
33.11208724975586 19.985780715942383 2.0748960971832275 0.3291366994380951 0 6
41.56459045410156 23.093807220458984 2.5509302616119385 0.6286513805389404 0 9
33.95126724243164 18.46693229675293 2.073422431945801 0.78973388671875 0 6
43.00308609008789 22.892597198486328 2.613576650619507 0.5599263310432434 0 9
43.57429504394531 22.69709014892578 2.6357970237731934 0.6562532186508179 0 9
43.70003890991211 21.286893844604492 2.6077795028686523 0.45317307114601135 0 9
44.661033630371094 21.26119041442871 2.6536314487457275 0.44534268975257874 0 9
39.23261642456055 17.820234298706055 2.3117027282714844 0.969963014125824 0 9
39.46650314331055 17.500858306884766 2.316129446029663 0.968106746673584 0 9
39.70134735107422 17.180253982543945 2.3207712173461914 0.9661720395088196 0 9
39.93714904785156 16.858320236206055 2.3256101608276367 0.9641592502593994 0 9
40.16749954223633 16.53236198425293 2.330291271209717 0.9767810106277466 0 9
34.01591873168945 13.644706726074219 1.9662275314331055 0.802995502948761 0 9
34.1237678527832 13.333632469177246 1.965467929840088 0.7216406464576721 0 9
34.46706771850586 13.112421989440918 1.9783802032470703 0.7169302701950073 0 9
34.814998626708984 12.888280868530273 1.9916269779205322 0.7121604084968567 0 9
35.15283203125 12.655722618103027 2.004375457763672 0.7877138257026672 0 9
35.444236755371094 12.4024019241333 2.0145585536956787 0.7837299704551697 0 9
41.51005935668945 14.108027458190918 2.3520312309265137 0.6694814562797546 0 9
41.85712814331055 13.8081636428833 2.36458683013916 0.665928065776825 0 9
46.32138442993164 14.364140510559082 2.6017913818359375 0.9137713313102722 0 9
36.3849983215332 10.925859451293945 2.038092851638794 0.5465054512023926 0 9
36.576171875 10.62630844116211 2.0433731079101562 0.6226218938827515 0 9
36.70492172241211 10.307363510131836 2.0453171730041504 0.7679691314697266 0 9
36.52825927734375 9.904921531677246 2.0304322242736816 0.773597240447998 0 9
48.2224006652832 12.612343788146973 2.6740550994873047 0.4377313554286957 0 9
47.46238327026367 11.95947265625 2.6258537769317627 0.44576701521873474 0 9
30.27716636657715 6.199257850646973 1.65800940990448 0.9251528978347778 0 6
48.695350646972656 -7.265195369720459 2.641321897506714 0.9470753073692322 0 3
47.38365173339844 -7.5048828125 2.5737249851226807 0.9441981911659241 0 3
46.04753875732422 -7.717538833618164 2.5048112869262695 0.3327960669994354 0 3
45.00790786743164 -7.959316253662109 2.452056646347046 0.9382162094116211 0 3
43.83556365966797 -8.158378601074219 2.3920767307281494 0.8342931270599365 0 3
43.91816329956055 -8.582304954528809 2.4006896018981934 0.9319263696670532 0 3
43.993064880371094 -9.007636070251465 2.409111499786377 0.9286704063415527 0 3
44.06849670410156 -9.436015129089355 2.417776346206665 0.9253395795822144 0 3
44.14447021484375 -9.867499351501465 2.426713466644287 0.9219340085983276 0 3
44.22103500366211 -10.302226066589355 2.435903310775757 0.9184542894363403 0 3
44.29816436767578 -10.740312576293945 2.445359706878662 0.914900541305542 0 3
44.37593460083008 -11.18179702758789 2.455098867416382 0.911273181438446 0 3
44.4543342590332 -11.626874923706055 2.4651095867156982 0.907572329044342 0 3
15.925332069396973 -4.318320274353027 0.8852161765098572 0.9637826681137085 0 20
44.61304473876953 -12.52822208404541 2.485983371734619 0.8999514579772949 0 3
14.649081230163574 -4.255976676940918 0.8183903098106384 0.278377503156662 0 20
14.263554573059082 -4.283183574676514 0.7989686131477356 0.2869737446308136 0 20
13.81191349029541 -4.283085823059082 0.7757917642593384 0.29554685950279236 0 20
13.385683059692383 -4.282968521118164 0.7539817690849304 0.30409643054008484 0 20
12.580429077148438 -4.15017557144165 0.7106919884681702 0.9483294486999512 0 20
12.580389976501465 -4.275742053985596 0.7128309607505798 0.9454851746559143 0 20
16.211776733398438 -5.672753810882568 0.9214399456977844 0.05421020835638046 0 20
16.160839080810547 -5.818281173706055 0.921475350856781 0.05420809984207153 0 20
38.50667953491211 -14.254980087280273 2.20282244682312 0.9824320077896118 0 3
38.441444396972656 -14.624491691589355 2.2065064907073975 0.9807896018028259 0 3
14.214120864868164 -5.554121017456055 0.8187074065208435 0.3632182478904724 0 20
13.914042472839355 -5.58132791519165 0.8042762279510498 0.3715522289276123 0 20
13.56029224395752 -5.581269264221191 0.7866935729980469 0.37985682487487793 0 20
13.2216796875 -5.58117151260376 0.7699226140975952 0.3881305158138275 0 20
12.897148132324219 -5.581093788146973 0.7539139986038208 0.3963731825351715 0 20
12.526952743530273 -5.554941177368164 0.7351603507995605 0.9128937125205994 0 20
37.97787094116211 -17.250350952148438 2.2377710342407227 0.9670885801315308 0 3
5.596542835235596 -2.6029295921325684 0.3311280608177185 0.280508428812027 0 6
5.535488128662109 -2.6352343559265137 0.32890182733535767 0.9857501983642578 0 6
5.545253753662109 -2.7011914253234863 0.3309110999107361 0.4834885597229004 0 6
37.70640563964844 -18.787967681884766 2.26008677482605 0.9575415849685669 0 3
37.637657165527344 -19.177343368530273 2.266188144683838 0.9549614191055298 0 3
37.56851577758789 -19.568866729736328 2.272507667541504 0.9523043632507324 0 3
37.4990234375 -19.96257781982422 2.2790558338165283 0.9495705366134644 0 3
37.429080963134766 -20.358612060546875 2.285816192626953 0.9467604160308838 0 3
37.35873031616211 -20.757049560546875 2.2928049564361572 0.9438737630844116 0 3
37.287967681884766 -21.157987594604492 2.300025701522827 0.940911054611206 0 3
37.216758728027344 -21.561426162719727 2.307478427886963 0.9378724694252014 0 3
37.07120895385742 -21.923866271972656 2.310553789138794 0.934763491153717 0 3
10.298086166381836 -6.215722560882568 0.6453074216842651 0.6233928799629211 0 3
10.128515243530273 -6.238105297088623 0.6381667852401733 0.6303696036338806 0 3
9.962695121765137 -6.259999752044678 0.6312315464019775 0.6698463559150696 0 3
9.809160232543945 -6.287050724029541 0.6250540018081665 0.6764668822288513 0 3
9.658613204956055 -6.313554763793945 0.6190453767776489 0.6830320358276367 0 3
9.510878562927246 -6.339550495147705 0.6132001876831055 0.6895430088043213 0 3
9.245429039001465 -6.283222675323486 0.5996975302696228 0.6961450576782227 0 3
9.10498046875 -6.307949066162109 0.5942358374595642 0.7025437951087952 0 3
9.005937576293945 -6.359745979309082 0.5914657711982727 0.7033911943435669 0 3
8.959277153015137 -6.448105335235596 0.5921902060508728 0.7150246500968933 0 3
8.824198722839355 -6.471874713897705 0.5870770215988159 0.7212522029876709 0 3
8.691425323486328 -6.495273113250732 0.5820972919464111 0.7274212837219238 0 3
8.560839653015137 -6.518261432647705 0.5772474408149719 0.7335325479507446 0 3
8.432421684265137 -6.540878772735596 0.5725224018096924 0.7395845651626587 0 3
8.306074142456055 -6.56310510635376 0.5679211020469666 0.7455764412879944 0 3
8.06509780883789 -6.491113185882568 0.5554066300392151 0.7515852451324463 0 3
7.944413661956787 -6.512382507324219 0.5510993599891663 0.757457435131073 0 3
7.927538871765137 -6.618378639221191 0.5540278553962708 0.7631909847259521 0 3
7.808964729309082 -6.639257431030273 0.5498847961425781 0.7689406871795654 0 3
7.692148208618164 -6.659823894500732 0.5458462238311768 0.7746280431747437 0 3
7.577050685882568 -6.680097579956055 0.5419119000434875 0.7802528738975525 0 3
7.463573932647705 -6.700097560882568 0.5380761623382568 0.7858154773712158 0 3
7.351718425750732 -6.719765663146973 0.5343379378318787 0.7913132905960083 0 3
7.241366863250732 -6.739199161529541 0.5306925773620605 0.7967485189437866 0 3
7.040937423706055 -6.671640396118164 0.5203726291656494 0.8022645115852356 0 3
6.934902191162109 -6.690253734588623 0.5169505476951599 0.8071420788764954 0 3
6.916191101074219 -6.793124675750732 0.5200860500335693 0.5802170634269714 0 3
33.29404067993164 33.294002532958984 2.136812925338745 0.6702293753623962 0 9
33.92898178100586 33.32517623901367 2.1582744121551514 0.6635649800300598 0 9
34.37054443359375 33.15802764892578 2.1673390865325928 0.7585899829864502 0 9
32.13996124267578 30.454002380371094 2.009368419647217 0.8841818571090698 0 6
34.43638610839844 32.04825973510742 2.1348788738250732 0.7701279520988464 0 9
33.961151123046875 30.486873626708984 2.071143388748169 0.9241845607757568 0 6
27.46664047241211 22.515390396118164 1.6117777824401855 0.8422616720199585 0 9
27.79248046875 22.368398666381836 1.619046688079834 0.8384795784950256 0 9
28.05970573425293 22.171464920043945 1.6229538917541504 0.7593406438827515 0 9
28.43927764892578 22.059627532958984 1.6333918571472168 0.7544893026351929 0 9
28.788280487060547 21.919336318969727 1.6420694589614868 0.8267228007316589 0 9
33.57191467285156 25.088769912719727 1.9020038843154907 0.7298596501350403 0 9
21.99915885925293 14.663593292236328 1.199830412864685 0.17119678854942322 0 9
22.251659393310547 14.545116424560547 1.206434726715088 0.739006757736206 0 9
30.720233917236328 19.689491271972656 1.6559306383132935 0.7750212550163269 0 9
41.82326126098633 26.27927589416504 2.2416157722473145 0.6221445202827454 0 9
33.12997817993164 19.996562957763672 1.7561527490615845 0.21952176094055176 0 6
33.955780029296875 18.46937370300293 1.7541849613189697 0.7638323903083801 0 6
42.71011734008789 22.73666000366211 2.195816993713379 0.5639972686767578 0 9
43.33800506591797 22.574003219604492 2.2175967693328857 0.660099983215332 0 9
39.22193145751953 15.733007431030273 1.9178346395492554 0.9515636563301086 0 9
37.08156204223633 14.489394187927246 1.8067426681518555 0.7452763319015503 0 9
39.73386764526367 15.116093635559082 1.9292834997177124 0.9459152221679688 0 9
39.99220657348633 14.804823875427246 1.935300350189209 0.9429765343666077 0 9
40.25214767456055 14.491621017456055 1.941509485244751 0.9399622678756714 0 9
40.86923599243164 14.300722122192383 1.9649988412857056 0.6781530976295471 0 9
41.208534240722656 14.005546569824219 1.975196361541748 0.6746546626091003 0 9
47.71095657348633 12.937206268310547 2.243415355682373 0.5075863599777222 0 9
48.21378707885742 12.61009693145752 2.2616453170776367 0.43798840045928955 0 9
47.45405960083008 11.957382202148438 2.220879316329956 0.4460272490978241 0 9
30.27568244934082 6.198945045471191 1.4024790525436401 0.9255754947662354 0 6
48.380271911621094 -7.218183517456055 2.219902992248535 0.3165241479873657 0 3
47.182674407958984 -7.473027229309082 2.167941093444824 0.3249652087688446 0 3
46.238338470458984 -7.74951171875 2.127657651901245 0.33348309993743896 0 3
45.02748107910156 -7.962714672088623 2.0751495361328125 0.3419220447540283 0 3
43.920860290527344 -8.174257278442383 2.027449369430542 0.39007437229156494 0 3
43.917869567871094 -8.582284927368164 2.03078556060791 0.9323124885559082 0 3
43.99279022216797 -9.007616996765137 2.0379109382629395 0.9290551543235779 0 3
44.06822204589844 -9.435976028442383 2.0452396869659424 0.9257228374481201 0 3
44.14419937133789 -9.867441177368164 2.05279803276062 0.9223160743713379 0 3
44.22077941894531 -10.30214786529541 2.0605733394622803 0.918834924697876 0 3
44.29792785644531 -10.740195274353027 2.068575620651245 0.915279746055603 0 3
44.37566375732422 -11.181718826293945 2.076817750930786 0.9116507172584534 0 3
44.45408248901367 -11.62679672241211 2.0852789878845215 0.9079484939575195 0 3
15.796972274780273 -4.283535003662109 0.7427888512611389 0.2612244188785553 0 20
15.155976295471191 -4.256093502044678 0.7144157290458679 0.2698683440685272 0 20
15.057968139648438 -4.374765396118164 0.7116212248802185 0.04598614200949669 0 20
44.77427673339844 -13.445136070251465 2.1215879917144775 0.8924104571342468 0 3
44.85611343383789 -13.909843444824219 2.1313016414642334 0.88834547996521 0 3
44.93874740600586 -14.378828048706055 2.141263723373413 0.8842090368270874 0 3
12.580350875854492 -4.150156021118164 0.6011865139007568 0.9487223029136658 0 20
12.580331802368164 -4.275722503662109 0.6029976010322571 0.9458767175674438 0 20
12.58031177520752 -4.402070045471191 0.604864776134491 0.9429552555084229 0 20
12.580273628234863 -4.529199123382568 0.6067941188812256 0.9399576783180237 0 20
12.58023452758789 -4.657187461853027 0.6087838411331177 0.9368842244148254 0 20
12.580214500427246 -4.785976409912109 0.6108385920524597 0.9337356686592102 0 20
12.6074800491333 -4.926347732543945 0.6142831444740295 0.9305115938186646 0 20
12.607460975646973 -5.057226657867432 0.6164683103561401 0.9272125959396362 0 20
12.607421875 -5.189082145690918 0.6187200546264648 0.9238389134407043 0 20
12.607401847839355 -5.321894645690918 0.6210374236106873 0.9203907251358032 0 20
12.607362747192383 -5.455722332000732 0.6234246492385864 0.9168685674667358 0 20
12.580039024353027 -5.578495979309082 0.6245237588882446 0.9132720828056335 0 20
37.902225494384766 -17.21599578857422 1.8892048597335815 0.9674925804138184 0 3
5.595781326293945 -2.6025781631469727 0.28007078170776367 0.28066080808639526 0 6
5.535234451293945 -2.6350975036621094 0.2782127261161804 0.9861965775489807 0 6
5.544745922088623 -2.700937509536743 0.27989089488983154 0.4837297201156616 0 6
37.631248474121094 -18.750526428222656 1.9080396890640259 0.9579421281814575 0 3
37.56267547607422 -19.139101028442383 1.9131940603256226 0.9553611278533936 0 3
37.49367141723633 -19.529823303222656 1.9185285568237305 0.9527031183242798 0 3
37.42429733276367 -19.922773361206055 1.9240567684173584 0.9499682784080505 0 3
37.35451126098633 -20.31800651550293 1.9297635555267334 0.9471570253372192 0 3
37.28427505493164 -20.71564483642578 1.9356675148010254 0.9442692399024963 0 3
37.21364974975586 -21.115760803222656 1.9417634010314941 0.94130539894104 0 3
37.142578125 -21.51839828491211 1.9480509757995605 0.9382660388946533 0 3
37.07097625732422 -21.923730850219727 1.954544186592102 0.9351508021354675 0 3
10.298086166381836 -6.215722560882568 0.5458794832229614 0.6236481070518494 0 3
10.128515243530273 -6.238105297088623 0.5398380756378174 0.6306276917457581 0 3
9.962695121765137 -6.259980201721191 0.533973217010498 0.6701205372810364 0 3
9.809160232543945 -6.287031173706055 0.5287466049194336 0.6767438054084778 0 3
9.65859317779541 -6.313535213470459 0.5236656069755554 0.6833122968673706 0 3
9.510878562927246 -6.339550495147705 0.5187215805053711 0.6898252367973328 0 3
9.365898132324219 -6.365077972412109 0.5139106512069702 0.6962831616401672 0 3
9.105254173278809 -6.308164119720459 0.502693772315979 0.7028095722198486 0 3
9.005878448486328 -6.359687328338623 0.5003275871276855 0.703684389591217 0 3
8.959277153015137 -6.448085784912109 0.5009463429450989 0.7153172492980957 0 3
8.824159622192383 -6.471874713897705 0.4966219961643219 0.7215479016304016 0 3
8.691425323486328 -6.495253562927246 0.49240827560424805 0.727719783782959 0 3
8.560839653015137 -6.518241882324219 0.48830702900886536 0.733833372592926 0 3
8.432402610778809 -6.540859222412109 0.4843093752861023 0.7398878335952759 0 3
8.30605411529541 -6.56310510635376 0.48041975498199463 0.7458822131156921 0 3
8.065292358398438 -6.491289138793945 0.4698437452316284 0.751987874507904 0 3
7.944628715515137 -6.512558460235596 0.46620145440101624 0.757747232913971 0 3
7.927499771118164 -6.618378639221191 0.4686642289161682 0.7635040283203125 0 3
7.808945178985596 -6.639257431030273 0.4651592969894409 0.7692559957504272 0 3
7.69216775894165 -6.659823894500732 0.46174436807632446 0.7749449014663696 0 3
7.577050685882568 -6.680078029632568 0.45841506123542786 0.7805728316307068 0 3
7.463573932647705 -6.700078010559082 0.45517027378082275 0.7861368656158447 0 3
7.351698875427246 -6.719765663146973 0.4520077407360077 0.791637659072876 0 3
7.241366863250732 -6.739199161529541 0.448923796415329 0.797074556350708 0 3
7.041152000427246 -6.671796798706055 0.44020766019821167 0.802571177482605 0 3
6.93505859375 -6.6904296875 0.43730971217155457 0.8074522018432617 0 3
6.916112899780273 -6.793066024780273 0.4399447441101074 0.5804595947265625 0 3
34.179256439208984 33.571014404296875 1.778480052947998 0.5772237181663513 0 9
32.168338775634766 30.480897903442383 1.6451129913330078 0.9579073190689087 0 6
33.968318939208984 30.49329948425293 1.6945430040359497 0.9992728233337402 0 6
29.770761489868164 24.404159545898438 1.4290250539779663 0.7614912986755371 0 9
22.133241653442383 14.752968788146973 0.9874409437179565 0.018292400985956192 0 9
22.243221282958984 14.539628982543945 0.9864848256111145 0.7395377159118652 0 9
37.057029724121094 14.47982406616211 1.4769340753555298 0.7460225820541382 0 9
39.740234375 15.118515014648438 1.5784037113189697 0.9460864663124084 0 9
39.998573303222656 14.807226181030273 1.5833189487457275 0.9431470036506653 0 9
40.25859451293945 14.493945121765137 1.5883997678756714 0.940131425857544 0 9
40.57628631591797 14.1982421875 1.5958423614501953 0.6832817196846008 0 9
48.18181610107422 13.064882278442383 1.8532172441482544 0.6672624945640564 0 9
47.44572067260742 11.955273628234863 1.8163594007492065 0.4462573826313019 0 9
30.27425765991211 6.198652267456055 1.1471693515777588 0.9987594485282898 0 6
48.854061126708984 -7.288866996765137 1.8336573839187622 0.31663429737091064 0 3
47.51203155517578 -7.525195121765137 1.7857496738433838 0.32512882351875305 0 3
46.23822021484375 -7.749492168426514 1.7404130697250366 0.33359745144844055 0 3
45.02734375 -7.962714672088623 1.6974568367004395 0.34203919768333435 0 3
43.92072296142578 -8.174238204956055 1.658440113067627 0.3902084529399872 0 3
43.91761779785156 -8.582206726074219 1.6611607074737549 0.9326352477073669 0 3
43.99251937866211 -9.007538795471191 1.6669856309890747 0.9293767213821411 0 3
44.06794738769531 -9.435897827148438 1.672989010810852 0.9260433912277222 0 3
44.14396286010742 -9.867383003234863 1.6791682243347168 0.9226353764533997 0 3
44.22050857543945 -10.302108764648438 1.6855329275131226 0.9191529154777527 0 3
44.29767608642578 -10.74013614654541 1.692078709602356 0.9155966639518738 0 3
44.37540817260742 -11.181659698486328 1.6988111734390259 0.9119663834571838 0 3
15.913945198059082 -4.162246227264404 0.6106359958648682 0.9668220281600952 0 20
15.88662052154541 -4.307831764221191 0.6110473275184631 0.9645155072212219 0 20
15.913886070251465 -4.468945026397705 0.6136131286621094 0.9621310234069824 0 20
15.913846969604492 -4.623437404632568 0.6151873469352722 0.9596691131591797 0 20
15.91380786895752 -4.778730392456055 0.6168182492256165 0.9571300148963928 0 20
15.913788795471191 -4.934863090515137 0.61850905418396 0.954513669013977 0 20
15.913749694824219 -5.091875076293945 0.620261549949646 0.9518204927444458 0 20
15.913710594177246 -5.24978494644165 0.6220697164535522 0.9490505456924438 0 20
15.913671493530273 -5.408632755279541 0.6239414811134338 0.9462041854858398 0 20
15.886347770690918 -5.558906078338623 0.6248031258583069 0.9432816505432129 0 20
38.49456787109375 -13.8589448928833 1.5188038349151611 0.9847426414489746 0 3
12.6899995803833 -4.697812557220459 0.5023396015167236 0.3467221260070801 0 20
12.5801362991333 -4.785956859588623 0.49966001510620117 0.9340587854385376 0 20
38.299278259277344 -14.965272903442383 1.5264463424682617 0.9798122644424438 0 3
38.23369216918945 -15.336640357971191 1.5292518138885498 0.9780107140541077 0 3
13.614686965942383 -5.603652000427246 0.5465452671051025 0.3801412582397461 0 20
13.274706840515137 -5.603574275970459 0.5348954796791077 0.38842129707336426 0 20
12.948866844177246 -5.603476524353027 0.5237728953361511 0.39667025208473206 0 20
12.579999923706055 -5.578437328338623 0.5108552575111389 0.9135884046554565 0 20
37.90196990966797 -17.215917587280273 1.545350193977356 0.9678272008895874 0 3
5.59499979019165 -2.602226495742798 0.22906538844108582 0.28079527616500854 0 6
5.534980297088623 -2.634999990463257 0.22756728529930115 0.9865759611129761 0 6
5.544257640838623 -2.7007226943969727 0.22892272472381592 0.48393821716308594 0 6
37.63103485107422 -18.75044822692871 1.5607624053955078 0.9582734704017639 0 3
37.56243896484375 -19.139022827148438 1.564979076385498 0.9556915163993835 0 3
37.49341583251953 -19.52974510192871 1.5693418979644775 0.9530327320098877 0 3
37.42409896850586 -19.92265510559082 1.5738584995269775 0.9502969980239868 0 3
37.35425567626953 -20.317890167236328 1.5785318613052368 0.9474847316741943 0 3
37.28409957885742 -20.715526580810547 1.5833576917648315 0.944595992565155 0 3
37.213436126708984 -21.115625381469727 1.5883485078811646 0.9416313767433167 0 3
37.14238357543945 -21.518260955810547 1.5934910774230957 0.9385907053947449 0 3
37.07078170776367 -21.923593521118164 1.598798394203186 0.9354743957519531 0 3
10.298086166381836 -6.215703010559082 0.4465269446372986 0.623860776424408 0 3
10.128515243530273 -6.238085746765137 0.4415847659111023 0.6308427453041077 0 3
9.962675094604492 -6.259960651397705 0.4367866516113281 0.6703500747680664 0 3
9.8091402053833 -6.287011623382568 0.43251264095306396 0.6769747138023376 0 3
9.658554077148438 -6.313535213470459 0.428354948759079 0.6835455298423767 0 3
9.510839462280273 -6.339550495147705 0.42431074380874634 0.6900612711906433 0 3
9.365898132324219 -6.365058422088623 0.42037689685821533 0.6965207457542419 0 3
9.105507850646973 -6.308320045471191 0.41121596097946167 0.7025142908096313 0 3
9.005781173706055 -6.359628677368164 0.4092634618282318 0.7039290070533752 0 3
8.959258079528809 -6.448085784912109 0.40977218747138977 0.7155619859695435 0 3
8.824179649353027 -6.471855163574219 0.4062338173389435 0.721794068813324 0 3
8.691386222839355 -6.495253562927246 0.4027882218360901 0.7279685139656067 0 3
8.560820579528809 -6.518222332000732 0.399431437253952 0.7340834736824036 0 3
8.432402610778809 -6.540859222412109 0.3961630165576935 0.7401401996612549 0 3
8.30605411529541 -6.563085556030273 0.39298078417778015 0.746136486530304 0 3
8.065507888793945 -6.49148416519165 0.3843396008014679 0.7522236704826355 0 3
7.944843769073486 -6.512734413146973 0.38136184215545654 0.757984459400177 0 3
7.927480220794678 -6.618378639221191 0.3833647072315216 0.7637650370597839 0 3
7.808945178985596 -6.639238357543945 0.3804980516433716 0.7695181965827942 0 3
7.692128658294678 -6.659804344177246 0.3777036964893341 0.775209903717041 0 3
7.577031135559082 -6.680078029632568 0.37498167157173157 0.7808387875556946 0 3
7.463573932647705 -6.700058460235596 0.37232741713523865 0.7864046692848206 0 3
7.351698875427246 -6.719765663146973 0.36974042654037476 0.7919082641601562 0 3
7.241347312927246 -6.739179611206055 0.36721786856651306 0.7973470687866211 0 3
7.041308403015137 -6.671972274780273 0.3600970506668091 0.8028232455253601 0 3
6.935214519500732 -6.690585613250732 0.35772430896759033 0.8077075481414795 0 3
6.916054725646973 -6.793007850646973 0.3598652482032776 0.5806632041931152 0 3
29.779726028442383 24.411523818969727 1.1115937232971191 0.7614695429801941 0 9
22.234804153442383 14.534120559692383 0.7668360471725464 0.7400186657905579 0 9
37.032596588134766 14.470253944396973 1.1477574110031128 0.7467182278633118 0 9
30.272890090942383 6.198398113250732 0.8920429944992065 0.9990759491920471 0 6
48.56414031982422 -7.24560546875 1.4174600839614868 0.8266993165016174 0 3
47.51187515258789 -7.52517557144165 1.3886570930480957 0.3252183794975281 0 3
46.23810577392578 -7.749472618103027 1.3534071445465088 0.33368903398513794 0 3
45.027225494384766 -7.962695121765137 1.319998025894165 0.34213322401046753 0 3
43.92060470581055 -8.17421817779541 1.2896592617034912 0.3903156518936157 0 3
43.917362213134766 -8.58218765258789 1.2917743921279907 0.9328944087028503 0 3
43.99226379394531 -9.007499694824219 1.2962983846664429 0.9296351671218872 0 3
44.06769561767578 -9.435858726501465 1.3009724617004395 0.9263008832931519 0 3
44.14366912841797 -9.867323875427246 1.3057770729064941 0.9228918552398682 0 3
44.22023391723633 -10.302030563354492 1.3107209205627441 0.9194086790084839 0 3
44.29736328125 -10.740097045898438 1.3158116340637207 0.9158512353897095 0 3
44.37511444091797 -11.181601524353027 1.3210505247116089 0.9122201800346375 0 3
44.45353317260742 -11.626640319824219 1.326435923576355 0.9085153937339783 0 3
15.886523246765137 -4.307792663574219 0.4751693606376648 0.9647834897041321 0 20
44.61224365234375 -12.527968406677246 1.3376731872558594 0.9008869528770447 0 3
44.69265365600586 -12.9844331741333 1.3435190916061401 0.8969636559486389 0 3
44.77375030517578 -13.444960594177246 1.34952712059021 0.8929681181907654 0 3
44.85558319091797 -13.909647941589355 1.355708122253418 0.888900637626648 0 3
44.93816375732422 -14.378671646118164 1.3620530366897583 0.884761393070221 0 3
45.02150344848633 -14.852128982543945 1.3685581684112549 0.8805511593818665 0 3
42.49407958984375 -14.44253921508789 1.2956211566925049 0.15220992267131805 0 3
15.886249542236328 -5.55886697769165 0.4858662188053131 0.9435439109802246 0 20
38.49439239501953 -13.858847618103027 1.1810730695724487 0.9850165843963623 0 3
12.690038681030273 -4.697793006896973 0.39056289196014404 0.34681597352027893 0 20
12.580078125 -4.78591775894165 0.38855239748954773 0.9343186616897583 0 20
12.618632316589355 -4.930703163146973 0.39109358191490173 0.7001795768737793 0 20
12.6103515625 -5.058398246765137 0.39222776889801025 0.6977802515029907 0 20
12.609023094177246 -5.189706802368164 0.3936198353767395 0.6953129172325134 0 20
12.60765552520752 -5.321991920471191 0.39505234360694885 0.6927914023399353 0 20
12.606249809265137 -5.455234050750732 0.3965252637863159 0.6902152895927429 0 20
12.579901695251465 -5.578417778015137 0.3972567617893219 0.9138426184654236 0 20
37.90167999267578 -17.21578025817871 1.2017219066619873 0.9680925607681274 0 3
5.594257831573486 -2.601855516433716 0.17810454964637756 0.2809096872806549 0 6
5.534746170043945 -2.634882688522339 0.17695632576942444 0.9868881106376648 0 6
5.54373025894165 -2.7004687786102295 0.1779986470937729 0.4841134548187256 0 6
37.630741119384766 -18.75029182434082 1.2136973142623901 0.95853590965271 0 3
37.56216812133789 -19.138885498046875 1.2169773578643799 0.9559531211853027 0 3
37.49318313598633 -19.52960968017578 1.2203797101974487 0.9532932043075562 0 3
37.423828125 -19.92253875732422 1.2238872051239014 0.950556755065918 0 3
37.35402297973633 -20.317773818969727 1.2275162935256958 0.9477435350418091 0 3
37.28378677368164 -20.715429306030273 1.2312684059143066 0.9448538422584534 0 3
37.21318435668945 -21.115507125854492 1.2351505756378174 0.9418883323669434 0 3
37.14208984375 -21.518163681030273 1.2391489744186401 0.9388468265533447 0 3
37.07050704956055 -21.92351531982422 1.2432758808135986 0.9357296228408813 0 3
10.298047065734863 -6.215703010559082 0.34723448753356934 0.6240319609642029 0 3
10.128496170043945 -6.238085746765137 0.3433871269226074 0.6310157179832458 0 3
9.962675094604492 -6.259960651397705 0.3396613895893097 0.6705330610275269 0 3
9.809121131896973 -6.287011623382568 0.3363366723060608 0.677160382270813 0 3
9.65853500366211 -6.313515663146973 0.33310332894325256 0.683732807636261 0 3
9.510839462280273 -6.339530944824219 0.32995879650115967 0.6902496814727783 0 3
9.36587905883789 -6.365058422088623 0.32689911127090454 0.6967115998268127 0 3
9.10580062866211 -6.308515548706055 0.31978729367256165 0.7026851773262024 0 3
9.005742073059082 -6.359589576721191 0.3182603418827057 0.7041259407997131 0 3
8.959258079528809 -6.448066234588623 0.3186531066894531 0.715757429599762 0 3
8.824179649353027 -6.471835613250732 0.31590163707733154 0.7219911813735962 0 3
8.691386222839355 -6.49523401260376 0.31322142481803894 0.7281674146652222 0 3
8.560820579528809 -6.518222332000732 0.3106120228767395 0.7342847585678101 0 3
8.432363510131836 -6.540859222412109 0.30806899070739746 0.7403429746627808 0 3
8.30605411529541 -6.56310510635376 0.3055940270423889 0.7463409304618835 0 3
8.065722465515137 -6.491660118103027 0.29888486862182617 0.7524083852767944 0 3
7.945058345794678 -6.512890338897705 0.29656782746315 0.7581704258918762 0 3
7.927480220794678 -6.618359088897705 0.2981172204017639 0.7639734148979187 0 3
7.808925628662109 -6.639238357543945 0.2958885133266449 0.7697288990020752 0 3
7.692128658294678 -6.65978479385376 0.2937161326408386 0.7754221558570862 0 3
7.577011585235596 -6.680078029632568 0.29159849882125854 0.7810525894165039 0 3
7.463554382324219 -6.700038909912109 0.2895345985889435 0.7866199016571045 0 3
7.35167932510376 -6.719746112823486 0.28752273321151733 0.7921242713928223 0 3
7.24132776260376 -6.739179611206055 0.285561203956604 0.7975651025772095 0 3
7.041523456573486 -6.67214822769165 0.2800305187702179 0.8025900721549988 0 3
6.935390472412109 -6.690742015838623 0.2781883180141449 0.8079069256782532 0 3
6.915976524353027 -6.792929649353027 0.2798425257205963 0.5808267593383789 0 3
29.788671493530273 24.418867111206055 0.7941267490386963 0.7613958120346069 0 9
22.226425170898438 14.528671264648438 0.5474604964256287 0.7404490113258362 0 9
22.545194625854492 14.44986343383789 0.5520968437194824 0.6923745274543762 0 9
37.008182525634766 14.460741996765137 0.8191755414009094 0.7473630309104919 0 9
30.271522521972656 6.198105335235596 0.6370561122894287 0.9993246793746948 0 6
48.67960739135742 -7.262851238250732 1.0147373676300049 0.9482578635215759 0 3
47.20296859741211 -7.476269245147705 0.9853120446205139 0.31490063667297363 0 3
45.94169998168945 -7.69982385635376 0.9603898525238037 0.333993136882782 0 3
45.026580810546875 -7.962558269500732 0.9427186250686646 0.9393846988677979 0 3
43.920467376708984 -8.174179077148438 0.921058177947998 0.3903965353965759 0 3
43.91710662841797 -8.582128524780273 0.9225666522979736 0.9330902695655823 0 3
43.99201202392578 -9.007402420043945 0.9257960319519043 0.9298303723335266 0 3
44.06745910644531 -9.435761451721191 0.9291309714317322 0.9264953136444092 0 3
44.14341735839844 -9.8672456741333 0.932563304901123 0.9230857491493225 0 3
44.21999740600586 -10.301953315734863 0.936093270778656 0.9196017980575562 0 3
44.29714584350586 -10.740018844604492 0.9397333860397339 0.9160435795783997 0 3
44.37484359741211 -11.181523323059082 0.9434763789176941 0.9124117493629456 0 3
