ply
format ascii 1.0
element vertex 582
property float32 x
property float32 y
property float32 z
property float32 CosAngle
property uint32 ObjIdx
property uint32 ObjTag
end_header
3.472910165786743 0.3420507609844208 -1.7916556596755981 0.4597489535808563 0 1
3.4743847846984863 0.32655271887779236 -1.791650652885437 0.45975086092948914 0 1
3.4758007526397705 0.3110449016094208 -1.7916455268859863 0.45975175499916077 0 1
3.4771482944488525 0.2955273389816284 -1.7916408777236938 0.4597535729408264 0 1
3.4784276485443115 0.28000974655151367 -1.7916364669799805 0.45975419878959656 0 1
3.4796385765075684 0.26448240876197815 -1.7916322946548462 0.45975473523139954 0 1
3.48077130317688 0.24895507097244263 -1.791628360748291 0.45975616574287415 0 1
3.4818358421325684 0.23340819776058197 -1.7916245460510254 0.4597575068473816 0 1
3.4828319549560547 0.21787108480930328 -1.7916210889816284 0.4597587287425995 0 1
3.483769416809082 0.20232421159744263 -1.791617751121521 0.45975881814956665 0 1
3.484628915786743 0.18677733838558197 -1.7916146516799927 0.45975983142852783 0 1
3.485419750213623 0.17122070491313934 -1.791611909866333 0.4597606956958771 0 1
3.48614239692688 0.15566405653953552 -1.7916094064712524 0.45976144075393677 0 1
3.4867968559265137 0.1401074230670929 -1.7916070222854614 0.4597620964050293 0 1
3.4873924255371094 0.12455078214406967 -1.7916048765182495 0.4597625434398651 0 1
3.487910032272339 0.10898437350988388 -1.7916030883789062 0.45976293087005615 0 1
3.488359212875366 0.09341796487569809 -1.791601538658142 0.45976316928863525 0 1
3.4887402057647705 0.0778515636920929 -1.7916001081466675 0.4597632586956024 0 1
3.4890429973602295 0.062285155057907104 -1.791598916053772 0.4597642719745636 0 1
3.4892871379852295 0.04671875014901161 -1.7915979623794556 0.45976415276527405 0 1
3.4894628524780273 0.031142577528953552 -1.7915972471237183 0.45976388454437256 0 1
3.48956036567688 0.015566405840218067 -1.7915968894958496 0.4597644805908203 0 1
3.4895896911621094 -0.0 -1.7915966510772705 0.4597649872303009 0 1
3.48956036567688 -0.015576171688735485 -1.7915966510772705 0.459764301776886 0 1
3.4894628524780273 -0.031142577528953552 -1.7915968894958496 0.4597645103931427 0 1
3.4892871379852295 -0.04671875014901161 -1.791597604751587 0.45976459980010986 0 1
3.4890527725219727 -0.062285155057907104 -1.7915982007980347 0.4597635567188263 0 1
3.4887402057647705 -0.0778515636920929 -1.7915992736816406 0.45976343750953674 0 1
3.488359212875366 -0.09342773258686066 -1.7916003465652466 0.4597630500793457 0 1
3.487910032272339 -0.10899414122104645 -1.7916017770767212 0.4597626328468323 0 1
3.487382650375366 -0.12455078214406967 -1.7916035652160645 0.45976313948631287 0 1
3.4867968559265137 -0.14011718332767487 -1.7916054725646973 0.45976242423057556 0 1
3.48614239692688 -0.1556738317012787 -1.7916076183319092 0.45976167917251587 0 1
3.485419750213623 -0.1712304651737213 -1.7916101217269897 0.45976075530052185 0 1
3.484619140625 -0.18678709864616394 -1.7916125059127808 0.4597606956958771 0 1
3.483769416809082 -0.2023339867591858 -1.79161536693573 0.4597594738006592 0 1
3.4828319549560547 -0.21788085997104645 -1.7916185855865479 0.4597592353820801 0 1
3.4818358421325684 -0.23341795802116394 -1.7916218042373657 0.45975783467292786 0 1
3.4807615280151367 -0.24894531071186066 -1.7916253805160522 0.45975732803344727 0 1
3.479628801345825 -0.26448240876197815 -1.7916291952133179 0.45975565910339355 0 1
3.4784178733825684 -0.2800000011920929 -1.7916332483291626 0.45975497364997864 0 1
3.4771385192871094 -0.2955273389816284 -1.7916375398635864 0.4597541093826294 0 1
3.4757909774780273 -0.31103515625 -1.7916420698165894 0.45975327491760254 0 1
3.4743847846984863 -0.32655271887779236 -1.7916467189788818 0.4597511291503906 0 1
3.472900390625 -0.3420507609844208 -1.7916516065597534 0.4597500264644623 0 1
3.4713573455810547 -0.3575488328933716 -1.791656732559204 0.4597487449645996 0 1
3.469736337661743 -0.37303709983825684 -1.7916622161865234 0.45974743366241455 0 1
3.4680469036102295 -0.3885156214237213 -1.7916680574417114 0.45974600315093994 0 1
3.4662890434265137 -0.4039941430091858 -1.7916738986968994 0.4597444534301758 0 1
3.4644627571105957 -0.4194628894329071 -1.7916799783706665 0.45974284410476685 0 1
3.4625682830810547 -0.4349120855331421 -1.7916864156723022 0.45974114537239075 0 1
3.4606053829193115 -0.45036131143569946 -1.791693091392517 0.4597393572330475 0 1
3.458574056625366 -0.46580076217651367 -1.791699767112732 0.4597375988960266 0 1
3.456474542617798 -0.4812304675579071 -1.7917068004608154 0.4597357213497162 0 1
3.454296827316284 -0.49666014313697815 -1.7917141914367676 0.4597346782684326 0 1
3.4520702362060547 -0.5120702981948853 -1.7917218208312988 0.45973268151283264 0 1
3.44976544380188 -0.5274707078933716 -1.7917295694351196 0.4597306251525879 0 1
3.447392463684082 -0.5428710579872131 -1.79173743724823 0.4597284495830536 0 1
3.444951057434082 -0.5582422018051147 -1.791745662689209 0.4597262442111969 0 1
3.44244122505188 -0.5736132860183716 -1.791754126548767 0.4597240686416626 0 1
3.4398632049560547 -0.5889745950698853 -1.7917628288269043 0.45972180366516113 0 1
3.4372167587280273 -0.6043164134025574 -1.7917717695236206 0.4597196578979492 0 1
3.434501886367798 -0.6196581721305847 -1.791780948638916 0.4597172141075134 0 1
3.431718587875366 -0.6349804401397705 -1.79179048538208 0.45971494913101196 0 1
3.4288671016693115 -0.6502832174301147 -1.7917999029159546 0.45971259474754333 0 1
3.425956964492798 -0.6655859351158142 -1.7918099164962769 0.45971018075942993 0 1
3.422978401184082 -0.6808691024780273 -1.7918200492858887 0.4597069323062897 0 1
3.419921875 -0.6961425542831421 -1.79183030128479 0.45970457792282104 0 1
3.4167966842651367 -0.7114062309265137 -1.7918407917022705 0.45970216393470764 0 1
3.4136133193969727 -0.7266503572463989 -1.7918516397476196 0.459698885679245 0 1
3.410351514816284 -0.7418749928474426 -1.7918626070022583 0.4596964716911316 0 1
3.4070310592651367 -0.7570898532867432 -1.7918736934661865 0.4596932530403137 0 1
3.403632640838623 -0.7722948789596558 -1.7918853759765625 0.4596909284591675 0 1
3.4001855850219727 -0.7874804735183716 -1.7918970584869385 0.459687739610672 0 1
3.396660089492798 -0.8026562333106995 -1.7919089794158936 0.4596845507621765 0 1
3.39306640625 -0.8178027272224426 -1.7919210195541382 0.4596814513206482 0 1
3.389404296875 -0.8329492211341858 -1.791933536529541 0.4596782624721527 0 1
3.385673761367798 -0.8480663895606995 -1.7919461727142334 0.4596754014492035 0 1
3.3818845748901367 -0.8631835579872131 -1.7919590473175049 0.459671288728714 0 1
3.3780174255371094 -0.8782714605331421 -1.7919721603393555 0.45966851711273193 0 1
3.374091625213623 -0.8933398127555847 -1.7919853925704956 0.4596647024154663 0 1
3.3700976371765137 -0.9083886742591858 -1.7919988632202148 0.4596613049507141 0 1
3.366044759750366 -0.9234277009963989 -1.7920126914978027 0.4596577286720276 0 1
3.3619139194488525 -0.9384570121765137 -1.7920266389846802 0.4596541225910187 0 1
3.35772442817688 -0.9534472227096558 -1.7920409440994263 0.45964986085891724 0 1
3.353456974029541 -0.9684277176856995 -1.792055368423462 0.4596468508243561 0 1
3.349130868911743 -0.9833984375 -1.792069911956787 0.4596426486968994 0 1
3.344736337661743 -0.998339831829071 -1.7920849323272705 0.45963892340660095 0 1
3.340273380279541 -1.0132616758346558 -1.792100191116333 0.45963504910469055 0 1
3.3357419967651367 -1.028164029121399 -1.7921154499053955 0.4596315622329712 0 1
3.3311619758605957 -1.043056607246399 -1.792130947113037 0.45962703227996826 0 1
3.3265037536621094 -1.0579198598861694 -1.792146921157837 0.45962294936180115 0 1
3.32177734375 -1.07275390625 -1.7921627759933472 0.4596189558506012 0 1
3.3169822692871094 -1.0875780582427979 -1.7921792268753052 0.45961520075798035 0 1
3.312128782272339 -1.102382779121399 -1.7921956777572632 0.45961058139801025 0 1
3.307197093963623 -1.1171581745147705 -1.7922121286392212 0.4596070349216461 0 1
3.3022167682647705 -1.1319140195846558 -1.7922292947769165 0.45960208773612976 0 1
3.2971677780151367 -1.1466600894927979 -1.7922463417053223 0.45959794521331787 0 1
3.29205060005188 -1.161376953125 -1.7922637462615967 0.4595932364463806 0 1
3.286865234375 -1.1760547161102295 -1.7922812700271606 0.45958903431892395 0 1
3.281620979309082 -1.1907323598861694 -1.7922991514205933 0.45958369970321655 0 1
3.276298761367798 -1.2053710222244263 -1.7923171520233154 0.45958009362220764 0 1
3.270927667617798 -1.2199902534484863 -1.7923355102539062 0.4595743715763092 0 1
3.2654783725738525 -1.2345898151397705 -1.7923539876937866 0.4595700800418854 0 1
3.2599804401397705 -1.249169945716858 -1.792372703552246 0.45956504344940186 0 1
3.254404306411743 -1.263710856437683 -1.7923916578292847 0.45956042408943176 0 1
3.248769521713257 -1.2782323360443115 -1.7924104928970337 0.45955535769462585 0 1
3.2430663108825684 -1.2927343845367432 -1.79243004322052 0.4595504105091095 0 1
3.237294912338257 -1.3071972131729126 -1.7924495935440063 0.45954594016075134 0 1
3.2314648628234863 -1.3216503858566284 -1.7924695014953613 0.4595406651496887 0 1
3.225576162338257 -1.336084008216858 -1.7924894094467163 0.45953547954559326 0 1
3.219619035720825 -1.3504687547683716 -1.79250967502594 0.459530234336853 0 1
3.2135937213897705 -1.364843726158142 -1.7925301790237427 0.45952510833740234 0 1
3.207509756088257 -1.379189372062683 -1.792550802230835 0.45951953530311584 0 1
3.201357364654541 -1.393496036529541 -1.7925716638565063 0.45951443910598755 0 1
3.195146322250366 -1.4077929258346558 -1.7925927639007568 0.45950847864151 0 1
3.1888768672943115 -1.4220507144927979 -1.7926141023635864 0.45950350165367126 0 1
3.1825389862060547 -1.436279296875 -1.7926357984542847 0.4594975709915161 0 1
3.1761326789855957 -1.4504882097244263 -1.7926573753356934 0.45949220657348633 0 1
3.169667959213257 -1.4646581411361694 -1.7926794290542603 0.45948636531829834 0 1
3.163134813308716 -1.4788085222244263 -1.7927014827728271 0.45948103070259094 0 1
3.156543016433716 -1.4929394721984863 -1.7927240133285522 0.4594748616218567 0 1
3.149892568588257 -1.507021427154541 -1.7927465438842773 0.45946961641311646 0 1
3.1431736946105957 -1.521083950996399 -1.792769432067871 0.45946386456489563 0 1
3.1363964080810547 -1.5351073741912842 -1.7927923202514648 0.45945772528648376 0 1
3.1295506954193115 -1.549111247062683 -1.7928158044815063 0.4594520628452301 0 1
3.1226463317871094 -1.563085913658142 -1.7928392887115479 0.4594459533691406 0 1
3.1156835556030273 -1.5770214796066284 -1.7928627729415894 0.4594403803348541 0 1
3.1086621284484863 -1.5909374952316284 -1.7928866147994995 0.4594334065914154 0 1
3.101572275161743 -1.6048144102096558 -1.7929106950759888 0.4594269394874573 0 1
3.094413995742798 -1.6186621189117432 -1.7929351329803467 0.45942139625549316 0 1
3.087207078933716 -1.6324803829193115 -1.7929596900939941 0.4594145715236664 0 1
3.0799412727355957 -1.6462597846984863 -1.7929844856262207 0.45940813422203064 0 1
3.0725975036621094 -1.660009741783142 -1.7930092811584473 0.4594026803970337 0 1
3.0652050971984863 -1.6737207174301147 -1.7930344343185425 0.4593958854675293 0 1
3.057744026184082 -1.6874120235443115 -1.7930598258972168 0.4593895673751831 0 1
3.050224542617798 -1.7010644674301147 -1.7930853366851807 0.4593827724456787 0 1
3.042656183242798 -1.714687466621399 -1.7931112051010132 0.4593760371208191 0 1
3.0350193977355957 -1.728271484375 -1.7931371927261353 0.459369421005249 0 1
3.0273144245147705 -1.7418261766433716 -1.7931634187698364 0.4593626856803894 0 1
3.0195508003234863 -1.7553417682647705 -1.7931896448135376 0.4593565762042999 0 1
3.0117383003234863 -1.7688183784484863 -1.7932162284851074 0.4593490958213806 0 1
3.0038671493530273 -1.7822753190994263 -1.7932430505752563 0.45934203267097473 0 1
2.995917797088623 -1.79568350315094 -1.7932701110839844 0.45933595299720764 0 1
1.581581950187683 -0.9575878977775574 -0.9492373466491699 0.43308040499687195 2915 14
1.5838476419448853 -0.96864253282547 -0.9531779289245605 0.43129077553749084 2915 14
1.5861425399780273 -0.9797949194908142 -0.957180917263031 0.42948687076568604 2915 14
1.588466763496399 -0.9910546541213989 -0.9612449407577515 0.42767107486724854 2915 14
1.5908300876617432 -1.0024218559265137 -0.9653754830360413 0.42583945393562317 2915 14
1.5932421684265137 -1.0138964653015137 -0.9695702791213989 0.4239984154701233 2915 14
1.5956835746765137 -1.025488257408142 -0.9738329648971558 0.4221420884132385 2915 14
1.59817373752594 -1.0371874570846558 -0.9781625270843506 0.42027539014816284 2915 14
1.600683569908142 -1.0490038394927979 -0.982560396194458 0.4183933734893799 2915 14
1.6032421588897705 -1.060937523841858 -0.9870297312736511 0.41649800539016724 2915 14
1.6058496236801147 -1.072998046875 -0.9915701150894165 0.41459137201309204 2915 14
1.608496069908142 -1.0851757526397705 -0.9961832761764526 0.412671834230423 2915 14
1.611181616783142 -1.0974804162979126 -1.000869870185852 0.410739004611969 2915 14
1.6139159202575684 -1.1099218130111694 -1.0056331157684326 0.4087947607040405 2915 14
1.6166894435882568 -1.1224901676177979 -1.0104725360870361 0.4068363308906555 2915 14
1.6195019483566284 -1.1351854801177979 -1.015390396118164 0.40486451983451843 2915 14
1.6223729848861694 -1.1480273008346558 -1.020389199256897 0.4028824269771576 2915 14
1.625283122062683 -1.1610058546066284 -1.0254682302474976 0.4008863568305969 2915 14
1.6282421350479126 -1.1741210222244263 -1.0306309461593628 0.3988787829875946 2915 14
1.6312499046325684 -1.187402367591858 -1.035879373550415 0.39685773849487305 2915 14
1.63430655002594 -1.2008203268051147 -1.041213035583496 0.3948246240615845 2915 14
1.6374120712280273 -1.2143847942352295 -1.0466352701187134 0.39277929067611694 2915 14
1.6405761241912842 -1.228115200996399 -1.0521479845046997 0.3907225728034973 2915 14
1.6437792778015137 -1.2420018911361694 -1.0577517747879028 0.3886505961418152 2915 14
1.647060513496399 -1.2560644149780273 -1.0634500980377197 0.38656967878341675 2915 14
1.6503710746765137 -1.2702832221984863 -1.0692424774169922 0.3844732642173767 2915 14
1.653749942779541 -1.28466796875 -1.0751358270645142 0.38236743211746216 2915 14
1.6571776866912842 -1.2992382049560547 -1.0811257362365723 0.38024723529815674 2915 14
2.740468740463257 -2.168339729309082 -1.7941392660140991 0.4591132402420044 0 1
2.7308104038238525 -2.180595636367798 -1.7941720485687256 0.4591047763824463 0 1
2.7211132049560547 -2.192802667617798 -1.7942053079605103 0.45909562706947327 0 1
2.7113475799560547 -2.204960823059082 -1.7942384481430054 0.4590877294540405 0 1
2.7015233039855957 -2.2170801162719727 -1.7942718267440796 0.4590792953968048 0 1
2.691660165786743 -2.2291600704193115 -1.7943053245544434 0.45907074213027954 0 1
2.6817381381988525 -2.2411913871765137 -1.7943392992019653 0.4590614438056946 0 1
2.671757698059082 -2.253173828125 -1.7943731546401978 0.4590528607368469 0 1
2.6617283821105957 -2.2651171684265137 -1.7944073677062988 0.45904412865638733 0 1
2.6516504287719727 -2.2770214080810547 -1.7944416999816895 0.45903480052948 0 1
2.6415038108825684 -2.288877010345459 -1.7944761514663696 0.4590267837047577 0 1
2.6313183307647705 -2.3006834983825684 -1.7945107221603394 0.459017276763916 0 1
2.6210741996765137 -2.312451124191284 -1.7945455312728882 0.45900923013687134 0 1
2.606269359588623 -2.3201560974121094 -1.7914828062057495 0.5911355018615723 0 2
2.582958936691284 -2.320136785507202 -1.7825543880462646 0.5940958261489868 0 2
2.559873104095459 -2.320127010345459 -1.7737505435943604 0.597044825553894 0 2
2.5370116233825684 -2.320117235183716 -1.7650681734085083 0.5999821424484253 0 2
2.5143749713897705 -2.3200976848602295 -1.7565041780471802 0.6029072403907776 0 2
1.4033203125 -1.3065332174301147 -0.9844058156013489 0.018031030893325806 2915 14
1.3432421684265137 -1.2618457078933716 -0.9462029933929443 0.3214634954929352 2915 14
1.335390567779541 -1.2657324075698853 -0.9446409344673157 0.3219940662384033 2915 14
1.3275293111801147 -1.269570231437683 -0.9430767893791199 0.32252803444862366 2915 14
1.3196581602096558 -1.2733592987060547 -0.9415107369422913 0.32306545972824097 2915 14
1.3117773532867432 -1.2771093845367432 -0.9399425983428955 0.32360345125198364 2915 14
1.3038768768310547 -1.2808104753494263 -0.9383721947669983 0.32414573431015015 2915 14
1.2959667444229126 -1.284462809562683 -0.9368000626564026 0.32468992471694946 2915 14
2.447646379470825 2.447636604309082 -1.7951651811599731 0.4625174105167389 0 1
2.45849609375 2.436640501022339 -1.7951281070709229 0.4625261425971985 0 1
2.469287157058716 2.425585985183716 -1.795091152191162 0.46253639459609985 0 1
2.480039119720459 2.414501905441284 -1.7950544357299805 0.4625459313392639 0 1
2.4907422065734863 2.4033594131469727 -1.795017957687378 0.4625546634197235 0 1
2.501396417617798 2.3921775817871094 -1.7949814796447754 0.46256422996520996 0 1
2.5119922161102295 2.380937337875366 -1.7949453592300415 0.462573766708374 0 1
2.522538900375366 2.3696582317352295 -1.7949093580245972 0.4625825881958008 0 1
2.5330467224121094 2.358339786529541 -1.7948733568191528 0.46259140968322754 0 1
2.5434863567352295 2.3469629287719727 -1.7948375940322876 0.46260103583335876 0 1
2.553886651992798 2.3355467319488525 -1.794802188873291 0.46260979771614075 0 1
2.5642383098602295 2.3240721225738525 -1.7947667837142944 0.462619423866272 0 1
2.574521541595459 2.312558650970459 -1.7947317361831665 0.4626290202140808 0 1
2.584765672683716 2.3010058403015137 -1.794696569442749 0.46263793110847473 0 1
2.594970703125 2.2894041538238525 -1.7946618795394897 0.46264612674713135 0 1
2.605107307434082 2.277763605117798 -1.794627070426941 0.46265506744384766 0 1
2.615185499191284 2.266064405441284 -1.7945924997329712 0.46266475319862366 0 1
2.6252245903015137 2.254326105117798 -1.7945584058761597 0.46267300844192505 0 1
2.6352148056030273 2.242548704147339 -1.7945241928100586 0.4626820385456085 0 1
2.645136594772339 2.230722665786743 -1.7944903373718262 0.46269112825393677 0 1
2.655019521713257 2.2188572883605957 -1.7944564819335938 0.46269944310188293 0 1
2.664843797683716 2.2069432735443115 -1.7944228649139404 0.46270865201950073 0 1
2.674619197845459 2.194999933242798 -1.7943896055221558 0.4627164304256439 0 1
2.684335947036743 2.182997941970825 -1.794356346130371 0.462724894285202 0 1
2.6940038204193115 2.170947313308716 -1.794323205947876 0.4627341330051422 0 1
2.70361328125 2.158876895904541 -1.7942904233932495 0.46274206042289734 0 1
2.7131640911102295 2.146738290786743 -1.7942577600479126 0.46275144815444946 0 1
2.7226758003234863 2.134580135345459 -1.7942252159118652 0.46275946497917175 0 1
2.732128858566284 2.122363328933716 -1.794192910194397 0.46276742219924927 0 1
2.741523265838623 2.110117197036743 -1.7941607236862183 0.4627755284309387 0 1
2.750859260559082 2.0978221893310547 -1.7941288948059082 0.4627837836742401 0 1
2.760146379470825 2.085498094558716 -1.7940970659255981 0.46279215812683105 0 1
2.7693748474121094 2.073115110397339 -1.7940654754638672 0.4628004729747772 0 1
2.7785449028015137 2.0606932640075684 -1.7940343618392944 0.4628089368343353 0 1
2.787675619125366 2.0482518672943115 -1.7940030097961426 0.462816059589386 0 1
2.7967381477355957 2.0357518196105957 -1.793972134590149 0.4628239870071411 0 1
2.805742025375366 2.0232226848602295 -1.7939412593841553 0.4628320634365082 0 1
2.814687490463257 2.010634660720825 -1.7939105033874512 0.46284088492393494 0 1
2.8235936164855957 1.9980273246765137 -1.7938802242279053 0.46284839510917664 0 1
2.8324315547943115 1.9853709936141968 -1.793850064277649 0.46285608410835266 0 1
2.8412108421325684 1.97268545627594 -1.7938200235366821 0.46286389231681824 0 1
2.8499412536621094 1.9599511623382568 -1.7937901020050049 0.4628709852695465 0 1
2.8586132526397705 1.9471874237060547 -1.7937605381011963 0.46287912130355835 0 1
2.8672266006469727 1.9343749284744263 -1.7937310934066772 0.4628865718841553 0 1
2.8757715225219727 1.9215331077575684 -1.7937017679214478 0.46289411187171936 0 1
2.884267568588257 1.9086425304412842 -1.793672800064087 0.46290189027786255 0 1
2.892714738845825 1.8957324028015137 -1.7936437129974365 0.46290919184684753 0 1
2.9011034965515137 1.8827636241912842 -1.7936151027679443 0.4629163444042206 0 1
2.909423828125 1.8697752952575684 -1.7935867309570312 0.46292397379875183 0 1
2.9176952838897705 1.8567382097244263 -1.7935583591461182 0.46293094754219055 0 1
2.925908088684082 1.8436815738677979 -1.7935302257537842 0.4629383087158203 0 1
2.9340624809265137 1.83056640625 -1.7935024499893188 0.46294546127319336 0 1
0.7143945097923279 0.4412890672683716 -0.4354759156703949 0.35226941108703613 2915 14
0.7160742282867432 0.4379296898841858 -0.4353042542934418 0.3524079918861389 2915 14
0.7177343368530273 0.43455076217651367 -0.4351300001144409 0.3525480031967163 2915 14
0.71937495470047 0.43117186427116394 -0.43495315313339233 0.35269102454185486 2915 14
0.720996081829071 0.42778319120407104 -0.4347740113735199 0.35283640027046204 2915 14
0.7225976586341858 0.4243749976158142 -0.43459272384643555 0.3529844284057617 2915 14
0.724169909954071 0.420966774225235 -0.43440887331962585 0.3531345725059509 2915 14
0.7257323861122131 0.41755858063697815 -0.4342226982116699 0.3532848060131073 2915 14
0.7272753715515137 0.414130836725235 -0.4340341091156006 0.35343968868255615 2915 14
0.7287988066673279 0.4107031226158142 -0.43384307622909546 0.35359442234039307 2915 14
0.7302929759025574 0.4072656035423279 -0.43364959955215454 0.35375159978866577 2915 14
0.7317773103713989 0.4038183391094208 -0.43345412611961365 0.35391151905059814 2915 14
0.7332323789596558 0.40037107467651367 -0.4332559108734131 0.3540746569633484 2915 14
0.7346777319908142 0.3969140648841858 -0.43305572867393494 0.354236900806427 2915 14
0.7360937595367432 0.39344725012779236 -0.4328530728816986 0.3544015884399414 2915 14
0.7374902367591858 0.38997069001197815 -0.4326480031013489 0.35457247495651245 2915 14
0.7388769388198853 0.38649412989616394 -0.43244093656539917 0.354739785194397 2915 14
0.7402245998382568 0.3829980492591858 -0.43223127722740173 0.3549131155014038 2915 14
0.7415624856948853 0.37950193881988525 -0.43201979994773865 0.35508954524993896 2915 14
0.7428905963897705 0.3760058581829071 -0.4318055510520935 0.3552618622779846 2915 14
0.744189441204071 0.3725000023841858 -0.4315893352031708 0.3554408550262451 2915 14
0.7454589605331421 0.3689941465854645 -0.43137067556381226 0.3556198179721832 2915 14
0.74671870470047 0.365478515625 -0.43115004897117615 0.35580167174339294 2915 14
0.7479589581489563 0.36195310950279236 -0.43092694878578186 0.3559860587120056 2915 14
0.7491796612739563 0.3584277331829071 -0.43070188164711 0.3561708331108093 2915 14
0.7503613233566284 0.3548925817012787 -0.4304744005203247 0.356361985206604 2915 14
0.7515429258346558 0.3513476550579071 -0.430245041847229 0.35655245184898376 2915 14
0.7526953220367432 0.3478125035762787 -0.4300132691860199 0.35674428939819336 2915 14
0.7538281083106995 0.34425780177116394 -0.42977964878082275 0.35693782567977905 2915 14
0.7549414038658142 0.3407031297683716 -0.4295439124107361 0.35713571310043335 2915 14
0.7560449242591858 0.33714842796325684 -0.42930540442466736 0.35732969641685486 2915 14
0.7571093440055847 0.33357420563697815 -0.4290655553340912 0.35753101110458374 2915 14
0.7581640481948853 0.3300097584724426 -0.42882323265075684 0.3577326536178589 2915 14
0.7591992020606995 0.32643553614616394 -0.428578644990921 0.35793688893318176 2915 14
0.7602148056030273 0.32286131381988525 -0.42833220958709717 0.35814207792282104 2915 14
0.7611913681030273 0.3192773461341858 -0.42808347940444946 0.35835379362106323 2915 14
0.7621679306030273 0.31569334864616394 -0.4278329312801361 0.35856249928474426 2915 14
0.7631250023841858 0.3121093809604645 -0.42758041620254517 0.3587718904018402 2915 14
0.7640429735183716 0.30851560831069946 -0.427325576543808 0.3589882552623749 2915 14
0.7649609446525574 0.30492186546325684 -0.42706891894340515 0.3592012822628021 2915 14
0.7658495903015137 0.30131834745407104 -0.4268101453781128 0.3594212532043457 2915 14
0.7667187452316284 0.29771482944488525 -0.4265495240688324 0.3596423268318176 2915 14
0.7675585746765137 0.29411131143569946 -0.426286906003952 0.35986411571502686 2915 14
0.7683886289596558 0.29050779342651367 -0.42602232098579407 0.36008673906326294 2915 14
0.7691991925239563 0.2868945300579071 -0.4257557690143585 0.36031264066696167 2915 14
0.7699804306030273 0.28328123688697815 -0.42548736929893494 0.36053937673568726 2915 14
0.770751953125 0.2796679735183716 -0.4252166748046875 0.3607669472694397 2915 14
0.7715038657188416 0.27604490518569946 -0.42494428157806396 0.3609978258609772 2915 14
0.772216796875 0.27242186665534973 -0.4246702492237091 0.3612339198589325 2915 14
0.7729296684265137 0.268798828125 -0.42439407110214233 0.36146682500839233 2915 14
0.7736132740974426 0.26517578959465027 -0.42411619424819946 0.36170512437820435 2915 14
0.7742773294448853 0.2615429759025574 -0.42383620142936707 0.3619402050971985 2915 14
0.7749218344688416 0.2579101622104645 -0.4235546886920929 0.3621830344200134 2915 14
0.7755468487739563 0.2542773485183716 -0.4232708513736725 0.3624265789985657 2915 14
0.7761523127555847 0.2506445348262787 -0.4229855239391327 0.3626716732978821 2915 14
0.7767285108566284 0.2470117062330246 -0.4226984977722168 0.36291807889938354 2915 14
0.777294933795929 0.2433789074420929 -0.42240965366363525 0.36316585540771484 2915 14
0.7778418064117432 0.23974609375 -0.42211899161338806 0.3634146451950073 2915 14
0.7783593535423279 0.23610350489616394 -0.42182663083076477 0.3636671304702759 2915 14
0.7788671851158142 0.23247069120407104 -0.4215322732925415 0.3639187514781952 2915 14
0.779345691204071 0.22882811725139618 -0.42123672366142273 0.36417847871780396 2915 14
0.7794433236122131 0.22508788108825684 -0.4207421839237213 0.4366239607334137 2915 14
0.7793945074081421 0.22130858898162842 -0.42017653584480286 0.4372120201587677 2915 14
0.7793163657188416 0.217529296875 -0.4196121096611023 0.4378034472465515 2915 14
0.7792382836341858 0.21376952528953552 -0.41904905438423157 0.43838900327682495 2915 14
0.7791405916213989 0.21000975370407104 -0.41848722100257874 0.438977986574173 2915 14
0.7794628739356995 0.20636717975139618 -0.4181663393974304 0.458970844745636 2915 14
0.779833972454071 0.20274414122104645 -0.4178723096847534 0.45929205417633057 2915 14
0.7801855206489563 0.19912108778953552 -0.41757932305336 0.4596152901649475 2915 14
0.780517578125 0.19550780951976776 -0.4172865152359009 0.45993393659591675 2915 14
0.7808300852775574 0.19188475608825684 -0.4169943034648895 0.4602605104446411 2915 14
0.78114253282547 0.1882617175579071 -0.41670194268226624 0.4605802893638611 2915 14
0.7814159989356995 0.18464843928813934 -0.41641050577163696 0.46090421080589294 2915 14
0.781689465045929 0.1810351461172104 -0.41611969470977783 0.4612259566783905 2915 14
0.7819433212280273 0.17742186784744263 -0.4158288538455963 0.46154913306236267 2915 14
0.7821874618530273 0.17380858957767487 -0.41553863883018494 0.4618702232837677 2915 14
0.7824023365974426 0.1701953113079071 -0.41524916887283325 0.4621932804584503 2915 14
0.78260737657547 0.1665917932987213 -0.41496002674102783 0.46251630783081055 2915 14
0.7828027009963989 0.16297851502895355 -0.41467130184173584 0.46283864974975586 2915 14
0.7829687595367432 0.15937499701976776 -0.4143829345703125 0.4631611108779907 2915 14
0.7831347584724426 0.15577147901058197 -0.4140951335430145 0.4634813368320465 2915 14
0.7832812070846558 0.15216796100139618 -0.41380780935287476 0.4638034403324127 2915 14
3.394726514816284 0.6438183188438416 -1.7919241189956665 0.4633537530899048 0 1
3.3975486755371094 0.6286523342132568 -1.7919143438339233 0.46335598826408386 0 1
3.4003026485443115 0.613476574420929 -1.7919049263000488 0.4633583724498749 0 1
3.4029881954193115 0.5983007550239563 -1.7918957471847534 0.46336063742637634 0 1
3.4056053161621094 0.5831054449081421 -1.791886568069458 0.46336308121681213 0 1
3.408154249191284 0.5679003596305847 -1.7918778657913208 0.46336549520492554 0 1
3.41064453125 0.552685558795929 -1.7918692827224731 0.46336692571640015 0 1
3.4130663871765137 0.5374609231948853 -1.7918609380722046 0.4633694291114807 0 1
3.415410041809082 0.5222070217132568 -1.7918528318405151 0.46337205171585083 0 1
3.4176952838897705 0.5069628953933716 -1.7918448448181152 0.4633735418319702 0 1
3.4199023246765137 0.4917089641094208 -1.791837453842163 0.4633760154247284 0 1
3.422050714492798 0.4764355421066284 -1.7918298244476318 0.4633777141571045 0 1
3.42413067817688 0.46116209030151367 -1.7918227910995483 0.4633792042732239 0 1
3.4261326789855957 0.44587889313697815 -1.7918157577514648 0.4633817672729492 0 1
3.4280760288238525 0.43058592081069946 -1.79180908203125 0.4633833169937134 0 1
3.4299511909484863 0.415283203125 -1.7918026447296143 0.46338486671447754 0 1
3.431767463684082 0.3999609351158142 -1.791796326637268 0.4633864760398865 0 1
3.4335057735443115 0.3846386671066284 -1.791790246963501 0.46338802576065063 0 1
3.435175657272339 0.3693163990974426 -1.7917845249176025 0.46338951587677 0 1
3.436777353286743 0.35398435592651367 -1.791778802871704 0.4633910059928894 0 1
3.438310384750366 0.33864256739616394 -1.7917736768722534 0.4633924961090088 0 1
3.439775228500366 0.32329100370407104 -1.7917684316635132 0.4633939862251282 0 1
3.4411816596984863 0.30793944001197815 -1.7917635440826416 0.4633943438529968 0 1
3.442509651184082 0.2925781309604645 -1.7917590141296387 0.46339577436447144 0 1
3.4437694549560547 0.2772167921066284 -1.7917547225952148 0.4633971154689789 0 1
3.4449706077575684 0.2618457078933716 -1.791750431060791 0.46339842677116394 0 1
3.4460935592651367 0.24647460877895355 -1.7917464971542358 0.4633996784687042 0 1
3.447158098220825 0.23109374940395355 -1.7917428016662598 0.46339988708496094 0 1
3.4481444358825684 0.21569335460662842 -1.7917393445968628 0.4634011685848236 0 1
3.4490623474121094 0.20030273497104645 -1.791736125946045 0.46340227127075195 0 1
3.4499120712280273 0.18491210043430328 -1.7917330265045166 0.4634034037590027 0 1
3.4507031440734863 0.1695214807987213 -1.791730284690857 0.4634033441543579 0 1
3.451416015625 0.15412108600139618 -1.791727900505066 0.4634043574333191 0 1
3.4520702362060547 0.13871093094348907 -1.7917253971099854 0.4634043574333191 0 1
3.4526562690734863 0.12331054359674454 -1.7917234897613525 0.4634052515029907 0 1
3.4531641006469727 0.10790038853883743 -1.7917215824127197 0.4634060859680176 0 1
3.45361328125 0.09249023348093033 -1.7917200326919556 0.4634058475494385 0 1
3.453984260559082 0.07708007842302322 -1.7917187213897705 0.4634065330028534 0 1
3.454287052154541 0.06166015565395355 -1.791717529296875 0.4634072482585907 0 1
3.454531192779541 0.04625000059604645 -1.7917165756225586 0.46340683102607727 0 1
3.4546971321105957 0.030830077826976776 -1.7917159795761108 0.463407427072525 0 1
3.4548046588897705 0.015410155989229679 -1.7917155027389526 0.46340689063072205 0 1
3.454833984375 -0.0 -1.791715383529663 0.4634073078632355 0 1
3.4547948837280273 -0.015419921837747097 -1.791715383529663 0.4634077250957489 0 1
3.454706907272339 -0.030839843675494194 -1.7917156219482422 0.4634070098400116 0 1
3.454531192779541 -0.04625000059604645 -1.7917159795761108 0.4634072482585907 0 1
3.454296827316284 -0.06166991963982582 -1.7917169332504272 0.4634064733982086 0 1
3.453984260559082 -0.07708007842302322 -1.791717767715454 0.46340659260749817 0 1
3.453603506088257 -0.09249023348093033 -1.7917189598083496 0.4634067118167877 0 1
3.4531641006469727 -0.10791015625 -1.7917203903198242 0.46340566873550415 0 1
3.452646493911743 -0.12331054359674454 -1.791722059249878 0.46340569853782654 0 1
3.4520604610443115 -0.13872070610523224 -1.7917238473892212 0.4634056091308594 0 1
3.451416015625 -0.15412108600139618 -1.791725993156433 0.46340444684028625 0 1
3.450693368911743 -0.1695214807987213 -1.7917284965515137 0.46340426802635193 0 1
3.4499218463897705 -0.18492187559604645 -1.7917308807373047 0.46340298652648926 0 1
3.4490623474121094 -0.2003222554922104 -1.7917336225509644 0.4634026885032654 0 1
3.448134660720825 -0.2157031148672104 -1.7917368412017822 0.4634024500846863 0 1
3.447148323059082 -0.23109374940395355 -1.7917400598526 0.4634009897708893 0 1
3.4460935592651367 -0.2464648336172104 -1.7917437553405762 0.4633995592594147 0 1
3.444960832595825 -0.2618457078933716 -1.7917474508285522 0.4633990526199341 0 1
3.4437694549560547 -0.2772167921066284 -1.7917513847351074 0.4633975625038147 0 1
3.442499876022339 -0.2925781309604645 -1.7917556762695312 0.4633970558643341 0 1
3.441171884536743 -0.30793944001197815 -1.7917600870132446 0.46339544653892517 0 1
3.439775228500366 -0.32329100370407104 -1.791764736175537 0.4633948504924774 0 1
3.438310384750366 -0.33864256739616394 -1.7917696237564087 0.4633931815624237 0 1
3.436767578125 -0.35398435592651367 -1.791774868965149 0.4633924961090088 0 1
3.4351658821105957 -0.3693261742591858 -1.7917802333831787 0.4633907079696655 0 1
3.4334959983825684 -0.3846484422683716 -1.7917858362197876 0.4633890688419342 0 1
3.431757688522339 -0.399970680475235 -1.7917916774749756 0.46338725090026855 0 1
3.429941415786743 -0.415283203125 -1.7917977571487427 0.46338653564453125 0 1
3.4280662536621094 -0.4305761754512787 -1.7918039560317993 0.4633847773075104 0 1
3.4261229038238525 -0.445869117975235 -1.7918105125427246 0.4633830487728119 0 1
3.4241113662719727 -0.46116209030151367 -1.791817307472229 0.46338120102882385 0 1
3.4220409393310547 -0.4764355421066284 -1.7918243408203125 0.46337953209877014 0 1
3.4198925495147705 -0.4917089641094208 -1.791831612586975 0.4633776843547821 0 1
3.4176855087280273 -0.5069726705551147 -1.7918390035629272 0.46337488293647766 0 1
3.415400266647339 -0.522216796875 -1.7918466329574585 0.46337318420410156 0 1
3.4130468368530273 -0.5374609231948853 -1.7918546199798584 0.4633713960647583 0 1
3.410634756088257 -0.5526757836341858 -1.7918627262115479 0.4633687436580658 0 1
3.408144474029541 -0.5679003596305847 -1.791871190071106 0.4633669853210449 0 1
3.405595541000366 -0.5831054449081421 -1.7918798923492432 0.4633643627166748 0 1
3.4029784202575684 -0.5983007550239563 -1.79188871383667 0.46336278319358826 0 1
3.4002928733825684 -0.6134862899780273 -1.7918978929519653 0.4633601903915405 0 1
3.397538900375366 -0.6286523342132568 -1.7919069528579712 0.4633577764034271 0 1
3.394716739654541 -0.6438086032867432 -1.7919164896011353 0.4633552134037018 0 1
3.3918261528015137 -0.6589550375938416 -1.7919262647628784 0.46335282921791077 0 1
3.388867139816284 -0.6740917563438416 -1.7919362783432007 0.46335044503211975 0 1
3.3858494758605957 -0.689208984375 -1.791946530342102 0.46334725618362427 0 1
3.382753849029541 -0.7043163776397705 -1.7919570207595825 0.4633450508117676 0 1
3.3795995712280273 -0.7194140553474426 -1.791967749595642 0.46334192156791687 0 1
3.3763866424560547 -0.7344824075698853 -1.7919785976409912 0.4633389413356781 0 1
3.3730955123901367 -0.7495507597923279 -1.7919896841049194 0.46333596110343933 0 1
3.3697264194488525 -0.764599621295929 -1.7920010089874268 0.46333417296409607 0 1
3.3663084506988525 -0.7796386480331421 -1.7920125722885132 0.4633304178714752 0 1
3.3628125190734863 -0.7946581840515137 -1.7920244932174683 0.4633277952671051 0 1
3.359257698059082 -0.8096581697463989 -1.792036533355713 0.46332427859306335 0 1
3.3556346893310547 -0.8246484398841858 -1.7920489311218262 0.46332091093063354 0 1
3.351943254470825 -0.8396191000938416 -1.792061448097229 0.46331775188446045 0 1
3.3481931686401367 -0.8545800447463989 -1.7920740842819214 0.46331465244293213 0 1
3.344365119934082 -0.86952143907547 -1.7920870780944824 0.46331167221069336 0 1
3.3404784202575684 -0.8844335675239563 -1.792100191116333 0.46330803632736206 0 1
3.3365232944488525 -0.8993359208106995 -1.7921136617660522 0.4633045494556427 0 1
3.3324999809265137 -0.9142284989356995 -1.7921271324157715 0.46330100297927856 0 1
3.3284082412719727 -0.9291015267372131 -1.792141079902649 0.4632977247238159 0 1
3.3242578506469727 -0.9439452886581421 -1.792155146598816 0.4632936716079712 0 1
3.3200488090515137 -0.9587792754173279 -1.792169451713562 0.46328985691070557 0 1
3.3157615661621094 -0.9735937118530273 -1.792183756828308 0.46328622102737427 0 1
3.311406135559082 -0.9883984327316284 -1.7921987771987915 0.46328258514404297 0 1
3.3069920539855957 -1.0031640529632568 -1.7922136783599854 0.46327847242355347 0 1
3.3025097846984863 -1.017919898033142 -1.7922289371490479 0.4632745683193207 0 1
3.2979588508605957 -1.032656192779541 -1.7922441959381104 0.463270902633667 0 1
3.293349504470825 -1.0473730564117432 -1.792259931564331 0.4632664918899536 0 1
3.2886815071105957 -1.0620702505111694 -1.7922757863998413 0.4632619619369507 0 1
3.283935546875 -1.076748013496399 -1.7922918796539307 0.46325796842575073 0 1
3.279120922088623 -1.091396450996399 -1.7923083305358887 0.46325457096099854 0 1
3.274247884750366 -1.1060253381729126 -1.7923247814178467 0.4632500410079956 0 1
3.2693066596984863 -1.1206347942352295 -1.7923415899276733 0.46324607729911804 0 1
3.2643065452575684 -1.1352245807647705 -1.7923583984375 0.4632413983345032 0 1
3.2592382431030273 -1.1497949361801147 -1.7923758029937744 0.46323683857917786 0 1
3.2541112899780273 -1.1643359661102295 -1.7923932075500488 0.4632325768470764 0 1
3.248915910720825 -1.178857445716858 -1.7924108505249023 0.46322786808013916 0 1
3.24365234375 -1.193359375 -1.7924284934997559 0.4632233679294586 0 1
3.2383298873901367 -1.2078319787979126 -1.7924466133117676 0.4632181227207184 0 1
3.2329394817352295 -1.2222851514816284 -1.7924648523330688 0.46321341395378113 0 1
3.227480411529541 -1.236718773841858 -1.7924834489822388 0.4632089138031006 0 1
3.2219724655151367 -1.2511132955551147 -1.7925022840499878 0.4632040560245514 0 1
3.216386556625366 -1.2654980421066284 -1.792521357536316 0.46319934725761414 0 1
3.2107419967651367 -1.2798534631729126 -1.792540192604065 0.4631942808628082 0 1
3.2050390243530273 -1.2941699028015137 -1.7925597429275513 0.4631888270378113 0 1
3.1992578506469727 -1.3084765672683716 -1.7925792932510376 0.4631844758987427 0 1
3.193427562713623 -1.3227636814117432 -1.7925992012023926 0.463178426027298 0 1
3.1875293254852295 -1.337011694908142 -1.792619228363037 0.46317389607429504 0 1
3.181572198867798 -1.3512401580810547 -1.7926393747329712 0.46316805481910706 0 1
3.175537109375 -1.3654394149780273 -1.792659878730774 0.46316373348236084 0 1
3.1694531440734863 -1.3796093463897705 -1.7926806211471558 0.46315765380859375 0 1
3.1633007526397705 -1.3937597274780273 -1.7927014827728271 0.463152140378952 0 1
3.1570799350738525 -1.4078807830810547 -1.7927227020263672 0.46314725279808044 0 1
3.150810480117798 -1.421962857246399 -1.7927441596984863 0.4631420075893402 0 1
3.144472599029541 -1.43603515625 -1.792765498161316 0.46313589811325073 0 1
3.138066291809082 -1.4500683546066284 -1.7927870750427246 0.4631308317184448 0 1
3.131601572036743 -1.4640722274780273 -1.7928091287612915 0.46312493085861206 0 1
3.125077962875366 -1.47805655002594 -1.7928314208984375 0.46311870217323303 0 1
3.118486166000366 -1.4920018911361694 -1.792853832244873 0.463113009929657 0 1
3.1118457317352295 -1.5059179067611694 -1.7928763628005981 0.4631074070930481 0 1
3.1051366329193115 -1.519814372062683 -1.7928991317749023 0.46310099959373474 0 1
3.0983593463897705 -1.5336718559265137 -1.7929221391677856 0.46309515833854675 0 1
3.0915234088897705 -1.547509789466858 -1.7929455041885376 0.4630889594554901 0 1
3.0846190452575684 -1.5612988471984863 -1.792968988418579 0.46308374404907227 0 1
3.0776758193969727 -1.5750781297683716 -1.7929924726486206 0.4630768299102783 0 1
3.0706541538238525 -1.5888183116912842 -1.7930163145065308 0.46307089924812317 0 1
3.0635740756988525 -1.6025195121765137 -1.79304039478302 0.46306464076042175 0 1
3.0564258098602295 -1.6162011623382568 -1.793064832687378 0.4630589485168457 0 1
3.0492284297943115 -1.6298437118530273 -1.7930892705917358 0.4630519151687622 0 1
3.0419726371765137 -1.6434569358825684 -1.7931139469146729 0.4630459249019623 0 1
3.0346484184265137 -1.6570507287979126 -1.793138861656189 0.4630391299724579 0 1
3.0272655487060547 -1.6705858707427979 -1.7931638956069946 0.46303287148475647 0 1
3.0198144912719727 -1.68411123752594 -1.7931891679763794 0.46302667260169983 0 1
3.012324094772339 -1.6975878477096558 -1.7932146787643433 0.4630197584629059 0 1
3.004755735397339 -1.7110449075698853 -1.7932406663894653 0.46301329135894775 0 1
2.997138500213623 -1.724453091621399 -1.7932662963867188 0.4630061089992523 0 1
1.5811620950698853 -0.9191699028015137 -0.948493480682373 0.43688446283340454 2915 14
1.5833300352096558 -0.9299023151397705 -0.9522732496261597 0.43515047430992126 2915 14
1.5855175256729126 -0.9407324194908142 -0.9561119079589844 0.4334019422531128 2915 14
1.5877636671066284 -0.9516698718070984 -0.9600114226341248 0.43164297938346863 2915 14
1.590029239654541 -0.962695300579071 -0.9639724493026733 0.4298679530620575 2915 14
1.5923436880111694 -0.9738280773162842 -0.9679954051971436 0.4280828833580017 2915 14
1.5946776866912842 -0.9850683212280273 -0.9720821976661682 0.42628252506256104 2915 14
1.5970605611801147 -0.9964159727096558 -0.976233184337616 0.42447060346603394 2915 14
1.5994726419448853 -1.0078710317611694 -0.9804497957229614 0.4226427674293518 2915 14
1.6019335985183716 -1.019433617591858 -0.9847344756126404 0.4208047091960907 2915 14
1.604433536529541 -1.031103491783142 -0.9890865683555603 0.41895440220832825 2915 14
1.60696280002594 -1.0428905487060547 -0.9935082793235779 0.41708844900131226 2915 14
1.6095311641693115 -1.0547949075698853 -0.99800044298172 0.4152117669582367 2915 14
1.612148404121399 -1.066835880279541 -1.002564787864685 0.41332101821899414 2915 14
1.6148046255111694 -1.0789843797683716 -1.0072021484375 0.41141748428344727 2915 14
1.6175097227096558 -1.0912597179412842 -1.011913537979126 0.40950268507003784 2915 14
1.6202539205551147 -1.103662133216858 -1.01670241355896 0.4075738191604614 2915 14
1.623046875 -1.1162011623382568 -1.0215667486190796 0.40563344955444336 2915 14
1.6258788108825684 -1.1288671493530273 -1.0265111923217773 0.4036791920661926 2915 14
1.628759741783142 -1.1416698694229126 -1.031536340713501 0.40171292424201965 2915 14
1.631689429283142 -1.1546190977096558 -1.03664231300354 0.39973530173301697 2915 14
1.6346582174301147 -1.1677050590515137 -1.0418338775634766 0.3977419435977936 2915 14
1.6376855373382568 -1.1809375286102295 -1.047108769416809 0.3957390785217285 2915 14
1.6407519578933716 -1.1943163871765137 -1.0524719953536987 0.39372092485427856 2915 14
1.643886685371399 -1.207851529121399 -1.0579239130020142 0.3916921019554138 2915 14
1.647060513496399 -1.2215527296066284 -1.0634649991989136 0.3896503746509552 2915 14
1.6502928733825684 -1.235390543937683 -1.0690990686416626 0.3875988721847534 2915 14
1.6535742282867432 -1.2494043111801147 -1.0748270750045776 0.3855326771736145 2915 14
1.6569139957427979 -1.263574242591858 -1.0806522369384766 0.383455753326416 2915 14
1.6603026390075684 -1.277919888496399 -1.0865752696990967 0.38136446475982666 2915 14
1.663759708404541 -1.2924511432647705 -1.0925981998443604 0.379261314868927 2915 14
1.667275309562683 -1.3071484565734863 -1.0987238883972168 0.3771486282348633 2915 14
2.713124990463257 -2.146718740463257 -1.7942326068878174 0.4627577066421509 0 1
2.7035741806030273 -2.1588377952575684 -1.7942651510238647 0.4627493917942047 0 1
2.693964719772339 -2.1709277629852295 -1.794297695159912 0.462740421295166 0 1
2.6842968463897705 -2.1829588413238525 -1.7943307161331177 0.462732195854187 0 1
2.6745800971984863 -2.1949706077575684 -1.7943639755249023 0.4627234637737274 0 1
2.664804697036743 -2.206913948059082 -1.794397234916687 0.4627153277397156 0 1
2.654980421066284 -2.218827962875366 -1.7944304943084717 0.46270591020584106 0 1
2.645097494125366 -2.2306933403015137 -1.794464111328125 0.4626978933811188 0 1
2.6351757049560547 -2.2425193786621094 -1.7944979667663574 0.46268850564956665 0 1
2.625185489654541 -2.2543065547943115 -1.7945319414138794 0.4626798927783966 0 1
2.6151463985443115 -2.2660350799560547 -1.7945661544799805 0.4626712203025818 0 1
2.6050682067871094 -2.2777342796325684 -1.794600486755371 0.4626619517803192 0 1
2.594921827316284 -2.289375066757202 -1.7946349382400513 0.46265342831611633 0 1
2.584726572036743 -2.300966739654541 -1.7946697473526 0.46264487504959106 0 1
2.5744922161102295 -2.3125293254852295 -1.794704556465149 0.4626356363296509 0 1
2.559873104095459 -2.320127010345459 -1.7917165756225586 0.5957806706428528 0 2
1.3508788347244263 -1.235390543937683 -0.9493626356124878 0.018845051527023315 2915 14
1.339941382408142 -1.236415982246399 -0.9455457925796509 0.32425636053085327 2915 14
1.3322460651397705 -1.2403711080551147 -0.9440162181854248 0.32478219270706177 2915 14
1.324550747871399 -1.244287133216858 -0.9424842596054077 0.3253101706504822 2915 14
1.316835880279541 -1.248144507408142 -0.9409502744674683 0.32584071159362793 2915 14
1.3091113567352295 -1.2519629001617432 -0.9394139051437378 0.32637351751327515 2915 14
1.3013769388198853 -1.2557226419448853 -0.9378752112388611 0.32690873742103577 2915 14
1.2936327457427979 -1.2594530582427979 -0.936334490776062 0.3274475336074829 2915 14
1.2858788967132568 -1.2631347179412842 -0.934792160987854 0.3279871344566345 2915 14
1.278115153312683 -1.2667577266693115 -0.9332476854324341 0.3285292685031891 2915 14
2.423349618911743 2.423349618911743 -1.7952479124069214 0.4661540389060974 0 1
2.4341015815734863 2.4124608039855957 -1.7952111959457397 0.466163694858551 0 1
2.4447851181030273 2.4015233516693115 -1.7951747179031372 0.4661734402179718 0 1
2.4554295539855957 2.3905370235443115 -1.7951382398605347 0.46618250012397766 0 1
2.4660253524780273 2.379521369934082 -1.7951022386550903 0.46619170904159546 0 1
2.476572275161743 2.3684375286102295 -1.795066237449646 0.46620088815689087 0 1
2.487060546875 2.357314348220825 -1.795030117034912 0.4662102162837982 0 1
2.497509717941284 2.3461523056030273 -1.7949944734573364 0.4662196636199951 0 1
2.5079002380371094 2.3349316120147705 -1.7949590682983398 0.466229110956192 0 1
2.518251895904541 2.323681592941284 -1.7949236631393433 0.46623796224594116 0 1
2.5285449028015137 2.3123631477355957 -1.7948886156082153 0.4662475883960724 0 1
2.5387890338897705 2.301015615463257 -1.7948534488677979 0.46625590324401855 0 1
2.5489842891693115 2.289619207382202 -1.794818639755249 0.4662657380104065 0 1
2.5591211318969727 2.2781736850738525 -1.7947839498519897 0.4662749171257019 0 1
2.569208860397339 2.2666990756988525 -1.79474937915802 0.46628350019454956 0 1
2.5792577266693115 2.2551562786102295 -1.7947152853012085 0.4662927985191345 0 1
2.589247941970825 2.243593692779541 -1.7946810722351074 0.4663008451461792 0 1
2.599179744720459 2.2319629192352295 -1.794647216796875 0.4663103520870209 0 1
2.609072208404541 2.2203025817871094 -1.7946133613586426 0.46631863713264465 0 1
2.618906259536743 2.2085936069488525 -1.7945797443389893 0.46632760763168335 0 1
2.6286816596984863 2.196845769882202 -1.794546127319336 0.46633610129356384 0 1
2.6384081840515137 2.18505859375 -1.7945128679275513 0.4663446247577667 0 1
2.648085832595825 2.173222541809082 -1.7944799661636353 0.46635332703590393 0 1
2.657705068588257 2.1613476276397705 -1.7944469451904297 0.4663620889186859 0 1
2.6672754287719727 2.149423837661743 -1.7944142818450928 0.46637019515037537 0 1
2.6767969131469727 2.137451171875 -1.794381856918335 0.46637922525405884 0 1
2.6862597465515137 2.1254491806030273 -1.7943493127822876 0.4663875699043274 0 1
2.6956639289855957 2.113398313522339 -1.7943172454833984 0.46639615297317505 0 1
2.705029249191284 2.101318359375 -1.7942852973937988 0.46640413999557495 0 1
2.7143261432647705 2.089189291000366 -1.7942534685134888 0.4664123058319092 0 1
2.723574161529541 2.077021360397339 -1.7942217588424683 0.4664205014705658 0 1
2.7327635288238525 2.0648045539855957 -1.7941902875900269 0.4664289057254791 0 1
