ply
format ascii 1.0
element vertex 1355
property float32 x
property float32 y
property float32 z
property float32 CosAngle
property uint32 ObjIdx
property uint32 ObjTag
end_header
14.7425 -11.4885 -0.5395 0.6131 0 3
14.8110 -11.4886 -0.5411 0.6113 0 3
14.8800 -11.4887 -0.5427 0.6095 0 3
14.9494 -11.4888 -0.5443 0.6078 0 3
15.0192 -11.4889 -0.5459 0.6060 0 3
15.0894 -11.4891 -0.5475 0.6042 0 3
19.3096 -14.6339 -0.6994 0.5942 0 4
19.4013 -14.6350 -0.7015 0.5924 0 4
19.4936 -14.6362 -0.7037 0.5906 0 4
19.5865 -14.6373 -0.7059 0.5887 0 4
19.6800 -14.6384 -0.7080 0.5869 0 4
19.7740 -14.6395 -0.7102 0.5851 0 4
19.8686 -14.6406 -0.7125 0.5833 0 4
19.9638 -14.6418 -0.7147 0.5815 0 4
20.0125 -14.6086 -0.7153 0.5796 0 4
20.1087 -14.6097 -0.7175 0.5778 0 4
20.2055 -14.6109 -0.7198 0.5760 0 4
20.3029 -14.6121 -0.7221 0.5741 0 4
20.3833 -14.6007 -0.7238 0.8137 0 3
20.3834 -14.5317 -0.7226 0.8150 0 3
20.3835 -14.4629 -0.7215 0.8163 0 3
20.3837 -14.3943 -0.7204 0.8176 0 3
20.3838 -14.3259 -0.7192 0.8189 0 3
20.3839 -14.2578 -0.7181 0.8202 0 3
20.3840 -14.1899 -0.7170 0.8215 0 3
20.3841 -14.1221 -0.7159 0.8227 0 3
20.3843 -14.0546 -0.7148 0.8240 0 3
20.3844 -13.9873 -0.7137 0.8253 0 3
20.3845 -13.9202 -0.7126 0.8265 0 3
20.3846 -13.8533 -0.7115 0.8278 0 3
20.3847 -13.7867 -0.7104 0.8291 0 3
20.3849 -13.7202 -0.7093 0.8303 0 3
20.3850 -13.6539 -0.7083 0.8316 0 3
20.3851 -13.5878 -0.7072 0.8328 0 3
20.4440 -13.5609 -0.7082 0.5511 0 3
20.5442 -13.5611 -0.7106 0.5493 0 3
20.6451 -13.5612 -0.7131 0.5474 0 3
20.7466 -13.5614 -0.7155 0.5455 0 3
20.8489 -13.5616 -0.7180 0.5436 0 3
20.9519 -13.5618 -0.7205 0.5417 0 3
21.0556 -13.5620 -0.7230 0.5399 0 3
21.1600 -13.5621 -0.7255 0.5380 0 3
21.2652 -13.5623 -0.7281 0.5361 0 3
21.3711 -13.5625 -0.7307 0.5342 0 3
21.4777 -13.5627 -0.7333 0.5323 0 3
21.5852 -13.5629 -0.7359 0.5304 0 3
21.6934 -13.5630 -0.7386 0.5285 0 3
21.8024 -13.5632 -0.7412 0.5266 0 3
21.9122 -13.5634 -0.7439 0.5247 0 3
22.0227 -13.5636 -0.7466 0.5228 0 3
22.1365 -13.5652 -0.7495 0.4256 0 3
22.2707 -13.5788 -0.7530 0.5186 0 3
22.3834 -13.5787 -0.7558 0.5167 0 3
22.4970 -13.5787 -0.7586 0.5148 0 3
22.6114 -13.5786 -0.7614 0.5129 0 3
22.7267 -13.5786 -0.7643 0.5109 0 3
22.8429 -13.5785 -0.7671 0.5090 0 3
22.9599 -13.5784 -0.7700 0.5071 0 3
23.0778 -13.5783 -0.7730 0.5052 0 3
23.1870 -13.5727 -0.7756 0.5939 0 3
23.2950 -13.5657 -0.7782 0.5016 0 3
23.4160 -13.5659 -0.7812 0.4996 0 3
23.5379 -13.5661 -0.7843 0.4977 0 3
23.6609 -13.5663 -0.7873 0.4957 0 3
23.7848 -13.5666 -0.7905 0.4938 0 3
23.9097 -13.5668 -0.7936 0.4918 0 3
24.0355 -13.5670 -0.7968 0.4899 0 3
24.1624 -13.5672 -0.7999 0.4879 0 3
24.2903 -13.5674 -0.8032 0.4860 0 3
24.4193 -13.5676 -0.8064 0.4840 0 3
24.5492 -13.5679 -0.8097 0.4820 0 3
24.6803 -13.5681 -0.8130 0.4801 0 3
24.8124 -13.5683 -0.8164 0.4781 0 3
24.9457 -13.5685 -0.8198 0.4761 0 3
25.0800 -13.5687 -0.8232 0.4742 0 3
25.2155 -13.5690 -0.8266 0.4722 0 3
25.3521 -13.5692 -0.8301 0.4702 0 3
25.4898 -13.5695 -0.8336 0.4682 0 3
25.6287 -13.5697 -0.8371 0.4662 0 3
25.7689 -13.5699 -0.8407 0.4643 0 3
25.9102 -13.5702 -0.8443 0.4623 0 3
26.0527 -13.5704 -0.8480 0.4603 0 3
26.1965 -13.5706 -0.8517 0.4583 0 3
26.3520 -13.5763 -0.8557 0.4563 0 3
26.4977 -13.5762 -0.8595 0.4543 0 3
26.6446 -13.5761 -0.8633 0.4523 0 3
26.7929 -13.5760 -0.8671 0.4503 0 3
26.9425 -13.5759 -0.8709 0.4484 0 3
27.0934 -13.5758 -0.8748 0.4464 0 3
27.2457 -13.5757 -0.8787 0.4444 0 3
27.3993 -13.5756 -0.8827 0.4424 0 3
27.5543 -13.5755 -0.8867 0.4404 0 3
27.7064 -13.5732 -0.8906 0.4382 0 3
27.8651 -13.5735 -0.8948 0.4362 0 3
28.0252 -13.5737 -0.8989 0.4342 0 3
28.1868 -13.5740 -0.9031 0.4322 0 3
28.3499 -13.5743 -0.9074 0.4302 0 3
28.5146 -13.5746 -0.9117 0.4281 0 3
28.6809 -13.5748 -0.9160 0.4261 0 3
28.8487 -13.5751 -0.9204 0.4241 0 3
29.0182 -13.5754 -0.9248 0.4220 0 3
44.5121 -20.7023 -1.4171 0.9075 0 4
44.5124 -20.5811 -1.4157 0.9084 0 4
13.8256 -6.3549 -0.4393 0.8184 0 6
13.8254 -6.3172 -0.4388 0.9686 0 6
13.8444 -6.2884 -0.4390 0.8721 0 6
13.8988 -6.2755 -0.4402 0.2334 0 6
44.5139 -19.9786 -1.4085 0.9130 0 4
44.5141 -19.8589 -1.4071 0.9139 0 4
44.5144 -19.7393 -1.4057 0.9148 0 4
44.5147 -19.6201 -1.4043 0.9158 0 4
44.5168 -19.5017 -1.4030 0.9169 0 4
44.5172 -19.3830 -1.4016 0.9178 0 4
44.5175 -19.2644 -1.4003 0.9187 0 4
44.5179 -19.1460 -1.3989 0.9196 0 4
44.5183 -19.0279 -1.3976 0.9205 0 4
44.5187 -18.9101 -1.3963 0.9213 0 4
44.5190 -18.7925 -1.3950 0.9222 0 4
44.5194 -18.6751 -1.3937 0.9231 0 4
44.5198 -18.5578 -1.3924 0.9239 0 4
44.5201 -18.4408 -1.3911 0.9248 0 4
44.5205 -18.3240 -1.3898 0.9256 0 4
44.5209 -18.2075 -1.3885 0.9265 0 4
44.5212 -18.0911 -1.3873 0.9273 0 4
22.8081 -9.2085 -0.7101 0.9276 0 20
22.8082 -9.1490 -0.7094 0.9285 0 20
44.5223 -17.7433 -1.3836 0.9298 0 4
22.8034 -9.0285 -0.7080 0.9301 0 20
22.8501 -8.9877 -0.7088 0.3643 0 20
22.8521 -8.9294 -0.7083 0.9318 0 20
22.8522 -8.8703 -0.7076 0.9326 0 20
22.8523 -8.8114 -0.7070 0.9334 0 20
22.8524 -8.7526 -0.7064 0.9342 0 20
22.8525 -8.6939 -0.7058 0.9350 0 20
22.8526 -8.6353 -0.7052 0.9358 0 20
22.8527 -8.5768 -0.7046 0.9366 0 20
22.8528 -8.5184 -0.7041 0.9373 0 20
22.8529 -8.4600 -0.7035 0.9381 0 20
22.8530 -8.4018 -0.7029 0.9389 0 20
22.8531 -8.3437 -0.7023 0.9397 0 20
22.8532 -8.2856 -0.7017 0.9404 0 20
22.8533 -8.2277 -0.7012 0.9412 0 20
22.8534 -8.1698 -0.7006 0.9419 0 20
22.8116 -8.0972 -0.6988 0.4313 0 20
22.8052 -8.0374 -0.6980 0.9434 0 20
22.9127 -8.0175 -0.7008 0.3285 0 20
22.8104 -7.9243 -0.6971 0.9449 0 20
22.8105 -7.8670 -0.6965 0.9456 0 20
22.9133 -7.8450 -0.6992 0.9464 0 20
26.1591 -8.8908 -0.7976 0.9471 0 20
26.1593 -8.8254 -0.7970 0.9478 0 20
26.1594 -8.7601 -0.7964 0.9485 0 20
26.1595 -8.6949 -0.7958 0.9492 0 20
26.1596 -8.6298 -0.7952 0.9499 0 20
26.1597 -8.5647 -0.7946 0.9506 0 20
26.1392 -8.4931 -0.7934 0.9513 0 20
44.5340 -14.3595 -1.3508 0.9523 0 4
26.1156 -8.3561 -0.7916 0.9527 0 20
26.1157 -8.2915 -0.7910 0.9533 0 20
44.5348 -14.0295 -1.3479 0.9543 0 4
44.5351 -13.9198 -1.3470 0.9549 0 4
44.5354 -13.8103 -1.3460 0.9556 0 4
44.5357 -13.7009 -1.3451 0.9563 0 4
44.5360 -13.5917 -1.3442 0.9569 0 4
44.5362 -13.4826 -1.3433 0.9576 0 4
44.5365 -13.3737 -1.3424 0.9582 0 4
44.5368 -13.2649 -1.3415 0.9588 0 4
44.5371 -13.1562 -1.3406 0.9595 0 4
44.5374 -13.0477 -1.3397 0.9601 0 4
44.5377 -12.9394 -1.3389 0.9607 0 4
44.5379 -12.8311 -1.3380 0.9613 0 4
44.5382 -12.7230 -1.3372 0.9620 0 4
44.5385 -12.6151 -1.3363 0.9626 0 4
44.5388 -12.5073 -1.3355 0.9632 0 4
44.5333 -12.3980 -1.3345 0.9635 0 4
44.5335 -12.2904 -1.3336 0.9641 0 4
44.5337 -12.1830 -1.3328 0.9647 0 4
44.5338 -12.0757 -1.3320 0.9653 0 4
44.5340 -11.9686 -1.3312 0.9659 0 4
44.5342 -11.8615 -1.3304 0.9665 0 4
44.5344 -11.7546 -1.3296 0.9670 0 4
44.5346 -11.6478 -1.3289 0.9676 0 4
44.5348 -11.5412 -1.3281 0.9682 0 4
44.5350 -11.4346 -1.3273 0.9687 0 4
44.5351 -11.3282 -1.3266 0.9693 0 4
44.5353 -11.2219 -1.3258 0.9698 0 4
44.5355 -11.1158 -1.3251 0.9704 0 4
44.5357 -11.0098 -1.3243 0.9709 0 4
44.5359 -10.9038 -1.3236 0.9714 0 4
44.5360 -10.7980 -1.3229 0.9719 0 4
44.5362 -10.6923 -1.3222 0.9725 0 4
44.5364 -10.5867 -1.3215 0.9730 0 4
44.5366 -10.4812 -1.3208 0.9735 0 4
44.5368 -10.3758 -1.3201 0.9740 0 4
44.5370 -10.2705 -1.3194 0.9745 0 4
44.5371 -10.1654 -1.3188 0.9750 0 4
44.5374 -10.0603 -1.3181 0.9799 0 4
44.5398 -9.9559 -1.3175 0.9804 0 4
44.5488 -9.8530 -1.3171 0.8419 0 4
44.6351 -9.7670 -1.3190 0.8407 0 4
44.8716 -9.7133 -1.3253 0.1844 0 4
45.3697 -9.7146 -1.3394 0.2076 0 4
45.8763 -9.7155 -1.3537 0.2054 0 4
46.3938 -9.7163 -1.3683 0.2033 0 4
46.9226 -9.7172 -1.3833 0.2011 0 4
47.2869 -9.6821 -1.3934 0.9813 0 4
47.8163 -9.6788 -1.4083 0.1889 0 4
48.4022 -9.6844 -1.4250 0.1867 0 4
49.0022 -9.6901 -1.4420 0.1845 0 4
49.3071 -6.3414 -1.4351 0.9481 304 6
29.0384 -0.7169 -0.8385 0.9920 426 14
29.0425 -0.6518 -0.8386 0.9971 426 14
29.0474 -0.5867 -0.8387 0.9985 426 14
27.5609 -0.3711 -0.7957 0.2868 426 14
27.4726 -0.3082 -0.7931 0.3122 426 14
27.4624 -0.2465 -0.7928 0.3412 426 14
27.4648 -0.1849 -0.7929 0.3412 426 14
27.4672 -0.1233 -0.7929 0.3411 426 14
27.4696 -0.0616 -0.7930 0.3411 426 14
27.4701 0.0000 -0.7930 0.3410 426 14
27.4702 0.0617 -0.7930 0.3904 426 14
27.4700 0.1233 -0.7930 0.3904 426 14
27.4699 0.1850 -0.7930 0.3904 426 14
15.2321 0.1367 -0.4397 0.4792 412 13
15.1947 0.1705 -0.4387 0.8219 412 13
15.1795 0.2044 -0.4382 0.9598 412 13
15.1764 0.2384 -0.4382 0.9834 412 13
15.1847 0.2726 -0.4384 0.9016 412 13
15.2082 0.3072 -0.4391 0.6771 412 13
27.4658 0.6165 -0.7931 0.3413 426 14
27.4635 0.6781 -0.7931 0.3413 426 14
27.4719 0.7400 -0.7933 0.3037 426 14
27.5628 0.8043 -0.7960 0.2785 426 14
29.0487 1.0434 -0.8391 0.9994 426 14
29.0430 1.1085 -0.8390 0.9979 426 14
35.0242 2.6774 -1.0140 0.6342 0 6
35.0015 2.7547 -1.0135 0.9653 0 6
22.2369 2.5561 -0.6462 0.9965 306 6
22.2488 2.6080 -0.6467 0.6185 306 6
48.1945 11.4562 -1.4300 0.2423 0 3
47.7400 11.4614 -1.4173 0.2445 0 3
47.2957 11.4671 -1.4049 0.2481 0 3
46.8596 11.4727 -1.3927 0.2503 0 3
46.4310 11.4783 -1.3807 0.2524 0 3
46.0097 11.4837 -1.3689 0.2546 0 3
45.5953 11.4891 -1.3574 0.2567 0 3
45.1880 11.4943 -1.3460 0.2589 0 3
44.7875 11.4995 -1.3348 0.2611 0 3
44.3934 11.5046 -1.3239 0.2632 0 3
44.0059 11.5096 -1.3131 0.2654 0 3
43.6246 11.5145 -1.3025 0.2676 0 3
43.2494 11.5194 -1.2920 0.2697 0 3
42.8801 11.5241 -1.2818 0.2719 0 3
42.5167 11.5288 -1.2717 0.2740 0 3
42.1589 11.5334 -1.2618 0.2762 0 3
41.8068 11.5380 -1.2520 0.2783 0 3
41.4600 11.5425 -1.2424 0.2805 0 3
41.1184 11.5469 -1.2329 0.2826 0 3
40.7822 11.5512 -1.2236 0.2848 0 3
40.6129 11.6018 -1.2193 0.9608 0 3
40.6131 11.7005 -1.2201 0.9602 0 3
40.1946 11.6776 -1.2083 0.9911 0 5
39.3456 11.5268 -1.1836 0.9908 0 5
38.5351 11.3833 -1.1599 0.1351 0 5
37.8863 11.2841 -1.1412 0.1373 0 5
37.1516 11.1561 -1.1198 0.1395 0 5
36.5448 11.0634 -1.1022 0.1417 0 5
35.9567 10.9735 -1.0853 0.1440 0 5
40.6144 12.4946 -1.2267 0.9550 0 3
40.6146 12.5945 -1.2275 0.9543 0 3
40.6148 12.6946 -1.2284 0.9537 0 3
40.6149 12.7947 -1.2293 0.9530 0 3
40.6151 12.8950 -1.2301 0.9523 0 3
40.6153 12.9955 -1.2310 0.9516 0 3
40.6154 13.0961 -1.2319 0.9509 0 3
40.6156 13.1968 -1.2328 0.9502 0 3
33.1970 10.8688 -1.0084 0.3306 0 5
40.6159 13.3987 -1.2346 0.9488 0 3
32.7291 10.8785 -0.9956 0.3348 0 5
32.5530 10.9012 -0.9910 0.9412 0 5
32.2321 10.8742 -0.9820 0.3391 0 5
32.0647 10.8980 -0.9776 0.9397 0 5
31.7877 10.8835 -0.9699 0.3433 0 5
31.5930 10.8961 -0.9647 0.9381 0 5
31.3144 10.8787 -0.9569 0.3475 0 5
31.1045 10.8840 -0.9513 0.9366 0 5
30.9451 10.9063 -0.9472 0.9358 0 5
30.6840 10.8917 -0.9399 0.3538 0 5
30.4792 10.8961 -0.9344 0.9342 0 5
26.0922 9.3938 -0.8006 0.3382 0 3
25.9095 9.3937 -0.7956 0.3404 0 3
25.7290 9.3937 -0.7907 0.3425 0 3
25.5506 9.3936 -0.7859 0.3446 0 3
25.3745 9.3935 -0.7811 0.3467 0 3
25.2005 9.3935 -0.7764 0.3488 0 3
25.0285 9.3934 -0.7717 0.3509 0 3
24.8587 9.3933 -0.7671 0.3530 0 3
24.7908 9.4313 -0.7657 0.9344 0 3
24.7908 9.4950 -0.7663 0.9336 0 3
24.7908 9.5589 -0.7670 0.9328 0 3
24.7907 9.6228 -0.7677 0.9320 0 3
24.7907 9.6869 -0.7683 0.9312 0 3
24.7907 9.7510 -0.7690 0.9303 0 3
24.6784 9.7709 -0.7662 0.3761 0 3
24.5209 9.7723 -0.7620 0.3782 0 3
24.3653 9.7736 -0.7578 0.3803 0 3
24.2113 9.7750 -0.7537 0.3824 0 3
24.0589 9.7763 -0.7497 0.3844 0 3
22.9668 9.3926 -0.7163 0.3780 0 3
22.8203 9.3926 -0.7124 0.3801 0 3
22.6755 9.3925 -0.7085 0.3822 0 3
22.5322 9.3925 -0.7047 0.3843 0 3
22.3905 9.3924 -0.7009 0.3863 0 3
22.2503 9.3924 -0.6972 0.3884 0 3
22.1115 9.3923 -0.6935 0.3905 0 3
21.9742 9.3923 -0.6899 0.3925 0 3
21.8384 9.3922 -0.6863 0.3946 0 3
21.7039 9.3921 -0.6827 0.3966 0 3
21.5709 9.3921 -0.6792 0.3987 0 3
21.4392 9.3921 -0.6757 0.4008 0 3
21.3089 9.3920 -0.6722 0.4028 0 3
21.1799 9.3920 -0.6688 0.4049 0 3
21.0521 9.3919 -0.6655 0.4069 0 3
20.9257 9.3919 -0.6621 0.4090 0 3
20.9096 9.4411 -0.6623 0.9109 0 3
20.9095 9.4976 -0.6630 0.9100 0 3
17.5872 8.0361 -0.5582 0.4170 0 3
17.4837 8.0363 -0.5555 0.4190 0 3
17.4315 8.0597 -0.5544 0.9389 0 3
17.4308 8.1070 -0.5549 0.9057 0 3
17.4309 8.1546 -0.5555 0.9048 0 3
17.4310 8.2024 -0.5561 0.9038 0 3
17.4311 8.2503 -0.5567 0.9029 0 3
17.3954 8.2812 -0.5562 0.4312 0 3
17.2957 8.2814 -0.5536 0.4332 0 3
17.1968 8.2816 -0.5510 0.4352 0 3
17.0989 8.2818 -0.5485 0.4372 0 3
17.0019 8.2819 -0.5459 0.4393 0 3
16.9058 8.2821 -0.5434 0.4413 0 3
16.8105 8.2822 -0.5410 0.4433 0 3
16.7161 8.2824 -0.5385 0.4453 0 3
16.6226 8.2826 -0.5361 0.4473 0 3
16.5299 8.2827 -0.5337 0.4493 0 3
16.4380 8.2829 -0.5314 0.4513 0 3
16.3469 8.2830 -0.5290 0.4533 0 3
16.2566 8.2832 -0.5267 0.4553 0 3
16.1671 8.2833 -0.5244 0.4573 0 3
16.0784 8.2835 -0.5221 0.4593 0 3
15.9905 8.2836 -0.5199 0.4613 0 3
15.9033 8.2838 -0.5176 0.4633 0 3
15.8168 8.2839 -0.5154 0.4653 0 3
15.7311 8.2841 -0.5132 0.4672 0 3
15.6461 8.2842 -0.5111 0.4692 0 3
15.5618 8.2844 -0.5089 0.4712 0 3
15.4783 8.2845 -0.5068 0.4732 0 3
15.3954 8.2846 -0.5047 0.4752 0 3
15.3132 8.2848 -0.5026 0.4771 0 3
15.2317 8.2849 -0.5005 0.4791 0 3
15.1508 8.2851 -0.4985 0.4811 0 3
15.0707 8.2852 -0.4965 0.4830 0 3
14.9911 8.2853 -0.4945 0.4850 0 3
14.9122 8.2855 -0.4925 0.4870 0 3
14.8340 8.2856 -0.4905 0.4889 0 3
14.7563 8.2857 -0.4885 0.4909 0 3
14.6793 8.2859 -0.4866 0.4928 0 3
14.6029 8.2860 -0.4847 0.4948 0 3
14.5271 8.2861 -0.4828 0.4967 0 3
14.4518 8.2863 -0.4809 0.4987 0 3
14.3772 8.2864 -0.4790 0.5006 0 3
14.3031 8.2865 -0.4772 0.5026 0 3
14.2296 8.2866 -0.4754 0.5045 0 3
14.1567 8.2868 -0.4735 0.5064 0 3
14.0843 8.2869 -0.4717 0.5084 0 3
14.0125 8.2870 -0.4700 0.5103 0 3
8.2490 4.9035 -0.2770 0.1449 0 6
8.2139 4.9076 -0.2762 0.8033 0 6
8.1893 4.9178 -0.2758 0.8046 0 6
8.1647 4.9280 -0.2753 0.8059 0 6
8.1540 4.9466 -0.2753 0.9880 0 6
8.1458 4.9666 -0.2754 0.9876 0 6
8.1375 4.9867 -0.2755 0.9873 0 6
8.1312 5.0079 -0.2757 0.5846 0 6
8.1453 5.0419 -0.2765 0.5828 0 6
8.1595 5.0760 -0.2774 0.5810 0 6
13.2566 8.2882 -0.4513 0.5313 0 3
13.1908 8.2884 -0.4497 0.5332 0 3
13.1255 8.2885 -0.4481 0.5351 0 3
13.0607 8.2886 -0.4465 0.5370 0 3
12.6136 8.0446 -0.4319 0.5389 0 3
12.5515 8.0447 -0.4304 0.5408 0 3
12.4899 8.0448 -0.4289 0.5427 0 3
12.4287 8.0449 -0.4274 0.5446 0 3
12.4012 8.0666 -0.4271 0.8371 0 3
12.4013 8.1063 -0.4277 0.8359 0 3
12.4013 8.1461 -0.4283 0.8346 0 3
12.4014 8.1861 -0.4290 0.8334 0 3
12.4015 8.2261 -0.4296 0.8322 0 3
12.4015 8.2663 -0.4302 0.8309 0 3
12.4016 8.3066 -0.4309 0.8297 0 3
12.4017 8.3471 -0.4315 0.8284 0 3
12.4017 8.3876 -0.4322 0.8272 0 3
12.4018 8.4283 -0.4329 0.8259 0 3
12.4019 8.4691 -0.4335 0.8246 0 3
12.4019 8.5100 -0.4342 0.8234 0 3
12.4020 8.5510 -0.4349 0.8221 0 3
12.4021 8.5922 -0.4355 0.8208 0 3
12.4021 8.6335 -0.4362 0.8195 0 3
12.4022 8.6749 -0.4369 0.8182 0 3
12.4023 8.7165 -0.4376 0.8169 0 3
12.3857 8.7464 -0.4377 0.5764 0 3
12.3269 8.7464 -0.4363 0.5783 0 3
12.2684 8.7464 -0.4349 0.5801 0 3
12.2103 8.7464 -0.4336 0.5819 0 3
12.1526 8.7464 -0.4322 0.5837 0 3
12.0953 8.7463 -0.4309 0.5855 0 3
12.0383 8.7463 -0.4296 0.5874 0 3
11.9816 8.7463 -0.4282 0.5892 0 3
11.9253 8.7463 -0.4269 0.5910 0 3
11.8693 8.7463 -0.4256 0.5928 0 3
11.8137 8.7463 -0.4243 0.5946 0 3
11.7584 8.7463 -0.4230 0.5964 0 3
11.7035 8.7463 -0.4218 0.5982 0 3
11.6489 8.7463 -0.4205 0.6000 0 3
11.5946 8.7462 -0.4193 0.6018 0 3
11.5406 8.7462 -0.4180 0.6036 0 3
11.4869 8.7462 -0.4168 0.6054 0 3
11.4336 8.7462 -0.4156 0.6071 0 3
11.3806 8.7462 -0.4143 0.6089 0 3
11.3279 8.7462 -0.4131 0.6107 0 3
11.2754 8.7462 -0.4119 0.6125 0 3
11.2233 8.7462 -0.4108 0.6142 0 3
11.1715 8.7462 -0.4096 0.6160 0 3
11.1200 8.7461 -0.4084 0.6178 0 3
11.0688 8.7461 -0.4072 0.6195 0 3
11.0179 8.7461 -0.4061 0.6213 0 3
10.9672 8.7461 -0.4049 0.6231 0 3
10.9169 8.7461 -0.4038 0.6248 0 3
10.8668 8.7461 -0.4027 0.6266 0 3
10.8170 8.7461 -0.4016 0.6283 0 3
10.7675 8.7461 -0.4005 0.6300 0 3
10.7182 8.7460 -0.3993 0.6318 0 3
10.6692 8.7460 -0.3983 0.6335 0 3
10.6205 8.7460 -0.3972 0.6353 0 3
10.5721 8.7460 -0.3961 0.6370 0 3
10.5239 8.7460 -0.3950 0.6387 0 3
10.4760 8.7460 -0.3940 0.6404 0 3
10.4283 8.7460 -0.3929 0.6422 0 3
10.3809 8.7460 -0.3919 0.6439 0 3
10.3408 8.7519 -0.3911 0.9965 0 3
10.3309 8.7834 -0.3914 0.7617 0 3
10.3309 8.8234 -0.3922 0.7602 0 3
10.3309 8.8636 -0.3930 0.7588 0 3
10.3309 8.9039 -0.3937 0.7573 0 3
10.3309 8.9444 -0.3945 0.7558 0 3
10.3309 8.9850 -0.3952 0.7544 0 3
10.3308 9.0258 -0.3960 0.7529 0 3
10.3308 9.0668 -0.3968 0.7514 0 3
10.3308 9.1079 -0.3976 0.7499 0 3
10.3308 9.1492 -0.3984 0.7485 0 3
10.3308 9.1906 -0.3992 0.7470 0 3
10.3308 9.2322 -0.4000 0.7455 0 3
10.3308 9.2740 -0.4008 0.7440 0 3
10.3308 9.3160 -0.4016 0.7425 0 3
10.3109 9.3400 -0.4016 0.6693 0 3
10.2644 9.3399 -0.4006 0.6709 0 3
10.2181 9.3398 -0.3996 0.6726 0 3
10.1721 9.3397 -0.3986 0.6742 0 3
10.1262 9.3396 -0.3977 0.6759 0 3
10.0806 9.3395 -0.3967 0.6775 0 3
10.0352 9.3393 -0.3957 0.6792 0 3
9.9901 9.3392 -0.3948 0.6808 0 3
9.9451 9.3391 -0.3938 0.6825 0 3
9.9004 9.3390 -0.3929 0.6841 0 3
9.8559 9.3389 -0.3920 0.6858 0 3
9.8116 9.3388 -0.3910 0.6874 0 3
9.7675 9.3387 -0.3901 0.6890 0 3
9.7236 9.3386 -0.3892 0.6906 0 3
9.6800 9.3385 -0.3883 0.6959 0 3
9.6367 9.3387 -0.3874 0.6975 0 3
8.9850 8.7463 -0.3620 0.6988 0 3
8.9448 8.7464 -0.3611 0.7004 0 3
8.9049 8.7464 -0.3603 0.7020 0 3
8.8651 8.7465 -0.3595 0.7036 0 3
8.8255 8.7466 -0.3587 0.7052 0 3
8.7860 8.7467 -0.3579 0.7068 0 3
11.4830 -11.4829 -0.6028 0.7054 0 3
11.5347 -11.4830 -0.6042 0.7038 0 3
11.5867 -11.4831 -0.6056 0.7022 0 3
11.6389 -11.4832 -0.6070 0.7006 0 3
11.6914 -11.4833 -0.6083 0.6990 0 3
11.7441 -11.4834 -0.6097 0.6974 0 3
11.7970 -11.4835 -0.6112 0.6958 0 3
11.8502 -11.4836 -0.6126 0.6942 0 3
11.9036 -11.4837 -0.6140 0.6926 0 3
11.9573 -11.4837 -0.6154 0.6910 0 3
12.0112 -11.4838 -0.6169 0.6894 0 3
12.0654 -11.4839 -0.6183 0.6877 0 3
12.1198 -11.4840 -0.6198 0.6861 0 3
12.1745 -11.4841 -0.6213 0.6845 0 3
12.2295 -11.4842 -0.6228 0.6828 0 3
12.2847 -11.4843 -0.6243 0.6812 0 3
12.3402 -11.4844 -0.6258 0.6796 0 3
12.3960 -11.4845 -0.6273 0.6779 0 3
12.4520 -11.4846 -0.6288 0.6763 0 3
12.5083 -11.4847 -0.6304 0.6746 0 3
12.5649 -11.4848 -0.6319 0.6730 0 3
12.6217 -11.4849 -0.6335 0.6713 0 3
12.6789 -11.4850 -0.6351 0.6696 0 3
12.7363 -11.4851 -0.6366 0.6680 0 3
12.7941 -11.4852 -0.6382 0.6663 0 3
12.8521 -11.4853 -0.6399 0.6646 0 3
12.9104 -11.4854 -0.6415 0.6629 0 3
12.9690 -11.4855 -0.6431 0.6613 0 3
13.0278 -11.4855 -0.6447 0.6596 0 3
13.0870 -11.4856 -0.6464 0.6579 0 3
13.1466 -11.4858 -0.6481 0.6562 0 3
13.2064 -11.4859 -0.6497 0.6545 0 3
13.2665 -11.4860 -0.6514 0.6528 0 3
13.3269 -11.4861 -0.6531 0.6511 0 3
13.3877 -11.4862 -0.6548 0.6494 0 3
13.4487 -11.4863 -0.6566 0.6477 0 3
13.5101 -11.4864 -0.6583 0.6460 0 3
13.5719 -11.4865 -0.6600 0.6443 0 3
13.6339 -11.4866 -0.6618 0.6426 0 3
13.6963 -11.4867 -0.6636 0.6409 0 3
13.7590 -11.4868 -0.6654 0.6391 0 3
13.8221 -11.4869 -0.6672 0.6374 0 3
13.8855 -11.4870 -0.6690 0.6357 0 3
13.9492 -11.4871 -0.6708 0.6339 0 3
14.0133 -11.4872 -0.6727 0.6322 0 3
14.0778 -11.4873 -0.6745 0.6305 0 3
14.1426 -11.4875 -0.6764 0.6287 0 3
14.2077 -11.4876 -0.6783 0.6270 0 3
14.2733 -11.4877 -0.6802 0.6252 0 3
14.3392 -11.4878 -0.6821 0.6235 0 3
14.4054 -11.4879 -0.6840 0.6217 0 3
14.4721 -11.4880 -0.6859 0.6200 0 3
14.5391 -11.4881 -0.6879 0.6182 0 3
14.6065 -11.4882 -0.6898 0.6165 0 3
14.6743 -11.4884 -0.6918 0.6147 0 3
14.7425 -11.4885 -0.6938 0.6129 0 3
14.8111 -11.4886 -0.6958 0.6111 0 3
14.8800 -11.4887 -0.6979 0.6094 0 3
14.9494 -11.4888 -0.6999 0.6076 0 3
15.0192 -11.4889 -0.7020 0.6058 0 3
15.0894 -11.4891 -0.7040 0.6040 0 3
19.3096 -14.6339 -0.8994 0.5940 0 4
19.4013 -14.6351 -0.9022 0.5922 0 4
19.4937 -14.6362 -0.9049 0.5904 0 4
19.5865 -14.6373 -0.9077 0.5886 0 4
19.6800 -14.6384 -0.9105 0.5868 0 4
19.7740 -14.6395 -0.9133 0.5850 0 4
19.8686 -14.6406 -0.9162 0.5831 0 4
19.9638 -14.6418 -0.9191 0.5813 0 4
20.0126 -14.6086 -0.9198 0.5795 0 4
20.1087 -14.6097 -0.9227 0.5777 0 4
20.2055 -14.6109 -0.9256 0.5758 0 4
20.3029 -14.6121 -0.9286 0.5740 0 4
20.3825 -14.6001 -0.9307 0.8135 0 3
20.3826 -14.5310 -0.9292 0.8148 0 3
20.3827 -14.4623 -0.9278 0.8161 0 3
20.3828 -14.3937 -0.9263 0.8174 0 3
20.3829 -14.3254 -0.9248 0.8187 0 3
20.3831 -14.2572 -0.9234 0.8200 0 3
20.3832 -14.1893 -0.9220 0.8213 0 3
20.3833 -14.1216 -0.9205 0.8225 0 3
20.3834 -14.0541 -0.9191 0.8238 0 3
20.3835 -13.9868 -0.9177 0.8251 0 3
20.3837 -13.9197 -0.9163 0.8263 0 3
20.3838 -13.8528 -0.9149 0.8276 0 3
20.3839 -13.7861 -0.9135 0.8289 0 3
20.3840 -13.7196 -0.9121 0.8301 0 3
20.3841 -13.6533 -0.9108 0.8314 0 3
20.3842 -13.5872 -0.9094 0.8326 0 3
20.4440 -13.5609 -0.9107 0.5510 0 3
20.5442 -13.5611 -0.9138 0.5491 0 3
20.6451 -13.5612 -0.9170 0.5472 0 3
20.7466 -13.5614 -0.9201 0.5454 0 3
20.8489 -13.5616 -0.9233 0.5435 0 3
20.9519 -13.5618 -0.9265 0.5416 0 3
21.0556 -13.5620 -0.9297 0.5397 0 3
21.1600 -13.5621 -0.9330 0.5378 0 3
21.2652 -13.5623 -0.9363 0.5359 0 3
21.3711 -13.5625 -0.9396 0.5340 0 3
21.4777 -13.5627 -0.9430 0.5321 0 3
21.5852 -13.5629 -0.9463 0.5302 0 3
21.6934 -13.5630 -0.9498 0.5283 0 3
21.8024 -13.5632 -0.9532 0.5264 0 3
21.9121 -13.5634 -0.9567 0.5245 0 3
22.0227 -13.5636 -0.9602 0.5226 0 3
22.1341 -13.5638 -0.9637 0.5207 0 3
22.2463 -13.5640 -0.9672 0.5188 0 3
22.3594 -13.5642 -0.9708 0.5169 0 3
22.4733 -13.5644 -0.9744 0.5149 0 3
22.5880 -13.5646 -0.9781 0.5130 0 3
22.7036 -13.5647 -0.9818 0.5111 0 3
22.8200 -13.5649 -0.9855 0.5092 0 3
22.9374 -13.5651 -0.9893 0.5072 0 3
23.0557 -13.5653 -0.9930 0.5053 0 3
23.1748 -13.5655 -0.9969 0.5034 0 3
23.2949 -13.5657 -1.0007 0.5014 0 3
23.4160 -13.5659 -1.0046 0.4995 0 3
23.5379 -13.5661 -1.0085 0.4975 0 3
23.6609 -13.5663 -1.0125 0.4956 0 3
23.7848 -13.5666 -1.0165 0.4936 0 3
23.9096 -13.5668 -1.0205 0.4917 0 3
24.0355 -13.5670 -1.0246 0.4897 0 3
24.1624 -13.5672 -1.0287 0.4878 0 3
24.2903 -13.5674 -1.0328 0.4858 0 3
24.4193 -13.5676 -1.0370 0.4839 0 3
24.5492 -13.5679 -1.0412 0.4819 0 3
24.6803 -13.5681 -1.0455 0.4799 0 3
24.8124 -13.5683 -1.0498 0.4780 0 3
24.9456 -13.5685 -1.0542 0.4760 0 3
25.0800 -13.5687 -1.0586 0.4740 0 3
25.2155 -13.5690 -1.0630 0.4721 0 3
25.3520 -13.5692 -1.0675 0.4701 0 3
25.4898 -13.5695 -1.0720 0.4681 0 3
25.6287 -13.5697 -1.0765 0.4661 0 3
25.7688 -13.5699 -1.0811 0.4641 0 3
25.9102 -13.5702 -1.0858 0.4621 0 3
26.0527 -13.5704 -1.0905 0.4602 0 3
26.1965 -13.5706 -1.0952 0.4582 0 3
26.3415 -13.5709 -1.1000 0.4562 0 3
26.4878 -13.5711 -1.1048 0.4542 0 3
26.6355 -13.5714 -1.1097 0.4522 0 3
26.7843 -13.5716 -1.1147 0.4502 0 3
26.9345 -13.5719 -1.1196 0.4482 0 3
27.0861 -13.5721 -1.1247 0.4462 0 3
27.2391 -13.5724 -1.1298 0.4442 0 3
27.3935 -13.5727 -1.1349 0.4421 0 3
27.5492 -13.5729 -1.1401 0.4401 0 3
27.7064 -13.5732 -1.1453 0.4381 0 3
27.8651 -13.5735 -1.1506 0.4361 0 3
28.0252 -13.5737 -1.1560 0.4341 0 3
28.1868 -13.5740 -1.1614 0.4321 0 3
28.3500 -13.5743 -1.1668 0.4300 0 3
28.5146 -13.5746 -1.1724 0.4280 0 3
28.6808 -13.5748 -1.1779 0.4260 0 3
28.8487 -13.5751 -1.1836 0.4240 0 3
29.0182 -13.5754 -1.1893 0.4219 0 3
44.5103 -20.7014 -1.8223 0.9073 0 4
44.5106 -20.5802 -1.8204 0.9082 0 4
13.8243 -6.3543 -0.5648 0.8182 0 6
13.8243 -6.3168 -0.5642 0.9684 0 6
13.8434 -6.2880 -0.5644 0.8719 0 6
13.8969 -6.2747 -0.5660 0.2333 0 6
44.5121 -19.9778 -1.8112 0.9128 0 4
44.5124 -19.8580 -1.8094 0.9137 0 4
44.5126 -19.7385 -1.8076 0.9146 0 4
44.5129 -19.6192 -1.8058 0.9155 0 4
44.5153 -19.5011 -1.8041 0.9167 0 4
44.5157 -19.3823 -1.8024 0.9176 0 4
44.5160 -19.2637 -1.8006 0.9185 0 4
44.5164 -19.1454 -1.7989 0.9194 0 4
44.5168 -19.0273 -1.7972 0.9203 0 4
44.5172 -18.9095 -1.7955 0.9211 0 4
44.5175 -18.7918 -1.7938 0.9220 0 4
44.5179 -18.6744 -1.7921 0.9229 0 4
44.5183 -18.5572 -1.7905 0.9237 0 4
44.5187 -18.4402 -1.7888 0.9246 0 4
44.5190 -18.3234 -1.7872 0.9254 0 4
44.5194 -18.2069 -1.7855 0.9263 0 4
44.5198 -18.0905 -1.7839 0.9271 0 4
22.8073 -9.2081 -0.9131 0.9274 0 20
22.8074 -9.1487 -0.9123 0.9283 0 20
44.5209 -17.7427 -1.7791 0.9296 0 4
22.8026 -9.0282 -0.9104 0.9299 0 20
22.8501 -8.9877 -0.9115 0.3642 0 20
22.8513 -8.9290 -0.9108 0.9315 0 20
22.8514 -8.8700 -0.9100 0.9323 0 20
22.8515 -8.8111 -0.9092 0.9332 0 20
22.8516 -8.7523 -0.9084 0.9340 0 20
22.8517 -8.6936 -0.9076 0.9348 0 20
22.8518 -8.6350 -0.9069 0.9355 0 20
22.8519 -8.5765 -0.9061 0.9363 0 20
22.8520 -8.5180 -0.9053 0.9371 0 20
22.8521 -8.4597 -0.9046 0.9379 0 20
22.8522 -8.4015 -0.9038 0.9387 0 20
22.8523 -8.3434 -0.9031 0.9394 0 20
22.8524 -8.2854 -0.9024 0.9402 0 20
22.8525 -8.2274 -0.9016 0.9410 0 20
22.8526 -8.1696 -0.9009 0.9417 0 20
22.8104 -8.0968 -0.8985 0.4312 0 20
22.8043 -8.0371 -0.8976 0.9432 0 20
22.9127 -8.0175 -0.9011 0.3285 0 20
22.8095 -7.9240 -0.8964 0.9447 0 20
22.8096 -7.8667 -0.8957 0.9454 0 20
22.9125 -7.8447 -0.8991 0.9461 0 20
26.1582 -8.8904 -1.0256 0.9468 0 20
26.1583 -8.8250 -1.0248 0.9476 0 20
26.1584 -8.7597 -1.0241 0.9483 0 20
26.1585 -8.6946 -1.0233 0.9490 0 20
26.1587 -8.6295 -1.0225 0.9497 0 20
26.1588 -8.5645 -1.0218 0.9504 0 20
26.1383 -8.4929 -1.0203 0.9511 0 20
26.1530 -8.4328 -1.0201 0.9518 0 20
26.1146 -8.3558 -1.0179 0.9524 0 20
26.1148 -8.2913 -1.0172 0.9531 0 20
44.5332 -14.0290 -1.7333 0.9541 0 4
44.5334 -13.9193 -1.7321 0.9547 0 4
44.5337 -13.8097 -1.7309 0.9554 0 4
44.5340 -13.7004 -1.7297 0.9560 0 4
44.5343 -13.5912 -1.7285 0.9567 0 4
44.5346 -13.4821 -1.7273 0.9573 0 4
44.5349 -13.3731 -1.7262 0.9580 0 4
44.5352 -13.2644 -1.7250 0.9586 0 4
44.5354 -13.1557 -1.7239 0.9592 0 4
44.5357 -13.0472 -1.7228 0.9599 0 4
44.5360 -12.9388 -1.7216 0.9605 0 4
44.5363 -12.8306 -1.7205 0.9611 0 4
44.5366 -12.7225 -1.7194 0.9617 0 4
44.5369 -12.6146 -1.7184 0.9623 0 4
44.5371 -12.5068 -1.7173 0.9629 0 4
44.5317 -12.3975 -1.7160 0.9633 0 4
44.5319 -12.2900 -1.7149 0.9639 0 4
44.5321 -12.1826 -1.7139 0.9645 0 4
44.5323 -12.0753 -1.7128 0.9651 0 4
44.5325 -11.9681 -1.7118 0.9656 0 4
44.5326 -11.8611 -1.7108 0.9662 0 4
44.5328 -11.7542 -1.7098 0.9668 0 4
44.5330 -11.6474 -1.7088 0.9674 0 4
44.5332 -11.5407 -1.7078 0.9679 0 4
44.5334 -11.4342 -1.7068 0.9685 0 4
44.5336 -11.3278 -1.7058 0.9690 0 4
44.5337 -11.2215 -1.7049 0.9696 0 4
44.5339 -11.1154 -1.7039 0.9701 0 4
44.5341 -11.0093 -1.7030 0.9707 0 4
44.5343 -10.9034 -1.7021 0.9712 0 4
44.5345 -10.7976 -1.7011 0.9717 0 4
44.5347 -10.6919 -1.7002 0.9722 0 4
44.5348 -10.5863 -1.6993 0.9728 0 4
44.5350 -10.4808 -1.6984 0.9733 0 4
44.5352 -10.3754 -1.6975 0.9738 0 4
44.5354 -10.2702 -1.6966 0.9743 0 4
44.5356 -10.1649 -1.6958 0.9748 0 4
44.5359 -10.0599 -1.6949 0.9797 0 4
44.5383 -9.9555 -1.6942 0.9801 0 4
44.5476 -9.8527 -1.6937 0.8417 0 4
44.6338 -9.7667 -1.6961 0.8405 0 4
44.8712 -9.7132 -1.7043 0.1844 0 4
45.3691 -9.7145 -1.7224 0.2076 0 4
45.8757 -9.7153 -1.7408 0.2054 0 4
46.3931 -9.7162 -1.7596 0.2032 0 4
46.9220 -9.7171 -1.7788 0.2010 0 4
47.2846 -9.6816 -1.7917 0.9811 0 4
47.8176 -9.6790 -1.8111 0.1889 0 4
48.4036 -9.6846 -1.8325 0.1867 0 4
49.0037 -9.6904 -1.8544 0.1845 0 4
49.3054 -6.3412 -1.8454 0.9479 304 6
27.2929 -0.6125 -1.0134 0.1828 426 14
27.1344 -0.5481 -1.0075 0.1839 426 14
26.9685 -0.4842 -1.0013 0.1634 426 14
26.9253 -0.4230 -0.9997 0.2856 426 14
26.8698 -0.3618 -0.9976 0.3322 426 14
26.8542 -0.3013 -0.9970 0.3716 426 14
26.8432 -0.2409 -0.9965 0.3717 426 14
26.8322 -0.1806 -0.9961 0.3719 426 14
26.8212 -0.1204 -0.9957 0.3720 426 14
26.8200 -0.0602 -0.9956 0.3107 426 14
26.8188 0.0000 -0.9956 0.3154 426 14
15.0509 0.0338 -0.5587 0.7836 412 13
15.0415 0.0675 -0.5584 0.9178 412 13
15.0514 0.1013 -0.5588 0.7707 412 13
15.0435 0.1351 -0.5585 0.5184 412 13
15.0211 0.1686 -0.5577 0.6355 412 13
15.0107 0.2021 -0.5573 0.6889 412 13
15.0094 0.2358 -0.5573 0.6934 412 13
15.0169 0.2696 -0.5576 0.6502 412 13
15.0355 0.3037 -0.5583 0.5478 412 13
15.0114 0.3369 -0.5574 0.8965 412 13
15.0048 0.3705 -0.5572 0.9743 412 13
15.0146 0.4044 -0.5576 0.8327 412 13
15.0490 0.4392 -0.5589 0.5561 412 13
26.9177 0.8460 -0.9997 0.2816 426 14
26.9597 0.9078 -1.0014 0.2811 426 14
27.1132 0.9739 -1.0072 0.1744 426 14
27.2803 1.0412 -1.0135 0.1733 426 14
34.9401 2.5921 -1.3006 0.5999 0 6
34.9194 2.6694 -1.3001 0.8265 0 6
34.9291 2.7490 -1.3007 0.9943 0 6
34.9129 2.8266 -1.3003 0.9672 0 6
22.2361 2.5560 -0.8309 0.9962 306 6
22.2479 2.6079 -0.8316 0.6183 306 6
30.1659 6.0355 -1.1420 0.7267 0 20
30.1334 6.0994 -1.1413 0.9784 0 20
30.1451 6.1722 -1.1423 0.8565 0 20
48.1945 11.4562 -1.8389 0.2422 0 3
47.7400 11.4614 -1.8226 0.2444 0 3
47.2957 11.4671 -1.8066 0.2480 0 3
46.8596 11.4728 -1.7909 0.2502 0 3
46.4309 11.4783 -1.7755 0.2524 0 3
46.0096 11.4838 -1.7604 0.2545 0 3
45.5954 11.4891 -1.7455 0.2567 0 3
45.1880 11.4944 -1.7309 0.2588 0 3
44.7874 11.4996 -1.7165 0.2610 0 3
44.3934 11.5046 -1.7024 0.2632 0 3
44.0059 11.5096 -1.6886 0.2653 0 3
43.6246 11.5146 -1.6749 0.2675 0 3
43.2493 11.5194 -1.6615 0.2696 0 3
42.8801 11.5241 -1.6483 0.2718 0 3
42.5167 11.5288 -1.6353 0.2740 0 3
42.1589 11.5335 -1.6225 0.2761 0 3
41.8068 11.5380 -1.6100 0.2783 0 3
41.4599 11.5425 -1.5976 0.2804 0 3
41.1185 11.5469 -1.5855 0.2826 0 3
40.7821 11.5512 -1.5735 0.2847 0 3
40.6115 11.6014 -1.5679 0.9606 0 3
40.6117 11.7001 -1.5689 0.9599 0 3
40.1933 11.6772 -1.5538 0.9909 0 5
39.3443 11.5264 -1.5219 0.9906 0 5
38.5367 11.3837 -1.4917 0.1350 0 5
37.8878 11.2846 -1.4675 0.1373 0 5
37.1530 11.1566 -1.4402 0.1395 0 5
36.5462 11.0638 -1.4175 0.1417 0 5
35.9581 10.9739 -1.3956 0.1439 0 5
40.6130 12.4941 -1.5774 0.9548 0 3
40.6131 12.5940 -1.5785 0.9541 0 3
40.6133 12.6941 -1.5796 0.9534 0 3
40.6135 12.7942 -1.5807 0.9528 0 3
40.6136 12.8946 -1.5818 0.9521 0 3
40.6138 12.9950 -1.5830 0.9514 0 3
40.6140 13.0956 -1.5841 0.9507 0 3
40.6141 13.1964 -1.5853 0.9500 0 3
33.1969 10.8688 -1.2967 0.3305 0 5
33.0233 10.8941 -1.2909 0.9425 0 5
32.7291 10.8785 -1.2804 0.3348 0 5
32.5518 10.9008 -1.2744 0.9410 0 5
32.2321 10.8742 -1.2629 0.3390 0 5
32.0635 10.8976 -1.2571 0.9395 0 5
31.7877 10.8834 -1.2473 0.3432 0 5
31.5919 10.8957 -1.2406 0.9379 0 5
31.3144 10.8787 -1.2306 0.3474 0 5
31.1034 10.8836 -1.2233 0.9364 0 5
30.9440 10.9059 -1.2180 0.9356 0 5
30.6840 10.8917 -1.2087 0.3537 0 5
30.4789 10.8959 -1.2016 0.3558 0 5
26.0922 9.3938 -1.0295 0.3381 0 3
25.9095 9.3937 -1.0231 0.3403 0 3
25.7289 9.3937 -1.0168 0.3424 0 3
25.5507 9.3936 -1.0106 0.3445 0 3
25.3745 9.3935 -1.0044 0.3466 0 3
25.2005 9.3935 -0.9984 0.3487 0 3
25.0285 9.3934 -0.9924 0.3508 0 3
24.8587 9.3933 -0.9865 0.3529 0 3
24.6908 9.3933 -0.9807 0.3550 0 3
24.5249 9.3932 -0.9749 0.3571 0 3
24.3610 9.3931 -0.9692 0.3592 0 3
24.1989 9.3931 -0.9636 0.3613 0 3
24.0387 9.3930 -0.9581 0.3633 0 3
23.8803 9.3929 -0.9526 0.3654 0 3
23.7237 9.3929 -0.9472 0.3675 0 3
23.5690 9.3928 -0.9419 0.3696 0 3
23.4159 9.3928 -0.9366 0.3717 0 3
23.2645 9.3927 -0.9314 0.3738 0 3
23.1148 9.3927 -0.9262 0.3758 0 3
22.9668 9.3926 -0.9211 0.3779 0 3
22.8203 9.3926 -0.9161 0.3800 0 3
22.6755 9.3925 -0.9111 0.3821 0 3
22.5322 9.3924 -0.9062 0.3841 0 3
22.3905 9.3924 -0.9014 0.3862 0 3
22.2503 9.3923 -0.8966 0.3883 0 3
22.1115 9.3923 -0.8918 0.3904 0 3
21.9742 9.3922 -0.8871 0.3924 0 3
21.8384 9.3922 -0.8825 0.3945 0 3
21.7039 9.3921 -0.8779 0.3965 0 3
21.5709 9.3921 -0.8734 0.3986 0 3
21.4392 9.3921 -0.8689 0.4006 0 3
21.3089 9.3920 -0.8645 0.4027 0 3
21.1799 9.3920 -0.8601 0.4048 0 3
21.0522 9.3919 -0.8557 0.4068 0 3
20.9257 9.3919 -0.8515 0.4088 0 3
20.8006 9.3918 -0.8472 0.4109 0 3
20.6766 9.3918 -0.8430 0.4129 0 3
17.5872 8.0361 -0.7178 0.4169 0 3
17.4837 8.0363 -0.7143 0.4189 0 3
17.4310 8.0595 -0.7129 0.9386 0 3
17.4302 8.1066 -0.7136 0.9055 0 3
17.4302 8.1543 -0.7143 0.9046 0 3
17.4303 8.2021 -0.7151 0.9036 0 3
17.4304 8.2499 -0.7159 0.9027 0 3
17.3954 8.2812 -0.7152 0.4311 0 3
17.2957 8.2814 -0.7119 0.4331 0 3
17.1969 8.2816 -0.7086 0.4351 0 3
17.0989 8.2818 -0.7053 0.4371 0 3
17.0019 8.2819 -0.7021 0.4391 0 3
16.9058 8.2821 -0.6988 0.4412 0 3
16.8106 8.2822 -0.6957 0.4432 0 3
16.7162 8.2824 -0.6925 0.4452 0 3
16.6226 8.2826 -0.6894 0.4472 0 3
16.5299 8.2827 -0.6864 0.4492 0 3
16.4380 8.2829 -0.6833 0.4512 0 3
16.3469 8.2830 -0.6803 0.4532 0 3
16.2566 8.2832 -0.6773 0.4552 0 3
16.1671 8.2833 -0.6744 0.4572 0 3
16.0784 8.2835 -0.6714 0.4592 0 3
15.9905 8.2836 -0.6685 0.4612 0 3
15.9033 8.2838 -0.6657 0.4632 0 3
15.8168 8.2839 -0.6628 0.4651 0 3
15.7311 8.2841 -0.6600 0.4671 0 3
15.6461 8.2842 -0.6572 0.4691 0 3
15.5618 8.2844 -0.6545 0.4711 0 3
15.4783 8.2845 -0.6517 0.4731 0 3
15.3954 8.2846 -0.6490 0.4750 0 3
15.3132 8.2848 -0.6463 0.4770 0 3
15.2317 8.2849 -0.6437 0.4790 0 3
15.1508 8.2850 -0.6410 0.4809 0 3
15.0707 8.2852 -0.6384 0.4829 0 3
14.9911 8.2853 -0.6358 0.4849 0 3
14.9122 8.2855 -0.6333 0.4868 0 3
14.8340 8.2856 -0.6308 0.4888 0 3
14.7563 8.2857 -0.6282 0.4907 0 3
14.6793 8.2859 -0.6257 0.4927 0 3
14.6029 8.2860 -0.6233 0.4946 0 3
14.5271 8.2861 -0.6208 0.4966 0 3
14.4518 8.2863 -0.6184 0.4985 0 3
14.3772 8.2864 -0.6160 0.5005 0 3
14.3031 8.2865 -0.6136 0.5024 0 3
14.2296 8.2866 -0.6113 0.5044 0 3
14.1567 8.2868 -0.6089 0.5063 0 3
14.0843 8.2869 -0.6066 0.5082 0 3
14.0125 8.2870 -0.6043 0.5101 0 3
8.2462 4.9018 -0.3561 0.1449 0 6
8.2131 4.9071 -0.3552 0.8031 0 6
8.1885 4.9174 -0.3546 0.8045 0 6
8.1639 4.9276 -0.3540 0.8058 0 6
8.1532 4.9461 -0.3540 0.9878 0 6
8.1450 4.9662 -0.3541 0.9875 0 6
8.1367 4.9862 -0.3543 0.9871 0 6
8.1299 5.0071 -0.3544 0.5846 0 6
8.1440 5.0411 -0.3556 0.5827 0 6
8.1582 5.0752 -0.3567 0.5809 0 6
13.2566 8.2882 -0.5804 0.5312 0 3
13.1908 8.2884 -0.5783 0.5331 0 3
13.1255 8.2885 -0.5763 0.5350 0 3
13.0607 8.2886 -0.5742 0.5369 0 3
12.6136 8.0446 -0.5554 0.5388 0 3
12.5515 8.0447 -0.5534 0.5407 0 3
12.4899 8.0448 -0.5515 0.5425 0 3
12.4287 8.0449 -0.5496 0.5444 0 3
12.4007 8.0663 -0.5492 0.8369 0 3
12.4008 8.1060 -0.5500 0.8357 0 3
12.4008 8.1458 -0.5508 0.8344 0 3
12.4009 8.1857 -0.5516 0.8332 0 3
12.4010 8.2258 -0.5524 0.8320 0 3
12.4010 8.2660 -0.5533 0.8307 0 3
12.4011 8.3063 -0.5541 0.8295 0 3
12.4011 8.3467 -0.5549 0.8282 0 3
12.4012 8.3872 -0.5558 0.8270 0 3
12.4013 8.4279 -0.5566 0.8257 0 3
12.4013 8.4687 -0.5575 0.8244 0 3
12.4014 8.5096 -0.5583 0.8232 0 3
12.4015 8.5507 -0.5592 0.8219 0 3
12.4015 8.5918 -0.5601 0.8206 0 3
12.4016 8.6331 -0.5609 0.8193 0 3
12.4017 8.6746 -0.5618 0.8180 0 3
12.4017 8.7161 -0.5627 0.8168 0 3
12.3857 8.7464 -0.5629 0.5763 0 3
12.3269 8.7464 -0.5611 0.5781 0 3
12.2684 8.7464 -0.5593 0.5799 0 3
12.2103 8.7464 -0.5576 0.5817 0 3
12.1526 8.7464 -0.5558 0.5836 0 3
12.0953 8.7463 -0.5541 0.5854 0 3
12.0383 8.7463 -0.5524 0.5872 0 3
11.9816 8.7463 -0.5507 0.5890 0 3
11.9253 8.7463 -0.5490 0.5908 0 3
11.8693 8.7463 -0.5473 0.5926 0 3
11.8137 8.7463 -0.5457 0.5944 0 3
11.7584 8.7463 -0.5440 0.5962 0 3
11.7035 8.7463 -0.5424 0.5980 0 3
11.6489 8.7463 -0.5408 0.5998 0 3
11.5946 8.7462 -0.5391 0.6016 0 3
11.5406 8.7462 -0.5375 0.6034 0 3
11.4869 8.7462 -0.5360 0.6052 0 3
11.4336 8.7462 -0.5344 0.6070 0 3
11.3806 8.7462 -0.5328 0.6088 0 3
11.3279 8.7462 -0.5313 0.6105 0 3
11.2754 8.7462 -0.5297 0.6123 0 3
11.2233 8.7462 -0.5282 0.6141 0 3
11.1715 8.7462 -0.5267 0.6158 0 3
11.1200 8.7461 -0.5252 0.6176 0 3
11.0688 8.7461 -0.5237 0.6194 0 3
11.0179 8.7461 -0.5222 0.6211 0 3
10.9672 8.7461 -0.5207 0.6229 0 3
10.9169 8.7461 -0.5193 0.6246 0 3
10.8668 8.7461 -0.5178 0.6264 0 3
10.8170 8.7461 -0.5164 0.6281 0 3
10.7675 8.7461 -0.5150 0.6299 0 3
10.7182 8.7460 -0.5135 0.6316 0 3
10.6692 8.7460 -0.5121 0.6333 0 3
10.6205 8.7460 -0.5107 0.6351 0 3
10.5721 8.7460 -0.5094 0.6368 0 3
10.5239 8.7460 -0.5080 0.6385 0 3
10.4760 8.7460 -0.5066 0.6403 0 3
10.4283 8.7460 -0.5052 0.6420 0 3
10.3809 8.7460 -0.5039 0.6437 0 3
10.3405 8.7517 -0.5029 0.9960 0 3
10.3304 8.7830 -0.5034 0.7615 0 3
10.3304 8.8230 -0.5043 0.7601 0 3
10.3303 8.8631 -0.5053 0.7586 0 3
10.3303 8.9035 -0.5063 0.7571 0 3
10.3303 8.9439 -0.5072 0.7557 0 3
10.3303 8.9846 -0.5082 0.7542 0 3
10.3303 9.0254 -0.5092 0.7527 0 3
10.3303 9.0663 -0.5102 0.7513 0 3
10.3303 9.1074 -0.5112 0.7498 0 3
10.3303 9.1487 -0.5123 0.7483 0 3
10.3303 9.1901 -0.5133 0.7468 0 3
10.3303 9.2317 -0.5143 0.7453 0 3
10.3303 9.2735 -0.5153 0.7438 0 3
10.3303 9.3154 -0.5164 0.7423 0 3
10.3109 9.3400 -0.5165 0.6691 0 3
10.2644 9.3399 -0.5152 0.6707 0 3
10.2181 9.3398 -0.5139 0.6724 0 3
10.1721 9.3397 -0.5126 0.6741 0 3
10.1262 9.3396 -0.5114 0.6757 0 3
10.0806 9.3395 -0.5101 0.6774 0 3
10.0352 9.3394 -0.5089 0.6790 0 3
9.9901 9.3392 -0.5077 0.6807 0 3
9.9451 9.3391 -0.5065 0.6823 0 3
9.9004 9.3390 -0.5052 0.6839 0 3
9.8559 9.3389 -0.5040 0.6856 0 3
9.8116 9.3388 -0.5028 0.6872 0 3
9.7675 9.3387 -0.5017 0.6888 0 3
9.7236 9.3386 -0.5005 0.6904 0 3
9.6800 9.3385 -0.4993 0.6958 0 3
9.6367 9.3387 -0.4982 0.6974 0 3
8.9850 8.7463 -0.4655 0.6986 0 3
8.9448 8.7464 -0.4644 0.7002 0 3
8.9049 8.7464 -0.4634 0.7018 0 3
8.8651 8.7465 -0.4623 0.7034 0 3
8.8255 8.7466 -0.4613 0.7050 0 3
8.7860 8.7467 -0.4602 0.7066 0 3
11.4830 -11.4829 -0.7370 0.7052 0 3
11.5347 -11.4830 -0.7386 0.7036 0 3
11.5867 -11.4831 -0.7403 0.7020 0 3
11.6389 -11.4832 -0.7420 0.7004 0 3
11.6914 -11.4833 -0.7437 0.6988 0 3
11.7440 -11.4834 -0.7454 0.6972 0 3
11.7970 -11.4835 -0.7471 0.6956 0 3
11.8502 -11.4836 -0.7489 0.6940 0 3
11.9036 -11.4837 -0.7506 0.6924 0 3
11.9573 -11.4837 -0.7524 0.6907 0 3
12.0112 -11.4838 -0.7541 0.6891 0 3
12.0654 -11.4839 -0.7559 0.6875 0 3
12.1198 -11.4840 -0.7577 0.6859 0 3
12.1745 -11.4841 -0.7595 0.6842 0 3
12.2295 -11.4842 -0.7614 0.6826 0 3
12.2847 -11.4843 -0.7632 0.6810 0 3
12.3402 -11.4844 -0.7650 0.6793 0 3
12.3960 -11.4845 -0.7669 0.6777 0 3
12.4520 -11.4846 -0.7688 0.6760 0 3
12.5083 -11.4847 -0.7706 0.6744 0 3
12.5649 -11.4848 -0.7725 0.6727 0 3
12.6217 -11.4849 -0.7744 0.6711 0 3
12.6789 -11.4850 -0.7764 0.6694 0 3
12.7363 -11.4851 -0.7783 0.6677 0 3
12.7940 -11.4852 -0.7803 0.6661 0 3
12.8234 -11.4597 -0.7805 0.0422 0 3
12.8510 -11.4326 -0.7806 0.0422 0 3
12.8785 -11.4054 -0.7807 0.0422 0 3
12.9059 -11.3780 -0.7808 0.0422 0 3
12.9333 -11.3507 -0.7809 0.0422 0 3
12.9606 -11.3232 -0.7810 0.0422 0 3
12.9878 -11.2958 -0.7812 0.0422 0 3
13.0149 -11.2682 -0.7813 0.0422 0 3
13.0421 -11.2406 -0.7814 0.0422 0 3
13.0691 -11.2129 -0.7815 0.0422 0 3
13.0961 -11.1851 -0.7816 0.0422 0 3
13.1501 -11.1803 -0.7833 0.6458 0 3
13.2102 -11.1804 -0.7854 0.6441 0 3
13.2706 -11.1805 -0.7875 0.6424 0 3
13.3313 -11.1806 -0.7896 0.6406 0 3
13.3924 -11.1807 -0.7917 0.6389 0 3
13.4538 -11.1808 -0.7939 0.6372 0 3
13.5155 -11.1809 -0.7960 0.6355 0 3
13.5775 -11.1811 -0.7982 0.6337 0 3
13.6399 -11.1812 -0.8004 0.6320 0 3
13.7027 -11.1813 -0.8026 0.6303 0 3
13.7657 -11.1814 -0.8048 0.6285 0 3
13.8292 -11.1815 -0.8071 0.6268 0 3
13.8929 -11.1816 -0.8093 0.6250 0 3
13.9571 -11.1817 -0.8116 0.6233 0 3
14.0216 -11.1818 -0.8139 0.6215 0 3
14.0864 -11.1819 -0.8162 0.6198 0 3
14.1517 -11.1820 -0.8185 0.6180 0 3
14.2173 -11.1821 -0.8209 0.6162 0 3
14.2833 -11.1822 -0.8232 0.6145 0 3
14.3497 -11.1824 -0.8256 0.6127 0 3
14.4164 -11.1825 -0.8280 0.6109 0 3
14.4835 -11.1826 -0.8304 0.6092 0 3
14.5511 -11.1827 -0.8328 0.6074 0 3
14.6190 -11.1828 -0.8353 0.6056 0 3
14.6873 -11.1829 -0.8378 0.6038 0 3
14.7561 -11.1830 -0.8402 0.6020 0 3
14.8252 -11.1832 -0.8428 0.6002 0 3
14.8948 -11.1833 -0.8453 0.5984 0 3
14.9648 -11.1834 -0.8478 0.5967 0 3
15.0351 -11.1835 -0.8504 0.5949 0 3
19.7740 -14.6395 -1.1166 0.5848 0 4
19.8686 -14.6406 -1.1200 0.5829 0 4
19.9638 -14.6418 -1.1236 0.5811 0 4
20.0126 -14.6086 -1.1244 0.5793 0 4
20.1087 -14.6098 -1.1280 0.5775 0 4
20.2055 -14.6109 -1.1316 0.5756 0 4
20.3029 -14.6121 -1.1352 0.5738 0 4
20.3816 -14.5995 -1.1378 0.8133 0 3
20.3817 -14.5304 -1.1360 0.8146 0 3
20.3818 -14.4617 -1.1342 0.8159 0 3
20.3820 -14.3931 -1.1324 0.8172 0 3
20.3821 -14.3247 -1.1306 0.8185 0 3
20.3822 -14.2566 -1.1288 0.8197 0 3
20.3823 -14.1887 -1.1271 0.8210 0 3
20.3825 -14.1210 -1.1253 0.8223 0 3
20.3826 -14.0535 -1.1236 0.8236 0 3
20.3827 -13.9862 -1.1218 0.8248 0 3
20.3828 -13.9191 -1.1201 0.8261 0 3
20.3829 -13.8522 -1.1184 0.8274 0 3
20.3831 -13.7855 -1.1167 0.8286 0 3
20.3832 -13.7190 -1.1150 0.8299 0 3
20.3833 -13.6528 -1.1134 0.8311 0 3
20.3834 -13.5867 -1.1117 0.8324 0 3
20.4440 -13.5609 -1.1133 0.5508 0 3
20.5442 -13.5611 -1.1171 0.5489 0 3
20.6451 -13.5612 -1.1210 0.5470 0 3
20.7466 -13.5614 -1.1248 0.5452 0 3
20.8489 -13.5616 -1.1287 0.5433 0 3
20.9519 -13.5618 -1.1326 0.5414 0 3
21.0556 -13.5620 -1.1366 0.5395 0 3
21.1600 -13.5621 -1.1406 0.5376 0 3
21.2652 -13.5623 -1.1446 0.5357 0 3
21.3710 -13.5625 -1.1487 0.5338 0 3
21.4777 -13.5627 -1.1528 0.5320 0 3
21.5852 -13.5629 -1.1569 0.5301 0 3
21.6934 -13.5630 -1.1611 0.5282 0 3
21.8023 -13.5632 -1.1653 0.5262 0 3
21.9121 -13.5634 -1.1695 0.5243 0 3
22.0227 -13.5636 -1.1738 0.5224 0 3
22.1341 -13.5638 -1.1781 0.5205 0 3
22.2463 -13.5640 -1.1824 0.5186 0 3
22.3593 -13.5642 -1.1868 0.5167 0 3
22.4732 -13.5644 -1.1913 0.5148 0 3
22.5880 -13.5646 -1.1957 0.5128 0 3
22.7036 -13.5647 -1.2002 0.5109 0 3
22.8200 -13.5649 -1.2048 0.5090 0 3
22.9374 -13.5651 -1.2094 0.5071 0 3
23.0556 -13.5654 -1.2140 0.5051 0 3
23.1748 -13.5655 -1.2187 0.5032 0 3
23.2949 -13.5657 -1.2234 0.5013 0 3
23.4159 -13.5659 -1.2281 0.4993 0 3
23.5379 -13.5661 -1.2329 0.4974 0 3
23.6608 -13.5663 -1.2378 0.4954 0 3
23.7848 -13.5666 -1.2426 0.4935 0 3
23.9097 -13.5668 -1.2476 0.4915 0 3
24.0355 -13.5670 -1.2526 0.4896 0 3
24.1624 -13.5672 -1.2576 0.4876 0 3
24.2903 -13.5674 -1.2626 0.4857 0 3
24.4193 -13.5676 -1.2678 0.4837 0 3
24.5492 -13.5679 -1.2729 0.4817 0 3
24.6803 -13.5681 -1.2781 0.4798 0 3
24.8124 -13.5683 -1.2834 0.4778 0 3
24.9456 -13.5685 -1.2887 0.4758 0 3
25.0800 -13.5687 -1.2941 0.4739 0 3
25.2154 -13.5690 -1.2995 0.4719 0 3
25.3520 -13.5692 -1.3050 0.4699 0 3
25.4898 -13.5695 -1.3105 0.4679 0 3
25.6287 -13.5697 -1.3161 0.4660 0 3
25.7688 -13.5699 -1.3217 0.4640 0 3
25.9101 -13.5702 -1.3274 0.4620 0 3
26.0527 -13.5704 -1.3331 0.4600 0 3
26.1964 -13.5706 -1.3389 0.4580 0 3
26.3415 -13.5709 -1.3448 0.4560 0 3
26.4878 -13.5711 -1.3507 0.4540 0 3
26.6354 -13.5714 -1.3566 0.4520 0 3
26.7843 -13.5716 -1.3627 0.4500 0 3
26.9345 -13.5719 -1.3688 0.4480 0 3
27.0862 -13.5721 -1.3749 0.4460 0 3
27.2391 -13.5724 -1.3811 0.4440 0 3
27.3934 -13.5727 -1.3874 0.4420 0 3
27.5492 -13.5729 -1.3937 0.4400 0 3
27.7064 -13.5732 -1.4002 0.4380 0 3
27.8651 -13.5735 -1.4066 0.4360 0 3
28.0252 -13.5737 -1.4132 0.4339 0 3
28.1868 -13.5740 -1.4198 0.4319 0 3
28.3499 -13.5743 -1.4265 0.4299 0 3
28.5146 -13.5746 -1.4332 0.4279 0 3
28.6808 -13.5749 -1.4400 0.4258 0 3
28.8487 -13.5751 -1.4469 0.4238 0 3
29.0181 -13.5754 -1.4539 0.4218 0 3
39.3215 -18.2881 -1.9681 0.0416 0 1
39.3660 -18.2015 -1.9682 0.0416 0 1
13.8231 -6.3537 -0.6904 0.8180 0 6
13.8233 -6.3163 -0.6897 0.9681 0 6
13.8425 -6.2875 -0.6900 0.8717 0 6
13.8949 -6.2738 -0.6919 0.2333 0 6
39.5856 -17.7668 -1.9691 0.0415 0 1
39.6289 -17.6795 -1.9693 0.0415 0 1
39.6722 -17.5921 -1.9695 0.0415 0 1
39.7151 -17.5046 -1.9697 0.0415 0 1
39.7578 -17.4170 -1.9698 0.0415 0 1
39.8002 -17.3292 -1.9700 0.0415 0 1
39.8424 -17.2413 -1.9702 0.0415 0 1
39.8844 -17.1534 -1.9703 0.0415 0 1
39.9264 -17.0654 -1.9705 0.0415 0 1
39.9680 -16.9772 -1.9707 0.0415 0 1
40.0094 -16.8889 -1.9709 0.0415 0 1
40.0506 -16.8005 -1.9710 0.0415 0 1
40.0915 -16.7119 -1.9712 0.0415 0 1
40.1324 -16.6234 -1.9714 0.0415 0 1
40.1728 -16.5346 -1.9715 0.0415 0 1
40.2133 -16.4458 -1.9717 0.0415 0 1
40.2533 -16.3569 -1.9718 0.0415 0 1
22.8065 -9.2078 -1.1162 0.9271 0 20
22.8066 -9.1484 -1.1152 0.9280 0 20
22.8452 -9.1044 -1.1161 0.9288 0 20
22.8018 -9.0279 -1.1130 0.9296 0 20
22.8501 -8.9877 -1.1143 0.3641 0 20
22.8505 -8.9287 -1.1134 0.9313 0 20
22.8506 -8.8697 -1.1124 0.9321 0 20
22.8507 -8.8108 -1.1114 0.9329 0 20
22.8508 -8.7520 -1.1105 0.9337 0 20
22.8509 -8.6933 -1.1095 0.9345 0 20
22.8510 -8.6347 -1.1086 0.9353 0 20
22.8511 -8.5762 -1.1077 0.9360 0 20
22.8512 -8.5178 -1.1067 0.9368 0 20
22.8513 -8.4594 -1.1058 0.9376 0 20
22.8514 -8.4012 -1.1049 0.9384 0 20
22.8515 -8.3431 -1.1040 0.9391 0 20
22.8516 -8.2851 -1.1031 0.9399 0 20
22.8517 -8.2271 -1.1022 0.9407 0 20
22.8518 -8.1693 -1.1013 0.9414 0 20
22.8091 -8.0963 -1.0984 0.4311 0 20
22.8035 -8.0368 -1.0973 0.9429 0 20
22.8471 -7.9946 -1.0985 0.9437 0 20
22.8087 -7.9237 -1.0958 0.9444 0 20
22.8088 -7.8664 -1.0949 0.9451 0 20
22.9116 -7.8444 -1.0990 0.9458 0 20
26.1573 -8.8901 -1.2538 0.9466 0 20
26.1574 -8.8247 -1.2528 0.9473 0 20
26.1575 -8.7595 -1.2519 0.9480 0 20
26.1576 -8.6943 -1.2509 0.9487 0 20
26.1577 -8.6292 -1.2500 0.9494 0 20
26.1578 -8.5642 -1.2491 0.9501 0 20
26.1374 -8.4926 -1.2472 0.9508 0 20
40.4890 -13.0553 -1.9306 0.9567 0 2
26.1137 -8.3555 -1.2443 0.9521 0 20
26.1138 -8.2910 -1.2434 0.9528 0 20
40.4941 -12.7566 -1.9267 0.9586 0 2
40.4958 -12.6573 -1.9255 0.9593 0 2
40.4975 -12.5582 -1.9242 0.9599 0 2
40.4992 -12.4592 -1.9229 0.9605 0 2
40.5009 -12.3603 -1.9217 0.9611 0 2
40.5026 -12.2615 -1.9205 0.9617 0 2
40.5044 -12.1629 -1.9193 0.8889 0 2
40.5067 -12.0645 -1.9181 0.8895 0 2
40.5089 -11.9663 -1.9169 0.8900 0 2
40.5110 -11.8682 -1.9157 0.8906 0 2
40.5132 -11.7702 -1.9146 0.8911 0 2
40.5154 -11.6722 -1.9135 0.8916 0 2
40.5243 -11.5764 -1.9126 0.9143 0 2
40.5388 -11.4822 -1.9121 0.9145 0 2
40.5529 -11.3879 -1.9116 0.8647 0 2
40.5668 -11.2937 -1.9110 0.8649 0 2
40.5808 -11.1996 -1.9105 0.8652 0 2
40.5947 -11.1055 -1.9100 0.8654 0 2
40.6086 -11.0114 -1.9095 0.8657 0 2
40.6226 -10.9174 -1.9090 0.8659 0 2
40.6365 -10.8234 -1.9085 0.8661 0 2
40.6503 -10.7295 -1.9080 0.8663 0 2
40.6642 -10.6356 -1.9075 0.8665 0 2
40.6941 -10.5459 -1.9078 0.8651 0 2
40.7285 -10.4573 -1.9083 0.8649 0 2
40.7629 -10.3687 -1.9088 0.8647 0 2
40.7973 -10.2801 -1.9093 0.8644 0 2
40.8296 -10.1908 -1.9098 0.5188 0 2
40.8607 -10.1012 -1.9102 0.5187 0 2
40.8927 -10.0118 -1.9106 0.9907 0 2
40.9271 -9.9229 -1.9112 0.9904 0 2
40.9616 -9.8340 -1.9117 0.9901 0 2
40.9961 -9.7451 -1.9123 0.9898 0 2
41.0306 -9.6560 -1.9129 0.9895 0 2
41.0652 -9.5670 -1.9135 0.9892 0 2
41.0997 -9.4779 -1.9141 0.9889 0 2
41.1343 -9.3887 -1.9148 0.9886 0 2
41.1690 -9.2994 -1.9154 0.9882 0 2
41.2036 -9.2101 -1.9161 0.9879 0 2
41.2383 -9.1207 -1.9167 0.9876 0 2
41.2729 -9.0313 -1.9174 0.9872 0 2
41.3183 -8.9441 -1.9185 0.8902 0 2
41.3857 -8.8615 -1.9207 0.8892 0 2
41.4532 -8.7788 -1.9230 0.8882 0 2
41.5209 -8.6958 -1.9252 0.8872 0 2
41.5888 -8.6126 -1.9274 0.8861 0 2
41.6568 -8.5293 -1.9297 0.8851 0 2
41.7249 -8.4457 -1.9320 0.8840 0 2
41.7933 -8.3620 -1.9343 0.8830 0 2
41.8618 -8.2780 -1.9366 0.8819 0 2
41.9304 -8.1939 -1.9389 0.8809 0 2
41.9992 -8.1095 -1.9412 0.8798 0 2
42.0682 -8.0249 -1.9436 0.8788 0 2
42.1374 -7.9402 -1.9459 0.8777 0 2
42.2067 -7.8552 -1.9483 0.8766 0 2
42.2762 -7.7700 -1.9507 0.8755 0 2
42.3459 -7.6846 -1.9531 0.8745 0 2
42.4154 -7.5990 -1.9555 0.8758 0 2
42.4849 -7.5131 -1.9580 0.8747 0 2
42.5935 -7.4338 -1.9622 0.6813 0 2
42.7131 -7.3559 -1.9669 0.6797 0 2
42.8331 -7.2777 -1.9717 0.6784 0 2
42.9537 -7.1990 -1.9765 0.6767 0 2
43.0749 -7.1200 -1.9814 0.6751 0 2
43.1363 -7.0307 -1.9834 0.0412 0 1
43.1533 -6.9341 -1.9835 0.0412 0 1
43.1703 -6.8375 -1.9836 0.0412 0 1
43.1869 -6.7408 -1.9836 0.0412 0 1
43.2033 -6.6441 -1.9837 0.0412 0 1
43.2196 -6.5474 -1.9838 0.0412 0 1
43.2354 -6.4505 -1.9838 0.0412 0 1
43.2511 -6.3537 -1.9839 0.0412 0 1
43.2667 -6.2569 -1.9840 0.0412 0 1
43.2820 -6.1599 -1.9840 0.0412 0 1
43.2969 -6.0630 -1.9841 0.0412 0 1
43.3117 -5.9660 -1.9841 0.0412 0 1
43.3262 -5.8689 -1.9842 0.0412 0 1
43.3404 -5.7718 -1.9842 0.0412 0 1
43.3545 -5.6747 -1.9843 0.0412 0 1
43.3684 -5.5776 -1.9844 0.0412 0 1
43.3819 -5.4804 -1.9844 0.0412 0 1
43.3952 -5.3831 -1.9845 0.0412 0 1
43.4082 -5.2859 -1.9845 0.0412 0 1
43.4211 -5.1886 -1.9846 0.0412 0 1
43.4338 -5.0913 -1.9846 0.0412 0 1
43.4461 -4.9939 -1.9847 0.0412 0 1
43.4582 -4.8965 -1.9847 0.0412 0 1
43.4701 -4.7991 -1.9848 0.0412 0 1
43.4816 -4.7016 -1.9848 0.0412 0 1
43.4930 -4.6041 -1.9848 0.0412 0 1
43.5043 -4.5067 -1.9849 0.0412 0 1
43.5150 -4.4091 -1.9849 0.0412 0 1
43.5259 -4.3115 -1.9850 0.0412 0 1
43.5363 -4.2139 -1.9850 0.0412 0 1
43.5465 -4.1163 -1.9850 0.0412 0 1
43.5565 -4.0187 -1.9851 0.0412 0 1
43.5662 -3.9210 -1.9851 0.0412 0 1
43.5756 -3.8233 -1.9852 0.0412 0 1
43.5848 -3.7255 -1.9852 0.0412 0 1
43.5938 -3.6278 -1.9852 0.0412 0 1
43.6025 -3.5300 -1.9853 0.0412 0 1
43.6111 -3.4322 -1.9853 0.0412 0 1
43.6193 -3.3345 -1.9853 0.0412 0 1
43.6274 -3.2366 -1.9853 0.0412 0 1
43.6352 -3.1388 -1.9854 0.0412 0 1
43.6428 -3.0409 -1.9854 0.0412 0 1
43.6500 -2.9430 -1.9854 0.0412 0 1
43.6570 -2.8451 -1.9855 0.0412 0 1
