ply
format ascii 1.0
element vertex 1363
property float32 x
property float32 y
property float32 z
property float32 CosAngle
property uint32 ObjIdx
property uint32 ObjTag
end_header
15.6004 8.5185 0.3665 0.8865 0 3
12.3675 7.9481 0.3031 0.3788 0 3
10.4737 7.8405 0.2697 0.7667 0 3
9.7107 8.4144 0.2649 0.7658 0 3
2.9548 -2.9548 0.0517 0.7358 263 15
3.3578 -2.9096 0.0550 0.7364 263 15
3.8494 -2.8816 0.0595 0.6272 263 15
4.4663 -2.8703 0.0657 0.5231 263 15
4.8896 -2.6699 0.0689 0.5000 263 15
5.7833 -2.6411 0.0786 0.4471 263 15
6.9865 -2.6058 0.0922 0.3812 263 15
45.3894 9.8739 0.5746 0.1938 0 3
20.2801 5.9548 0.2614 0.2632 0 3
15.7313 5.8675 0.2077 0.3314 0 3
15.5573 7.1048 0.2115 0.9174 0 3
15.6004 8.5185 0.2199 0.8866 0 3
11.8066 7.5877 0.1736 0.5249 0 3
10.2057 7.6399 0.1577 0.7819 0 3
9.4930 8.2257 0.1554 0.7814 0 3
2.9479 -2.9479 0.0172 0.7376 263 15
3.3525 -2.9049 0.0183 0.7376 263 15
3.8427 -2.8766 0.0198 0.6315 263 15
4.4585 -2.8653 0.0219 0.5241 263 15
4.8871 -2.6685 0.0230 0.5003 263 15
5.7771 -2.6383 0.0262 0.4476 263 15
6.9746 -2.6014 0.0307 0.3818 263 15
45.3892 9.8738 0.1915 0.1938 0 3
20.2801 5.9548 0.0871 0.2633 0 3
15.7313 5.8675 0.0692 0.3314 0 3
15.5573 7.1048 0.0705 0.9174 0 3
15.6004 8.5185 0.0733 0.8867 0 3
12.0978 7.7748 0.0593 0.3922 0 3
10.3465 7.7453 0.0533 0.7460 0 3
9.5909 8.3105 0.0523 0.7682 0 3
2.9410 -2.9410 -0.0171 0.7394 263 15
3.3471 -2.9003 -0.0183 0.7388 263 15
3.8362 -2.8717 -0.0198 0.6326 263 15
4.4507 -2.8603 -0.0218 0.5250 263 15
4.8846 -2.6672 -0.0229 0.5005 263 15
5.7710 -2.6355 -0.0262 0.4481 263 15
6.9627 -2.5969 -0.0306 0.3825 263 15
45.3891 9.8738 -0.1915 0.1938 0 3
20.2800 5.9548 -0.0871 0.2633 0 3
15.7313 5.8675 -0.0692 0.3314 0 3
15.5573 7.1048 -0.0705 0.9174 0 3
15.6004 8.5185 -0.0733 0.8867 0 3
12.0978 7.7748 -0.0593 0.3922 0 3
10.3465 7.7453 -0.0533 0.7461 0 3
9.5909 8.3106 -0.0523 0.7683 0 3
2.9341 -2.9341 -0.0513 0.7410 263 15
3.3418 -2.8956 -0.0547 0.7399 263 15
3.8297 -2.8669 -0.0592 0.6336 263 15
4.4433 -2.8555 -0.0653 0.5356 263 15
4.8820 -2.6658 -0.0688 0.5110 263 15
5.7649 -2.6327 -0.0784 0.4485 263 15
6.9509 -2.5925 -0.0918 0.3831 263 15
45.3888 9.8737 -0.5745 0.1938 0 3
20.2799 5.9547 -0.2614 0.2633 0 3
15.7312 5.8675 -0.2077 0.3314 0 3
15.5573 7.1048 -0.2115 0.9174 0 3
15.6004 8.5185 -0.2199 0.8866 0 3
12.0978 7.7748 -0.1779 0.3921 0 3
10.3466 7.7454 -0.1599 0.7460 0 3
9.5909 8.3106 -0.1570 0.7687 0 3
2.9273 -2.9273 -0.0853 0.7427 263 15
3.3365 -2.8911 -0.0910 0.7410 263 15
3.8232 -2.8620 -0.0985 0.6346 263 15
4.4360 -2.8508 -0.1087 0.5364 263 15
4.8775 -2.6633 -0.1146 0.5114 263 15
5.7588 -2.6299 -0.1305 0.4489 263 15
6.9391 -2.5881 -0.1527 0.3837 263 15
40.2987 -5.7941 -0.8394 0.9867 0 20
45.3887 9.8737 -0.9577 0.1937 0 3
20.2799 5.9547 -0.4358 0.2632 0 3
15.7312 5.8674 -0.3462 0.3314 0 3
15.5573 7.1048 -0.3526 0.9172 0 3
15.6004 8.5185 -0.3665 0.8865 0 3
12.0977 7.7747 -0.2965 0.3921 0 3
10.3466 7.7454 -0.2665 0.7461 0 3
9.5911 8.3107 -0.2616 0.7686 0 3
2.9205 -2.9205 -0.1192 0.7442 263 15
3.3312 -2.8865 -0.1272 0.7421 263 15
3.8167 -2.8571 -0.1376 0.6356 263 15
4.4287 -2.8461 -0.1520 0.5371 263 15
4.8729 -2.6608 -0.1603 0.5118 263 15
5.7539 -2.6277 -0.1826 0.4482 263 15
6.9291 -2.5844 -0.2135 0.3977 263 15
31.0172 -9.1074 -0.9332 0.9535 0 20
40.2987 -5.7941 -1.1753 0.9865 0 20
45.3885 9.8737 -1.3409 0.1937 0 3
20.2798 5.9547 -0.6101 0.2632 0 3
15.7312 5.8674 -0.4847 0.3313 0 3
15.5573 7.1048 -0.4937 0.9171 0 3
15.6004 8.5185 -0.5131 0.8863 0 3
12.0977 7.7747 -0.4151 0.3920 0 3
10.3466 7.7453 -0.3731 0.7460 0 3
9.5912 8.3109 -0.3664 0.7685 0 3
2.9137 -2.9137 -0.1530 0.7458 263 15
3.1154 -2.6995 -0.1530 0.6692 263 15
3.8102 -2.8523 -0.1767 0.6365 263 15
4.4214 -2.8415 -0.1951 0.5379 263 15
4.8715 -2.6600 -0.2060 0.5107 263 15
5.7539 -2.6277 -0.2348 0.4481 263 15
6.9210 -2.5814 -0.2742 0.3981 263 15
31.0172 -9.1075 -1.2000 0.9533 0 20
44.0052 -9.5728 -1.6718 0.0371 0 2
40.2987 -5.7941 -1.5114 0.9862 0 20
48.4303 -3.4638 -1.8024 0.0371 0 1
48.5631 0.0000 -1.8028 0.0371 0 1
45.6797 3.2671 -1.7001 0.0371 0 2
45.3356 6.5183 -1.7003 0.0371 0 2
42.5859 9.2640 -1.6179 0.9802 0 3
20.3027 5.9614 -0.7855 0.2645 0 3
15.7311 5.8674 -0.6233 0.3312 0 3
15.5573 7.1048 -0.6349 0.9168 0 3
15.6004 8.5185 -0.6598 0.8861 0 3
12.0977 7.7747 -0.5338 0.3919 0 3
10.3465 7.7454 -0.4798 0.7458 0 3
9.5914 8.3110 -0.4711 0.7682 0 3
2.9069 -2.9069 -0.1866 0.7473 263 15
3.1038 -2.6895 -0.1864 0.2288 263 15
3.8050 -2.8484 -0.2157 0.6345 263 15
4.4177 -2.8391 -0.2383 0.5423 263 15
4.8715 -2.6600 -0.2519 0.5105 263 15
5.7539 -2.6277 -0.2871 0.4479 263 15
6.9129 -2.5784 -0.3348 0.3952 263 15
31.0172 -9.1075 -1.4671 0.9529 0 20
36.5828 -7.9581 -1.6990 0.0454 0 2
37.0628 -5.3288 -1.6993 0.0454 0 2
39.6219 -2.8338 -1.8027 0.0454 0 1
39.7291 0.0000 -1.8030 0.0454 0 1
39.6341 2.8347 -1.8033 0.0454 0 1
37.0891 5.3326 -1.7005 0.0453 0 2
36.9018 8.0275 -1.7139 0.0453 0 0
20.2797 5.9547 -0.9592 0.2630 0 3
15.7311 5.8674 -0.7620 0.3311 0 3
15.5573 7.1048 -0.7762 0.9165 0 3
15.5220 8.4757 -0.8026 0.8807 0 3
12.0976 7.7747 -0.6526 0.3918 0 3
10.3465 7.7453 -0.5865 0.7455 0 3
9.5916 8.3112 -0.5760 0.7680 0 3
2.9002 -2.9002 -0.2200 0.7487 263 15
3.1154 -2.6995 -0.2211 0.6687 263 15
3.8034 -2.8472 -0.2549 0.6345 263 15
4.4154 -2.8376 -0.2816 0.5424 263 15
4.8715 -2.6600 -0.2978 0.5103 263 15
5.7540 -2.6277 -0.3394 0.4477 263 15
6.9048 -2.5753 -0.3954 0.3955 263 15
30.3883 -8.9228 -1.6991 0.0536 0 2
30.9510 -6.7330 -1.6993 0.0536 0 2
33.2600 -4.7821 -1.8027 0.0536 0 1
33.5206 -2.3974 -1.8029 0.0536 0 1
33.6106 0.0000 -1.8031 0.0536 0 1
33.5293 2.3981 -1.8034 0.0536 0 1
31.3757 4.5112 -1.7006 0.0536 0 2
30.9780 6.7389 -1.7008 0.0536 0 2
20.2796 5.9546 -1.1339 0.2629 0 3
15.7310 5.8674 -0.9007 0.3310 0 3
15.5573 7.1048 -0.9175 0.9161 0 3
15.5310 8.4805 -0.9493 0.8854 0 3
12.0976 7.7747 -0.7715 0.3916 0 3
10.3465 7.7453 -0.6934 0.7452 0 3
9.5918 8.3113 -0.6809 0.7676 0 3
2.8935 -2.8935 -0.2534 0.7501 263 15
3.0947 -2.6815 -0.2536 0.6684 263 15
3.8019 -2.8460 -0.2941 0.6345 263 15
4.4132 -2.8362 -0.3248 0.5424 263 15
4.8715 -2.6600 -0.3437 0.5100 263 15
5.7527 -2.6271 -0.3916 0.4618 263 15
6.8967 -2.5723 -0.4558 0.3958 263 15
26.3315 -7.7316 -1.6993 0.0619 0 2
26.8187 -5.8341 -1.6995 0.0618 0 2
28.8189 -4.1436 -1.8029 0.0618 0 1
29.0443 -2.0773 -1.8031 0.0618 0 1
29.1217 0.0000 -1.8033 0.0618 0 1
29.0508 2.0778 -1.8035 0.0618 0 1
27.1843 3.9085 -1.7006 0.0618 0 2
26.8393 5.8386 -1.7008 0.0618 0 2
20.2796 5.9546 -1.3088 0.2628 0 3
15.7310 5.8674 -1.0396 0.3308 0 3
15.5573 7.1048 -1.0590 0.9157 0 3
15.5310 8.4805 -1.0957 0.8850 0 3
12.0982 7.7751 -0.8905 0.3916 0 3
10.3465 7.7453 -0.8003 0.7449 0 3
9.5919 8.3115 -0.7859 0.7673 0 3
2.8919 -2.8919 -0.2871 0.7500 263 15
3.1154 -2.6995 -0.2894 0.6680 263 15
3.8003 -2.8448 -0.3333 0.6344 263 15
4.4109 -2.8347 -0.3681 0.5424 263 15
4.8715 -2.6600 -0.3897 0.5098 263 15
5.7489 -2.6254 -0.4437 0.4618 263 15
6.8886 -2.5693 -0.5161 0.3960 263 15
23.2275 -6.8202 -1.6995 0.0701 0 2
24.4542 -5.3197 -1.7569 0.2307 0 2
25.4211 -3.6550 -1.8030 0.0701 0 1
25.6195 -1.8323 -1.8032 0.0701 0 1
25.6875 0.0000 -1.8033 0.0701 0 1
25.6246 1.8327 -1.8035 0.0700 0 1
23.9779 3.4475 -1.7006 0.0700 0 2
23.6733 5.1498 -1.7008 0.0700 0 2
20.2795 5.9546 -1.4838 0.2626 0 3
15.7310 5.8674 -1.1787 0.3306 0 3
15.5574 7.1048 -1.2007 0.9152 0 3
15.5310 8.4805 -1.2423 0.8845 0 3
12.0999 7.7762 -1.0097 0.3919 0 3
10.3461 7.7450 -0.9073 0.7447 0 3
9.5908 8.3105 -0.8909 0.7675 0 3
2.8911 -2.8911 -0.3209 0.7497 263 15
3.1154 -2.6995 -0.3236 0.6676 263 15
3.7988 -2.8437 -0.3725 0.6343 263 15
4.4087 -2.8333 -0.4114 0.5423 263 15
4.8715 -2.6600 -0.4357 0.5094 263 15
5.7451 -2.6237 -0.4958 0.4619 263 15
6.8805 -2.5662 -0.5764 0.3963 263 15
20.7756 -6.1003 -1.6996 0.0783 0 2
22.4442 -4.8824 -1.8029 0.0783 0 1
22.7372 -3.2691 -1.8031 0.0783 0 1
22.9144 -1.6389 -1.8032 0.0783 0 1
22.9750 0.0000 -1.8034 0.0783 0 1
22.9185 1.6392 -1.8036 0.0783 0 1
21.4455 3.0834 -1.7007 0.0783 0 2
21.1728 4.6059 -1.7008 0.0783 0 2
20.2794 5.9546 -1.6590 0.2625 0 3
15.7309 5.8673 -1.3179 0.3304 0 3
15.5574 7.1048 -1.3425 0.9146 0 3
15.5310 8.4805 -1.3890 0.8840 0 3
12.1009 7.7768 -1.1291 0.3922 0 3
10.3456 7.7446 -1.0144 0.7443 0 3
9.5890 8.3089 -0.9959 0.7671 0 3
2.8903 -2.8903 -0.3548 0.7494 263 15
3.1154 -2.6995 -0.3578 0.6672 263 15
3.7972 -2.8425 -0.4117 0.6341 263 15
4.4065 -2.8319 -0.4546 0.5422 263 15
4.8715 -2.6600 -0.4818 0.5091 263 15
5.7413 -2.6220 -0.5478 0.4619 263 15
6.8724 -2.5633 -0.6366 0.3965 263 15
18.7896 -5.5171 -1.6997 0.0865 0 2
20.2985 -4.4157 -1.8030 0.0865 0 1
20.5633 -2.9566 -1.8032 0.0865 0 1
20.7235 -1.4821 -1.8033 0.0865 0 1
20.7780 0.0000 -1.8035 0.0865 0 1
20.7268 1.4824 -1.8036 0.0865 0 1
19.3944 2.7885 -1.7007 0.0865 0 2
19.1477 4.1653 -1.7008 0.0865 0 2
18.8033 5.5212 -1.7010 0.0865 0 2
15.7309 5.8673 -1.4573 0.3302 0 3
15.5574 7.1048 -1.4845 0.9140 0 3
15.5310 8.4805 -1.5359 0.8834 0 3
12.1009 7.7768 -1.2485 0.3920 0 3
10.3452 7.7443 -1.1216 0.7433 0 3
9.5872 8.3074 -1.1011 0.7657 0 3
2.8895 -2.8895 -0.3887 0.7491 263 15
3.3035 -2.8624 -0.4157 0.7026 263 15
3.7953 -2.8411 -0.4509 0.6238 263 15
4.4045 -2.8306 -0.4980 0.5337 263 15
4.8715 -2.6600 -0.5279 0.5087 263 15
5.7375 -2.6202 -0.5999 0.4618 263 15
6.8643 -2.5602 -0.6968 0.3966 263 15
18.1890 -5.3408 -1.8030 0.0947 0 1
18.5250 -4.0299 -1.8031 0.0947 0 1
18.7665 -2.6982 -1.8032 0.0947 0 1
18.9126 -1.3527 -1.8034 0.0947 0 1
18.9622 0.0000 -1.8035 0.0947 0 1
18.9153 1.3529 -1.8036 0.0947 0 1
18.1413 2.6083 -1.7432 0.1409 0 2
17.4740 3.8012 -1.7008 0.0947 0 2
17.1596 5.0385 -1.7010 0.0947 0 2
15.7308 5.8673 -1.5968 0.3299 0 3
15.5574 7.1048 -1.6267 0.9133 0 3
15.5310 8.4805 -1.6830 0.8827 0 3
12.1009 7.7768 -1.3681 0.3917 0 3
10.3452 7.7443 -1.2291 0.7427 0 3
9.5864 8.3067 -1.2064 0.7665 0 3
2.8887 -2.8887 -0.4226 0.7487 263 15
3.3024 -2.8615 -0.4520 0.7023 263 15
3.7932 -2.8395 -0.4901 0.6236 263 15
4.4025 -2.8293 -0.5413 0.5335 263 15
4.8715 -2.6600 -0.5741 0.5083 263 15
5.7337 -2.6185 -0.6520 0.4617 263 15
6.6119 -2.4661 -0.7299 0.0497 263 15
16.7255 -4.9110 -1.8031 0.1029 0 1
17.0343 -3.7056 -1.8032 0.1029 0 1
17.2563 -2.4811 -1.8033 0.1029 0 1
17.3905 -1.2438 -1.8034 0.1029 0 1
17.4361 0.0000 -1.8035 0.1029 0 1
17.3929 1.2440 -1.8037 0.1029 0 1
17.2610 2.4818 -1.8038 0.1029 0 1
16.0673 3.4953 -1.7008 0.1029 0 2
15.7781 4.6329 -1.7009 0.1029 0 2
15.4085 5.7471 -1.7011 0.1029 0 2
15.0755 6.8847 -1.7143 0.1029 0 0
14.5469 7.9432 -1.7144 0.1029 0 0
12.1009 7.7768 -1.4879 0.3914 0 3
10.3452 7.7443 -1.3367 0.7421 0 3
9.5863 8.3066 -1.3121 0.7658 0 3
2.8878 -2.8878 -0.4565 0.7482 263 15
3.3012 -2.8605 -0.4883 0.7019 263 15
3.7911 -2.8379 -0.5293 0.6234 263 15
4.4005 -2.8280 -0.5847 0.5333 263 15
4.8715 -2.6600 -0.6204 0.5078 263 15
5.7299 -2.6168 -0.7041 0.4616 263 15
6.5034 -2.4256 -0.7759 0.3795 263 15
15.4780 -4.5447 -1.8031 0.1111 0 1
15.7637 -3.4292 -1.8032 0.1111 0 1
15.9691 -2.2960 -1.8034 0.1111 0 1
16.0932 -1.1510 -1.8035 0.1111 0 1
16.1353 0.0000 -1.8036 0.1111 0 1
16.0952 1.1512 -1.8037 0.1111 0 1
15.9731 2.2966 -1.8038 0.1111 0 1
14.8684 3.2344 -1.7008 0.1111 0 2
14.6007 4.2871 -1.7009 0.1111 0 2
14.2586 5.3182 -1.7011 0.1111 0 2
13.8437 6.3222 -1.7012 0.1111 0 2
13.4611 7.3503 -1.7144 0.1111 0 0
12.1008 7.7767 -1.6079 0.3910 0 3
10.3452 7.7443 -1.4445 0.7415 0 3
9.5858 8.3062 -1.4178 0.7654 0 3
2.8870 -2.8870 -0.4905 0.7477 263 15
3.3001 -2.8596 -0.5246 0.7014 263 15
3.7890 -2.8364 -0.5686 0.6232 263 15
4.3986 -2.8268 -0.6281 0.5330 263 15
4.8715 -2.6600 -0.6668 0.5074 263 15
5.7261 -2.6150 -0.7562 0.4615 263 15
6.5008 -2.4247 -0.8335 0.4021 263 15
14.4018 -4.2287 -1.8032 0.1193 0 1
14.6676 -3.1907 -1.8033 0.1193 0 1
14.8586 -2.1363 -1.8034 0.1193 0 1
14.9740 -1.0709 -1.8035 0.1193 0 1
15.0131 0.0000 -1.8036 0.1193 0 1
14.9758 1.0711 -1.8037 0.1193 0 1
14.8621 2.1369 -1.8038 0.1193 0 1
13.8342 3.0095 -1.7008 0.1193 0 2
13.5850 3.9889 -1.7009 0.1193 0 2
13.2667 4.9482 -1.7010 0.1193 0 2
12.8806 5.8824 -1.7011 0.1193 0 2
12.5245 6.8389 -1.7143 0.1193 0 0
12.0054 7.7154 -1.7144 0.1192 0 0
10.3452 7.7443 -1.5525 0.7409 0 3
9.5848 8.3053 -1.5236 0.7649 0 3
2.8862 -2.8862 -0.5245 0.7472 263 15
3.2990 -2.8586 -0.5610 0.7010 263 15
3.7869 -2.8348 -0.6079 0.6229 263 15
4.3966 -2.8255 -0.6716 0.5327 263 15
4.8710 -2.6597 -0.7132 0.5229 263 15
5.7225 -2.6134 -0.8084 0.4611 263 15
6.8954 -2.5719 -0.9457 0.3825 263 15
13.4638 -3.9533 -1.8033 0.1275 0 1
13.7122 -2.9829 -1.8033 0.1275 0 1
13.8908 -1.9972 -1.8034 0.1275 0 1
13.9986 -1.0012 -1.8035 0.1275 0 1
14.0351 0.0000 -1.8036 0.1275 0 1
14.0001 1.0013 -1.8037 0.1275 0 1
13.8938 1.9976 -1.8038 0.1275 0 1
12.9328 2.8134 -1.7008 0.1275 0 2
12.6999 3.7290 -1.7009 0.1275 0 2
12.4022 4.6258 -1.7010 0.1274 0 2
12.0412 5.4991 -1.7011 0.1274 0 2
11.6189 6.3444 -1.7012 0.1274 0 2
11.2230 7.2126 -1.7144 0.1274 0 0
10.3452 7.7443 -1.6607 0.7403 0 3
9.5841 8.3047 -1.6297 0.7632 0 3
2.8854 -2.8854 -0.5586 0.7466 263 15
3.2979 -2.8577 -0.5974 0.7004 263 15
3.7848 -2.8332 -0.6472 0.6225 263 15
4.3946 -2.8242 -0.7151 0.5324 263 15
4.8681 -2.6582 -0.7593 0.5227 263 15
5.7189 -2.6117 -0.8607 0.4609 263 15
6.4528 -2.4068 -0.9428 0.3546 263 15
12.6389 -3.7111 -1.8033 0.1357 0 1
12.8720 -2.8001 -1.8034 0.1357 0 1
13.0396 -1.8748 -1.8035 0.1357 0 1
13.1408 -0.9398 -1.8036 0.1357 0 1
13.1750 0.0000 -1.8036 0.1357 0 1
13.1421 0.9400 -1.8037 0.1357 0 1
13.0423 1.8752 -1.8038 0.1356 0 1
12.1401 2.6410 -1.7008 0.1356 0 2
11.9214 3.5004 -1.7009 0.1356 0 2
11.6419 4.3422 -1.7010 0.1356 0 2
11.3031 5.1620 -1.7011 0.1356 0 2
10.9066 5.9555 -1.7012 0.1356 0 2
10.5349 6.7704 -1.7144 0.1356 0 0
10.0256 7.5051 -1.7145 0.1356 0 0
9.4651 8.2016 -1.7145 0.1356 0 0
2.8845 -2.8845 -0.5928 0.7459 263 15
3.2968 -2.8567 -0.6339 0.6999 263 15
3.7827 -2.8317 -0.6866 0.6222 263 15
4.3926 -2.8229 -0.7587 0.5320 263 15
4.8653 -2.6566 -0.8055 0.5221 263 15
5.7165 -2.6106 -0.9132 0.4588 263 15
6.4576 -2.4086 -1.0015 0.3539 263 15
11.9076 -3.4964 -1.8033 0.1438 0 1
12.1273 -2.6381 -1.8034 0.1438 0 1
12.2851 -1.7663 -1.8035 0.1438 0 1
12.3804 -0.8854 -1.8036 0.1438 0 1
12.4126 0.0000 -1.8037 0.1438 0 1
12.3816 0.8855 -1.8038 0.1438 0 1
12.2875 1.7667 -1.8038 0.1438 0 1
11.4437 2.4894 -1.7018 0.2193 0 2
11.2314 3.2979 -1.7009 0.1438 0 2
10.9681 4.0909 -1.7010 0.1438 0 2
10.6488 4.8632 -1.7011 0.1438 0 2
10.2753 5.6107 -1.7012 0.1438 0 2
9.8493 6.3297 -1.7013 0.1438 0 2
9.4452 7.0706 -1.7144 0.1438 0 0
8.9171 7.7267 -1.7145 0.1438 0 0
2.8837 -2.8837 -0.6270 0.7452 263 15
3.2957 -2.8557 -0.6704 0.6992 263 15
3.7037 -2.7726 -0.7113 0.3372 263 15
4.2221 -2.7134 -0.7716 0.4843 263 15
4.8648 -2.6563 -0.8521 0.5196 263 15
5.7145 -2.6097 -0.9658 0.4631 263 15
6.4619 -2.4102 -1.0603 0.3434 263 15
11.2549 -3.3047 -1.8034 0.1520 0 1
11.4625 -2.4935 -1.8034 0.1520 0 1
11.6117 -1.6695 -1.8035 0.1520 0 1
11.7017 -0.8369 -1.8036 0.1520 0 1
11.7321 0.0000 -1.8037 0.1520 0 1
11.7028 0.8370 -1.8038 0.1520 0 1
11.6138 1.6698 -1.8038 0.1520 0 1
11.3863 2.4770 -1.7915 0.1915 0 2
10.6156 3.1170 -1.7009 0.1519 0 2
10.3666 3.8666 -1.7010 0.1519 0 2
10.0649 4.5965 -1.7011 0.1519 0 2
9.7118 5.3030 -1.7012 0.1519 0 2
9.3091 5.9826 -1.7012 0.1519 0 2
8.9272 6.6828 -1.7144 0.1519 0 0
8.4280 7.3029 -1.7145 0.1519 0 0
2.8829 -2.8829 -0.6612 0.7445 263 15
3.2946 -2.8547 -0.7070 0.6986 263 15
3.6524 -2.7341 -0.7400 0.6405 263 15
4.2214 -2.7129 -0.8139 0.4838 263 15
4.8647 -2.6563 -0.8990 0.5189 263 15
5.7111 -2.6081 -1.0183 0.4628 263 15
6.4661 -2.4117 -1.1193 0.3427 263 15
10.6686 -3.1326 -1.8034 0.1601 0 1
10.8654 -2.3636 -1.8035 0.1601 0 1
11.0067 -1.5825 -1.8035 0.1601 0 1
11.0921 -0.7933 -1.8036 0.1601 0 1
11.1209 0.0000 -1.8037 0.1601 0 1
11.0930 0.7934 -1.8038 0.1601 0 1
11.0086 1.5828 -1.8039 0.1601 0 1
10.8681 2.3642 -1.8039 0.1601 0 1
10.0624 2.9546 -1.7009 0.1601 0 2
9.8264 3.6651 -1.7010 0.1601 0 2
9.5403 4.3569 -1.7011 0.1601 0 2
9.2056 5.0267 -1.7011 0.1601 0 2
8.8239 5.6708 -1.7012 0.1601 0 2
8.3973 6.2861 -1.7013 0.1601 0 2
7.9887 6.9223 -1.7145 0.1601 0 0
2.8821 -2.8820 -0.6956 0.7437 263 15
3.2934 -2.8538 -0.7437 0.6978 263 15
3.6173 -2.7079 -0.7712 0.6458 263 15
4.2336 -2.7207 -0.8589 0.4558 263 15
4.8644 -2.6562 -0.9459 0.5236 263 15
5.7100 -2.6076 -1.0713 0.4654 263 15
6.4703 -2.4133 -1.1786 0.3420 263 15
10.1391 -2.9771 -1.8034 0.1683 0 1
10.3260 -2.2463 -1.8035 0.1683 0 1
10.4603 -1.5040 -1.8036 0.1683 0 1
10.5414 -0.7539 -1.8036 0.1683 0 1
10.5687 0.0000 -1.8037 0.1683 0 1
10.5423 0.7540 -1.8038 0.1682 0 1
10.4621 1.5042 -1.8039 0.1682 0 1
10.3285 2.2469 -1.8039 0.1682 0 1
9.5627 2.8079 -1.7009 0.1682 0 2
9.3385 3.4831 -1.7010 0.1682 0 2
9.0666 4.1406 -1.7011 0.1682 0 2
8.7485 4.7770 -1.7011 0.1682 0 2
8.3857 5.3892 -1.7012 0.1682 0 2
7.9802 5.9739 -1.7013 0.1682 0 2
7.5920 6.5785 -1.7144 0.1682 0 0
2.8812 -2.8812 -0.7300 0.7428 263 15
3.2923 -2.8528 -0.7805 0.6971 263 15
3.5926 -2.6894 -0.8040 0.6769 263 15
4.2896 -2.7568 -0.9136 0.4492 263 15
4.8638 -2.6559 -0.9929 0.5190 263 15
5.7066 -2.6061 -1.1240 0.4651 263 15
6.4745 -2.4149 -1.2381 0.3348 263 15
9.6583 -2.8359 -1.8035 0.1764 0 1
9.8363 -2.1397 -1.8035 0.1764 0 1
9.9643 -1.4326 -1.8036 0.1764 0 1
10.0415 -0.7182 -1.8037 0.1764 0 1
10.0675 0.0000 -1.8037 0.1764 0 1
10.0423 0.7182 -1.8038 0.1764 0 1
9.9658 1.4329 -1.8039 0.1764 0 1
9.8386 2.1403 -1.8039 0.1764 0 1
9.1092 2.6747 -1.7009 0.1764 0 2
8.8955 3.3179 -1.7010 0.1763 0 2
8.6365 3.9442 -1.7011 0.1763 0 2
8.3334 4.5504 -1.7011 0.1763 0 2
7.9879 5.1335 -1.7012 0.1763 0 2
7.6016 5.6905 -1.7013 0.1763 0 2
7.1765 6.2185 -1.7013 0.1763 0 2
2.8804 -2.8804 -0.7645 0.7419 263 15
3.2912 -2.8518 -0.8173 0.6963 263 15
3.5880 -2.6859 -0.8412 0.6768 263 15
4.0415 -2.5973 -0.9017 0.5469 263 15
4.8645 -2.6562 -1.0402 0.5181 263 15
5.7032 -2.6045 -1.1767 0.4646 263 15
6.4775 -2.4160 -1.2975 0.3341 263 15
9.2198 -2.7072 -1.8035 0.1845 0 1
9.3898 -2.0426 -1.8035 0.1845 0 1
9.5119 -1.3676 -1.8036 0.1845 0 1
9.5856 -0.6856 -1.8037 0.1845 0 1
9.6104 0.0000 -1.8037 0.1845 0 1
9.5863 0.6856 -1.8038 0.1845 0 1
9.5133 1.3678 -1.8039 0.1845 0 1
9.3919 2.0431 -1.8039 0.1845 0 1
8.6955 2.5532 -1.7009 0.1845 0 2
8.4915 3.1672 -1.7010 0.1845 0 2
8.2443 3.7650 -1.7010 0.1844 0 2
7.9550 4.3437 -1.7011 0.1844 0 2
7.6251 4.9004 -1.7012 0.1844 0 2
7.2563 5.4320 -1.7012 0.1844 0 2
6.8506 5.9361 -1.7013 0.1844 0 2
2.8795 -2.8795 -0.7991 0.7409 263 15
3.2901 -2.8508 -0.8543 0.6954 263 15
3.5833 -2.6824 -0.8784 0.6766 263 15
4.0435 -2.5986 -0.9432 0.5457 263 15
4.8635 -2.6557 -1.0874 0.5249 263 15
5.6998 -2.6030 -1.2296 0.4642 263 15
6.4790 -2.4165 -1.3570 0.3312 263 15
8.8182 -2.5893 -1.8035 0.1926 0 1
8.9808 -1.9536 -1.8036 0.1926 0 1
9.0976 -1.3080 -1.8036 0.1926 0 1
9.1680 -0.6557 -1.8037 0.1926 0 1
9.1918 0.0000 -1.8037 0.1926 0 1
9.1687 0.6558 -1.8038 0.1926 0 1
9.0989 1.3082 -1.8039 0.1926 0 1
8.9827 1.9541 -1.8039 0.1926 0 1
8.3166 2.4420 -1.7009 0.1926 0 2
8.1215 3.0292 -1.7010 0.1926 0 2
7.8850 3.6010 -1.7010 0.1925 0 2
7.6083 4.1545 -1.7011 0.1925 0 2
7.2928 4.6868 -1.7012 0.1925 0 2
6.9401 5.1953 -1.7012 0.1925 0 2
6.5520 5.6774 -1.7013 0.1925 0 2
2.8787 -2.8787 -0.8338 0.7424 263 15
3.2889 -2.8499 -0.8913 0.6945 263 15
3.5788 -2.6790 -0.9156 0.6660 263 15
4.0454 -2.5998 -0.9849 0.5446 263 15
4.8620 -2.6548 -1.1346 0.5243 263 15
5.6964 -2.6014 -1.2826 0.4637 263 15
6.4781 -2.4162 -1.4161 0.3395 263 15
8.4490 -2.4808 -1.8035 0.2007 0 1
8.6047 -1.8719 -1.8036 0.2007 0 1
8.7166 -1.2532 -1.8036 0.2007 0 1
8.7841 -0.6282 -1.8037 0.2007 0 1
8.8069 0.0000 -1.8038 0.2007 0 1
8.7847 0.6283 -1.8038 0.2007 0 1
8.7178 1.2534 -1.8039 0.2007 0 1
8.6065 1.8722 -1.8039 0.2007 0 1
8.2294 2.4164 -1.7566 0.2579 0 2
7.7814 2.9023 -1.7010 0.2006 0 2
7.5548 3.4502 -1.7010 0.2006 0 2
7.2897 3.9804 -1.7011 0.2006 0 2
6.9874 4.4905 -1.7011 0.2006 0 2
6.6494 4.9777 -1.7012 0.2006 0 2
6.2776 5.4396 -1.7013 0.2006 0 2
2.8777 -2.8777 -0.8686 0.7413 263 15
3.2881 -2.8492 -0.9285 0.6909 263 15
3.6711 -2.7481 -0.9787 0.5962 263 15
4.0473 -2.6011 -1.0268 0.5434 263 15
4.8616 -2.6546 -1.1821 0.5235 263 15
5.6947 -2.6006 -1.3361 0.4632 263 15
6.4754 -2.4152 -1.4750 0.3391 263 15
8.1084 -2.3808 -1.8035 0.2088 0 1
8.2578 -1.7964 -1.8036 0.2088 0 1
8.3652 -1.2027 -1.8036 0.2088 0 1
8.4300 -0.6029 -1.8037 0.2087 0 1
8.4518 0.0000 -1.8038 0.2087 0 1
8.4305 0.6030 -1.8038 0.2087 0 1
8.3663 1.2029 -1.8039 0.2087 0 1
8.2594 1.7967 -1.8039 0.2087 0 1
8.1105 2.3815 -1.8040 0.2087 0 1
7.4676 2.7853 -1.7010 0.2087 0 2
7.2501 3.3110 -1.7010 0.2087 0 2
6.9957 3.8199 -1.7011 0.2087 0 2
6.7056 4.3094 -1.7011 0.2087 0 2
6.3812 4.7769 -1.7012 0.2087 0 2
6.0244 5.2202 -1.7012 0.2087 0 2
2.8770 -2.8770 -0.9035 0.7375 263 15
3.2876 -2.8487 -0.9660 0.6898 263 15
3.6280 -2.7159 -1.0063 0.6022 263 15
4.0492 -2.6023 -1.0688 0.5421 263 15
4.8611 -2.6544 -1.2299 0.5226 263 15
7.3877 -3.3739 -1.8035 0.2168 0 1
6.4715 -2.4137 -1.5337 0.3485 263 15
7.7931 -2.2883 -1.8036 0.2168 0 1
7.9367 -1.7265 -1.8036 0.2168 0 1
8.0399 -1.1559 -1.8037 0.2168 0 1
8.1021 -0.5795 -1.8037 0.2168 0 1
8.1231 0.0000 -1.8038 0.2168 0 1
8.1026 0.5795 -1.8038 0.2168 0 1
8.0409 1.1561 -1.8039 0.2168 0 1
7.9382 1.7269 -1.8039 0.2168 0 1
7.7950 2.2888 -1.8040 0.2168 0 1
7.1771 2.6769 -1.7010 0.2168 0 2
6.9681 3.1822 -1.7010 0.2168 0 2
6.7235 3.6713 -1.7011 0.2168 0 2
6.4447 4.1418 -1.7011 0.2167 0 2
6.1330 4.5911 -1.7012 0.2167 0 2
5.7900 5.0171 -1.7012 0.2167 0 2
2.8753 -2.8753 -0.9382 0.7338 263 15
3.2871 -2.8482 -1.0035 0.6886 263 15
3.6018 -2.6962 -1.0381 0.7613 263 15
4.0509 -2.6034 -1.1110 0.5511 263 15
4.8607 -2.6541 -1.2778 0.5217 263 15
7.1102 -3.2471 -1.8035 0.2249 0 1
6.4674 -2.4122 -1.5926 0.3480 263 15
7.5004 -2.2023 -1.8036 0.2249 0 1
7.6386 -1.6617 -1.8036 0.2249 0 1
7.7379 -1.1125 -1.8037 0.2249 0 1
7.7978 -0.5577 -1.8037 0.2248 0 1
7.8179 0.0000 -1.8038 0.2248 0 1
7.7982 0.5578 -1.8038 0.2248 0 1
7.7388 1.1127 -1.8039 0.2248 0 1
7.6400 1.6620 -1.8039 0.2248 0 1
7.5022 2.2029 -1.8040 0.2248 0 1
6.9260 2.5833 -1.7055 0.3664 0 2
6.7063 3.0627 -1.7010 0.2248 0 2
6.4709 3.5334 -1.7011 0.2248 0 2
6.2025 3.9862 -1.7011 0.2248 0 2
5.9025 4.4186 -1.7012 0.2248 0 2
5.5724 4.8286 -1.7012 0.2248 0 2
2.8733 -2.8732 -0.9729 0.7329 263 15
3.2866 -2.8478 -1.0412 0.6874 263 15
3.5794 -2.6795 -1.0705 0.7645 263 15
4.0525 -2.6044 -1.1534 0.5498 263 15
4.8603 -2.6539 -1.3259 0.5207 263 15
6.8519 -3.1291 -1.8035 0.2329 0 1
6.4633 -2.4107 -1.6516 0.3476 263 15
7.2279 -2.1223 -1.8036 0.2329 0 1
7.3610 -1.6013 -1.8036 0.2329 0 1
7.4567 -1.0721 -1.8037 0.2329 0 1
7.5144 -0.5374 -1.8037 0.2329 0 1
7.5338 0.0000 -1.8038 0.2329 0 1
7.5148 0.5375 -1.8038 0.2329 0 1
7.4576 1.0722 -1.8039 0.2329 0 1
7.3623 1.6016 -1.8039 0.2328 0 1
7.2295 2.1228 -1.8040 0.2328 0 1
6.6564 2.4827 -1.7010 0.2328 0 2
6.4625 2.9514 -1.7010 0.2328 0 2
6.2357 3.4050 -1.7011 0.2328 0 2
5.9771 3.8413 -1.7011 0.2328 0 2
5.6880 4.2580 -1.7012 0.2328 0 2
5.3699 4.6530 -1.7012 0.2328 0 2
2.8712 -2.8711 -1.0076 0.7319 263 15
3.2855 -2.8469 -1.0788 0.6836 263 15
3.5571 -2.6628 -1.1027 0.7678 263 15
4.0542 -2.6054 -1.1959 0.5484 263 15
4.8599 -2.6537 -1.3741 0.5197 263 15
6.6108 -3.0190 -1.8035 0.2409 0 1
6.4590 -2.4090 -1.7107 0.3586 263 15
6.9735 -2.0476 -1.8036 0.2409 0 1
7.1020 -1.5449 -1.8036 0.2409 0 1
7.1943 -1.0344 -1.8037 0.2409 0 1
7.2499 -0.5185 -1.8037 0.2409 0 1
7.2686 0.0000 -1.8038 0.2409 0 1
7.2503 0.5186 -1.8038 0.2409 0 1
7.1951 1.0345 -1.8039 0.2409 0 1
7.1031 1.5452 -1.8039 0.2409 0 1
6.9750 2.0480 -1.8040 0.2409 0 1
6.4221 2.3953 -1.7010 0.2408 0 2
6.2350 2.8475 -1.7010 0.2408 0 2
6.0162 3.2851 -1.7011 0.2408 0 2
5.7667 3.7060 -1.7011 0.2408 0 2
5.4877 4.1081 -1.7011 0.2408 0 2
5.1808 4.4892 -1.7012 0.2408 0 2
2.8691 -2.8690 -1.0425 0.7310 263 15
3.2833 -2.8450 -1.1162 0.6708 263 15
3.5351 -2.6463 -1.1346 0.7710 263 15
4.0556 -2.6063 -1.2386 0.5561 263 15
6.1607 -3.3640 -1.8035 0.2489 0 1
6.3851 -2.9160 -1.8035 0.2489 0 1
6.4542 -2.4073 -1.7699 0.3581 263 15
6.7354 -1.9777 -1.8036 0.2489 0 1
6.8595 -1.4922 -1.8037 0.2489 0 1
6.9487 -0.9991 -1.8037 0.2489 0 1
7.0024 -0.5008 -1.8037 0.2489 0 1
7.0205 0.0000 -1.8038 0.2489 0 1
7.0028 0.5009 -1.8038 0.2489 0 1
6.9494 0.9992 -1.8039 0.2489 0 1
6.8606 1.4924 -1.8039 0.2489 0 1
6.7369 1.9781 -1.8040 0.2488 0 1
6.3838 2.3811 -1.7506 0.3688 0 2
6.0222 2.7502 -1.7010 0.2488 0 2
5.8108 3.1729 -1.7010 0.2488 0 2
5.5698 3.5795 -1.7011 0.2488 0 2
5.3004 3.9678 -1.7011 0.2488 0 2
5.0039 4.3359 -1.7012 0.2488 0 2
2.8670 -2.8669 -1.0774 0.7299 263 15
3.2831 -2.8448 -1.1544 0.6694 263 15
3.5165 -2.6324 -1.1673 0.7978 263 15
4.0566 -2.6070 -1.2814 0.5548 263 15
5.9565 -3.2525 -1.8035 0.2569 0 1
6.1735 -2.8193 -1.8035 0.2569 0 1
6.3591 -2.3718 -1.8036 0.2569 0 1
6.5122 -1.9122 -1.8036 0.2569 0 1
6.6322 -1.4427 -1.8037 0.2569 0 1
6.7184 -0.9660 -1.8037 0.2569 0 1
6.7704 -0.4842 -1.8038 0.2569 0 1
6.7878 0.0000 -1.8038 0.2569 0 1
6.7707 0.4843 -1.8039 0.2568 0 1
6.7191 0.9661 -1.8039 0.2568 0 1
6.6332 1.4430 -1.8039 0.2568 0 1
6.5136 1.9126 -1.8040 0.2568 0 1
6.3607 2.3724 -1.8040 0.2568 0 1
5.8225 2.6591 -1.7010 0.2568 0 2
5.6181 3.0677 -1.7010 0.2568 0 2
5.3851 3.4608 -1.7011 0.2568 0 2
5.1246 3.8363 -1.7011 0.2568 0 2
4.8380 4.1922 -1.7012 0.2568 0 2
2.8656 -2.8655 -1.1128 0.7172 263 15
3.2829 -2.8446 -1.1928 0.6679 263 15
3.5089 -2.6267 -1.2036 0.7978 263 15
4.0571 -2.6073 -1.3243 0.5601 263 15
5.7647 -3.1477 -1.8035 0.2649 0 1
5.9747 -2.7285 -1.8036 0.2648 0 1
6.1542 -2.2954 -1.8036 0.2648 0 1
6.3024 -1.8505 -1.8036 0.2648 0 1
6.4185 -1.3963 -1.8037 0.2648 0 1
6.5019 -0.9348 -1.8037 0.2648 0 1
6.5522 -0.4686 -1.8038 0.2648 0 1
6.5691 0.0000 -1.8038 0.2648 0 1
6.5526 0.4687 -1.8039 0.2648 0 1
6.5026 0.9349 -1.8039 0.2648 0 1
6.4195 1.3965 -1.8039 0.2648 0 1
6.3037 1.8509 -1.8040 0.2648 0 1
6.1558 2.2960 -1.8040 0.2648 0 1
5.6349 2.5734 -1.7010 0.2648 0 2
5.4371 2.9689 -1.7010 0.2648 0 2
5.2116 3.3493 -1.7011 0.2648 0 2
4.9595 3.7126 -1.7011 0.2647 0 2
4.6821 4.0571 -1.7012 0.2647 0 2
2.8622 -2.8622 -1.1474 0.7164 263 15
3.2827 -2.8445 -1.2313 0.6664 263 15
3.5012 -2.6210 -1.2398 0.7977 263 15
4.0570 -2.6072 -1.3671 0.5620 263 15
5.5840 -3.0491 -1.8035 0.2728 0 1
5.7874 -2.6430 -1.8036 0.2728 0 1
5.9613 -2.2234 -1.8036 0.2728 0 1
6.1049 -1.7926 -1.8036 0.2728 0 1
6.2173 -1.3525 -1.8037 0.2728 0 1
6.2981 -0.9055 -1.8037 0.2728 0 1
6.3468 -0.4539 -1.8038 0.2728 0 1
6.3632 0.0000 -1.8038 0.2728 0 1
6.3471 0.4540 -1.8039 0.2727 0 1
6.2987 0.9056 -1.8039 0.2727 0 1
6.2182 1.3527 -1.8039 0.2727 0 1
6.1060 1.7929 -1.8040 0.2727 0 1
1.7090 0.6374 -0.5171 0.0144 294 14
1.4411 0.6581 -0.4491 0.1670 294 14
1.4194 0.7751 -0.4585 0.1105 294 14
1.4304 0.9193 -0.4820 0.1051 294 14
1.4229 1.0652 -0.5039 0.1006 294 14
4.5353 3.9299 -1.7012 0.2727 0 2
2.8588 -2.8588 -1.1822 0.7155 263 15
3.2802 -2.8423 -1.2692 0.6665 263 15
3.4936 -2.6153 -1.2761 0.7975 263 15
4.0562 -2.6068 -1.4099 0.5601 263 15
5.4135 -2.9560 -1.8035 0.2807 0 1
5.6107 -2.5623 -1.8036 0.2807 0 1
5.7793 -2.1555 -1.8036 0.2807 0 1
5.9185 -1.7378 -1.8037 0.2807 0 1
6.0275 -1.3112 -1.8037 0.2807 0 1
6.1058 -0.8779 -1.8037 0.2807 0 1
6.1530 -0.4401 -1.8038 0.2807 0 1
6.1689 0.0000 -1.8038 0.2807 0 1
6.1533 0.4401 -1.8039 0.2807 0 1
6.1064 0.8780 -1.8039 0.2807 0 1
1.4798 0.3219 -0.4428 0.1743 294 14
1.4552 0.4273 -0.4435 0.1741 294 14
1.4188 0.5292 -0.4428 0.1743 294 14
1.3711 0.6262 -0.4407 0.1755 294 14
1.3187 0.7201 -0.4393 0.1187 294 14
1.3240 0.8509 -0.4602 0.1133 294 14
1.3127 0.9827 -0.4795 0.1088 294 14
1.2880 1.1161 -0.4983 0.1074 294 14
2.8555 -2.8554 -1.2170 0.7146 263 15
3.2174 -2.7879 -1.2830 0.3461 263 15
3.4860 -2.6096 -1.3123 0.7973 263 15
4.0551 -2.6061 -1.4527 0.5589 263 15
5.2524 -2.8680 -1.8036 0.2886 0 1
5.4437 -2.4860 -1.8036 0.2886 0 1
5.6073 -2.0914 -1.8036 0.2886 0 1
5.7423 -1.6861 -1.8037 0.2886 0 1
5.8481 -1.2722 -1.8037 0.2886 0 1
5.9241 -0.8518 -1.8037 0.2886 0 1
1.7098 -0.1223 -0.5166 0.0271 294 14
1.5819 0.0000 -0.4767 0.0294 294 14
1.4694 0.1051 -0.4440 0.1887 294 14
1.4365 0.2066 -0.4374 0.1916 294 14
1.4105 0.3069 -0.4350 0.1824 294 14
1.3870 0.4073 -0.4357 0.1822 294 14
1.3524 0.5044 -0.4350 0.1824 294 14
1.3073 0.5970 -0.4331 0.1836 294 14
1.2525 0.6839 -0.4301 0.1849 294 14
1.2320 0.7918 -0.4414 0.1215 294 14
1.2182 0.9119 -0.4586 0.1200 294 14
1.1939 1.0346 -0.4761 0.1156 294 14
2.8521 -2.8521 -1.2520 0.7137 263 15
3.1395 -2.7204 -1.2894 0.3538 263 15
3.4850 -2.6088 -1.3512 0.6837 263 15
4.0535 -2.6050 -1.4956 0.5532 263 15
5.0998 -2.7847 -1.8036 0.2965 0 1
5.2856 -2.4138 -1.8036 0.2965 0 1
5.4444 -2.0306 -1.8036 0.2965 0 1
5.5755 -1.6371 -1.8037 0.2965 0 1
5.6782 -1.2352 -1.8037 0.2965 0 1
1.4348 -0.2063 -0.4499 0.1918 294 14
1.4360 -0.1027 -0.4469 0.1926 294 14
1.4261 0.0000 -0.4426 0.1945 294 14
1.4055 0.1005 -0.4374 0.1968 294 14
1.3749 0.1977 -0.4311 0.1996 294 14
1.3472 0.2931 -0.4279 0.1905 294 14
1.3246 0.3889 -0.4285 0.1903 294 14
1.2916 0.4818 -0.4279 0.1905 294 14
1.2489 0.5704 -0.4262 0.1917 294 14
1.1970 0.6536 -0.4233 0.1930 294 14
1.1516 0.7401 -0.4249 0.1296 294 14
1.1377 0.8517 -0.4411 0.1281 294 14
1.1123 0.9638 -0.4568 0.1237 294 14
2.8259 -2.8259 -1.2767 0.8809 263 15
3.0649 -2.6557 -1.2955 0.3615 263 15
3.4932 -2.6150 -1.3940 0.6803 263 15
4.0519 -2.6040 -1.5387 0.5520 263 15
4.9552 -2.7057 -1.8036 0.3044 0 1
5.1356 -2.3454 -1.8036 0.3044 0 1
5.2900 -1.9730 -1.8036 0.3044 0 1
5.4174 -1.5907 -1.8037 0.3044 0 1
1.4175 -0.3084 -0.4634 0.1721 294 14
1.3732 -0.1974 -0.4432 0.1999 294 14
1.3746 -0.0983 -0.4402 0.2007 294 14
1.3656 0.0000 -0.4363 0.2025 294 14
1.3466 0.0963 -0.4313 0.2049 294 14
1.3181 0.1895 -0.4254 0.2077 294 14
1.2890 0.2804 -0.4214 0.1986 294 14
1.2673 0.3721 -0.4219 0.1984 294 14
1.2359 0.4610 -0.4214 0.1990 294 14
1.1953 0.5459 -0.4198 0.1998 294 14
1.1459 0.6257 -0.4171 0.2011 294 14
1.0886 0.6996 -0.4134 0.2029 294 14
1.0669 0.7987 -0.4257 0.1363 294 14
1.0463 0.9067 -0.4423 0.2235 294 14
2.8256 -2.8256 -1.3130 0.8787 263 15
3.0579 -2.6497 -1.3294 0.6362 263 15
3.5016 -2.6212 -1.4372 0.6769 263 15
4.0502 -2.6029 -1.5819 0.5508 263 15
4.8178 -2.6307 -1.8036 0.3122 0 1
4.9933 -2.2803 -1.8036 0.3122 0 1
1.4204 -0.5298 -0.4981 0.1643 294 14
1.3902 -0.4082 -0.4761 0.1719 294 14
1.3506 -0.2938 -0.4541 0.1802 294 14
1.3164 -0.1893 -0.4370 0.2079 294 14
1.3180 -0.0943 -0.4342 0.2093 294 14
1.3098 0.0000 -0.4304 0.2106 294 14
1.2922 0.0924 -0.4257 0.2129 294 14
1.2655 0.1820 -0.4201 0.2158 294 14
1.2353 0.2687 -0.4154 0.2067 294 14
1.2145 0.3566 -0.4159 0.2064 294 14
1.1845 0.4418 -0.4154 0.2071 294 14
1.1458 0.5232 -0.4139 0.2078 294 14
1.0987 0.6000 -0.4113 0.2091 294 14
1.0497 0.6746 -0.4100 0.2875 294 14
1.0286 0.7700 -0.4222 0.2402 294 14
1.0077 0.8731 -0.4381 0.2315 294 14
2.8253 -2.8254 -1.3494 0.8763 263 15
3.0579 -2.6497 -1.3665 0.6344 263 15
3.5101 -2.6276 -1.4808 0.6734 263 15
4.0485 -2.6018 -1.6253 0.5421 263 15
4.6871 -2.5594 -1.8036 0.3200 0 1
1.3656 -0.6236 -0.5070 0.1705 294 14
1.3501 -0.5036 -0.4866 0.1723 294 14
1.3243 -0.3888 -0.4661 0.1799 294 14
1.2893 -0.2805 -0.4456 0.1882 294 14
1.2638 -0.1817 -0.4312 0.2160 294 14
1.2657 -0.0905 -0.4286 0.2173 294 14
1.2583 0.0000 -0.4250 0.2192 294 14
1.2417 0.0888 -0.4204 0.2210 294 14
1.2167 0.1750 -0.4151 0.2238 294 14
1.1857 0.2579 -0.4098 0.2148 294 14
1.1657 0.3423 -0.4103 0.2149 294 14
1.1370 0.4241 -0.4098 0.2151 294 14
1.1000 0.5024 -0.4084 0.2159 294 14
1.0563 0.5768 -0.4065 0.2267 294 14
1.0189 0.6548 -0.4091 0.2953 294 14
0.9930 0.7434 -0.4189 0.2481 294 14
0.9715 0.8418 -0.4342 0.2394 294 14
2.8251 -2.8251 -1.3861 0.8739 263 15
3.9287 -3.4042 -1.8035 0.3279 0 1
3.5296 -2.6422 -1.5297 0.4423 263 15
4.0465 -2.6005 -1.6688 0.5408 263 15
4.5627 -2.4914 -1.8036 0.3278 0 1
1.3002 -0.5938 -0.4959 0.1786 294 14
1.2861 -0.4797 -0.4762 0.1804 294 14
1.2640 -0.3711 -0.4570 0.1880 294 14
1.2331 -0.2682 -0.4378 0.1962 294 14
1.2150 -0.1747 -0.4259 0.2240 294 14
1.2171 -0.0871 -0.4234 0.2254 294 14
1.2103 0.0000 -0.4199 0.2272 294 14
1.1949 0.0855 -0.4156 0.2296 294 14
1.1713 0.1684 -0.4106 0.2324 294 14
1.1401 0.2480 -0.4048 0.2351 294 14
1.1204 0.3290 -0.4051 0.2229 294 14
1.0933 0.4078 -0.4048 0.2331 294 14
1.0590 0.4836 -0.4039 0.2337 294 14
1.0173 0.5555 -0.4021 0.2347 294 14
0.9898 0.6361 -0.4082 0.3032 294 14
0.9597 0.7184 -0.4159 0.2561 294 14
0.9377 0.8126 -0.4305 0.2474 294 14
3.5802 -3.5802 -1.8035 0.3356 0 1
3.8265 -3.3157 -1.8036 0.3356 0 1
3.5683 -2.6712 -1.5878 0.4362 263 15
4.0444 -2.5992 -1.7125 0.5395 263 15
4.4440 -2.4266 -1.8036 0.3356 0 1
1.2404 -0.5665 -0.4858 0.1867 294 14
1.2287 -0.4582 -0.4671 0.1941 294 14
1.2087 -0.3549 -0.4487 0.1960 294 14
1.1813 -0.2570 -0.4306 0.2042 294 14
1.1696 -0.1681 -0.4209 0.2321 294 14
1.1719 -0.0838 -0.4185 0.2334 294 14
1.1657 0.0000 -0.4152 0.2352 294 14
1.1513 0.0824 -0.4111 0.2376 294 14
1.1291 0.1623 -0.4063 0.2404 294 14
1.1001 0.2393 -0.4010 0.2536 294 14
1.0796 0.3170 -0.4008 0.2411 294 14
1.0539 0.3931 -0.4007 0.2412 294 14
1.0209 0.4663 -0.3998 0.2417 294 14
0.9870 0.5390 -0.4006 0.3163 294 14
0.9621 0.6183 -0.4074 0.3110 294 14
0.9310 0.6969 -0.4142 0.3058 294 14
0.9060 0.7851 -0.4270 0.2553 294 14
3.4889 -3.4889 -1.8035 0.3434 0 1
3.7290 -3.2312 -1.8036 0.3434 0 1
3.6080 -2.7009 -1.6474 0.4339 263 15
4.0424 -2.5979 -1.7564 0.5382 263 15
1.1848 -0.6469 -0.4934 0.1880 294 14
1.1856 -0.5414 -0.4764 0.1947 294 14
1.1764 -0.4387 -0.4589 0.2021 294 14
1.1582 -0.3401 -0.4412 0.2102 294 14
1.1335 -0.2465 -0.4240 0.2122 294 14
1.1272 -0.1621 -0.4163 0.2401 294 14
1.1297 -0.0808 -0.4140 0.2414 294 14
1.1240 0.0000 -0.4109 0.2432 294 14
1.1105 0.0794 -0.4070 0.2456 294 14
1.0902 0.1568 -0.4026 0.2584 294 14
1.0634 0.2313 -0.3978 0.2615 294 14
1.0418 0.3059 -0.3969 0.2491 294 14
1.0171 0.3794 -0.3968 0.2491 294 14
0.9853 0.4500 -0.3959 0.2497 294 14
0.9605 0.5245 -0.4000 0.3240 294 14
0.9358 0.6014 -0.4066 0.3188 294 14
0.9051 0.6775 -0.4132 0.3137 294 14
0.8762 0.7593 -0.4238 0.2632 294 14
3.4017 -3.4017 -1.8036 0.3511 0 1
3.6357 -3.1504 -1.8036 0.3511 0 1
3.8513 -2.8830 -1.8036 0.3511 0 1
4.0472 -2.6010 -1.8036 0.3511 0 1
1.1326 -0.6185 -0.4838 0.1961 294 14
1.1352 -0.5184 -0.4679 0.2027 294 14
1.1281 -0.4207 -0.4514 0.2101 294 14
1.1124 -0.3266 -0.4346 0.2182 294 14
1.0892 -0.2369 -0.4179 0.2270 294 14
1.0875 -0.1564 -0.4119 0.2481 294 14
1.0901 -0.0780 -0.4097 0.2494 294 14
1.0853 0.0000 -0.4069 0.2615 294 14
1.0733 0.0768 -0.4034 0.2637 294 14
1.0544 0.1516 -0.3994 0.2664 294 14
1.0289 0.2238 -0.3948 0.2695 294 14
1.0064 0.2955 -0.3932 0.2571 294 14
0.9825 0.3665 -0.3931 0.2571 294 14
0.9539 0.4356 -0.3931 0.3371 294 14
0.9351 0.5106 -0.3994 0.3318 294 14
0.9107 0.5853 -0.4058 0.3266 294 14
0.8804 0.6591 -0.4123 0.3214 294 14
0.8482 0.7350 -0.4208 0.2711 294 14
3.3182 -3.3182 -1.8036 0.3588 0 1
3.5465 -3.0730 -1.8036 0.3588 0 1
3.7568 -2.8123 -1.8036 0.3588 0 1
3.9479 -2.5371 -1.8036 0.3588 0 1
1.0846 -0.5922 -0.4750 0.2041 294 14
1.0886 -0.4971 -0.4599 0.2108 294 14
1.0833 -0.4041 -0.4444 0.2181 294 14
1.0698 -0.3141 -0.4285 0.2262 294 14
1.0565 -0.2298 -0.4156 0.3445 294 14
1.0515 -0.1512 -0.4083 0.2663 294 14
1.0543 -0.0754 -0.4062 0.2676 294 14
1.0500 0.0000 -0.4035 0.2694 294 14
1.0387 0.0743 -0.4002 0.2716 294 14
1.0207 0.1468 -0.3963 0.2743 294 14
0.9964 0.2168 -0.3919 0.2774 294 14
0.9731 0.2858 -0.3898 0.2650 294 14
0.9500 0.3544 -0.3897 0.2651 294 14
0.9296 0.4245 -0.3928 0.3449 294 14
0.9110 0.4974 -0.3989 0.3395 294 14
0.8868 0.5699 -0.4051 0.3343 294 14
0.8570 0.6415 -0.4114 0.3292 294 14
0.8217 0.7120 -0.4179 0.2789 294 14
3.2382 -3.2382 -1.8036 0.3665 0 1
3.4610 -2.9990 -1.8036 0.3665 0 1
3.6662 -2.7445 -1.8036 0.3665 0 1
1.0268 -0.6598 -0.4807 0.3042 294 14
1.0402 -0.5680 -0.4668 0.2121 294 14
1.0462 -0.4778 -0.4530 0.3228 294 14
1.0464 -0.3903 -0.4398 0.3324 294 14
1.0409 -0.3056 -0.4273 0.3422 294 14
1.0303 -0.2241 -0.4153 0.3521 294 14
1.0263 -0.1476 -0.4083 0.3741 294 14
1.0207 -0.0730 -0.4030 0.2756 294 14
1.0167 0.0000 -0.4004 0.2773 294 14
1.0060 0.0720 -0.3972 0.2796 294 14
0.9889 0.1422 -0.3935 0.2822 294 14
0.9657 0.2101 -0.3892 0.2853 294 14
0.9418 0.2766 -0.3866 0.2730 294 14
0.9196 0.3430 -0.3865 0.3579 294 14
0.9064 0.4139 -0.3924 0.3526 294 14
0.8879 0.4848 -0.3984 0.3473 294 14
0.8640 0.5552 -0.4045 0.3421 294 14
0.8346 0.6247 -0.4106 0.3370 294 14
0.7996 0.6929 -0.4167 0.3320 294 14
3.1615 -3.1615 -1.8036 0.3742 0 1
3.3791 -2.9280 -1.8036 0.3742 0 1
3.5794 -2.6795 -1.8036 0.3742 0 1
0.9945 -0.6391 -0.4769 0.2614 294 14
1.0115 -0.5523 -0.4649 0.3211 294 14
1.0185 -0.4651 -0.4516 0.3305 294 14
1.0194 -0.3802 -0.4389 0.3401 294 14
1.0149 -0.2980 -0.4267 0.3499 294 14
1.0052 -0.2187 -0.4150 0.3597 294 14
1.0025 -0.1441 -0.4086 0.3817 294 14
0.9963 -0.0712 -0.4029 0.3870 294 14
0.9855 0.0000 -0.3975 0.3923 294 14
0.9752 0.0697 -0.3944 0.2875 294 14
0.9589 0.1379 -0.3908 0.2901 294 14
0.9367 0.2038 -0.3867 0.2932 294 14
0.9122 0.2679 -0.3835 0.2809 294 14
0.8974 0.3347 -0.3863 0.3656 294 14
0.8841 0.4038 -0.3921 0.3602 294 14
0.8658 0.4728 -0.3979 0.3550 294 14
0.8421 0.5412 -0.4038 0.3498 294 14
0.8132 0.6087 -0.4098 0.3447 294 14
0.7788 0.6748 -0.4157 0.3398 294 14
3.0879 -3.0879 -1.8036 0.3818 0 1
3.3004 -2.8598 -1.8036 0.3818 0 1
3.4960 -2.6171 -1.8036 0.3818 0 1
0.9619 -0.6182 -0.4722 0.2693 294 14
0.9844 -0.5375 -0.4632 0.3288 294 14
0.9920 -0.4530 -0.4504 0.3382 294 14
0.9937 -0.3706 -0.4380 0.3478 294 14
0.9899 -0.2906 -0.4261 0.3575 294 14
0.9812 -0.2134 -0.4147 0.3673 294 14
0.9797 -0.1408 -0.4088 0.3893 294 14
0.9740 -0.0696 -0.4033 0.3946 294 14
0.9637 0.0000 -0.3980 0.3998 294 14
0.9490 0.0679 -0.3930 0.4050 294 14
0.9304 0.1338 -0.3882 0.2980 294 14
0.9092 0.1978 -0.3843 0.3010 294 14
0.8844 0.2597 -0.3807 0.3786 294 14
0.8761 0.3268 -0.3862 0.3732 294 14
0.8628 0.3941 -0.3918 0.3679 294 14
0.8446 0.4612 -0.3974 0.3626 294 14
0.8213 0.5278 -0.4032 0.3575 294 14
3.2972 2.4683 -1.7010 0.3817 0 2
3.1127 2.6972 -1.7011 0.3817 0 2
3.0172 -3.0172 -1.8036 0.3894 0 1
3.2248 -2.7943 -1.8036 0.3894 0 1
0.8922 -0.6678 -0.4711 0.2754 294 14
0.9312 -0.5984 -0.4679 0.2773 294 14
0.9586 -0.5234 -0.4617 0.3365 294 14
0.9667 -0.4415 -0.4492 0.3458 294 14
0.9690 -0.3614 -0.4372 0.3554 294 14
0.9660 -0.2836 -0.4256 0.3651 294 14
0.9584 -0.2085 -0.4146 0.3915 294 14
0.9577 -0.1377 -0.4090 0.3968 294 14
0.9524 -0.0681 -0.4036 0.4021 294 14
0.9426 0.0000 -0.3984 0.4074 294 14
0.9286 0.0664 -0.3935 0.4125 294 14
0.9104 0.1309 -0.3888 0.4175 294 14
0.8885 0.1933 -0.3843 0.4223 294 14
4.0950 1.2024 -1.8040 0.3893 0 1
3.9988 1.4915 -1.8040 0.3893 0 1
3.8823 1.7730 -1.8040 0.3893 0 1
3.7460 2.0455 -1.8041 0.3893 0 1
3.5906 2.3075 -1.8041 0.3893 0 1
3.2216 2.4117 -1.7010 0.3893 0 2
3.0414 2.6354 -1.7011 0.3893 0 2
2.9491 -2.9491 -1.8036 0.3970 0 1
3.1521 -2.7312 -1.8036 0.3970 0 1
0.8642 -0.6469 -0.4668 0.2833 294 14
0.9022 -0.5798 -0.4638 0.2852 294 14
0.9333 -0.5096 -0.4599 0.2876 294 14
0.9425 -0.4304 -0.4481 0.3535 294 14
0.9454 -0.3526 -0.4363 0.3630 294 14
0.9430 -0.2769 -0.4250 0.3726 294 14
0.9369 -0.2038 -0.4147 0.3991 294 14
0.9366 -0.1346 -0.4092 0.4044 294 14
0.9317 -0.0666 -0.4039 0.4096 294 14
0.9224 0.0000 -0.3989 0.4148 294 14
0.9088 0.0650 -0.3940 0.4199 294 14
0.8913 0.1282 -0.3894 0.4249 294 14
0.8700 0.1893 -0.3850 0.4298 294 14
4.0026 1.1753 -1.8040 0.3969 0 1
3.9086 1.4579 -1.8040 0.3969 0 1
3.7947 1.7330 -1.8040 0.3969 0 1
3.6615 1.9993 -1.8041 0.3969 0 1
3.5096 2.2555 -1.8041 0.3969 0 1
3.1490 2.3573 -1.7010 0.3969 0 2
2.9728 2.5760 -1.7011 0.3969 0 2
2.8837 -2.8837 -1.8036 0.4046 0 1
3.0821 -2.6706 -1.8036 0.4046 0 1
0.8377 -0.6271 -0.4628 0.2912 294 14
0.8747 -0.5621 -0.4599 0.2931 294 14
0.9052 -0.4942 -0.4561 0.2955 294 14
0.9193 -0.4198 -0.4470 0.3611 294 14
0.9227 -0.3441 -0.4355 0.3706 294 14
0.9210 -0.2704 -0.4245 0.3802 294 14
0.9163 -0.1993 -0.4147 0.4066 294 14
0.9163 -0.1317 -0.4094 0.4119 294 14
0.9117 -0.0652 -0.4042 0.4171 294 14
0.9028 0.0000 -0.3993 0.4223 294 14
0.8898 0.0637 -0.3945 0.4274 294 14
0.8729 0.1255 -0.3900 0.4323 294 14
3.9857 0.8671 -1.8040 0.4045 0 1
3.9137 1.1492 -1.8040 0.4045 0 1
3.8218 1.4255 -1.8040 0.4045 0 1
3.7105 1.6945 -1.8040 0.4045 0 1
3.5802 1.9549 -1.8041 0.4045 0 1
3.4317 2.2054 -1.8041 0.4044 0 1
3.1072 2.3261 -1.7166 0.6114 0 2
2.9068 2.5187 -1.7011 0.4044 0 2
2.8206 -2.8206 -1.8036 0.4121 0 1
0.7705 -0.6676 -0.4610 0.2978 294 14
0.8127 -0.6083 -0.4590 0.2991 294 14
0.8487 -0.5454 -0.4562 0.3009 294 14
0.8785 -0.4797 -0.4526 0.3033 294 14
0.8971 -0.4097 -0.4459 0.3687 294 14
0.9010 -0.3360 -0.4348 0.3781 294 14
0.8998 -0.2642 -0.4240 0.3877 294 14
0.8964 -0.1950 -0.4148 0.4141 294 14
0.8966 -0.1289 -0.4096 0.4193 294 14
0.8924 -0.0638 -0.4045 0.4246 294 14
0.8839 0.0000 -0.3997 0.4297 294 14
0.8714 0.0623 -0.3950 0.4348 294 14
0.8550 0.1229 -0.3906 0.4397 294 14
3.8984 0.8481 -1.8040 0.4120 0 1
3.8281 1.1240 -1.8040 0.4120 0 1
3.7382 1.3943 -1.8040 0.4120 0 1
3.6293 1.6574 -1.8040 0.4120 0 1
3.5018 1.9122 -1.8041 0.4120 0 1
3.3565 2.1571 -1.8041 0.4120 0 1
3.0969 2.3183 -1.7492 0.6112 0 2
2.8432 2.4636 -1.7011 0.4120 0 2
2.7597 -2.7597 -1.8036 0.4196 0 1
0.7479 -0.6480 -0.4573 0.3057 294 14
0.7889 -0.5905 -0.4554 0.3069 294 14
0.8241 -0.5296 -0.4527 0.3088 294 14
0.8531 -0.4658 -0.4492 0.3112 294 14
0.8757 -0.3999 -0.4449 0.3762 294 14
0.8801 -0.3282 -0.4341 0.3856 294 14
0.8795 -0.2582 -0.4236 0.3952 294 14
0.8772 -0.1908 -0.4149 0.4215 294 14
0.8777 -0.1262 -0.4098 0.4268 294 14
0.8738 -0.0625 -0.4048 0.4320 294 14
0.8657 0.0000 -0.4001 0.4371 294 14
0.8536 0.0611 -0.3955 0.4422 294 14
3.8638 0.5555 -1.8039 0.4195 0 1
3.8144 0.8298 -1.8040 0.4195 0 1
3.7455 1.0998 -1.8040 0.4195 0 1
3.6576 1.3642 -1.8040 0.4195 0 1
3.5510 1.6217 -1.8040 0.4195 0 1
3.4263 1.8709 -1.8041 0.4195 0 1
3.2841 2.1106 -1.8041 0.4195 0 1
3.0963 2.3179 -1.7874 0.5300 0 2
2.7818 2.4105 -1.7010 0.4195 0 2
0.6812 -0.6812 -0.4549 0.3128 294 14
0.7264 -0.6294 -0.4538 0.3135 294 14
0.7663 -0.5736 -0.4520 0.3148 294 14
0.8006 -0.5145 -0.4494 0.3166 294 14
0.8290 -0.4527 -0.4460 0.3190 294 14
0.8514 -0.3888 -0.4420 0.3219 294 14
0.8600 -0.3207 -0.4334 0.3931 294 14
0.8598 -0.2525 -0.4231 0.4026 294 14
0.8587 -0.1868 -0.4150 0.4290 294 14
0.8594 -0.1235 -0.4099 0.4342 294 14
0.8558 -0.0612 -0.4051 0.4394 294 14
0.8481 0.0000 -0.4004 0.4445 294 14
0.8364 0.0598 -0.3960 0.4495 294 14
3.7816 0.5437 -1.8039 0.4270 0 1
3.7332 0.8121 -1.8040 0.4270 0 1
3.6658 1.0764 -1.8040 0.4270 0 1
3.5797 1.3352 -1.8040 0.4270 0 1
3.4754 1.5872 -1.8040 0.4270 0 1
3.3534 1.8311 -1.8041 0.4269 0 1
3.2143 2.0657 -1.8041 0.4269 0 1
3.0588 2.2898 -1.8041 0.4269 0 1
2.7226 2.3592 -1.7010 0.4269 0 2
0.6620 -0.6619 -0.4515 0.3206 294 14
0.7059 -0.6117 -0.4505 0.3213 294 14
0.7448 -0.5575 -0.4487 0.3226 294 14
0.7783 -0.5001 -0.4462 0.3244 294 14
0.8061 -0.4401 -0.4429 0.3268 294 14
0.8280 -0.3781 -0.4390 0.3297 294 14
0.8406 -0.3135 -0.4327 0.4006 294 14
0.8409 -0.2469 -0.4227 0.4101 294 14
0.8408 -0.1829 -0.4150 0.4364 294 14
0.8417 -0.1210 -0.4101 0.4416 294 14
0.8384 -0.0599 -0.4054 0.4468 294 14
0.8310 0.0000 -0.4008 0.4519 294 14
3.7307 0.2668 -1.8039 0.4344 0 1
3.7022 0.5323 -1.8039 0.4344 0 1
3.6548 0.7951 -1.8040 0.4344 0 1
3.5889 1.0538 -1.8040 0.4344 0 1
3.5046 1.3072 -1.8040 0.4344 0 1
3.4025 1.5538 -1.8040 0.4344 0 1
3.2830 1.7927 -1.8041 0.4344 0 1
3.1468 2.0223 -1.8041 0.4344 0 1
1.5848 1.1863 -0.9548 0.4095 294 14
2.6771 2.3197 -1.7084 0.6598 0 2
2.5896 -2.5896 -1.8037 0.4419 0 1
0.6864 -0.5948 -0.4473 0.3291 294 14
0.7243 -0.5422 -0.4456 0.3304 294 14
0.7570 -0.4865 -0.4432 0.3322 294 14
0.7842 -0.4282 -0.4400 0.3346 294 14
0.8057 -0.3679 -0.4363 0.3375 294 14
0.8216 -0.3065 -0.4319 0.3409 294 14
0.8227 -0.2415 -0.4223 0.4175 294 14
0.8236 -0.1791 -0.4151 0.4437 294 14
0.8246 -0.1186 -0.4103 0.4489 294 14
0.8215 -0.0587 -0.4056 0.4541 294 14
3.6627 0.0000 -1.8039 0.4418 0 1
3.6534 0.2613 -1.8039 0.4418 0 1
3.6255 0.5213 -1.8039 0.4418 0 1
3.5791 0.7786 -1.8040 0.4418 0 1
3.5145 1.0320 -1.8040 0.4418 0 1
3.4320 1.2801 -1.8040 0.4418 0 1
3.3320 1.5217 -1.8040 0.4418 0 1
3.2150 1.7555 -1.8041 0.4418 0 1
3.0816 1.9804 -1.8041 0.4418 0 1
1.6026 1.1997 -0.9860 0.4033 294 14
2.6687 2.3124 -1.7391 0.6592 0 2
2.5366 -2.5366 -1.8037 0.4493 0 1
2.7111 -2.3492 -1.8037 0.4493 0 1
0.7048 -0.5276 -0.4426 0.3382 294 14
0.7367 -0.4734 -0.4403 0.3400 294 14
0.7633 -0.4168 -0.4373 0.3423 294 14
0.7845 -0.3582 -0.4336 0.3452 294 14
0.8001 -0.2984 -0.4294 0.3486 294 14
0.8051 -0.2364 -0.4219 0.4249 294 14
0.8068 -0.1755 -0.4152 0.4511 294 14
0.8080 -0.1162 -0.4104 0.4563 294 14
3.5785 -0.2559 -1.8039 0.4492 0 1
3.5877 0.0000 -1.8039 0.4492 0 1
3.5786 0.2560 -1.8039 0.4492 0 1
3.5513 0.5106 -1.8039 0.4492 0 1
3.5059 0.7627 -1.8040 0.4492 0 1
3.4426 1.0108 -1.8040 0.4492 0 1
3.3618 1.2539 -1.8040 0.4492 0 1
3.2638 1.4905 -1.8040 0.4492 0 1
3.1492 1.7196 -1.8041 0.4492 0 1
3.0185 1.9399 -1.8041 0.4492 0 1
1.6211 1.2135 -1.0182 0.3971 294 14
2.6654 2.3096 -1.7733 0.5721 0 2
2.4853 -2.4853 -1.8037 0.4566 0 1
2.6563 -2.3017 -1.8037 0.4566 0 1
2.8138 -2.1063 -1.8037 0.4566 0 1
0.7173 -0.4609 -0.4375 0.3477 294 14
0.7433 -0.4059 -0.4346 0.3500 294 14
0.7641 -0.3489 -0.4311 0.3529 294 14
0.7796 -0.2908 -0.4270 0.3563 294 14
0.7881 -0.2314 -0.4215 0.4322 294 14
0.7906 -0.1720 -0.4152 0.4584 294 14
3.4793 -0.5002 -1.8038 0.4566 0 1
3.5062 -0.2508 -1.8039 0.4566 0 1
3.5152 0.0000 -1.8039 0.4566 0 1
3.5063 0.2508 -1.8039 0.4566 0 1
3.4795 0.5003 -1.8039 0.4566 0 1
3.4350 0.7473 -1.8040 0.4566 0 1
3.3730 0.9904 -1.8040 0.4566 0 1
3.2938 1.2285 -1.8040 0.4566 0 1
3.1978 1.4604 -1.8040 0.4565 0 1
3.0855 1.6848 -1.8041 0.4565 0 1
1.5953 1.0253 -0.9731 0.4223 294 14
1.6401 1.2278 -1.0514 0.3909 294 14
2.6570 2.3023 -1.8041 0.4565 0 1
2.4357 -2.4356 -1.8037 0.4640 0 1
2.6033 -2.2557 -1.8037 0.4640 0 1
2.7576 -2.0643 -1.8037 0.4639 0 1
2.8978 -1.8623 -1.8037 0.4639 0 1
3.0233 -1.6509 -1.8037 0.4639 0 1
0.7446 -0.3400 -0.4286 0.3606 294 14
0.7599 -0.2834 -0.4247 0.3640 294 14
0.7700 -0.2261 -0.4202 0.3678 294 14
3.3661 -0.7322 -1.8038 0.4639 0 1
3.4098 -0.4903 -1.8038 0.4639 0 1
3.4362 -0.2458 -1.8039 0.4639 0 1
3.4450 0.0000 -1.8039 0.4639 0 1
3.4362 0.2458 -1.8039 0.4639 0 1
3.4100 0.4903 -1.8039 0.4639 0 1
3.3664 0.7323 -1.8040 0.4639 0 1
3.3056 0.9706 -1.8040 0.4639 0 1
3.2280 1.2040 -1.8040 0.4639 0 1
3.1339 1.4312 -1.8040 0.4639 0 1
3.0239 1.6512 -1.8041 0.4639 0 1
1.6130 1.0366 -1.0040 0.4159 294 14
1.6598 1.2425 -1.0856 0.3846 294 14
2.6039 2.2563 -1.8041 0.4638 0 1
2.3876 -2.3876 -1.8037 0.4712 0 1
2.5518 -2.2112 -1.8037 0.4712 0 1
2.7031 -2.0235 -1.8037 0.4712 0 1
2.8406 -1.8255 -1.8037 0.4712 0 1
2.9636 -1.6183 -1.8037 0.4712 0 1
3.0715 -1.4027 -1.8038 0.4712 0 1
3.1638 -1.1800 -1.8038 0.4712 0 1
3.2400 -0.9513 -1.8038 0.4712 0 1
3.2996 -0.7178 -1.8038 0.4712 0 1
3.3425 -0.4806 -1.8038 0.4712 0 1
3.3683 -0.2409 -1.8039 0.4712 0 1
3.3769 0.0000 -1.8039 0.4712 0 1
3.3684 0.2409 -1.8039 0.4712 0 1
3.3426 0.4806 -1.8039 0.4712 0 1
3.2999 0.7179 -1.8040 0.4712 0 1
3.2403 0.9515 -1.8040 0.4712 0 1
3.1642 1.1802 -1.8040 0.4712 0 1
3.0720 1.4030 -1.8040 0.4712 0 1
1.5933 0.8700 -0.9698 0.4373 294 14
1.6312 1.0483 -1.0358 0.4094 294 14
1.6801 1.2577 -1.1211 0.3783 294 14
1.3369 1.1584 -0.9449 0.3321 294 14
2.3409 -2.3409 -1.8037 0.4785 0 1
2.5020 -2.1680 -1.8037 0.4785 0 1
2.6503 -1.9840 -1.8037 0.4785 0 1
2.7851 -1.7898 -1.8037 0.4785 0 1
2.9057 -1.5866 -1.8037 0.4785 0 1
1.5799 -0.7215 -0.9463 0.4551 294 14
3.1020 -1.1570 -1.8038 0.4785 0 1
3.1767 -0.9327 -1.8038 0.4785 0 1
3.2352 -0.7038 -1.8038 0.4785 0 1
3.2772 -0.4712 -1.8038 0.4785 0 1
3.3025 -0.2362 -1.8039 0.4785 0 1
3.3109 0.0000 -1.8039 0.4784 0 1
3.3026 0.2362 -1.8039 0.4784 0 1
3.2773 0.4712 -1.8039 0.4784 0 1
3.2354 0.7038 -1.8040 0.4784 0 1
3.1770 0.9329 -1.8040 0.4784 0 1
3.1024 1.1571 -1.8040 0.4784 0 1
3.0120 1.3755 -1.8040 0.4784 0 1
1.6105 0.8794 -0.9998 0.4307 294 14
1.6500 1.0604 -1.0686 0.4030 294 14
1.6884 1.2639 -1.1490 0.6498 294 14
1.3008 1.1272 -0.9378 0.3398 294 14
2.2957 -2.2957 -1.8037 0.4857 0 1
2.4536 -2.1261 -1.8037 0.4857 0 1
2.5991 -1.9456 -1.8037 0.4857 0 1
2.7313 -1.7553 -1.8037 0.4857 0 1
2.8495 -1.5560 -1.8037 0.4857 0 1
1.5963 -0.7290 -0.9750 0.4483 294 14
3.0420 -1.1346 -1.8038 0.4857 0 1
3.1153 -0.9147 -1.8038 0.4857 0 1
3.1726 -0.6902 -1.8038 0.4857 0 1
3.2138 -0.4621 -1.8038 0.4857 0 1
3.2386 -0.2316 -1.8039 0.4857 0 1
3.2469 0.0000 -1.8039 0.4857 0 1
