ply
format ascii 1.0
element vertex 612
property float32 x
property float32 y
property float32 z
property float32 CosAngle
property uint32 ObjIdx
property uint32 ObjTag
end_header
11.919804573059082 10.89517593383789 8.62099552154541 0.7343382239341736 0 9
12.000429153442383 10.870429039001465 8.64393138885498 0.7323896288871765 0 9
12.081503868103027 10.84554672241211 8.667179107666016 0.7304252982139587 0 9
12.16298770904541 10.820527076721191 8.690727233886719 0.7284460067749023 0 9
11.445878982543945 10.090917587280273 8.145880699157715 0.22390004992485046 0 9
11.679296493530273 10.203886032104492 8.279295921325684 0.22029156982898712 0 9
11.920546531677246 10.320683479309082 8.417412757873535 0.21667695045471191 0 9
12.170097351074219 10.44156265258789 8.560463905334473 0.2130565345287323 0 9
12.4169921875 10.556991577148438 8.70071792602539 0.35219621658325195 0 9
12.433144569396973 10.474960327148438 8.678987503051758 0.35307803750038147 0 9
12.449394226074219 10.393476486206055 8.657699584960938 0.35394591093063354 0 9
12.465800285339355 10.312578201293945 8.636822700500488 0.3548017144203186 0 9
12.48232364654541 10.23226547241211 8.616375923156738 0.35564354062080383 0 9
12.498984336853027 10.152461051940918 8.59632396697998 0.35647308826446533 0 9
12.51578140258789 10.073203086853027 8.576704978942871 0.3572885990142822 0 9
12.532753944396973 9.994511604309082 8.55748176574707 0.3580913543701172 0 9
12.549765586853027 9.916269302368164 8.538662910461426 0.35888028144836426 0 9
12.5669527053833 9.838574409484863 8.520238876342773 0.35965654253959656 0 9
12.58431625366211 9.76138687133789 8.502202987670898 0.36041921377182007 0 9
12.60179615020752 9.684687614440918 8.484564781188965 0.3611687123775482 0 9
12.619413375854492 9.608417510986328 8.467307090759277 0.3619045913219452 0 9
12.637167930603027 9.532675743103027 8.450421333312988 0.3626279830932617 0 9
12.655077934265137 9.45736312866211 8.43392562866211 0.36333727836608887 0 9
12.67308521270752 9.382460594177246 8.417784690856934 0.3640335202217102 0 9
13.748222351074219 10.083242416381836 9.101755142211914 0.6842416524887085 0 9
13.735487937927246 9.979413986206055 9.063602447509766 0.6871219277381897 0 9
13.722792625427246 9.876386642456055 9.025909423828125 0.6899917125701904 0 9
13.71019458770752 9.774218559265137 8.988661766052246 0.6928507089614868 0 9
13.697616577148438 9.672831535339355 8.951862335205078 0.6956989765167236 0 9
14.650683403015137 10.247636795043945 9.544568061828613 0.9609847068786621 0 9
14.699824333190918 10.184062004089355 9.546687126159668 0.9607716202735901 0 9
14.714374542236328 10.096698760986328 9.526607513427734 0.1575554609298706 0 9
15.022343635559082 10.209179878234863 9.696250915527344 0.4750082492828369 0 9
15.11464786529541 10.173066139221191 9.726274490356445 0.9654677510261536 0 9
15.14453125 10.094687461853027 9.716253280639648 0.9664636254310608 0 9
21.98503875732422 14.512226104736328 14.062993049621582 0.33625876903533936 0 9
23.05972671508789 15.07347583770752 14.707005500793457 0.2991220951080322 0 9
23.110076904296875 14.958788871765137 14.696147918701172 0.2993430197238922 0 9
21.2763671875 13.636737823486328 13.491006851196289 0.6874171495437622 0 9
21.317108154296875 13.528281211853027 13.478203773498535 0.688069760799408 0 9
21.35787010192871 13.42007827758789 13.465757369995117 0.6887058615684509 0 9
21.398632049560547 13.3120698928833 13.45366096496582 0.689325213432312 0 9
21.37562370300293 13.165078163146973 13.401899337768555 0.9268296957015991 0 9
21.468164443969727 13.089550018310547 13.422961235046387 0.9253753423690796 0 9
21.521074295043945 12.989667892456055 13.419437408447266 0.6910833716392517 0 9
21.561893463134766 12.88265609741211 13.408720016479492 0.6916356682777405 0 9
21.602752685546875 12.775858879089355 13.39834213256836 0.6921713352203369 0 9
21.643632888793945 12.669238090515137 13.388303756713867 0.6926901936531067 0 9
21.6845703125 12.562910079956055 13.37861442565918 0.6931921243667603 0 9
21.725507736206055 12.456738471984863 13.369251251220703 0.6936774849891663 0 9
21.766483306884766 12.35074234008789 13.360234260559082 0.694145917892456 0 9
21.446758270263672 12.042421340942383 13.130654335021973 0.7035015225410461 0 9
21.459022521972656 11.922929763793945 13.105256080627441 0.7048648595809937 0 9
21.470937728881836 11.803750038146973 13.080062866210938 0.7062225341796875 0 9
21.48255729675293 11.684882164001465 13.055075645446777 0.7075742483139038 0 9
21.493925094604492 11.566367149353027 13.030290603637695 0.7089201211929321 0 9
21.504961013793945 11.448163986206055 13.00571060180664 0.7102600336074829 0 9
21.348613739013672 11.242206573486328 12.880501747131348 0.09046640992164612 0 9
21.30648422241211 11.098222732543945 12.824908256530762 0.19240504503250122 0 9
21.536367416381836 11.095351219177246 12.933172225952148 0.7142437696456909 0 9
21.546249389648438 10.97835922241211 12.909388542175293 0.7155596017837524 0 9
21.55583953857422 10.861679077148438 12.885804176330566 0.7168694734573364 0 9
21.479961395263672 10.702812194824219 12.811586380004883 0.4667621850967407 0 9
21.369998931884766 10.528573989868164 12.717708587646484 0.47020769119262695 0 9
21.582929611206055 10.513398170471191 12.816206932067871 0.7207620143890381 0 9
21.591386795043945 10.397871017456055 12.793394088745117 0.7220474481582642 0 9
21.59956932067871 10.282636642456055 12.770767211914062 0.7233262658119202 0 9
21.293554306030273 9.78749942779541 12.51077938079834 0.2945016920566559 0 9
21.569686889648438 9.797402381896973 12.64704418182373 0.29132893681526184 0 9
21.851465225219727 9.807343482971191 12.78632640838623 0.28815531730651855 0 9
22.139062881469727 9.817265510559082 12.92870044708252 0.284981906414032 0 9
13.0801362991333 -6.083515644073486 7.7010393142700195 0.5040737986564636 0 3
12.968964576721191 -6.102753639221191 7.651625156402588 0.5038972496986389 0 3
12.85873031616211 -6.121503829956055 7.602726459503174 0.5071380734443665 0 3
12.749882698059082 -6.140058517456055 7.554592609405518 0.5103692412376404 0 3
12.6860933303833 -6.179628849029541 7.533153057098389 0.5162298083305359 0 3
12.580214500427246 -6.198046684265137 7.486719608306885 0.519429087638855 0 3
12.43968677520752 -6.19835901260376 7.41957426071167 0.5948063135147095 0 3
12.346620559692383 -6.221327781677246 7.380661487579346 0.5979423522949219 0 3
12.25455093383789 -6.244042873382568 7.342275619506836 0.6010687947273254 0 3
12.163358688354492 -6.266484260559082 7.304422855377197 0.6041840314865112 0 3
12.07308578491211 -6.28869104385376 7.267078876495361 0.6072887182235718 0 3
11.985663414001465 -6.311718463897705 7.231441974639893 0.6751612424850464 0 3
11.905937194824219 -6.33816385269165 7.200441360473633 0.6780679225921631 0 3
11.826874732971191 -6.364336013793945 7.1698126792907715 0.6809649467468262 0 3
11.748397827148438 -6.39025354385376 7.13955020904541 0.6838507056236267 0 3
11.670507431030273 -6.415956974029541 7.109650611877441 0.6867275834083557 0 3
11.593202590942383 -6.441386699676514 7.080104827880859 0.6895930171012878 0 3
11.505820274353027 -6.46056604385376 7.04436731338501 0.5581290125846863 0 3
11.4141206741333 -6.476621150970459 7.005949020385742 0.5611895322799683 0 3
11.323417663574219 -6.492519378662109 6.968095779418945 0.5642382502555847 0 3
11.233691215515137 -6.508242130279541 6.930782794952393 0.5672757625579834 0 3
11.144902229309082 -6.523788928985596 6.894002437591553 0.5703023672103882 0 3
11.057050704956055 -6.539159774780273 6.857751369476318 0.5733172297477722 0 3
10.970155715942383 -6.554394245147705 6.822015762329102 0.5763201713562012 0 3
10.884140014648438 -6.56945276260376 6.786783695220947 0.5793120861053467 0 3
10.79898452758789 -6.584374904632568 6.752055644989014 0.5822916626930237 0 3
10.714706420898438 -6.59912109375 6.717811107635498 0.5852600336074829 0 3
10.631288528442383 -6.613749980926514 6.684048175811768 0.5882163643836975 0 3
10.548690795898438 -6.62820291519165 6.650753021240234 0.5911607146263123 0 3
10.466933250427246 -6.642519474029541 6.617928504943848 0.5940933227539062 0 3
10.385937690734863 -6.656718730926514 6.58554744720459 0.5970144271850586 0 3
10.305742263793945 -6.670761585235596 6.553622245788574 0.5999225974082947 0 3
10.226308822631836 -6.68468713760376 6.522130489349365 0.6028194427490234 0 3
10.147675514221191 -6.698437213897705 6.491069316864014 0.6057038307189941 0 3
10.069765090942383 -6.712069988250732 6.460433006286621 0.6085759997367859 0 3
9.992538452148438 -6.725625038146973 6.43021821975708 0.6114358305931091 0 3
9.9160737991333 -6.739023208618164 6.400410175323486 0.6142835021018982 0 3
9.84033203125 -6.752265453338623 6.371005058288574 0.6171187162399292 0 3
9.765273094177246 -6.76540994644165 6.3419928550720215 0.6199419498443604 0 3
9.690858840942383 -6.778456687927246 6.313375949859619 0.6227519512176514 0 3
9.499629020690918 -6.708378791809082 6.2083420753479 0.6324228048324585 0 3
9.428300857543945 -6.721640586853027 6.181379795074463 0.6351808309555054 0 3
9.357617378234863 -6.734745979309082 6.154778480529785 0.6379261016845703 0 3
9.287206649780273 -6.747617244720459 6.128348350524902 0.634016752243042 0 3
9.264433860778809 -6.794745922088623 6.133355617523193 0.6105140447616577 0 3
9.270605087280273 -6.863456726074219 6.157756328582764 0.6393501162528992 0 3
9.200488090515137 -6.875741958618164 6.13165807723999 0.6420714855194092 0 3
9.131034851074219 -6.887929439544678 6.105904579162598 0.6447795629501343 0 3
9.062148094177246 -6.899980545043945 6.080486297607422 0.6474749445915222 0 3
8.993847846984863 -6.911952972412109 6.055400371551514 0.6501574516296387 0 3
8.926074028015137 -6.923808574676514 6.030640125274658 0.652826726436615 0 3
8.85888671875 -6.935566425323486 6.00620174407959 0.6554828882217407 0 3
8.792226791381836 -6.947246074676514 5.982084274291992 0.6581256985664368 0 3
8.726054191589355 -6.958867073059082 5.958274841308594 0.6607523560523987 0 3
8.660449028015137 -6.970351219177246 5.934774875640869 0.6633687019348145 0 3
8.595390319824219 -6.981738090515137 5.911577224731445 0.6659717559814453 0 3
8.53076171875 -6.993066310882568 5.88867712020874 0.6685618758201599 0 3
8.466679573059082 -7.004277229309082 5.8660736083984375 0.671137809753418 0 3
8.29134750366211 -6.92214822769165 5.766070365905762 0.6738719344139099 0 3
8.229082107543945 -6.933066368103027 5.744345188140869 0.6764207482337952 0 3
8.167070388793945 -6.943730354309082 5.722755432128906 0.6745553016662598 0 3
8.105195045471191 -6.954023361206055 5.701207160949707 0.6771052479743958 0 3
8.066816329956055 -6.984199047088623 5.696202278137207 0.5571491718292236 0 3
8.07997989654541 -7.059296607971191 5.727810382843018 0.5540745854377747 0 3
8.020468711853027 -7.071034908294678 5.708065509796143 0.6887914538383484 0 3
7.960155963897705 -7.081562519073486 5.687700271606445 0.6912578344345093 0 3
7.89382791519165 -7.086288928985596 5.662960529327393 0.612102210521698 0 3
7.829140663146973 -7.091991901397705 5.639369487762451 0.7055239677429199 0 3
7.770527362823486 -7.102636337280273 5.620056629180908 0.7079483270645142 0 3
7.712324142456055 -7.113222599029541 5.600987911224365 0.7103586792945862 0 3
7.654550552368164 -7.123730182647705 5.582162380218506 0.7127538323402405 0 3
7.597109317779541 -7.134179592132568 5.563570022583008 0.7151358127593994 0 3
7.5400390625 -7.144550800323486 5.5452117919921875 0.7175036668777466 0 3
7.483339786529541 -7.154843807220459 5.52708101272583 0.719856858253479 0 3
7.42703104019165 -7.165078163146973 5.509183883666992 0.7221959829330444 0 3
7.371074199676514 -7.175234317779541 5.4915080070495605 0.7245205640792847 0 3
7.315449237823486 -7.185351371765137 5.474054336547852 0.7268307209014893 0 3
7.260214805603027 -7.195390701293945 5.456819534301758 0.7291264533996582 0 3
9.790781021118164 9.790800094604492 7.09859037399292 0.64928138256073 0 9
9.82845687866211 9.740605354309082 7.094118118286133 0.6496908664703369 0 9
9.865898132324219 9.69033145904541 7.089694023132324 0.65009605884552 0 9
9.90322208404541 9.64003849029541 7.085324764251709 0.6504969596862793 0 9
9.940312385559082 9.589628219604492 7.081003665924072 0.6508935689926147 0 9
9.97720718383789 9.539179801940918 7.076735496520996 0.651286244392395 0 9
11.58169937133789 10.974160194396973 8.179754257202148 0.7497466802597046 0 9
11.660409927368164 10.94986343383789 8.200568199157715 0.7478435635566711 0 9
11.739569664001465 10.925429344177246 8.221664428710938 0.7459244728088379 0 9
11.81917953491211 10.9009370803833 8.243043899536133 0.743989884853363 0 9
11.883280754089355 10.861796379089355 8.253700256347656 0.35965996980667114 0 9
11.899023056030273 10.778554916381836 8.230934143066406 0.3606548607349396 0 9
11.91478443145752 10.695918083190918 8.208593368530273 0.36163628101348877 0 9
11.930742263793945 10.61392593383789 8.186665534973145 0.3626049757003784 0 9
11.94677734375 10.532499313354492 8.165145874023438 0.3635604977607727 0 9
11.962929725646973 10.451699256896973 8.144049644470215 0.36450251936912537 0 9
11.979199409484863 10.37148380279541 8.123334884643555 0.36543187499046326 0 9
11.959179878234863 10.26058578491211 8.07844066619873 0.21870845556259155 0 9
12.01205062866211 10.212714195251465 8.083114624023438 0.36725014448165894 0 9
12.028593063354492 10.13412094116211 8.063587188720703 0.3681395351886749 0 9
12.045292854309082 10.056113243103027 8.044439315795898 0.36901599168777466 0 9
12.062108993530273 9.978632926940918 8.025673866271973 0.3698786795139313 0 9
12.079023361206055 9.901639938354492 8.007283210754395 0.37072819471359253 0 9
12.096054077148438 9.825175285339355 7.989258766174316 0.37156417965888977 0 9
12.113203048706055 9.749198913574219 7.971609115600586 0.3723871111869812 0 9
12.130468368530273 9.673710823059082 7.954318046569824 0.37319689989089966 0 9
12.14785099029541 9.598711013793945 7.937386989593506 0.3739928901195526 0 9
12.165350914001465 9.524140357971191 7.92080545425415 0.3747756779193878 0 9
12.18294906616211 9.45003890991211 7.90457010269165 0.3755453824996948 0 9
12.200663566589355 9.376386642456055 7.888686180114746 0.37630149722099304 0 9
12.218515396118164 9.303183555603027 7.873151779174805 0.37704384326934814 0 9
13.105663299560547 9.88607406616211 8.416121482849121 0.7706407308578491 0 9
13.127851486206055 9.810664176940918 8.401995658874512 0.7719365358352661 0 9
13.89208984375 10.284960746765137 8.86152458190918 0.6808124780654907 0 9
13.878690719604492 10.178906440734863 8.823726654052734 0.6837286949157715 0 9
13.865331649780273 10.07373046875 8.786394119262695 0.6866339445114136 0 9
13.851991653442383 9.96939468383789 8.749512672424316 0.6895282864570618 0 9
13.838729858398438 9.865839958190918 8.713062286376953 0.6924125552177429 0 9
13.825468063354492 9.763124465942383 8.67706298828125 0.6952855587005615 0 9
14.711581230163574 10.290214538574219 9.204090118408203 0.9653686285018921 0 9
14.760878562927246 10.226366996765137 9.20613956451416 0.9651533961296082 0 9
14.939393997192383 10.251112937927246 9.288702011108398 0.545006513595581 0 9
15.050155639648438 10.228066444396973 9.32893180847168 0.5426561236381531 0 9
14.98574161529541 10.08626937866211 9.26082992553711 0.15700842440128326 0 9
14.984902381896973 9.98828125 9.232512474060059 0.4832659363746643 0 9
15.090956687927246 9.961444854736328 9.270247459411621 0.48129892349243164 0 9
15.19808578491211 9.934531211853027 9.308549880981445 0.4793185591697693 0 9
15.30615234375 9.907402038574219 9.34744644165039 0.4773241877555847 0 9
21.43876838684082 13.33707046508789 12.944284439086914 0.9295854568481445 0 9
21.53205108642578 13.261425018310547 12.9645357131958 0.928133487701416 0 9
21.483280181884766 13.09878921508789 12.899669647216797 0.42920154333114624 0 9
21.61148452758789 13.044238090515137 12.941356658935547 0.42781907320022583 0 9
21.740741729736328 12.98949146270752 12.983709335327148 0.4264233708381653 0 9
21.87109375 12.934531211853027 13.026772499084473 0.4250137507915497 0 9
22.001699447631836 12.878847122192383 13.0700044631958 0.9206439256668091 0 9
22.09636688232422 12.801464080810547 13.091960906982422 0.9191001653671265 0 9
22.19124984741211 12.723769187927246 13.114201545715332 0.9175412654876709 0 9
22.286327362060547 12.645703315734863 13.136737823486328 0.9159673452377319 0 9
22.381698608398438 12.567362785339355 13.159568786621094 0.9143779277801514 0 9
22.477304458618164 12.488710403442383 13.182701110839844 0.912773609161377 0 9
21.982187271118164 12.08480453491211 12.860386848449707 0.6958227753639221 0 9
21.993104934692383 11.962577819824219 12.83523178100586 0.697186291217804 0 9
22.00374984741211 11.84072208404541 12.81028938293457 0.698543906211853 0 9
22.014081954956055 11.719179153442383 12.785551071166992 0.6998956203460693 0 9
22.02410125732422 11.597968101501465 12.761018753051758 0.701241135597229 0 9
20.92154312133789 10.897695541381836 12.09372615814209 0.1976565569639206 0 9
21.371522903442383 11.01041030883789 12.32514762878418 0.19394539296627045 0 9
21.839218139648438 11.127616882324219 12.565960884094238 0.19022855162620544 0 9
21.648632049560547 10.908437728881836 12.427984237670898 0.3226262629032135 0 9
21.591835021972656 10.758573532104492 12.367533683776855 0.19633254408836365 0 9
21.06560516357422 10.378593444824219 12.039313316345215 0.17278191447257996 0 9
22.08626937866211 10.758535385131836 12.59490966796875 0.7104892730712891 0 9
21.005897521972656 10.11587905883789 11.95279598236084 0.29860973358154297 0 9
21.279043197631836 10.130019187927246 12.082258224487305 0.29541000723838806 0 9
21.557811737060547 10.144315719604492 12.21456527709961 0.29221025109291077 0 9
21.842363357543945 10.158730506896973 12.34982681274414 0.289009690284729 0 9
22.1328125 10.173261642456055 12.48812198638916 0.285809189081192 0 9
22.429452896118164 10.187949180603027 12.629561424255371 0.28260838985443115 0 9
22.732479095458984 10.202733993530273 12.77426528930664 0.27940720319747925 0 9
23.042011260986328 10.217695236206055 12.922310829162598 0.27620625495910645 0 9
13.0796480178833 -6.083300590515137 7.39531946182251 0.506102979183197 0 3
12.968183517456055 -6.102382659912109 7.347708702087402 0.5093823671340942 0 3
12.858339309692383 -6.121327877044678 7.300967216491699 0.5174362659454346 0 3
12.75064468383789 -6.14040994644165 7.2553887367248535 0.520686686038971 0 3
12.69564437866211 -6.184277057647705 7.2398200035095215 0.5905115008354187 0 3
12.609375 -6.212441444396973 7.206454277038574 0.6563175320625305 0 3
12.524296760559082 -6.240488052368164 7.17374849319458 0.6593095064163208 0 3
12.439882278442383 -6.268261432647705 7.141440391540527 0.6622923612594604 0 3
12.356152534484863 -6.295800685882568 7.109528541564941 0.6652649641036987 0 3
12.273085594177246 -6.323046684265137 7.078008651733398 0.6682272553443909 0 3
12.177265167236328 -6.342948913574219 7.039066791534424 0.5410815477371216 0 3
12.078007698059082 -6.360332012176514 6.9981279373168945 0.5442469120025635 0 3
11.979921340942383 -6.377500057220459 6.957808494567871 0.547400712966919 0 3
11.882929801940918 -6.394511699676514 6.918083190917969 0.5505440831184387 0 3
11.787070274353027 -6.411308288574219 6.878948211669922 0.5536759495735168 0 3
11.692265510559082 -6.427890300750732 6.840390682220459 0.5567968487739563 0 3
11.598515510559082 -6.444316387176514 6.802401065826416 0.559906542301178 0 3
11.363847732543945 -6.380859375 6.681509017944336 0.5685329437255859 0 3
11.273944854736328 -6.397050857543945 6.645429611206055 0.5716195106506348 0 3
11.184882164001465 -6.413105487823486 6.60986328125 0.574695348739624 0 3
11.09683609008789 -6.428964614868164 6.574812889099121 0.5777592062950134 0 3
11.009726524353027 -6.444628715515137 6.540261268615723 0.5808112621307373 0 3
10.92349624633789 -6.460175514221191 6.506195545196533 0.5838525891304016 0 3
10.837186813354492 -6.474921703338623 6.472026348114014 0.5760893821716309 0 3
10.751249313354492 -6.4892578125 6.438039302825928 0.5791311264038086 0 3
10.690409660339355 -6.518202781677246 6.419084548950195 0.6683098673820496 0 3
10.703378677368164 -6.592206954956055 6.444570541381836 0.665665328502655 0 3
10.631230354309082 -6.613749980926514 6.418932914733887 0.5933555960655212 0 3
10.548690795898438 -6.62820291519165 6.386964797973633 0.5963250994682312 0 3
10.466894149780273 -6.642519474029541 6.355432510375977 0.5992840528488159 0 3
10.385917663574219 -6.656718730926514 6.324343204498291 0.6022297739982605 0 3
10.3057222366333 -6.670742034912109 6.29368257522583 0.6051636934280396 0 3
10.226308822631836 -6.68468713760376 6.263437271118164 0.6080856323242188 0 3
10.147656440734863 -6.698437213897705 6.233612537384033 0.6109952926635742 0 3
10.069746017456055 -6.712069988250732 6.204190731048584 0.613892674446106 0 3
9.992538452148438 -6.725625038146973 6.175171375274658 0.6167778372764587 0 3
9.9160737991333 -6.739003658294678 6.146546363830566 0.6196503639221191 0 3
9.840312004089355 -6.752265453338623 6.118308067321777 0.6225098371505737 0 3
9.765254020690918 -6.765429496765137 6.090450286865234 0.6253576278686523 0 3
9.69081974029541 -6.778476238250732 6.062962532043457 0.6281927824020386 0 3
9.50015640258789 -6.708808422088623 5.962444305419922 0.6379102468490601 0 3
9.428847312927246 -6.722031116485596 5.936560153961182 0.640691876411438 0 3
9.358144760131836 -6.735175609588623 5.911013603210449 0.6434610486030579 0 3
9.287284851074219 -6.747655868530273 5.8853349685668945 0.6395494937896729 0 3
9.26431655883789 -6.79470682144165 5.890037536621094 0.6158524751663208 0 3
9.270546913146973 -6.863476276397705 5.91351842880249 0.6449353694915771 0 3
9.200507164001465 -6.875741958618164 5.888459205627441 0.6476804614067078 0 3
9.131034851074219 -6.887890338897705 5.863724708557129 0.6504127383232117 0 3
9.062148094177246 -6.899980545043945 5.8393120765686035 0.653131902217865 0 3
8.993827819824219 -6.911913871765137 5.815222263336182 0.6558376550674438 0 3
8.926074028015137 -6.923808574676514 5.791443824768066 0.6585297584533691 0 3
8.858866691589355 -6.935566425323486 5.767975330352783 0.6612092852592468 0 3
8.792187690734863 -6.947246074676514 5.744812965393066 0.6638754606246948 0 3
8.72607421875 -6.958808422088623 5.721950531005859 0.66652512550354 0 3
8.660449028015137 -6.97033166885376 5.699385166168213 0.6691640615463257 0 3
8.59537124633789 -6.981698989868164 5.67710542678833 0.6717901229858398 0 3
8.53076171875 -6.993027210235596 5.655113220214844 0.6744022369384766 0 3
8.466659545898438 -7.004277229309082 5.633408069610596 0.6770011782646179 0 3
8.291444778442383 -6.922187328338623 5.5374250411987305 0.6797522902488708 0 3
8.229179382324219 -6.933125019073486 5.516556739807129 0.6823238730430603 0 3
8.167343139648438 -6.943944931030273 5.495957374572754 0.6848813891410828 0 3
8.10562515258789 -6.954433441162109 5.475383281707764 0.6829822063446045 0 3
8.066718101501465 -6.984140396118164 5.470221996307373 0.5620224475860596 0 3
8.07992172241211 -7.059218406677246 5.500577449798584 0.5589209198951721 0 3
8.020429611206055 -7.071054458618164 5.481665134429932 0.6948091387748718 0 3
7.960116863250732 -7.081582069396973 5.462106227874756 0.6972969174385071 0 3
7.898984432220459 -7.090995788574219 5.441946506500244 0.6170420050621033 0 3
7.833339691162109 -7.095781326293945 5.418590545654297 0.7113070487976074 0 3
7.774706840515137 -7.106425762176514 5.400023460388184 0.7137524485588074 0 3
7.716444969177246 -7.117011547088623 5.381697177886963 0.7161834836006165 0 3
7.658593654632568 -7.127500057220459 5.363595962524414 0.7186001539230347 0 3
7.601093769073486 -7.137929439544678 5.3457231521606445 0.7210031747817993 0 3
7.544003963470459 -7.148300647735596 5.328070163726807 0.7233912348747253 0 3
7.487265586853027 -7.158593654632568 5.310646057128906 0.7257651686668396 0 3
7.430898189544678 -7.168847560882568 5.293437480926514 0.7281242609024048 0 3
7.374921798706055 -7.17898416519165 5.276445388793945 0.7304689884185791 0 3
7.319257736206055 -7.189062118530273 5.2596635818481445 0.7327999472618103 0 3
7.263964653015137 -7.199081897735596 5.243098735809326 0.7351154685020447 0 3
10.068495750427246 10.06851577758789 7.0035319328308105 0.6366665959358215 0 9
10.107050895690918 10.016718864440918 6.998993873596191 0.637079656124115 0 9
10.145370483398438 9.96484375 6.994507312774658 0.6374883651733398 0 9
10.183534622192383 9.91292953491211 6.990073204040527 0.6378927230834961 0 9
10.221542358398438 9.860957145690918 6.985691547393799 0.6382927298545837 0 9
10.259316444396973 9.808905601501465 6.981362819671631 0.6386887431144714 0 9
10.296914100646973 9.756776809692383 6.977083683013916 0.6390801072120667 0 9
10.334335327148438 9.704569816589355 6.972858905792236 0.6394674181938171 0 9
11.47435474395752 10.678632736206055 7.709650039672852 0.3725036084651947 0 9
11.49039077758789 10.597734451293945 7.6884050369262695 0.3735330104827881 0 9
11.506543159484863 10.517460823059082 7.667544841766357 0.3745490312576294 0 9
11.522772789001465 10.437753677368164 7.647067070007324 0.3755521774291992 0 9
11.5391206741333 10.358652114868164 7.626965045928955 0.3765418827533722 0 9
11.55550765991211 10.280077934265137 7.607228755950928 0.37751898169517517 0 9
11.57201099395752 10.202089309692383 7.587865352630615 0.37848231196403503 0 9
11.58853530883789 10.124608993530273 7.5688629150390625 0.37943214178085327 0 9
11.605234146118164 10.047675132751465 7.550221920013428 0.3803693950176239 0 9
11.621992111206055 9.971308708190918 7.5319342613220215 0.3812929689884186 0 9
11.638867378234863 9.895429611206055 7.513998985290527 0.3822029232978821 0 9
11.655780792236328 9.820058822631836 7.496406078338623 0.3830997943878174 0 9
11.6728515625 9.7451753616333 7.479160785675049 0.38398316502571106 0 9
11.689960479736328 9.670761108398438 7.462247371673584 0.38485363125801086 0 9
11.707167625427246 9.59683609008789 7.445676803588867 0.3857099711894989 0 9
13.145625114440918 10.677675247192383 8.329935073852539 0.303775817155838 0 9
13.214433670043945 10.635526657104492 8.343239784240723 0.752062201499939 0 9
13.238104820251465 10.55703067779541 8.328165054321289 0.7534234523773193 0 9
13.261523246765137 10.478652000427246 8.313231468200684 0.7547767162322998 0 9
13.284746170043945 10.400507926940918 8.29843521118164 0.7561224699020386 0 9
13.307753562927246 10.322519302368164 8.28377628326416 0.757460355758667 0 9
13.330507278442383 10.2446870803833 8.269256591796875 0.7587904334068298 0 9
13.3530855178833 10.167070388793945 8.254871368408203 0.7601127624511719 0 9
13.375449180603027 10.089570045471191 8.240623474121094 0.7614271640777588 0 9
13.39761734008789 10.012246131896973 8.226505279541016 0.7627336978912354 0 9
13.419550895690918 9.9351167678833 8.212523460388184 0.7640323638916016 0 9
13.441288948059082 9.858124732971191 8.198673248291016 0.7653231024742126 0 9
13.995370864868164 10.168222427368164 8.508716583251953 0.6859560012817383 0 9
13.981367111206055 10.062479972839355 8.472661018371582 0.6888749003410339 0 9
13.967421531677246 9.957597732543945 8.437042236328125 0.6917830109596252 0 9
13.953554153442383 9.8535737991333 8.401856422424316 0.6946803331375122 0 9
14.771855354309082 10.33236312866211 8.866596221923828 0.9694856405258179 0 9
14.821406364440918 10.268301010131836 8.868578910827637 0.9692689180374146 0 9
15.290702819824219 10.492148399353027 9.121109008789062 0.9648547172546387 0 9
15.321054458618164 10.4121675491333 9.11124324798584 0.9658995866775513 0 9
23.26953125 15.661757469177246 13.79616928100586 0.3212314248085022 0 9
23.074628829956055 15.380585670471191 13.639572143554688 0.32491952180862427 0 9
22.8839054107666 15.105546951293945 13.486624717712402 0.32860425114631653 0 9
20.481229782104492 12.869218826293945 11.897397994995117 0.8563380837440491 0 9
20.558378219604492 12.789355278015137 11.908743858337402 0.8147245049476624 0 9
20.658748626708984 12.723573684692383 11.933686256408691 0.8130213618278503 0 9
20.75956916809082 12.657499313354492 11.958977699279785 0.8113020062446594 0 9
20.854061126708984 12.587089538574219 11.98077392578125 0.8503787517547607 0 9
20.94808578491211 12.515917778015137 12.00239372253418 0.8488471508026123 0 9
21.04244041442871 12.444472312927246 12.024327278137207 0.8472989201545715 0 9
21.137109756469727 12.372754096984863 12.046575546264648 0.8457338809967041 0 9
21.232128143310547 12.30078125 12.069153785705566 0.8441521525382996 0 9
21.32748031616211 12.228476524353027 12.092037200927734 0.8425540328025818 0 9
21.423242568969727 12.155976295471191 12.11525821685791 0.8409392237663269 0 9
21.519315719604492 12.083144187927246 12.138803482055664 0.839307963848114 0 9
21.615779876708984 12.010019302368164 12.162680625915527 0.8376601934432983 0 9
21.712615966796875 11.936601638793945 12.186891555786133 0.8359960913658142 0 9
21.809804916381836 11.862871170043945 12.211444854736328 0.8343152403831482 0 9
21.90736198425293 11.788846969604492 12.236336708068848 0.8326183557510376 0 9
22.00533103942871 11.714530944824219 12.261566162109375 0.8309050798416138 0 9
22.103729248046875 11.639902114868164 12.287141799926758 0.8291753530502319 0 9
22.20246124267578 11.564902305603027 12.313067436218262 0.8274294137954712 0 9
22.301620483398438 11.489628791809082 12.339350700378418 0.8256672620773315 0 9
21.44353485107422 10.926015853881836 11.83731460571289 0.19536316394805908 0 9
21.913358688354492 11.041815757751465 12.06919002532959 0.1916097104549408 0 9
20.971698760986328 10.449569702148438 11.5245943069458 0.29962077736854553 0 9
21.246992111206055 10.467968940734863 11.64996337890625 0.2963966429233551 0 9
21.461835861206055 10.454374313354492 11.741896629333496 0.17139029502868652 0 9
21.04607391357422 10.135233879089355 11.489429473876953 0.17515631020069122 0 9
22.107831954956055 10.524609565734863 12.043170928955078 0.28671926259994507 0 9
21.912988662719727 10.311464309692383 11.911702156066895 0.325649619102478 0 9
22.084667205810547 10.271425247192383 11.97983169555664 0.3237977623939514 0 9
22.023515701293945 10.123007774353027 11.92192554473877 0.19703948497772217 0 9
22.29230499267578 10.125624656677246 12.042675971984863 0.19506371021270752 0 9
22.567304611206055 10.128613471984863 12.166568756103516 0.19307750463485718 0 9
22.795135498046875 10.108202934265137 12.264809608459473 0.31627389788627625 0 9
22.979061126708984 10.066601753234863 12.339347839355469 0.31436342000961304 0 9
23.165624618530273 10.024667739868164 12.415257453918457 0.31244122982025146 0 9
23.35495948791504 9.982362747192383 12.49256420135498 0.3105078935623169 0 9
23.54701042175293 9.939725875854492 12.571311950683594 0.3085627853870392 0 9
23.741952896118164 9.896698951721191 12.651548385620117 0.30660590529441833 0 9
23.939804077148438 9.853300094604492 12.733278274536133 0.3046378791332245 0 9
11.523964881896973 3.9166600704193115 5.98654842376709 0.6633648872375488 0 6
11.52474594116211 3.8592967987060547 5.977898597717285 0.951416015625 0 6
11.531269073486328 3.8040428161621094 5.972361087799072 0.881714403629303 0 6
11.540722846984863 3.749765634536743 5.968484401702881 0.6157364845275879 0 6
11.559843063354492 3.69873046875 5.969706058502197 0.25569555163383484 0 6
11.568300247192383 3.4737889766693115 5.940944671630859 0.3892269730567932 0 6
11.56314468383789 3.4157421588897705 5.930356502532959 0.3899218440055847 0 6
11.557734489440918 3.3578124046325684 5.9197893142700195 0.3906179666519165 0 6
11.552069664001465 3.3000195026397705 5.909248352050781 0.391314834356308 0 6
11.546269416809082 3.2424023151397705 5.8987603187561035 0.40055277943611145 0 6
11.495585441589355 3.1725780963897705 5.865549564361572 0.3629428744316101 0 6
11.538203239440918 3.128671884536743 5.880058288574219 0.40614742040634155 0 6
11.528339385986328 3.0705273151397705 5.8679656982421875 0.29509803652763367 0 6
11.487929344177246 3.0046093463897705 5.840445518493652 0.8888225555419922 0 6
11.4775972366333 2.946953058242798 5.828421592712402 0.8906561136245728 0 6
11.486738204956055 2.8943943977355957 5.826393127441406 0.9961427450180054 0 6
11.521288871765137 2.8481836318969727 5.837387561798096 0.7550508379936218 0 6
11.64193344116211 2.8225975036621094 5.892054080963135 0.6074463129043579 0 6
11.55029296875 2.745546817779541 5.839365482330322 0.4582086503505707 0 6
11.671796798706055 2.719179630279541 5.894580364227295 0.29947882890701294 0 6
13.07997989654541 -6.083456993103027 7.09524393081665 0.5151033401489258 0 3
12.969335556030273 -6.102949142456055 7.050012588500977 0.5164067149162292 0 3
12.8599214553833 -6.122109413146973 7.005410194396973 0.5196949243545532 0 3
12.751933097839355 -6.141015529632568 6.961503982543945 0.5229725241661072 0 3
12.732343673706055 -6.202089786529541 6.965919017791748 0.7266706824302673 0 3
12.691503524780273 -6.252851486206055 6.9588751792907715 0.5294966697692871 0 3
12.586152076721191 -6.271347522735596 6.916476726531982 0.5327422022819519 0 3
12.482050895690918 -6.28955078125 6.874730110168457 0.5359772443771362 0 3
12.379257202148438 -6.307558536529541 6.833613872528076 0.5392018556594849 0 3
12.277636528015137 -6.325351238250732 6.793132305145264 0.5424156188964844 0 3
12.177226066589355 -6.342968463897705 6.753255367279053 0.5456181764602661 0 3
11.929883003234863 -6.282324314117432 6.631645202636719 0.5541573762893677 0 3
11.833632469177246 -6.299667835235596 6.5938005447387695 0.5573375821113586 0 3
11.738495826721191 -6.316796779632568 6.556517601013184 0.5605069994926453 0 3
11.644413948059082 -6.333730220794678 6.519783020019531 0.563664972782135 0 3
11.551405906677246 -6.350449085235596 6.483587265014648 0.5668120384216309 0 3
11.459823608398438 -6.367265701293945 6.448166370391846 0.4416055977344513 0 3
11.431113243103027 -6.418652057647705 6.448175430297852 0.4416048228740692 0 3
11.402226448059082 -6.469902038574219 6.44818639755249 0.4416041672229767 0 3
11.338593482971191 -6.501230239868164 6.42864465713501 0.5739396810531616 0 3
11.248788833618164 -6.516972541809082 6.394222259521484 0.5770297050476074 0 3
11.159863471984863 -6.532538890838623 6.360288619995117 0.5801080465316772 0 3
10.92447280883789 -6.460781097412109 6.242609024047852 0.5833361744880676 0 3
10.837870597839355 -6.47537088394165 6.209646701812744 0.5808817148208618 0 3
10.751933097839355 -6.489667892456055 6.177030086517334 0.5839488506317139 0 3
10.690370559692383 -6.518144607543945 6.158397674560547 0.6739190816879272 0 3
10.703320503234863 -6.592128753662109 6.182852745056152 0.6712518334388733 0 3
10.63124942779541 -6.613730430603027 6.158305644989014 0.5983303189277649 0 3
10.548651695251465 -6.628222465515137 6.127629280090332 0.601325273513794 0 3
10.466875076293945 -6.642499923706055 6.097382068634033 0.6043084263801575 0 3
10.38589859008789 -6.656699180603027 6.067554950714111 0.6072788834571838 0 3
10.305703163146973 -6.670761585235596 6.038134574890137 0.6102379560470581 0 3
10.226269721984863 -6.684648513793945 6.009124755859375 0.61318439245224 0 3
10.147656440734863 -6.698417663574219 5.980507850646973 0.6161178946495056 0 3
10.069706916809082 -6.712089538574219 5.95228385925293 0.6190399527549744 0 3
9.992538452148438 -6.725605487823486 5.924438953399658 0.6219487190246582 0 3
9.916054725646973 -6.739003658294678 5.896973609924316 0.6248456835746765 0 3
9.84033203125 -6.752265453338623 5.8698859214782715 0.6277289390563965 0 3
9.765254020690918 -6.76540994644165 5.843153953552246 0.6306008100509644 0 3
9.690858840942383 -6.77843713760376 5.816788673400879 0.6334596276283264 0 3
9.500741958618164 -6.709159851074219 5.720693111419678 0.6432205438613892 0 3
9.429394721984863 -6.722382545471191 5.69584846496582 0.6460258960723877 0 3
9.358339309692383 -6.735273361206055 5.671111106872559 0.6420977711677551 0 3
9.287383079528809 -6.747714519500732 5.646425724029541 0.6449053287506104 0 3
9.264257431030273 -6.794628620147705 5.650837421417236 0.6210221648216248 0 3
9.2705659866333 -6.863456726074219 5.6734137535095215 0.6503423452377319 0 3
9.20052719116211 -6.875722408294678 5.649367332458496 0.6531106233596802 0 3
9.130995750427246 -6.887909889221191 5.625633239746094 0.6558663845062256 0 3
9.062129020690918 -6.899960994720459 5.602217674255371 0.6586076021194458 0 3
8.993827819824219 -6.911933422088623 5.579103946685791 0.6613361239433289 0 3
8.926054954528809 -6.923789024353027 5.556290626525879 0.6640512347221375 0 3
8.858866691589355 -6.935546875 5.533779144287109 0.6667529344558716 0 3
8.792206764221191 -6.947226524353027 5.511553764343262 0.6694413423538208 0 3
8.72607421875 -6.958827972412109 5.489617824554443 0.6721132397651672 0 3
8.660429954528809 -6.97033166885376 5.467970371246338 0.6747747659683228 0 3
8.595332145690918 -6.98171854019165 5.446596145629883 0.6774227023124695 0 3
8.530722618103027 -6.993046760559082 5.425495624542236 0.6800569295883179 0 3
8.46664047241211 -7.004257678985596 5.404669284820557 0.6826776266098022 0 3
8.29150390625 -6.922265529632568 5.312633514404297 0.6854454278945923 0 3
8.229199409484863 -6.933183670043945 5.292613506317139 0.6880382895469666 0 3
8.167402267456055 -6.944023132324219 5.272849082946777 0.6906173825263977 0 3
8.106054306030273 -6.954765319824219 5.253337383270264 0.6931822896003723 0 3
8.066640853881836 -6.984042644500732 5.248061180114746 0.5667399764060974 0 3
8.079785346984863 -7.059140682220459 5.277182102203369 0.563612699508667 0 3
8.020429611206055 -7.071034908294678 5.259092807769775 0.7006341814994812 0 3
7.960136413574219 -7.081582069396973 5.240324020385742 0.7031435370445251 0 3
7.900253772735596 -7.092050552368164 5.221796989440918 0.7056379318237305 0 3
7.837441444396973 -7.099511623382568 5.201313495635986 0.71689373254776 0 3
7.778769493103027 -7.110116958618164 5.183487892150879 0.719359278678894 0 3
7.72048807144165 -7.120702743530273 5.165879249572754 0.7218109965324402 0 3
7.662539005279541 -7.131210803985596 5.148496150970459 0.7242480516433716 0 3
7.605019569396973 -7.141660213470459 5.1313323974609375 0.7266705632209778 0 3
7.547871112823486 -7.152011394500732 5.114382266998291 0.729079008102417 0 3
7.363652229309082 -7.040351390838623 5.010876178741455 0.7227003574371338 0 3
7.307851314544678 -7.050156116485596 4.9944305419921875 0.7250802516937256 0 3
7.252519607543945 -7.05984354019165 4.978194236755371 0.727445125579834 0 3
7.197499752044678 -7.06945276260376 4.962160587310791 0.7297957539558411 0 3
7.14285135269165 -7.079042911529541 4.946328163146973 0.7321316599845886 0 3
8.478281021118164 8.478281021118164 5.651846885681152 0.8014889359474182 0 9
8.497694969177246 8.421737670898438 5.639550685882568 0.803236722946167 0 9
10.436210632324219 10.25048828125 6.895449161529541 0.6247043013572693 0 9
10.475273132324219 10.196913719177246 6.89095401763916 0.6251120567321777 0 9
10.514140129089355 10.143261909484863 6.886509418487549 0.6255152821540833 0 9
10.552831649780273 10.08951187133789 6.882122039794922 0.625914454460144 0 9
10.59130859375 10.035722732543945 6.877784252166748 0.6263092756271362 0 9
10.629648208618164 9.981874465942383 6.873499393463135 0.6266995072364807 0 9
10.667734146118164 9.927948951721191 6.869267463684082 0.6270855069160461 0 9
10.705683708190918 9.873984336853027 6.865087032318115 0.6274672746658325 0 9
11.04166030883789 10.092519760131836 7.051435470581055 0.48988842964172363 0 9
11.007441520690918 9.970956802368164 7.000919818878174 0.493423193693161 0 9
11.191874504089355 10.0469331741333 7.089486122131348 0.3913435935974121 0 9
11.208671569824219 9.971542358398438 7.071690082550049 0.3923284411430359 0 9
11.225507736206055 9.896620750427246 7.054235458374023 0.39329954981803894 0 9
11.242441177368164 9.822206497192383 7.0370917320251465 0.39425745606422424 0 9
12.220624923706055 10.580507278442383 7.619568347930908 0.6635820269584656 0 9
12.299257278442383 10.552363395690918 7.63897705078125 0.6618959307670593 0 9
12.378300666809082 10.524101257324219 7.658665180206299 0.6601943969726562 0 9
12.457812309265137 10.495741844177246 7.678637981414795 0.6584769487380981 0 9
12.537773132324219 10.467265129089355 7.698904991149902 0.6567437648773193 0 9
12.559374809265137 10.389999389648438 7.683444023132324 0.21491631865501404 0 9
12.699159622192383 10.40999984741211 7.740313529968262 0.6532304883003235 0 9
13.109179496765137 10.64810562133789 7.961005210876465 0.20742365717887878 0 9
13.399433135986328 10.784414291381836 8.10779094696045 0.20366808772087097 0 9
13.5147066116333 10.777597427368164 8.148193359375 0.7439349889755249 0 9
13.5380859375 10.697206497192383 8.133277893066406 0.7452993392944336 0 9
13.56126880645752 10.617011070251465 8.118500709533691 0.7466557621955872 0 9
13.584257125854492 10.537031173706055 8.103863716125488 0.7480044364929199 0 9
9.930487632751465 7.631738185882568 5.903667449951172 0.7490038871765137 0 9
9.9951753616333 7.610332012176514 5.921753883361816 0.7467165589332581 0 9
10.060155868530273 7.588730335235596 5.940029621124268 0.7444194555282593 0 9
13.674042701721191 10.218828201293945 8.04667854309082 0.7533202767372131 0 9
13.69595718383789 10.139726638793945 8.032720565795898 0.7546291351318359 0 9
13.717695236206055 10.060839653015137 8.018896102905273 0.7559302449226379 0 9
13.739198684692383 9.98208999633789 8.005200386047363 0.75722336769104 0 9
14.111054420471191 10.1558198928833 8.195215225219727 0.6880310773849487 0 9
14.096385955810547 10.049551010131836 8.160439491271973 0.6909623146057129 0 9
14.081854820251465 9.944159507751465 8.126093864440918 0.6938832402229309 0 9
14.831718444824219 10.374238014221191 8.531862258911133 0.9733350872993469 0 9
14.881464958190918 10.30990219116211 8.533773422241211 0.973116397857666 0 9
15.40859317779541 10.573065757751465 8.808765411376953 0.9651677012443542 0 9
15.490937232971191 10.527616500854492 8.828725814819336 0.9756537079811096 0 9
23.614843368530273 15.894179344177246 13.418000221252441 0.9397077560424805 0 9
23.703886032104492 15.799999237060547 13.428178787231445 0.7053540945053101 0 9
23.78267478942871 15.698827743530273 13.43275260925293 0.7051136493682861 0 9
21.565996170043945 14.097050666809082 12.144879341125488 0.3487420678138733 0 9
21.849042892456055 14.142539024353027 12.268430709838867 0.3452301621437073 0 9
21.741893768310547 13.9351167678833 12.17302131652832 0.33780205249786377 0 9
20.06328010559082 12.732558250427246 11.201069831848145 0.26888221502304077 0 9
19.976776123046875 12.55224609375 11.121237754821777 0.270812451839447 0 9
19.890995025634766 12.37417984008789 11.042440414428711 0.2727447748184204 0 9
19.80582046508789 12.1982421875 10.96467399597168 0.2746792733669281 0 9
20.760351181030273 12.657987594604492 11.461503982543945 0.8177917003631592 0 9
20.861562728881836 12.591601371765137 11.486085891723633 0.816041886806488 0 9
20.963241577148438 12.5249605178833 11.510998725891113 0.8142758011817932 0 9
21.063945770263672 12.457206726074219 11.535492897033691 0.8532360792160034 0 9
21.158769607543945 12.385429382324219 11.556856155395508 0.8516584038734436 0 9
21.253925323486328 12.313398361206055 11.578530311584473 0.850064218044281 0 9
21.34945297241211 12.241093635559082 11.600518226623535 0.8484530448913574 0 9
21.445331573486328 12.168496131896973 11.62281608581543 0.8468253016471863 0 9
21.541561126708984 12.095624923706055 11.645428657531738 0.8451809883117676 0 9
21.638124465942383 12.022440910339355 11.668362617492676 0.8435199856758118 0 9
21.735116958618164 11.94896411895752 11.69161319732666 0.8418423533439636 0 9
21.832422256469727 11.875195503234863 11.715191841125488 0.8401481509208679 0 9
21.8681640625 11.767753601074219 11.705889701843262 0.47055783867836 0 9
22.02828025817871 11.726737976074219 11.763328552246094 0.8367103934288025 0 9
22.126834869384766 11.652070045471191 11.787886619567871 0.8349669575691223 0 9
22.22572135925293 11.577031135559082 11.812788009643555 0.8332069516181946 0 9
22.325057983398438 11.501679420471191 11.838025093078613 0.8314306139945984 0 9
22.341737747192383 11.38369083404541 11.819658279418945 0.2501002550125122 0 9
22.323476791381836 11.248476028442383 11.783154487609863 0.25087523460388184 0 9
21.769960403442383 10.847304344177246 11.465184211730957 0.290954053401947 0 9
22.064922332763672 10.870956420898438 11.594721794128418 0.28770360350608826 0 9
22.27275276184082 10.849393844604492 11.678228378295898 0.25312885642051697 0 9
21.85706901550293 10.525800704956055 11.435399055480957 0.170012429356575 0 9
21.425703048706055 10.19986343383789 11.185647010803223 0.17380860447883606 0 9
22.227949142456055 10.459648132324219 11.57985782623291 0.25527894496917725 0 9
22.21433448791504 10.331738471984863 11.548471450805664 0.2559729218482971 0 9
22.20134735107422 10.204765319824219 11.51779556274414 0.2566545307636261 0 9
22.18894386291504 10.078710556030273 11.487776756286621 0.25732505321502686 0 9
22.177167892456055 9.953495979309082 11.45846176147461 0.2579837441444397 0 9
22.166015625 9.829218864440918 11.429777145385742 0.25863099098205566 0 9
22.155487060546875 9.705820083618164 11.401773452758789 0.2592661380767822 0 9
22.26363182067871 9.634316444396973 11.43505573272705 0.22832366824150085 0 9
22.245956420898438 9.5083589553833 11.403948783874512 0.22894632816314697 0 9
22.51708984375 9.504961013793945 11.520944595336914 0.1969788670539856 0 9
22.798124313354492 9.50326156616211 11.64278793334961 0.19491732120513916 0 9
23.085819244384766 9.50179672241211 11.767820358276367 0.19284623861312866 0 9
11.524589538574219 4.682968616485596 5.863803386688232 0.6649765372276306 0 6
11.531112670898438 4.625449180603027 5.856480598449707 0.9348874688148499 0 6
23.679922103881836 9.375527381896973 12.005224227905273 0.31214895844459534 0 9
23.877010345458984 9.329824447631836 12.0837984085083 0.310119092464447 0 9
24.0771484375 9.28369140625 12.163867950439453 0.30807778239250183 0 9
24.280330657958984 9.237070083618164 12.245463371276855 0.3060248792171478 0 9
11.528613090515137 4.267812252044678 5.794745922088623 0.6936875581741333 0 6
11.52816390991211 4.208906173706055 5.7849650382995605 0.9451923966407776 0 6
11.544062614440918 4.156093597412109 5.783534526824951 0.6856732368469238 0 6
17.42058563232422 -7.44591760635376 8.9302978515625 0.49459460377693176 0 3
17.26835823059082 -7.472733974456787 8.869388580322266 0.4979911744594574 0 3
17.1182804107666 -7.49914026260376 8.80947494506836 0.5013778805732727 0 3
16.970584869384766 -7.525410175323486 8.750772476196289 0.9621358513832092 0 3
16.917518615722656 -7.592909812927246 8.740897178649902 0.963222861289978 0 3
16.864843368530273 -7.660351276397705 8.731340408325195 0.9823124408721924 0 3
16.536640167236328 -7.601035118103027 8.57900619506836 0.5429255962371826 0 3
13.080156326293945 -6.083535194396973 6.799921035766602 0.5172325372695923 0 3
12.969335556030273 -6.102929592132568 6.756485462188721 0.5205578207969666 0 3
12.859941482543945 -6.122089862823486 6.713738441467285 0.5238721370697021 0 3
12.751914024353027 -6.141015529632568 6.671659469604492 0.527239978313446 0 3
12.732226371765137 -6.202050685882568 6.675847053527832 0.7325165271759033 0 3
12.691484451293945 -6.252871036529541 6.669139385223389 0.5337527394294739 0 3
12.586133003234863 -6.271308422088623 6.628506183624268 0.5370250344276428 0 3
12.482050895690918 -6.289570331573486 6.588494777679443 0.5402860641479492 0 3
12.379199028015137 -6.307558536529541 6.549093246459961 0.5435368418693542 0 3
12.277616500854492 -6.325351238250732 6.510293483734131 0.5467759370803833 0 3
12.177206993103027 -6.342948913574219 6.472079753875732 0.5500041246414185 0 3
11.931249618530273 -6.283027172088623 6.356253623962402 0.5608821511268616 0 3
11.835761070251465 -6.30078125 6.320391654968262 0.5640647411346436 0 3
11.781660079956055 -6.33996057510376 6.306631565093994 0.7104972004890442 0 3
11.794901847839355 -6.41552734375 6.329070091247559 0.707978367805481 0 3
11.707987785339355 -6.436503887176514 6.297868728637695 0.5659787058830261 0 3
11.614062309265137 -6.452988147735596 6.2628912925720215 0.5691394209861755 0 3
