ply
format ascii 1.0
element vertex 609
property float32 x
property float32 y
property float32 z
property float32 CosAngle
property uint32 ObjIdx
property uint32 ObjTag
end_header
38.53007888793945 11.19408130645752 4.48491096496582 0.9448297023773193 0 9
38.45124816894531 10.797870635986328 4.464274883270264 0.8103522658348083 0 9
38.30316162109375 10.38623046875 4.436070919036865 0.8155034780502319 0 9
38.11800765991211 9.96962833404541 4.404123306274414 0.09787314385175705 0 9
38.01236343383789 9.578339576721191 4.381777286529541 0.8256087303161621 0 9
38.515625 9.33828067779541 4.4299492835998535 0.7394058108329773 0 9
48.27978515625 10.791874885559082 5.529822826385498 0.34322839975357056 0 9
42.71486282348633 7.158945083618164 4.841189861297607 0.4330855906009674 0 6
42.73701095581055 6.768867015838623 4.836622714996338 0.4271562397480011 0 6
23.737207412719727 -7.595097541809082 2.785817861557007 0.3171983063220978 0 3
23.054569244384766 -7.605449199676514 2.7136070728302 0.3256394565105438 0 3
22.466581344604492 -7.635761737823486 2.652360200881958 0.3430834412574768 0 3
26.07484245300293 -9.1240234375 3.0878899097442627 0.342442125082016 0 3
25.37251853942871 -9.13466739654541 3.0143022537231445 0.35080206394195557 0 3
24.56527328491211 -9.093964576721191 2.927980899810791 0.3591345250606537 0 3
23.929433822631836 -9.103612899780273 2.8618102073669434 0.3674378991127014 0 3
23.32158088684082 -9.112812042236328 2.7987937927246094 0.3757113218307495 0 3
22.646738052368164 -9.084277153015137 2.727482795715332 0.3839544951915741 0 3
22.091777801513672 -9.092695236206055 2.670367479324341 0.3921668827533722 0 3
18.45492172241211 -7.790273189544678 2.2391209602355957 0.9096436500549316 0 3
20.989980697631836 -9.083183288574219 2.5564863681793213 0.40849652886390686 0 3
20.500370025634766 -9.09066390991211 2.506688356399536 0.4166119694709778 0 3
14.027519226074219 -6.371621131896973 1.722144603729248 0.8985360264778137 0 3
19.575956344604492 -9.104667663574219 2.413252353668213 0.4327418804168701 0 3
19.13900375366211 -9.111268997192383 2.3693788051605225 0.44075512886047363 0 3
18.717695236206055 -9.117694854736328 2.327255964279175 0.4487325847148895 0 3
18.476346969604492 -9.206230163574219 2.307429313659668 0.8827140927314758 0 3
18.479511260986328 -9.415800094604492 2.3182873725891113 0.87857985496521 0 3
18.48271369934082 -9.627363204956055 2.3294365406036377 0.8743748664855957 0 3
18.485918045043945 -9.841015815734863 2.340883255004883 0.8700994253158569 0 3
18.489179611206055 -10.056737899780273 2.352634906768799 0.8657540082931519 0 3
18.49247932434082 -10.274686813354492 2.3646926879882812 0.8613387942314148 0 3
14.117050170898438 -8.0103120803833 1.8143137693405151 0.5035281777381897 0 3
14.031913757324219 -8.129374504089355 1.812673807144165 0.511198878288269 0 3
13.753105163574219 -8.133612632751465 1.7860172986984253 0.518828272819519 0 3
13.482362747192383 -8.137675285339355 1.7602744102478027 0.5264157652854919 0 3
13.155077934265137 -8.1021089553833 1.726970911026001 0.5339612364768982 0 3
12.900605201721191 -8.1060152053833 1.7030442953109741 0.5414631366729736 0 3
12.653027534484863 -8.109785079956055 1.6799036264419556 0.548922061920166 0 3
9.789979934692383 -6.399453163146973 1.3073639869689941 0.556336522102356 0 3
9.744824409484863 -6.495507717132568 1.3090684413909912 0.8185234665870667 0 3
12.00716781616211 -8.160078048706055 1.6227457523345947 0.5710296034812927 0 3
11.7832612991333 -8.16347599029541 1.602323055267334 0.5783076286315918 0 3
11.564863204956055 -8.166796684265137 1.5825352668762207 0.5855394005775452 0 3
11.351835250854492 -8.170019149780273 1.5633528232574463 0.5927233099937439 0 3
11.132011413574219 -8.164472579956055 1.5431196689605713 0.7924118041992188 0 3
10.940800666809082 -8.17626953125 1.526715874671936 0.6069483757019043 0 3
10.742362976074219 -8.1792573928833 1.5092099905014038 0.6139875054359436 0 3
10.548418045043945 -8.1821870803833 1.4922220706939697 0.620977520942688 0 3
10.269784927368164 -8.11474609375 1.4630329608917236 0.627917468547821 0 3
10.173280715942383 -8.187929153442383 1.4597126245498657 0.6348071098327637 0 3
9.9917573928833 -8.190683364868164 1.4441590309143066 0.6416454315185547 0 3
9.722207069396973 -8.11669921875 1.4156720638275146 0.753186047077179 0 3
9.639960289001465 -8.195996284484863 1.4143519401550293 0.6551662087440491 0 3
9.469452857971191 -8.198593139648438 1.4000709056854248 0.6618477702140808 0 3
9.26333999633789 -8.166738510131836 1.380401372909546 0.7354551553726196 0 3
9.206093788146973 -8.264296531677246 1.3828519582748413 0.6750497221946716 0 3
9.044198989868164 -8.266797065734863 1.3696247339248657 0.6815700531005859 0 3
8.885371208190918 -8.269218444824219 1.3567543029785156 0.6880342960357666 0 3
8.729433059692383 -8.271562576293945 1.3442307710647583 0.6944445371627808 0 3
8.442090034484863 -8.144316673278809 1.3112046718597412 0.7007977366447449 0 3
8.364140510559082 -8.215351104736328 1.310478687286377 0.7070948481559753 0 3
24.753026962280273 24.752986907958984 3.6209287643432617 0.845842719078064 0 9
24.97054672241211 24.526229858398438 3.6204028129577637 0.8459667563438416 0 9
25.129608154296875 24.243202209472656 3.6117706298828125 0.4641110897064209 0 9
24.90687370300293 23.600370407104492 3.549163818359375 0.12245678156614304 0 9
24.776113510131836 23.057968139648438 3.500901937484741 0.4788093566894531 0 9
24.148183822631836 22.072362899780273 3.3840320110321045 0.9952908158302307 0 9
23.676307678222656 21.254140853881836 3.2910380363464355 0.46507516503334045 0 9
7.507480144500732 6.618749618530273 1.0352540016174316 0.8571321368217468 0 6
7.594335556030273 6.575097560882568 1.039047360420227 0.08823569864034653 0 6
23.48124885559082 19.963848114013672 3.188023090362549 0.5949224829673767 0 9
23.822011947631836 19.887908935546875 3.2099132537841797 0.5908644199371338 0 9
23.750507354736328 19.469219207763672 3.176607608795166 0.6594140529632568 0 9
23.875038146972656 19.215545654296875 3.1700639724731445 0.5625689625740051 0 9
24.36716651916504 19.253887176513672 3.212339401245117 0.5551656484603882 0 9
24.866756439208984 19.288555145263672 3.2552342414855957 0.951626181602478 0 9
25.392147064208984 19.3336124420166 3.3011674880981445 0.5402267575263977 0 9
23.992206573486328 17.929784774780273 3.0981156826019287 0.23865340650081635 0 9
25.510623931884766 18.36017608642578 3.2511045932769775 0.7992689609527588 0 9
20.708574295043945 14.623729705810547 2.6222894191741943 0.7363421320915222 0 9
20.95248031616211 14.51585865020752 2.6365623474121094 0.7323541641235352 0 9
21.198925018310547 14.40673828125 2.651196241378784 0.7283123731613159 0 9
21.447967529296875 14.296269416809082 2.6661906242370605 0.7242167592048645 0 9
21.699785232543945 14.184453010559082 2.6815576553344727 0.7200673222541809 0 9
21.930273056030273 14.05582046508789 2.694340229034424 0.3913169503211975 0 9
21.605878829956055 13.57583999633789 2.6394031047821045 0.3994614779949188 0 9
21.29439353942871 13.115018844604492 2.586871862411499 0.40757349133491516 0 9
21.208065032958984 12.800703048706055 2.562321662902832 0.2019193172454834 0 9
21.639551162719727 12.79759693145752 2.600472927093506 0.19895724952220917 0 9
22.084941864013672 12.79482364654541 2.6400842666625977 0.19597195088863373 0 9
22.54505729675293 12.792460441589355 2.68125057220459 0.1929631233215332 0 9
23.098827362060547 12.833964347839355 2.7333006858825684 0.8411290049552917 0 9
23.373104095458984 12.713144302368164 2.7521398067474365 0.8756014108657837 0 9
23.180057525634766 12.33984375 2.716259002685547 0.3609824776649475 0 9
22.9234561920166 11.940409660339355 2.6735222339630127 0.3667525053024292 0 9
23.327674865722656 11.886034965515137 2.708115816116333 0.5233925580978394 0 9
23.10968780517578 11.514823913574219 2.6707000732421875 0.5307257771492004 0 9
22.897480010986328 11.15371036529541 2.634503126144409 0.5380178093910217 0 9
23.71062469482422 11.28759765625 2.716289520263672 0.2618548274040222 0 9
23.05806541442871 10.724160194396973 2.6303985118865967 0.2704051434993744 0 9
27.67884635925293 12.572265625 3.1445250511169434 0.6505283117294312 0 9
29.59683609008789 13.124277114868164 3.348900079727173 0.5730469226837158 0 9
41.67138671875 18.032793045043945 4.696646690368652 0.9530222415924072 0 9
41.93790817260742 17.702909469604492 4.708590030670166 0.9506058096885681 0 9
36.51609420776367 15.029550552368164 4.084539890289307 0.654434323310852 0 9
36.661502838134766 14.705976486206055 4.085876941680908 0.6272701621055603 0 9
35.66984176635742 13.937850952148438 3.9612579345703125 0.5759172439575195 0 9
36.04554748535156 13.712987899780273 3.9891510009765625 0.7169974446296692 0 9
36.39331817626953 13.472636222839355 4.0140910148620605 0.7125421762466431 0 9
36.73179626464844 13.224296569824219 4.038172721862793 0.781657874584198 0 9
35.53933334350586 12.43578052520752 3.894646406173706 0.14603152871131897 0 9
36.5495491027832 12.422186851501465 3.9929728507995605 0.5534756779670715 0 9
36.364784240722656 11.996366500854492 3.9608654975891113 0.5579620599746704 0 9
36.667205810546875 11.732245445251465 3.982173442840576 0.1714373528957367 0 9
37.33591842651367 11.577832221984863 4.043346405029297 0.7356410622596741 0 9
37.81084060668945 11.354121208190918 4.08357572555542 0.4989486336708069 0 9
38.49552536010742 11.184003829956055 4.146512508392334 0.225297749042511 0 9
38.45732498168945 10.799570083618164 4.131795406341553 0.8109429478645325 0 9
38.30917739868164 10.387909889221191 4.105693340301514 0.8160987496376038 0 9
38.1628303527832 9.98134708404541 4.080242156982422 0.8211890459060669 0 9
38.018280029296875 9.579785346984863 4.055427551269531 0.8262133002281189 0 9
48.27457046508789 11.24658203125 5.127113342285156 0.3428671956062317 0 9
48.18785095214844 10.771307945251465 5.107426166534424 0.5613057613372803 0 9
42.713417053222656 7.158710956573486 4.479777812957764 0.4334847331047058 0 6
26.023338317871094 -7.560507774353027 2.8030834197998047 0.29197919368743896 0 3
25.218299865722656 -7.57275390625 2.723580837249756 0.30050238966941833 0 3
24.518417358398438 -7.60314416885376 2.655252695083618 0.31741687655448914 0 3
27.5884952545166 -9.101152420043945 3.004944324493408 0.32592418789863586 0 3
26.48042869567871 -8.999960899353027 2.89294171333313 0.3343464732170105 0 3
25.751972198486328 -9.011015892028809 2.822078227996826 0.3427419662475586 0 3
25.058300018310547 -9.021562576293945 2.7548248767852783 0.35110941529273987 0 3
24.5655460357666 -9.094042778015137 2.7095208168029785 0.359449177980423 0 3
23.92966651916504 -9.103730201721191 2.6482903957366943 0.3677597641944885 0 3
23.321874618530273 -9.11294937133789 2.5899744033813477 0.37604060769081116 0 3
22.646991729736328 -9.084355354309082 2.5239813327789307 0.38429123163223267 0 3
22.092010498046875 -9.092792510986328 2.471126079559326 0.3925107419490814 0 3
18.454940795898438 -7.790273189544678 2.072033405303955 0.9104501008987427 0 3
20.990234375 -9.083281517028809 2.365743398666382 0.40885448455810547 0 3
20.500526428222656 -9.09072208404541 2.3196537494659424 0.41697803139686584 0 3
14.027519226074219 -6.371621131896973 1.593635082244873 0.8993324041366577 0 3
19.576112747192383 -9.104765892028809 2.2331929206848145 0.4331219792366028 0 3
19.139198303222656 -9.111367225646973 2.1925928592681885 0.4411422312259674 0 3
18.717870712280273 -9.117793083190918 2.1536121368408203 0.44912663102149963 0 3
18.476346969604492 -9.206250190734863 2.1352498531341553 0.8834965229034424 0 3
18.479511260986328 -9.415820121765137 2.1452956199645996 0.8793585896492004 0 3
18.48271369934082 -9.627402305603027 2.1556107997894287 0.8751498460769653 0 3
18.485937118530273 -9.841015815734863 2.1662042140960693 0.8708708882331848 0 3
18.489198684692383 -10.056757926940918 2.1770777702331543 0.866521418094635 0 3
18.49247932434082 -10.274706840515137 2.188234567642212 0.8621024489402771 0 3
14.117167472839355 -8.010390281677246 1.6789393424987793 0.5039710402488708 0 3
14.032011032104492 -8.129413604736328 1.6774250268936157 0.511648416519165 0 3
13.753183364868164 -8.13363265991211 1.652752161026001 0.5192850828170776 0 3
13.483027458190918 -8.138105392456055 1.6289985179901123 0.5285165905952454 0 3
13.22054672241211 -8.142440795898438 1.6060526371002197 0.5360288023948669 0 3
12.96533203125 -8.146659851074219 1.5838685035705566 0.543536365032196 0 3
12.717050552368164 -8.150800704956055 1.5624130964279175 0.5510004162788391 0 3
9.790078163146973 -6.399511814117432 1.2098133563995361 0.5568262934684753 0 3
9.744863510131836 -6.495527267456055 1.2113844156265259 0.819249153137207 0 3
12.007246017456055 -8.160117149353027 1.5016645193099976 0.5715327262878418 0 3
11.783339500427246 -8.163515090942383 1.4827656745910645 0.5788171887397766 0 3
11.564960479736328 -8.166815757751465 1.4644529819488525 0.5860546827316284 0 3
11.351933479309082 -8.170097351074219 1.4467021226882935 0.5932455062866211 0 3
11.13199234008789 -8.164472579956055 1.427957534790039 0.7931143641471863 0 3
10.940858840942383 -8.176308631896973 1.4127970933914185 0.6074829697608948 0 3
10.742441177368164 -8.179296493530273 1.3965983390808105 0.6145283579826355 0 3
10.54849624633789 -8.182265281677246 1.3808774948120117 0.6215245723724365 0 3
10.269882202148438 -8.114824295043945 1.353874683380127 0.6284704804420471 0 3
10.173358917236328 -8.187968254089355 1.3507972955703735 0.6353662014007568 0 3
9.991816520690918 -8.190722465515137 1.336402416229248 0.6422106027603149 0 3
9.722207069396973 -8.11669921875 1.3100340366363525 0.7538536787033081 0 3
9.64003849029541 -8.196054458618164 1.3088157176971436 0.6557440161705017 0 3
9.469511032104492 -8.19863224029541 1.295606255531311 0.6624305248260498 0 3
9.263359069824219 -8.166796684265137 1.277385950088501 0.7361071705818176 0 3
9.206191062927246 -8.264394760131836 1.2796680927276611 0.6756449341773987 0 3
9.04427719116211 -8.266836166381836 1.267428994178772 0.6821702718734741 0 3
8.885371208190918 -8.269218444824219 1.2555192708969116 0.6886416673660278 0 3
8.7294921875 -8.271620750427246 1.243928074836731 0.6950567960739136 0 3
8.442129135131836 -8.144335746765137 1.2133500576019287 0.7014157176017761 0 3
8.36415958404541 -8.2153902053833 1.2127021551132202 0.707719087600708 0 3
24.423124313354492 24.423105239868164 3.2850658893585205 0.11659876257181168 0 9
25.12238311767578 24.675390243530273 3.349191904067993 0.8415418863296509 0 9
24.82615089416504 23.950408935546875 3.2809033393859863 0.12190482765436172 0 9
25.420448303222656 24.087011337280273 3.3307409286499023 0.24811305105686188 0 9
25.573007583618164 23.79960823059082 3.322606086730957 0.6896898150444031 0 9
24.152910232543945 22.076641082763672 3.1122119426727295 0.9959117770195007 0 9
24.338924407958984 21.84894561767578 3.1107823848724365 0.9963684678077698 0 9
7.507148265838623 6.618456840515137 0.9518702626228333 0.8578733801841736 0 6
7.590585708618164 6.571835994720459 0.9549290537834167 0.08835121244192123 0 6
23.286640167236328 19.798397064208984 2.907083034515381 0.6003852486610413 0 9
23.62322235107422 19.72199249267578 2.926882266998291 0.5963238477706909 0 9
23.781131744384766 19.49429702758789 2.9246532917022705 0.6591041088104248 0 9
23.897851943969727 19.233943939208984 2.9176554679870605 0.5624912977218628 0 9
24.390859603881836 19.2725772857666 2.9566056728363037 0.5550813674926758 0 9
24.897186279296875 19.31216812133789 2.9968504905700684 0.5476275086402893 0 9
25.41748046875 19.352890014648438 3.0384459495544434 0.5401304364204407 0 9
25.952499389648438 19.39468765258789 3.08146595954895 0.532589852809906 0 9
39.169471740722656 28.190624237060547 4.589944839477539 0.8852187395095825 0 9
20.845468521118164 14.72044849395752 2.4271292686462402 0.7321045994758606 0 9
21.091777801513672 14.612382888793945 2.440431594848633 0.7281131744384766 0 9
21.34064483642578 14.503046989440918 2.4540672302246094 0.7240679860115051 0 9
21.592187881469727 14.392401695251465 2.4680378437042236 0.7199690341949463 0 9
21.84652328491211 14.280370712280273 2.4823553562164307 0.715816080570221 0 9
21.89974594116211 14.036269187927246 2.4739913940429688 0.39218300580978394 0 9
21.576385498046875 13.557323455810547 2.4236161708831787 0.40033474564552307 0 9
21.26591682434082 13.097460746765137 2.375438928604126 0.4084535241127014 0 9
22.646249771118164 13.66878890991211 2.515819549560547 0.7858812808990479 0 9
21.14519500732422 12.50521469116211 2.3365020751953125 0.1364378035068512 0 9
23.032499313354492 13.343769073486328 2.5317065715789795 0.7809503078460693 0 9
29.5015811920166 16.739784240722656 3.2261369228363037 0.9181207418441772 0 9
23.1602725982666 12.868183135986328 2.519951581954956 0.8800162672996521 0 9
23.388574600219727 12.72158145904541 2.532261371612549 0.8757389187812805 0 9
23.602773666381836 12.56484317779541 2.5431365966796875 0.9038758873939514 0 9
23.294179916381836 12.133515357971191 2.4980499744415283 0.3612116277217865 0 9
23.428300857543945 11.937284469604492 2.500844717025757 0.5215719938278198 0 9
23.207948684692383 11.563788414001465 2.466143846511841 0.5289110541343689 0 9
22.993515014648438 11.200488090515137 2.4325809478759766 0.5362090468406677 0 9
22.784765243530273 10.846796989440918 2.400092840194702 0.5434665679931641 0 9
23.155057907104492 10.769277572631836 2.428826093673706 0.26949256658554077 0 9
29.075448989868164 13.206621170043945 3.0372705459594727 0.5814537405967712 0 9
29.557401657104492 13.106816291809082 3.0752038955688477 0.5742813348770142 0 9
41.15736389160156 17.81035041809082 4.265284538269043 0.6258572340011597 0 9
42.026268005371094 17.740215301513672 4.338662147521973 0.9493837356567383 0 9
36.47294998168945 15.0117769241333 3.751290798187256 0.6557448506355286 0 9
35.43226623535156 14.212870597839355 3.6309807300567627 0.5781956315040588 0 9
35.933223724365234 14.04076099395752 3.669264554977417 0.7173402905464172 0 9
36.10919952392578 13.73720645904541 3.6744890213012695 0.6418726444244385 0 9
36.632205963134766 13.56103515625 3.715172052383423 0.7084754705429077 0 9
36.73806381225586 13.226523399353027 3.713716983795166 0.4132828712463379 0 9
37.13812255859375 12.9951753616333 3.742213010787964 0.5434651970863342 0 9
36.94538879394531 12.556718826293945 3.7112913131713867 0.5479939579963684 0 9
36.57701110839844 12.066386222839355 3.663259267807007 0.17149969935417175 0 9
36.568241119384766 11.70058536529541 3.651712656021118 0.5569348335266113 0 9
37.45429611206055 11.614550590515137 3.7296366691589355 0.7339165210723877 0 9
37.919647216796875 11.3867769241333 3.7656376361846924 0.4979243874549866 0 9
38.60101318359375 11.214667320251465 3.8231589794158936 0.9447042942047119 0 9
38.463417053222656 10.801288604736328 3.799774169921875 0.8114786148071289 0 9
38.3151741027832 10.389531135559082 3.7757670879364014 0.8166387677192688 0 9
38.54457092285156 10.081191062927246 3.789299726486206 0.9531452059745789 0 9
48.266971588134766 11.702558517456055 4.723697185516357 0.34247028827667236 0 9
48.453670501708984 10.374940872192383 4.712901592254639 0.5597825646400452 0 9
42.7119140625 7.15847635269165 4.119004249572754 0.4338548183441162 0 6
27.784042358398438 -7.533925533294678 2.7379729747772217 0.27508386969566345 0 3
26.933534622192383 -7.563457012176514 2.660740852355957 0.2915005683898926 0 3
27.246795654296875 -8.98843765258789 2.728823184967041 0.32618722319602966 0 3
26.480741500854492 -9.000078201293945 2.6600847244262695 0.33461618423461914 0 3
25.75228500366211 -9.01113224029541 2.5949225425720215 0.3430185616016388 0 3
25.05855369567871 -9.02164077758789 2.5330820083618164 0.3513926863670349 0 3
24.565820693969727 -9.094160079956055 2.4914231300354004 0.35973963141441345 0 3
23.929941177368164 -9.103808403015137 2.4351210594177246 0.36805686354637146 0 3
23.32209014892578 -9.113027572631836 2.381498098373413 0.37634459137916565 0 3
22.647245407104492 -9.08447265625 2.320817470550537 0.38460177183151245 0 3
18.657440185546875 -7.679179668426514 1.918942928314209 0.2869330942630768 0 3
18.454980850219727 -7.790273189544678 1.9052329063415527 0.9111945629119873 0 3
18.461210250854492 -7.98888635635376 1.9132050275802612 0.7256014347076416 0 3
18.469297409057617 -8.1899995803833 1.9215854406356812 0.722436785697937 0 3
14.027538299560547 -6.371601581573486 1.4653456211090088 0.900067925453186 0 3
18.48601531982422 -8.597773551940918 1.9390711784362793 0.715921938419342 0 3
18.494647979736328 -8.804550170898438 1.948184609413147 0.712571918964386 0 3
18.503496170043945 -9.013379096984863 1.9575599431991577 0.709160327911377 0 3
18.476346969604492 -9.206250190734863 1.9633551836013794 0.8842189311981201 0 3
18.479530334472656 -9.415820121765137 1.9725931882858276 0.880077600479126 0 3
18.48273468017578 -9.627382278442383 1.9820832014083862 0.8758655190467834 0 3
18.4859561920166 -9.840995788574219 1.9918216466903687 0.8715828061103821 0 3
18.48921775817871 -10.056757926940918 2.001819610595703 0.8672299981117249 0 3
18.49251937866211 -10.274725914001465 2.0120790004730225 0.8628072738647461 0 3
14.117284774780273 -8.010468482971191 1.5437904596328735 0.5043796300888062 0 3
14.032148361206055 -8.129511833190918 1.5424033403396606 0.5120632648468018 0 3
13.753300666809082 -8.133710861206055 1.5197144746780396 0.5197060108184814 0 3
13.486425399780273 -8.140155792236328 1.4982383251190186 0.528814971446991 0 3
13.223827362060547 -8.144472122192383 1.4771311283111572 0.5363338589668274 0 3
12.968554496765137 -8.148691177368164 1.456721305847168 0.5438475012779236 0 3
12.720155715942383 -8.152792930603027 1.4369844198226929 0.5513176321983337 0 3
9.790136337280273 -6.399550437927246 1.1124314069747925 0.5572781562805176 0 3
9.744863510131836 -6.495527267456055 1.1138657331466675 0.8199189901351929 0 3
12.00732421875 -8.160175323486328 1.3807859420776367 0.5719963908195496 0 3
11.783456802368164 -8.163593292236328 1.3634079694747925 0.5792866945266724 0 3
11.565058708190918 -8.16689395904541 1.3465696573257446 0.5865306854248047 0 3
11.351991653442383 -8.170136451721191 1.3302488327026367 0.5937273502349854 0 3
11.132011413574219 -8.164491653442383 1.3130054473876953 0.7937625050544739 0 3
10.94091796875 -8.176347732543945 1.299071192741394 0.6079763770103455 0 3
10.74251937866211 -8.179394721984863 1.2841776609420776 0.6150280833244324 0 3
10.548574447631836 -8.182324409484863 1.269723653793335 0.6220299005508423 0 3
10.26992130279541 -8.114863395690918 1.2448972463607788 0.6289814710617065 0 3
10.173418045043945 -8.188007354736328 1.2420639991760254 0.6358821392059326 0 3
9.99185562133789 -8.19076156616211 1.228824257850647 0.6427327990531921 0 3
9.7222261428833 -8.116718292236328 1.204574704170227 0.7544698715209961 0 3
9.640097618103027 -8.196093559265137 1.2034626007080078 0.6562763452529907 0 3
9.469589233398438 -8.198710441589355 1.1913175582885742 0.6629698872566223 0 3
9.263379096984863 -8.166796684265137 1.1745524406433105 0.7367088198661804 0 3
9.20621109008789 -8.264413833618164 1.1766563653945923 0.6761942505836487 0 3
9.04427719116211 -8.266894340515137 1.1654022932052612 0.6827256679534912 0 3
8.885449409484863 -8.269296646118164 1.1544517278671265 0.6892015337944031 0 3
8.7295503616333 -8.271659851074219 1.1437989473342896 0.6956210136413574 0 3
8.442148208618164 -8.144393920898438 1.1156975030899048 0.7019858360290527 0 3
8.364237785339355 -8.215429306030273 1.1150773763656616 0.7082943916320801 0 3
24.961816787719727 24.961816787719727 3.064028263092041 0.765836775302887 0 9
24.452186584472656 24.017147064208984 2.974893808364868 0.11758910119533539 0 9
25.495819091796875 24.59648323059082 3.074876546859741 0.8371208906173706 0 9
25.628496170043945 24.28415870666504 3.0644683837890625 0.2462833821773529 0 9
25.763593673706055 23.976953506469727 3.054762601852417 0.6851024627685547 0 9
25.845272064208984 23.62369155883789 3.0391876697540283 0.34130069613456726 0 9
26.37451171875 23.676366806030273 3.0762956142425537 0.836733341217041 0 9
7.506796836853027 6.618144512176514 0.8686249852180481 0.8585562705993652 0 6
7.586835861206055 6.568593502044678 0.871025800704956 0.08846133202314377 0 6
24.151229858398438 20.53349494934082 2.751465320587158 0.7479932904243469 0 9
23.42802619934082 19.559062957763672 2.6489641666412354 0.6017428636550903 0 9
23.7652530670166 19.48124885559082 2.667212963104248 0.5976260304450989 0 9
23.920761108398438 19.252363204956055 2.665165424346924 0.5623745322227478 0 9
24.414491653442383 19.291288375854492 2.700775623321533 0.5549594759941101 0 9
24.92167854309082 19.33119010925293 2.737569570541382 0.5475001335144043 0 9
25.44283103942871 19.37220573425293 2.7756102085113525 0.5399969220161438 0 9
25.978710174560547 19.414316177368164 2.8149449825286865 0.5324512720108032 0 9
38.71531295776367 28.39470672607422 4.167243957519531 0.8904492259025574 0 9
39.136444091796875 28.166873931884766 4.185191631317139 0.8866304755210876 0 9
38.247615814208984 27.0093936920166 4.064056873321533 0.7786725759506226 0 9
21.23271369934082 14.710000038146973 2.241985321044922 0.723822832107544 0 9
21.48402214050293 14.600526809692383 2.254595994949341 0.719774603843689 0 9
21.73810577392578 14.489667892456055 2.267521858215332 0.7156723141670227 0 9
21.995019912719727 14.377460479736328 2.2807648181915283 0.7115165591239929 0 9
21.86931610107422 14.016737937927246 2.2545902729034424 0.3930237889289856 0 9
21.54701042175293 13.538866996765137 2.2087488174438477 0.4011812210083008 0 9
21.237558364868164 13.080039024353027 2.1649038791656494 0.40930575132369995 0 9
23.30122947692871 14.06412124633789 2.3623046875 0.8277325630187988 0 9
22.99150276184082 13.597089767456055 2.318437337875366 0.7788267135620117 0 9
23.839921951293945 13.8115816116333 2.3913917541503906 0.8176643252372742 0 9
34.66822052001953 19.671424865722656 3.4597368240356445 0.8336570262908936 0 9
23.175546646118164 12.876601219177246 2.301184892654419 0.8800972700119019 0 9
23.404022216796875 12.729960441589355 2.3124334812164307 0.8758170008659363 0 9
23.617284774780273 12.572577476501465 2.322258472442627 0.903998076915741 0 9
23.75863265991211 12.375449180603027 2.3251450061798096 0.5123313069343567 0 9
24.046308517456055 12.25218677520752 2.342440366744995 0.8962097764015198 0 9
24.26365089416504 12.089823722839355 2.3529484272003174 0.8922080397605896 0 9
24.482967376708984 11.92601490020752 2.3637354373931885 0.8881349563598633 0 9
23.917402267456055 11.386014938354492 2.2991764545440674 0.2599981725215912 0 9
23.252792358398438 10.814687728881836 2.2258594036102295 0.2685618996620178 0 9
29.037303924560547 13.18929672241211 2.768137216567993 0.5826544761657715 0 9
40.657127380371094 18.028886795043945 3.8602850437164307 0.5239531397819519 0 9
40.965545654296875 17.72738265991211 3.874300479888916 0.5303115844726562 0 9
39.18679428100586 16.5416202545166 3.6918840408325195 0.8339139223098755 0 9
35.19544982910156 14.48599624633789 3.3034684658050537 0.5804015398025513 0 9
35.69371032714844 14.31777286529541 3.338041305541992 0.5743910074234009 0 9
35.89152145385742 14.024453163146973 3.344625234603882 0.06644699722528458 0 9
36.0849609375 13.727988243103027 3.35103440284729 0.6427860856056213 0 9
35.83015441894531 13.26416015625 3.316187620162964 0.6495414972305298 0 9
37.1310920715332 13.368026733398438 3.4253485202789307 0.774466872215271 0 9
36.98320388793945 12.941015243530273 3.400851249694824 0.4121626019477844 0 9
36.489784240722656 12.401894569396973 3.3451080322265625 0.17152228951454163 0 9
37.15396499633789 12.25673770904541 3.3957743644714355 0.5469679832458496 0 9
37.76626968383789 12.083925247192383 3.441680908203125 0.72634357213974 0 9
37.57322311401367 11.651445388793945 3.414419412612915 0.7321418523788452 0 9
38.02888488769531 11.41958999633789 3.44637393951416 0.49686628580093384 0 9
42.57968521118164 12.370546340942383 3.848574161529541 0.9830533862113953 0 9
42.76197052001953 12.0083589553833 3.8551573753356934 0.981375515460968 0 9
48.257225036621094 12.15982437133789 4.319477558135986 0.34203654527664185 0 9
42.71043014526367 7.158222675323486 3.758814573287964 0.434195339679718 0 6
27.8526554107666 -7.55251932144165 2.504808187484741 0.7268773913383484 0 3
27.247167587280273 -8.988574028015137 2.4903180599212646 0.3264276087284088 0 3
26.4810733795166 -9.000195503234863 2.4275872707366943 0.3348633348941803 0 3
25.7525577545166 -9.01123046875 2.3681187629699707 0.3432718515396118 0 3
25.058847427368164 -9.021777153015137 2.3116812705993652 0.351652592420578 0 3
20.643260955810547 -7.642031192779541 1.910597324371338 0.3600054085254669 0 3
20.108924865722656 -7.650156021118164 1.8674207925796509 0.36832883954048157 0 3
19.59814453125 -7.657890319824219 1.8262962102890015 0.37662288546562195 0 3
19.109355926513672 -7.665331840515137 1.7870862483978271 0.38488611578941345 0 3
18.641054153442383 -7.672402381896973 1.749659538269043 0.3931187689304352 0 3
18.454999923706055 -7.790292739868164 1.7386894226074219 0.9118770956993103 0 3
18.457988739013672 -7.987480163574219 1.7456562519073486 0.9082388281822205 0 3
18.460996627807617 -8.186308860778809 1.752819299697876 0.9045268297195435 0 3
14.027558326721191 -6.371621131896973 1.3372575044631958 0.9007420539855957 0 3
18.46708869934082 -8.588945388793945 1.7677558660507202 0.8968852758407593 0 3
18.47017478942871 -8.792890548706055 1.7755331993103027 0.8929556012153625 0 3
18.47327995300293 -8.998652458190918 1.7835246324539185 0.8889542818069458 0 3
18.47638702392578 -9.206250190734863 1.791732907295227 0.884881317615509 0 3
18.479551315307617 -9.415839195251465 1.8001651763916016 0.880736768245697 0 3
18.48275375366211 -9.627402305603027 1.8088223934173584 0.8765214085578918 0 3
18.48597526550293 -9.841015815734863 1.8177103996276855 0.8722355961799622 0 3
18.4892578125 -10.05679702758789 1.8268332481384277 0.8678793907165527 0 3
18.492538452148438 -10.274725914001465 1.8362007141113281 0.8634535074234009 0 3
14.117382049560547 -8.010507583618164 1.4088562726974487 0.5047538876533508 0 3
14.032206535339355 -8.129530906677246 1.4075876474380493 0.5124437212944031 0 3
13.75341796875 -8.133749961853027 1.386880874633789 0.5200916528701782 0 3
13.487441062927246 -8.140761375427246 1.3673756122589111 0.6474730968475342 0 3
13.227128982543945 -8.146523475646973 1.3483433723449707 0.5366055369377136 0 3
12.971718788146973 -8.150683403015137 1.3297104835510254 0.5441216826438904 0 3
12.723261833190918 -8.15478515625 1.3116904497146606 0.5515971183776855 0 3
9.790234565734863 -6.399609088897705 1.0151976346969604 0.5576921105384827 0 3
9.744901657104492 -6.495566368103027 1.0165019035339355 0.8205328583717346 0 3
12.007402420043945 -8.160273551940918 1.2600969076156616 0.5724217891693115 0 3
11.783495903015137 -8.163652420043945 1.2442377805709839 0.5797174572944641 0 3
11.565116882324219 -8.166953086853027 1.2288715839385986 0.5869668126106262 0 3
11.35205078125 -8.170175552368164 1.2139744758605957 0.5941688418388367 0 3
11.132011413574219 -8.164472579956055 1.19821298122406 0.7943572402000427 0 3
10.941015243530273 -8.17642593383789 1.1855223178863525 0.6084283590316772 0 3
10.74257755279541 -8.179433822631836 1.1719316244125366 0.6154853701591492 0 3
10.548651695251465 -8.182363510131836 1.1587382555007935 0.6224923729896545 0 3
10.269980430603027 -8.11490249633789 1.1360856294631958 0.6294490098953247 0 3
10.173476219177246 -8.188066482543945 1.1334953308105469 0.6363555192947388 0 3
9.991913795471191 -8.190800666809082 1.1214152574539185 0.6432105302810669 0 3
9.722285270690918 -8.116738319396973 1.0992802381515503 0.755034863948822 0 3
9.640155792236328 -8.196151733398438 1.0982643365859985 0.6567648649215698 0 3
9.469648361206055 -8.198749542236328 1.0871851444244385 0.6634626388549805 0 3
9.263379096984863 -8.166815757751465 1.071869969367981 0.7372605204582214 0 3
9.206230163574219 -8.264472007751465 1.0738074779510498 0.6766975522041321 0 3
9.044355392456055 -8.266913414001465 1.063536524772644 0.6832337975502014 0 3
8.885527610778809 -8.269335746765137 1.0535444021224976 0.689713716506958 0 3
8.729589462280273 -8.271679878234863 1.0438200235366821 0.6961395144462585 0 3
8.442245483398438 -8.144453048706055 1.0181580781936646 0.7025083303451538 0 3
8.364276885986328 -8.215507507324219 1.0176161527633667 0.7088214755058289 0 3
24.6524600982666 24.652441024780273 2.736612558364868 0.1207907497882843 0 9
25.17986297607422 24.73189353942871 2.7704081535339355 0.766510546207428 0 9
25.5201358795166 24.61994171142578 2.7834246158599854 0.7629272937774658 0 9
25.83968734741211 24.484315872192383 2.7941925525665283 0.24443671107292175 0 9
25.18960952758789 23.442792892456055 2.701028347015381 0.2528676986694336 0 9
25.818904876708984 23.599512100219727 2.7456798553466797 0.3418827950954437 0 9
26.53644561767578 23.82173728942871 2.799133777618408 0.8321942090988159 0 9
7.506503582000732 6.617831707000732 0.7855055332183838 0.8591806888580322 0 6
7.585859298706055 6.567773342132568 0.7876102924346924 0.4875126779079437 0 6
24.162109375 20.542715072631836 2.489408016204834 0.7481664419174194 0 9
24.154882431030273 20.16584014892578 2.469911575317383 0.7540719509124756 0 9
24.14775276184082 19.794824600219727 2.450915575027466 0.7599163055419922 0 9
23.9073429107666 19.241580963134766 2.40889048576355 0.598828911781311 0 9
24.438182830810547 19.309980392456055 2.444812774658203 0.5547999143600464 0 9
24.946151733398438 19.350175857543945 2.4781577587127686 0.5473353862762451 0 9
25.468183517456055 19.391483306884766 2.5126230716705322 0.5398274064064026 0 9
26.004980087280273 19.433944702148438 2.5482728481292725 0.5322761535644531 0 9
38.99281311035156 28.598222732543945 3.7956578731536865 0.20949536561965942 0 9
38.023651123046875 27.365976333618164 3.677260637283325 0.7787938117980957 0 9
38.38029098510742 27.103065490722656 3.688077211380005 0.8342596888542175 0 9
26.060468673706055 18.054668426513672 2.4885568618774414 0.7036002278327942 0 9
21.62919807434082 14.699159622192383 2.0527186393737793 0.7154320478439331 0 9
21.8858585357666 14.588085174560547 2.0645663738250732 0.711327075958252 0 9
22.14533233642578 14.475703239440918 2.076709747314453 0.7071686387062073 0 9
21.83902359008789 13.997343063354492 2.0361216068267822 0.3938365876674652 0 9
21.517772674560547 13.520487785339355 1.9947706460952759 0.40200045704841614 0 9
21.209354400634766 13.062597274780273 1.9552247524261475 0.4101305902004242 0 9
23.299589157104492 14.063124656677246 2.136201858520508 0.8283555507659912 0 9
23.567304611206055 13.937597274780273 2.1491847038269043 0.823350727558136 0 9
23.838260650634766 13.810585975646973 2.162503480911255 0.8182796835899353 0 9
37.63816452026367 21.356658935546875 3.396857261657715 0.22175253927707672 0 9
35.07517623901367 19.488262176513672 3.1496288776397705 0.8287125825881958 0 9
28.122459411621094 15.296504020690918 2.512864112854004 0.6257217526435852 0 9
27.95134735107422 14.879862785339355 2.4855432510375977 0.6326006054878235 0 9
27.78386688232422 14.472147941589355 2.4589953422546387 0.6394299268722534 0 9
27.619842529296875 14.07298755645752 2.4332032203674316 0.6462082862854004 0 9
27.459197998046875 13.68203067779541 2.4081318378448486 0.6529361009597778 0 9
27.634803771972656 13.461288452148438 2.4128384590148926 0.7390630841255188 0 9
28.074237823486328 13.364940643310547 2.4406344890594482 0.5980374217033386 0 9
28.531171798706055 13.269648551940918 2.469902992248535 0.5909507274627686 0 9
40.155487060546875 18.239471435546875 3.4618945121765137 0.5287259221076965 0 9
40.87076187133789 18.123613357543945 3.509394407272339 0.5215696692466736 0 9
41.01349639892578 17.748125076293945 3.507823944091797 0.5300527215003967 0 9
34.959510803222656 14.757206916809082 2.9785919189453125 0.5825334787368774 0 9
35.453983306884766 14.592402458190918 3.0094401836395264 0.576562225818634 0 9
35.95863342285156 14.424081802368164 3.0411601066589355 0.5705475807189941 0 9
36.3205451965332 14.192109107971191 3.060875177383423 0.6368435621261597 0 9
36.0607795715332 13.718789100646973 3.0284814834594727 0.64365553855896 0 9
35.806365966796875 13.25537109375 2.997001886367798 0.6504157781600952 0 9
36.970096588134766 13.310038566589355 3.084280252456665 0.14024879038333893 0 9
37.651737213134766 13.174941062927246 3.131160259246826 0.7667168974876404 0 9
37.23105239868164 12.653788566589355 3.086599588394165 0.4109684228897095 0 9
37.56062316894531 12.39085865020752 3.1045868396759033 0.5414150953292847 0 9
37.88740158081055 12.122636795043945 3.1224687099456787 0.7245153188705444 0 9
37.69279098510742 11.688495635986328 3.097658634185791 0.7303178310394287 0 9
37.50117111206055 11.26113224029541 3.0734801292419434 0.7360629439353943 0 9
48.38835906982422 11.27310562133789 3.899921178817749 0.33750268816947937 0 9
42.70896530151367 7.15798807144165 3.399168014526367 0.4345061480998993 0 6
27.852773666381836 -7.552538871765137 2.2652344703674316 0.7273688912391663 0 3
23.054882049560547 -7.605566024780273 1.905608892440796 0.3266462981700897 0 3
22.406679153442383 -7.615429401397705 1.857602596282959 0.33508726954460144 0 3
21.790233612060547 -7.62478494644165 1.8120973110198975 0.34350183606147766 0 3
21.20326042175293 -7.633652210235596 1.7689100503921509 0.3518882691860199 0 3
20.643495559692383 -7.642128944396973 1.727869987487793 0.3602469861507416 0 3
20.109140396118164 -7.650234222412109 1.6888196468353271 0.36857596039772034 0 3
19.598358154296875 -7.65798807144165 1.651628851890564 0.3768754303455353 0 3
19.109569549560547 -7.665429592132568 1.6161686182022095 0.38514479994773865 0 3
18.6412296295166 -7.672519207000732 1.5823218822479248 0.3933829367160797 0 3
18.454999923706055 -7.790273189544678 1.5723868608474731 0.9124976992607117 0 3
18.457988739013672 -7.987480163574219 1.5786885023117065 0.9088566899299622 0 3
18.460996627807617 -8.186308860778809 1.5851670503616333 0.9051421880722046 0 3
14.027558326721191 -6.371621131896973 1.2093501091003418 0.9013550877571106 0 3
18.46708869934082 -8.588945388793945 1.5986722707748413 0.8974956274032593 0 3
18.47017478942871 -8.792890548706055 1.6057069301605225 0.8935633301734924 0 3
18.47327995300293 -8.998652458190918 1.6129347085952759 0.889559268951416 0 3
18.476425170898438 -9.206269264221191 1.6203577518463135 0.8854833245277405 0 3
18.479589462280273 -9.41585922241211 1.627983570098877 0.8813361525535583 0 3
18.482791900634766 -9.627421379089355 1.635810375213623 0.877117931842804 0 3
18.48599624633789 -9.841034889221191 1.6438498497009277 0.8728291988372803 0 3
18.489276885986328 -10.05679702758789 1.652100920677185 0.8684699535369873 0 3
18.492557525634766 -10.27474594116211 1.660570502281189 0.8640410304069519 0 3
14.117538452148438 -8.01058578491211 1.2741090059280396 0.5050938725471497 0 3
14.032343864440918 -8.129609107971191 1.2729618549346924 0.5127888321876526 0 3
13.753554344177246 -8.1338472366333 1.2542365789413452 0.5204418301582336 0 3
13.487558364868164 -8.140820503234863 1.236594319343567 0.6479101181030273 0 3
13.230448722839355 -8.148554801940918 1.2196799516677856 0.5368369221687317 0 3
12.974882125854492 -8.15267562866211 1.2028189897537231 0.5443587303161621 0 3
12.72630786895752 -8.156757354736328 1.186514973640442 0.5518398284912109 0 3
9.790292739868164 -6.399648189544678 0.9181153774261475 0.5580681562423706 0 3
9.744901657104492 -6.495566368103027 0.9192731976509094 0.8210910558700562 0 3
12.007499694824219 -8.16031265258789 1.1395747661590576 0.5728076100349426 0 3
11.78359317779541 -8.163710594177246 1.1252342462539673 0.5801081657409668 0 3
11.56517505645752 -8.1669921875 1.1113356351852417 0.587363064289093 0 3
11.352168083190918 -8.17025375366211 1.0978660583496094 0.5945692658424377 0 3
11.13206958770752 -8.164511680603027 1.0836368799209595 0.7948975563049316 0 3
10.94107437133789 -8.176465034484863 1.0721360445022583 0.6088389754295349 0 3
10.742636680603027 -8.179472923278809 1.0598435401916504 0.6159007549285889 0 3
10.548690795898438 -8.182421684265137 1.047913670539856 0.6229124665260315 0 3
10.270038604736328 -8.114960670471191 1.0274244546890259 0.6298745274543762 0 3
10.173554420471191 -8.188105583190918 1.0250822305679321 0.6367849707603455 0 3
9.992011070251465 -8.190858840942383 1.0141569375991821 0.6436445116996765 0 3
9.722285270690918 -8.116738319396973 0.9941368103027344 0.755548357963562 0 3
9.640214920043945 -8.196229934692383 0.9932267665863037 0.6572087407112122 0 3
9.469687461853027 -8.1987886428833 0.9832050800323486 0.663910984992981 0 3
9.263398170471191 -8.166796684265137 0.9693583250045776 0.7377619743347168 0 3
9.206328392028809 -8.264511108398438 0.971107006072998 0.6771548986434937 0 3
9.044413566589355 -8.266952514648438 0.9618162512779236 0.6836946606636047 0 3
8.885527610778809 -8.269354820251465 0.9527787566184998 0.6901797652244568 0 3
8.729628562927246 -8.271738052368164 0.9439836144447327 0.6966099143028259 0 3
8.44228458404541 -8.144511222839355 0.9207770824432373 0.7029829621315002 0 3
8.364355087280273 -8.215546607971191 0.9202808737754822 0.7093003988265991 0 3
25.13620948791504 25.13623046875 2.4955782890319824 0.33966153860092163 0 9
25.626737594604492 25.170801162719727 2.521749258041382 0.9714259505271912 0 9
25.69673728942871 24.790292739868164 2.5066332817077637 0.1130223423242569 0 9
26.054080963134766 24.687421798706055 2.5197792053222656 0.2425743192434311 0 9
25.391620635986328 23.630762100219727 2.435091972351074 0.2510100305080414 0 9
25.792558670043945 23.575448989868164 2.4531540870666504 0.3424416184425354 0 9
26.657440185546875 23.930370330810547 2.5148816108703613 0.3340362012386322 0 9
7.506113052368164 6.617558479309082 0.7025019526481628 0.8597461581230164 0 6
7.585175514221191 6.56716775894165 0.7043555974960327 0.4878555238246918 0 6
24.17298698425293 20.551971435546875 2.2274539470672607 0.7482885122299194 0 9
24.16566276550293 20.174842834472656 2.2100026607513428 0.754197359085083 0 9
24.158437728881836 19.803592681884766 2.1930015087127686 0.7600454688072205 0 9
24.29718780517578 19.55533218383789 2.1895716190338135 0.6511557698249817 0 9
24.461854934692383 19.328710556030273 2.1886916160583496 0.5546024441719055 0 9
24.970643997192383 19.369197845458984 2.2185707092285156 0.5471336841583252 0 9
37.609588623046875 27.583749771118164 3.274306058883667 0.21733343601226807 0 9
38.2126350402832 27.502031326293945 3.3051843643188477 0.21530300378799438 0 9
38.41863250732422 27.130136489868164 3.301798105239868 0.27983564138412476 0 9
26.186542510986328 18.142030715942383 2.236457109451294 0.7006417512893677 0 9
21.776113510131836 14.798964500427246 1.84836745262146 0.7110410332679749 0 9
22.035350799560547 14.687772750854492 1.85910165309906 0.7069333791732788 0 9
22.142675399780273 14.473944664001465 1.8571213483810425 0.3864232003688812 0 9
21.808847427368164 13.978007316589355 1.818529725074768 0.3946234881877899 0 9
21.488651275634766 13.502206802368164 1.7816513776779175 0.40279123187065125 0 9
23.03349494934082 14.186132431030273 1.8991053104400635 0.8338624238967896 0 9
23.2979679107666 14.062129020690918 1.9104212522506714 0.8289217352867126 0 9
23.56560516357422 13.936640739440918 1.9220377206802368 0.8239139914512634 0 9
23.836523056030273 13.809609413146973 1.933944821357727 0.8188400864601135 0 9
37.6779670715332 21.37921905517578 3.0412542819976807 0.295762300491333 0 9
36.88718795776367 20.495058059692383 2.9624602794647217 0.41365936398506165 0 9
37.54755783081055 20.42302703857422 3.0006518363952637 0.4083945155143738 0 9
38.033748626708984 20.24722671508789 3.0248637199401855 0.9135493636131287 0 9
37.718299865722656 19.646875381469727 2.985626220703125 0.2977008521556854 0 9
38.841209411621094 19.790605545043945 3.060333251953125 0.9276318550109863 0 9
35.770957946777344 17.823593139648438 2.8056981563568115 0.28317031264305115 0 9
38.23568344116211 18.62517547607422 2.9857890605926514 0.49330660700798035 0 9
28.038496017456055 13.347909927368164 2.1800529956817627 0.5991676449775696 0 9
39.87791061401367 18.546934127807617 3.087526798248291 0.6394833922386169 0 9
40.364471435546875 18.334375381469727 3.112333297729492 0.5263110995292664 0 9
41.04523468017578 18.20099639892578 3.1520965099334717 0.6263826489448547 0 9
41.43859100341797 17.932109832763672 3.1698217391967773 0.4677433967590332 0 9
35.215213775634766 14.865117073059082 2.6834514141082764 0.5786584615707397 0 9
35.71597671508789 14.7002534866333 2.711444139480591 0.5726835131645203 0 9
36.22720718383789 14.531777381896973 2.7402472496032715 0.5666653513908386 0 9
36.29599380493164 14.182499885559082 2.735707998275757 0.637665331363678 0 9
36.03662109375 13.70962905883789 2.7067711353302 0.6444816589355469 0 9
35.78269577026367 13.246562004089355 2.6786584854125977 0.6512460708618164 0 9
42.01205062866211 15.125311851501465 3.134697198867798 0.80283123254776 0 9
37.78105545043945 13.220155715942383 2.8100335597991943 0.7210671901702881 0 9
38.20423889160156 12.98453140258789 2.832725763320923 0.7622812390327454 0 9
37.97574234008789 12.527772903442383 2.807330369949341 0.5358251929283142 0 9
38.00908279418945 12.16162109375 2.8016154766082764 0.7226378321647644 0 9
38.74755859375 12.015565872192383 2.847984552383423 0.4869466722011566 0 9
38.24888610839844 11.485663414001465 2.803638219833374 0.49464839696884155 0 9
37.76540756225586 10.971875190734863 2.7608697414398193 0.5023112893104553 0 9
48.14894485473633 11.217265129089355 3.470714569091797 0.339388906955719 0 9
42.70751953125 7.157695293426514 3.0400102138519287 0.43478769063949585 0 6
27.852949142456055 -7.552577972412109 2.02596378326416 0.7278110980987549 0 3
26.023866653442383 -7.56066370010376 1.9024943113327026 0.2928001880645752 0 3
25.21872901916504 -7.57287073135376 1.8485333919525146 0.30134788155555725 0 3
24.4580078125 -7.584414005279541 1.7976841926574707 0.30987095832824707 0 3
23.737831115722656 -7.595292568206787 1.7497000694274902 0.31836986541748047 0 3
23.05517578125 -7.605663776397705 1.7043399810791016 0.326842337846756 0 3
22.406951904296875 -7.615488052368164 1.6614081859588623 0.33528855443000793 0 3
21.79052734375 -7.624843597412109 1.6207057237625122 0.3437080979347229 0 3
21.203495025634766 -7.633730411529541 1.5820814371109009 0.352099746465683 0 3
20.643749237060547 -7.642226219177246 1.5453733205795288 0.3604636788368225 0 3
20.109355926513672 -7.650331974029541 1.5104502439498901 0.3687979280948639 0 3
19.598573684692383 -7.658066272735596 1.477184534072876 0.3771023154258728 0 3
19.109785079956055 -7.665507793426514 1.4454724788665771 0.38537660241127014 0 3
18.64142608642578 -7.672577857971191 1.4151970148086548 0.39361995458602905 0 3
18.455018997192383 -7.790292739868164 1.40630042552948 0.9130561947822571 0 3
18.4580078125 -7.987499713897705 1.4119340181350708 0.9094130396842957 0 3
18.461015701293945 -8.186327934265137 1.4177292585372925 0.905696451663971 0 3
14.027597427368164 -6.371640682220459 1.0816099643707275 0.9019066095352173 0 3
18.46710968017578 -8.588945388793945 1.4298057556152344 0.8980449438095093 0 3
18.47021484375 -8.792909622192383 1.4360984563827515 0.8941102623939514 0 3
18.47332000732422 -8.998671531677246 1.4425626993179321 0.8901036381721497 0 3
18.476444244384766 -9.206289291381836 1.4492014646530151 0.8860253691673279 0 3
18.4796085357666 -9.415878295898438 1.4560219049453735 0.8818755149841309 0 3
18.482772827148438 -9.627402305603027 1.4630247354507446 0.8776546120643616 0 3
18.48601531982422 -9.841034889221191 1.4702128171920776 0.8733633756637573 0 3
18.489276885986328 -10.05679702758789 1.477591633796692 0.8690016865730286 0 3
18.492557525634766 -10.27474594116211 1.4851667881011963 0.8645697832107544 0 3
14.117616653442383 -8.010624885559082 1.1395338773727417 0.5053994655609131 0 3
14.032441139221191 -8.129668235778809 1.1385084390640259 0.5130990743637085 0 3
13.753632545471191 -8.133906364440918 1.121760368347168 0.520757257938385 0 3
13.487616539001465 -8.140878677368164 1.105980396270752 0.6483032703399658 0 3
13.23373031616211 -8.150586128234863 1.0911189317703247 0.5370326042175293 0 3
