ply
format ascii 1.0
element vertex 606
property float32 x
property float32 y
property float32 z
property float32 CosAngle
property uint32 ObjIdx
property uint32 ObjTag
end_header
35.45330047607422 31.826366424560547 3.3446872234344482 0.31873568892478943 0 9
36.58864974975586 32.257225036621094 3.4243407249450684 0.9238442778587341 0 9
36.64566421508789 31.727460861206055 3.4028806686401367 0.8297573924064636 0 9
36.7057991027832 31.20747947692871 3.3823180198669434 0.564827024936676 0 9
36.79541015625 30.718944549560547 3.365032196044922 0.8390910029411316 0 9
36.86912155151367 30.223045349121094 3.3468267917633057 0.8436554670333862 0 9
41.822654724121094 26.278905868530273 3.467571258544922 0.5163896679878235 0 9
42.62564468383789 24.695018768310547 3.458376884460449 0.5278730392456055 0 9
43.123985290527344 24.4693546295166 3.480844736099243 0.6991543173789978 0 9
43.4108772277832 24.119647979736328 3.4863884449005127 0.8597946763038635 0 9
44.43388748168945 22.640155792236328 3.500981092453003 0.5569432377815247 0 9
44.35900115966797 22.10271453857422 3.4793126583099365 0.5604124665260315 0 9
36.457244873046875 17.35576057434082 2.834630250930786 0.7785614728927612 0 9
35.2936897277832 16.414901733398438 2.7325966358184814 0.5083590149879456 0 9
35.981815338134766 16.343690872192383 2.7743988037109375 0.5006988048553467 0 9
33.63017654418945 14.912870407104492 2.5826544761657715 0.7651322484016418 0 9
34.01759719848633 14.720742225646973 2.602153778076172 0.7593985199928284 0 9
35.23611068725586 14.873964309692383 2.6850368976593018 0.8488135933876038 0 9
36.752967834472656 15.127031326293945 2.7901599407196045 0.887108564376831 0 9
36.723751068115234 14.73095703125 2.777801752090454 0.8910579681396484 0 9
35.38658142089844 13.827167510986328 2.667161703109741 0.9740238785743713 0 9
35.28810501098633 13.424843788146973 2.650547981262207 0.9805987477302551 0 9
35.37677764892578 13.096327781677246 2.648271083831787 0.9814412593841553 0 9
35.465370178222656 12.768320083618164 2.646214246749878 0.9822041392326355 0 9
35.55378723144531 12.440800666809082 2.644376754760742 0.9828872084617615 0 9
35.508670806884766 12.068398475646973 2.6328542232513428 0.02830098383128643 0 9
36.266326904296875 11.9638671875 2.680962562561035 0.35055792331695557 0 9
37.21363067626953 11.907089233398438 2.7429819107055664 0.342631995677948 0 9
37.26869201660156 11.55697250366211 2.7392795085906982 0.693077564239502 0 9
37.0280647277832 11.119023323059082 2.7141530513763428 0.699495255947113 0 9
36.79179763793945 10.689043045043945 2.6896941661834717 0.7058565616607666 0 9
38.18515396118164 10.723124504089355 2.784403085708618 0.5965258479118347 0 9
39.90835952758789 10.821523666381836 2.9028613567352295 0.18108561635017395 0 9
40.524314880371094 10.598983764648438 2.9406237602233887 0.30239513516426086 0 9
41.12687301635742 10.363085746765137 2.9774816036224365 0.9972031116485596 0 9
40.069061279296875 9.7149019241333 2.894468069076538 0.8398294448852539 0 9
39.765625 9.264238357543945 2.8664276599884033 0.23267517983913422 0 9
38.41468811035156 8.586718559265137 2.7633769512176514 0.24135152995586395 0 9
38.94615173339844 8.33919906616211 2.7961175441741943 0.9274343848228455 0 9
39.1071662902832 8.007265090942383 2.8023996353149414 0.9253536462783813 0 9
39.26898193359375 7.673808574676514 2.808945655822754 0.9231970906257629 0 9
26.432479858398438 -2.7382030487060547 1.8655728101730347 0.28401732444763184 0 6
44.06464767456055 -6.170468807220459 3.123664379119873 0.3065209686756134 0 3
42.94476318359375 -6.407187461853027 3.0482170581817627 0.3150418996810913 0 3
41.84601593017578 -6.627753734588623 2.974331855773926 0.9431068301200867 0 3
40.517967224121094 -6.790761470794678 2.884129524230957 0.3314155340194702 0 3
39.45347595214844 -6.976992130279541 2.8127238750457764 0.3404153883457184 0 3
38.69425582885742 -7.201484203338623 2.763096332550049 0.3502929210662842 0 3
13.28726577758789 -2.5965428352355957 0.9504511952400208 0.7589823603630066 1044 7
13.262909889221191 -2.715585947036743 0.9504113793373108 0.8791040778160095 1044 7
30.478904724121094 -6.52615213394165 2.1882143020629883 0.37382471561431885 0 3
29.759490966796875 -6.652050495147705 2.1407601833343506 0.3821106553077698 0 3
29.070526123046875 -6.772539138793945 2.0954887866973877 0.3903660476207733 0 3
28.410018920898438 -6.888144493103027 2.0522525310516357 0.3985898494720459 0 3
27.776229858398438 -6.998984336853027 2.0109269618988037 0.40678128600120544 0 3
27.167421340942383 -7.105527400970459 1.9713891744613647 0.4149400591850281 0 3
26.58201026916504 -7.207929611206055 1.9335250854492188 0.4230654239654541 0 3
26.018632888793945 -7.306503772735596 1.8972411155700684 0.43115657567977905 0 3
25.475976943969727 -7.401444911956787 1.8624504804611206 0.4392131268978119 0 3
24.95281219482422 -7.492968559265137 1.8290377855300903 0.44723445177078247 0 3
19.755077362060547 -6.125996112823486 1.452017068862915 0.4165503978729248 0 3
19.348730087280273 -6.19091796875 1.4261760711669922 0.46316879987716675 0 3
18.96839714050293 -6.257460594177246 1.402227759361267 0.47107991576194763 0 3
18.3975772857666 -6.252792835235596 1.3641207218170166 0.47985100746154785 0 3
18.046092987060547 -6.314589500427246 1.3422105312347412 0.48768502473831177 0 3
17.70574188232422 -6.374453067779541 1.3210946321487427 0.49547910690307617 0 3
17.565977096557617 -6.502812385559082 1.3149698972702026 0.5023382306098938 0 3
17.242090225219727 -6.559492111206055 1.2950823307037354 0.510053277015686 0 3
7.105663776397705 -2.776503801345825 0.5355688333511353 0.2185155600309372 0 6
7.027734279632568 -2.819023370742798 0.5315814018249512 0.9753269553184509 0 6
16.151426315307617 -6.647695064544678 1.2261630296707153 0.5338408350944519 0 3
15.866796493530273 -6.697734355926514 1.209070086479187 0.5413872003555298 0 3
15.623945236206055 -6.761074066162109 1.1951419115066528 0.8329899311065674 0 3
15.485448837280273 -6.866835594177246 1.1892154216766357 0.5554586052894592 0 3
15.027910232543945 -6.826015472412109 1.1587378978729248 0.5679373145103455 0 3
14.878007888793945 -6.919667720794678 1.1519213914871216 0.5702416896820068 0 3
14.627421379089355 -6.963515281677246 1.1373156309127808 0.57756507396698 0 3
14.383124351501465 -7.006249904632568 1.1231650114059448 0.5848414897918701 0 3
14.144804000854492 -7.047929763793945 1.1094504594802856 0.5920709371566772 0 3
13.912245750427246 -7.088632583618164 1.096153974533081 0.5992528200149536 0 3
13.685155868530273 -7.128359317779541 1.0832586288452148 0.6063863635063171 0 3
13.395644187927246 -7.131152153015137 1.0653671026229858 0.6134704351425171 0 3
13.190683364868164 -7.174726486206055 1.0541473627090454 0.7805041670799255 0 3
13.10775375366211 -7.28283166885376 1.0527011156082153 0.6274911165237427 0 3
12.758671760559082 -7.239511489868164 1.0298442840576172 0.6346319317817688 0 3
12.55826187133789 -7.275605201721191 1.018898844718933 0.6472723484039307 0 3
12.51058578491211 -7.398730278015137 1.0203742980957031 0.6481409072875977 0 3
12.314824104309082 -7.432968616485596 1.009810447692871 0.6549211144447327 0 3
12.1231050491333 -7.466523170471191 0.9995467662811279 0.6616474390029907 0 3
11.791522979736328 -7.409081935882568 0.9776493906974792 0.6614251136779785 0 3
11.609335899353027 -7.440781116485596 0.9680419564247131 0.6750661134719849 0 3
11.556640625 -7.554218769073486 0.9692656993865967 0.6815059781074524 0 3
11.379687309265137 -7.585175514221191 0.9600924253463745 0.6880158185958862 0 3
11.205976486206055 -7.615605354309082 0.9511705040931702 0.6944714188575745 0 3
11.035527229309082 -7.645429611206055 0.9424847364425659 0.7008697986602783 0 3
10.749979972839355 -7.59130859375 0.9238857626914978 0.7074168920516968 0 3
10.587324142456055 -7.619823932647705 0.9157459735870361 0.7137023210525513 0 3
10.55458927154541 -7.740976333618164 0.9188882112503052 0.719725489616394 0 3
10.395586013793945 -7.768788814544678 0.9110766649246216 0.72589510679245 0 3
10.239218711853027 -7.796152114868164 0.9034712314605713 0.7320067882537842 0 3
10.08544921875 -7.823046684265137 0.896061360836029 0.7380592226982117 0 3
9.934160232543945 -7.849511623382568 0.8888442516326904 0.744052529335022 0 3
9.667597770690918 -7.78087854385376 0.8712090849876404 0.7501823306083679 0 3
9.524550437927246 -7.807675838470459 0.8645995855331421 0.6503861546516418 0 3
9.483085632324219 -7.917069911956787 0.8672518730163574 0.7616701722145081 0 3
9.341113090515137 -7.94189453125 0.8607537746429443 0.7674208283424377 0 3
9.201250076293945 -7.966367244720459 0.8544203042984009 0.7731091976165771 0 3
9.063437461853027 -7.990488052368164 0.8482484221458435 0.7787352800369263 0 3
8.927557945251465 -8.014277458190918 0.842230498790741 0.7842990756034851 0 3
8.794198989868164 -8.03824234008789 0.8364213109016418 0.815144419670105 0 3
8.667187690734863 -8.066132545471191 0.8311929106712341 0.8202718496322632 0 3
8.541738510131836 -8.09365177154541 0.8260972499847412 0.8253323435783386 0 3
7.720351219177246 -7.44802713394165 0.7530949115753174 0.2902325391769409 0 3
7.326737880706787 -7.196367263793945 0.7209826707839966 0.5781150460243225 0 3
33.05927658081055 33.05925750732422 2.894995927810669 0.5887559056282043 0 9
32.951541900634766 32.36517333984375 2.8600075244903564 0.5959597229957581 0 9
32.84636688232422 31.68767547607422 2.826078176498413 0.6031147837638855 0 9
34.12990188598633 32.33953094482422 2.911425828933716 0.8274533748626709 0 9
34.69761657714844 32.29136657714844 2.9350075721740723 0.7865829467773438 0 9
36.601932525634766 31.68958854675293 2.997870445251465 0.8312020301818848 0 9
36.67734146118164 31.183319091796875 2.9810032844543457 0.8359052538871765 0 9
43.158748626708984 25.003847122192383 3.0885472297668457 0.6953834295272827 0 9
43.17445373535156 24.497987747192383 3.0738158226013184 0.5241379141807556 0 9
43.50617218017578 24.172597885131836 3.081855297088623 0.8583789467811584 0 9
34.71009826660156 16.524003982543945 2.3804104328155518 0.5150080919265747 0 9
35.38077926635742 16.45539093017578 2.4161815643310547 0.5073838829994202 0 9
36.07195281982422 16.384647369384766 2.4532454013824463 0.4997195899486542 0 9
36.66658020019531 16.259315490722656 2.483654499053955 0.7841858267784119 0 9
36.791561126708984 15.921113014221191 2.4823436737060547 0.8799665570259094 0 9
36.76191329956055 15.518046379089355 2.4708480834960938 0.8840615749359131 0 9
36.732540130615234 15.118632316589355 2.4596457481384277 0.888085126876831 0 9
36.70343780517578 14.722811698913574 2.4487524032592773 0.8920367956161499 0 9
40.80915832519531 15.946015357971191 2.7130157947540283 0.855334460735321 0 9
35.25830078125 13.413515090942383 2.335895299911499 0.9819625616073608 0 9
35.56488037109375 13.165937423706055 2.3482818603515625 0.9763137102127075 0 9
36.55384826660156 12.058730125427246 2.3834452629089355 0.34799009561538696 0 9
37.51556396484375 12.003690719604492 2.4390313625335693 0.34005942940711975 0 9
37.2734375 11.558456420898438 2.4164440631866455 0.6933664083480835 0 9
37.032752990722656 11.120429039001465 2.3942744731903076 0.6997876167297363 0 9
36.79640579223633 10.690370559692383 2.3726909160614014 0.7061524391174316 0 9
39.80697250366211 10.794042587280273 2.5539159774780273 0.18164567649364471 0 9
41.08507537841797 10.745644569396973 2.6296160221099854 0.9964627623558044 0 9
41.15058517456055 10.36904239654541 2.6277434825897217 0.9971722960472107 0 9
41.21595764160156 9.992948532104492 2.626085042953491 0.9978017210960388 0 9
39.887168884277344 9.2925386428833 2.536007881164551 0.23209260404109955 0 9
38.70656204223633 8.651952743530273 2.4559035301208496 0.9318522214889526 0 9
41.07771301269531 8.795605659484863 2.601240873336792 0.8247080445289612 0 9
41.410606384277344 8.47884750366211 2.6173923015594482 0.8196176886558533 0 9
39.40486145019531 7.700331687927246 2.486154317855835 0.9145575761795044 0 9
26.429725646972656 -2.7378904819488525 1.6453194618225098 0.2842017710208893 0 6
44.06341552734375 -6.170292854309082 2.755091905593872 0.3066966235637665 0 3
42.94376754760742 -6.407050609588623 2.6885364055633545 0.31522077322006226 0 3
41.84357452392578 -6.627382755279541 2.6233105659484863 0.9436765313148499 0 3
40.51710891723633 -6.79064416885376 2.5438456535339355 0.33160310983657837 0 3
39.45263671875 -6.97683572769165 2.480862617492676 0.3406080901622772 0 3
38.71189498901367 -7.204784870147705 2.4382567405700684 0.3503238260746002 0 3
13.281561851501465 -2.595410108566284 0.8379672169685364 0.9155339002609253 1044 7
13.259218215942383 -2.7148241996765137 0.8380621075630188 0.9799361824989319 1044 7
30.478084564208984 -6.526015281677246 1.9300163984298706 0.3740386962890625 0 3
29.758710861206055 -6.651875019073486 1.8881707191467285 0.38232898712158203 0 3
29.06980323791504 -6.772382736206055 1.8482396602630615 0.3905884921550751 0 3
28.40933609008789 -6.887948989868164 1.810111403465271 0.39881694316864014 0 3
27.31312370300293 -6.882304668426514 1.744130253791809 0.4070122539997101 0 3
26.714433670043945 -6.987050533294678 1.7098357677459717 0.4151754379272461 0 3
26.13880729675293 -7.087753772735596 1.6769976615905762 0.4233052730560303 0 3
25.584823608398438 -7.18468713760376 1.6455281972885132 0.43140095472335815 0 3
25.346914291381836 -7.363964557647705 1.6344131231307983 0.7622591853141785 0 3
24.952245712280273 -7.49279260635376 1.6132323741912842 0.4474881887435913 0 3
19.75470733642578 -6.125898361206055 1.2807012796401978 0.4167848825454712 0 3
19.348339080810547 -6.190781116485596 1.2579069137573242 0.46343114972114563 0 3
18.763944625854492 -6.190000057220459 1.2234783172607422 0.4814002513885498 0 3
18.40105438232422 -6.253984451293945 1.2034292221069336 0.4800216257572174 0 3
18.04945182800293 -6.315781116485596 1.1840922832489014 0.4878595471382141 0 3
17.707244873046875 -6.375 1.165352702140808 0.48533403873443604 0 3
17.565624237060547 -6.502695083618164 1.1598238945007324 0.502622127532959 0 3
17.241758346557617 -6.55935525894165 1.1422829627990723 0.5103409290313721 0 3
7.104648113250732 -2.7760937213897705 0.47232145071029663 0.21866540610790253 0 6
7.027050495147705 -2.8187499046325684 0.4688255190849304 0.9759536981582642 0 6
16.345487594604492 -6.727578163146973 1.0945096015930176 0.533249020576477 0 3
15.866308212280273 -6.697499752044678 1.066405177116394 0.5331581234931946 0 3
15.62289047241211 -6.760624885559082 1.0540838241577148 0.8334993720054626 0 3
15.485214233398438 -6.86669921875 1.0489100217819214 0.555770754814148 0 3
15.058730125427246 -6.839999675750732 1.0241405963897705 0.5631896257400513 0 3
14.877734184265137 -6.91955041885376 1.0160167217254639 0.5705625414848328 0 3
14.627225875854492 -6.96337890625 1.003132939338684 0.5778892636299133 0 3
14.382890701293945 -7.006113052368164 0.9906518459320068 0.5851700901985168 0 3
14.144609451293945 -7.047812461853027 0.9785546660423279 0.5924034714698792 0 3
13.912031173706055 -7.088515281677246 0.9668276906013489 0.5995890498161316 0 3
13.684921264648438 -7.128261566162109 0.9554561972618103 0.606726348400116 0 3
13.39540958404541 -7.131034851074219 0.9396726489067078 0.6138150691986084 0 3
13.189764976501465 -7.174218654632568 0.9297494292259216 0.7809863090515137 0 3
13.107558250427246 -7.28271484375 0.9285022020339966 0.6278429627418518 0 3
12.758906364440918 -7.239648342132568 0.9083734154701233 0.6349656581878662 0 3
12.557207107543945 -7.27501916885376 0.8986275792121887 0.6418527960777283 0 3
12.510371208190918 -7.398632526397705 0.8999896049499512 0.6485042572021484 0 3
12.314648628234863 -7.432870864868164 0.8906718492507935 0.655287504196167 0 3
12.122929573059082 -7.46642541885376 0.8816174268722534 0.6620180010795593 0 3
11.791483879089355 -7.409081935882568 0.8623168468475342 0.6687982678413391 0 3
11.609511375427246 -7.44091796875 0.8538579940795898 0.675422728061676 0 3
11.55648422241211 -7.554121017456055 0.8549096584320068 0.6818870306015015 0 3
11.379511833190918 -7.58507776260376 0.846822202205658 0.68840092420578 0 3
11.205820083618164 -7.615488052368164 0.8389508128166199 0.6948592662811279 0 3
11.035351753234863 -7.645312309265137 0.8312914967536926 0.701261579990387 0 3
10.750175476074219 -7.591444969177246 0.814909040927887 0.7077902555465698 0 3
10.587538719177246 -7.619921684265137 0.8077319264411926 0.7140783667564392 0 3
10.554433822631836 -7.740859031677246 0.8104774355888367 0.7201279997825623 0 3
10.39540958404541 -7.768691062927246 0.8035873174667358 0.7263010144233704 0 3
10.239062309265137 -7.796034812927246 0.7968785166740417 0.7324158549308777 0 3
10.08529281616211 -7.822948932647705 0.79034423828125 0.738471508026123 0 3
9.934003829956055 -7.84939432144165 0.7839788794517517 0.7444680333137512 0 3
9.667715072631836 -7.780995845794678 0.7684460282325745 0.7505788803100586 0 3
9.523730278015137 -7.806992053985596 0.7625381350517273 0.6507961750030518 0 3
9.4829683303833 -7.916953086853027 0.7649340629577637 0.7620948553085327 0 3
9.340995788574219 -7.941777229309082 0.7592028379440308 0.7678484916687012 0 3
9.201151847839355 -7.966249942779541 0.7536163330078125 0.773540735244751 0 3
9.063300132751465 -7.990390300750732 0.7481713891029358 0.7791697978973389 0 3
8.927441596984863 -8.01416015625 0.7428668141365051 0.7847364544868469 0 3
8.794042587280273 -8.038125038146973 0.7377389073371887 0.8156015276908875 0 3
8.6670503616333 -8.065996170043945 0.7331289649009705 0.8207309246063232 0 3
8.541601181030273 -8.093535423278809 0.7286332249641418 0.8257948160171509 0 3
7.721054553985596 -7.448691368103027 0.6643143892288208 0.29036444425582886 0 3
7.326835632324219 -7.196484088897705 0.6359231472015381 0.5784209966659546 0 3
33.05259704589844 33.05259704589844 2.5076961517333984 0.589155375957489 0 9
32.94496154785156 32.35871124267578 2.477393627166748 0.5963629484176636 0 9
32.83986282348633 31.681406021118164 2.4480059146881104 0.6035210490226746 0 9
34.73080062866211 32.908905029296875 2.566842555999756 0.7796062231063843 0 9
34.921268463134766 32.499549865722656 2.5592570304870605 0.7819167375564575 0 9
35.11052703857422 32.09244155883789 2.5519134998321533 0.7841671705245972 0 9
37.14175796508789 33.34206771850586 2.6776821613311768 0.6356641054153442 0 9
41.45978546142578 25.02425765991211 2.5979888439178467 0.8340517282485962 0 6
40.74425506591797 24.096094131469727 2.5394906997680664 0.32816702127456665 0 6
41.88810348510742 24.26775360107422 2.597105026245117 0.2549222707748413 0 6
39.957244873046875 19.02197265625 2.374138832092285 0.4331568777561188 0 9
35.46820068359375 16.496034622192383 2.098536729812622 0.5063744783401489 0 9
36.16246032714844 16.425762176513672 2.130795478820801 0.4987063407897949 0 9
36.80078125 16.31884765625 2.159693479537964 0.876710832118988 0 9
36.770957946777344 15.912206649780273 2.1494743824005127 0.8808789849281311 0 9
36.7414436340332 15.509394645690918 2.139528751373291 0.8849762678146362 0 9
36.7121467590332 15.110273361206055 2.129838705062866 0.8890015482902527 0 9
36.683162689208984 14.71468734741211 2.12040638923645 0.89295494556427 0 9
41.05240249633789 16.041053771972656 2.3645381927490234 0.6944062113761902 0 9
41.58039093017578 15.818652153015137 2.3866782188415527 0.687965452671051 0 9
38.95199203491211 14.41982364654541 2.22829532623291 0.7010242938995361 0 9
39.32626724243164 13.36587905883789 2.2283029556274414 0.3800099194049835 0 9
36.84564208984375 12.154999732971191 2.081480026245117 0.3453986346721649 0 9
37.52353286743164 12.006230354309082 2.113605499267578 0.6871283650398254 0 9
37.278202056884766 11.559941291809082 2.0938549041748047 0.6936084032058716 0 9
37.03742218017578 11.121835708618164 2.0746405124664307 0.700032651424408 0 9
39.70630645751953 10.766737937927246 2.207092761993408 0.182192862033844 0 9
41.10874938964844 10.75185489654541 2.2795827388763428 0.996363639831543 0 9
41.17423629760742 10.375019073486328 2.2779643535614014 0.9970734715461731 0 9
41.23968505859375 9.998710632324219 2.2765285968780518 0.9977033734321594 0 9
41.30500030517578 9.622851371765137 2.275272846221924 0.9982531666755676 0 9
41.37025451660156 9.247382164001465 2.274205207824707 0.9987227320671082 0 9
26.425703048706055 -2.7374608516693115 1.4252761602401733 0.2842146158218384 0 6
44.06212615966797 -6.170116901397705 2.386916399002075 0.3068518042564392 0 3
42.94281005859375 -6.406913757324219 2.329298734664917 0.31537821888923645 0 3
41.50210952758789 -6.573300838470459 2.254262685775757 0.32396963238716125 0 3
40.295291900634766 -6.753437519073486 2.1919174194335938 0.29640793800354004 0 3
39.63800811767578 -7.009609222412109 2.159494638442993 0.3407543897628784 0 3
38.62019348144531 -7.187714576721191 2.1074752807617188 0.34916549921035767 0 3
13.2935152053833 -2.5977537631988525 0.726660430431366 0.9798750877380371 1044 7
13.209843635559082 -2.704706907272339 0.7233849763870239 0.060287024825811386 1044 7
30.477304458618164 -6.525820255279541 1.6721117496490479 0.3742266297340393 0 3
29.75794792175293 -6.651679515838623 1.6358503103256226 0.3825211524963379 0 3
29.069042205810547 -6.772206783294678 1.601259469985962 0.39078474044799805 0 3
28.40865135192871 -6.887773513793945 1.5682227611541748 0.39901694655418396 0 3
27.313261032104492 -6.882343769073486 1.5111051797866821 0.4113774001598358 0 3
26.934022903442383 -7.044492244720459 1.4935632944107056 0.4153840243816376 0 3
26.3536319732666 -7.146035194396973 1.4648767709732056 0.4235178232192993 0 3
25.624061584472656 -7.195722579956055 1.4278571605682373 0.4353625178337097 0 3
25.414453506469727 -7.383593559265137 1.41981041431427 0.8961368203163147 0 3
24.951679229736328 -7.492656230926514 1.3976608514785767 0.44771116971969604 0 3
19.754375457763672 -6.125781059265137 1.1095659732818604 0.4169910252094269 0 3
19.347890853881836 -6.190663814544678 1.0898150205612183 0.46366190910339355 0 3
18.762929916381836 -6.189667701721191 1.0599511861801147 0.47871240973472595 0 3
18.621952056884766 -6.329042911529541 1.055155634880066 0.47946253418922424 0 3
18.265644073486328 -6.391425609588623 1.0381741523742676 0.4873048961162567 0 3
17.705312728881836 -6.374277114868164 1.009537935256958 0.4873029291629791 0 3
17.56527328491211 -6.502577781677246 1.0048421621322632 0.502871572971344 0 3
17.241405487060547 -6.559237957000732 0.9896407723426819 0.510594367980957 0 3
7.10363245010376 -2.775702953338623 0.4091576933860779 0.21880115568637848 0 6
7.0263671875 -2.818476438522339 0.40614593029022217 0.9765139222145081 0 6
16.345155715942383 -6.727460861206055 0.9482561945915222 0.5335134267807007 0 3
15.863847732543945 -6.696484088897705 0.9237826466560364 0.5334942936897278 0 3
15.62181568145752 -6.760175704956055 0.9131887555122375 0.8339523673057556 0 3
15.484902381896973 -6.866581916809082 0.90874844789505 0.5560460686683655 0 3
15.058476448059082 -6.839882850646973 0.8872912526130676 0.5634675621986389 0 3
14.877480506896973 -6.91943359375 0.8802511692047119 0.5708445906639099 0 3
14.626953125 -6.963242053985596 0.869088888168335 0.5781747698783875 0 3
14.38265609741211 -7.005995750427246 0.8582766652107239 0.5854589939117432 0 3
14.14437484741211 -7.047675609588623 0.8477973937988281 0.5926956534385681 0 3
13.911796569824219 -7.088398456573486 0.837636411190033 0.599884569644928 0 3
13.684687614440918 -7.128144264221191 0.8277844190597534 0.6070256233215332 0 3
13.395214080810547 -7.130918025970459 0.8141112923622131 0.6141172051429749 0 3
13.188788414001465 -7.173730373382568 0.8054592609405518 0.781414270401001 0 3
13.10732364654541 -7.282617092132568 0.8044338822364807 0.628152072429657 0 3
12.75917911529541 -7.239804744720459 0.7870211601257324 0.6352556943893433 0 3
12.557479858398438 -7.275136470794678 0.7785761952400208 0.6421461701393127 0 3
12.510175704956055 -7.398515224456787 0.7797307968139648 0.6488235592842102 0 3
12.314472198486328 -7.43273401260376 0.7716583013534546 0.6556098461151123 0 3
12.122754096984863 -7.466289043426514 0.7638146877288818 0.6623435020446777 0 3
11.791679382324219 -7.409199237823486 0.7471145391464233 0.669106125831604 0 3
11.60970687866211 -7.441054344177246 0.7397875785827637 0.6757333278656006 0 3
11.55630874633789 -7.554003715515137 0.7406765818595886 0.6822222471237183 0 3
11.379355430603027 -7.5849609375 0.733668327331543 0.6887390613555908 0 3
11.205683708190918 -7.615370750427246 0.726849377155304 0.6952003836631775 0 3
11.035195350646973 -7.645214557647705 0.7202113270759583 0.7016063332557678 0 3
10.750350952148438 -7.59158182144165 0.706042468547821 0.7081156969070435 0 3
10.587695121765137 -7.620058536529541 0.6998212933540344 0.7138996720314026 0 3
10.554296493530273 -7.740761756896973 0.702180027961731 0.7204809188842773 0 3
10.395292282104492 -7.768574237823486 0.6962130665779114 0.7266566753387451 0 3
10.23892593383789 -7.795917987823486 0.6904000639915466 0.7327749729156494 0 3
10.085156440734863 -7.822851181030273 0.6847381591796875 0.7388335466384888 0 3
9.933866500854492 -7.849296569824219 0.67922043800354 0.7448328733444214 0 3
9.66787052154541 -7.781113147735596 0.6657845973968506 0.7509244680404663 0 3
9.52310562133789 -7.806484222412109 0.660614013671875 0.7568027377128601 0 3
9.482851028442383 -7.916835784912109 0.6627243161201477 0.7624684572219849 0 3
9.3408784866333 -7.94167947769165 0.6577579975128174 0.7682247757911682 0 3
9.201034545898438 -7.966152191162109 0.6529197692871094 0.7739187479019165 0 3
9.063183784484863 -7.990273475646973 0.6482011079788208 0.7795512080192566 0 3
8.927324295043945 -8.014042854309082 0.6436038017272949 0.7851205468177795 0 3
8.793925285339355 -8.038007736206055 0.6391607522964478 0.8160024285316467 0 3
8.666913986206055 -8.065878868103027 0.6351669430732727 0.8211348056793213 0 3
8.541483879089355 -8.09341812133789 0.6312731504440308 0.826200544834137 0 3
7.721718788146973 -7.449355125427246 0.5756063461303711 0.2904781997203827 0 3
7.326952934265137 -7.196581840515137 0.5509682893753052 0.5786884427070618 0 3
34.09474563598633 34.09470748901367 2.1882057189941406 0.9898568987846375 0 9
34.37200927734375 33.760372161865234 2.1864612102508545 0.9906460642814636 0 9
34.64884567260742 33.42658233642578 2.18489408493042 0.991354763507843 0 9
34.95661926269531 33.12289047241211 2.185469388961792 0.7748861908912659 0 9
35.1476936340332 32.71025466918945 2.17897367477417 0.7771977782249451 0 9
20.88619041442871 14.19423770904541 1.146032691001892 0.769050121307373 1043 7
41.46144485473633 25.53582000732422 2.209855079650879 0.9731578826904297 0 6
40.54958724975586 23.980976104736328 2.137958288192749 0.9531532526016235 0 6
36.253318786621094 16.467031478881836 1.8070242404937744 0.4976596236228943 0 9
36.78009796142578 16.309648513793945 1.8259142637252808 0.8775618672370911 0 9
36.75040817260742 15.903339385986328 1.8172756433486938 0.8817316293716431 0 9
36.72095489501953 15.500761032104492 1.8088665008544922 0.8858304023742676 0 9
42.6066780090332 17.536367416381836 2.0909597873687744 0.7092465758323669 0 9
40.58818435668945 16.28109359741211 1.984641432762146 0.7001426815986633 0 9
41.10773468017578 16.06267547607422 2.0029213428497314 0.6937544345855713 0 9
41.63698959350586 15.84017562866211 2.021695852279663 0.6873106360435486 0 9
38.97886657714844 14.429784774780273 1.8862627744674683 0.7008272409439087 0 9
39.22527313232422 14.12197208404541 1.8919811248779297 0.3787572681903839 0 9
37.14191436767578 12.252695083618164 1.7749279737472534 0.3427833318710327 0 9
38.0529670715332 12.17562484741211 1.8131728172302246 0.4097040295600891 0 9
37.28298568725586 11.561406135559082 1.7714614868164062 0.6938031911849976 0 9
37.042110443115234 11.123222351074219 1.7552120685577393 0.7002300024032593 0 9
40.64919662475586 11.022421836853027 1.9113610982894897 0.061174724251031876 0 9
41.19794845581055 10.380995750427246 1.9280953407287598 0.9969069957733154 0 9
41.26337814331055 10.004472732543945 1.9268743991851807 0.9975371360778809 0 9
41.32875061035156 9.628378868103027 1.9258092641830444 0.9980870485305786 0 9
26.4210147857666 -2.736992120742798 1.2054609060287476 0.28438088297843933 0 6
44.19150161743164 -6.188241958618164 2.025071620941162 0.3069850206375122 0 3
42.668495178222656 -6.365976333618164 1.9578227996826172 0.31549614667892456 0 3
41.62431716918945 -6.592636585235596 1.9125475883483887 0.3241114020347595 0 3
40.70616912841797 -6.822304725646973 1.873099684715271 0.33246174454689026 0 3
39.63679504394531 -7.009433269500732 1.826712965965271 0.3409038186073303 0 3
38.61912155151367 -7.1875 1.7827160358428955 0.3493180274963379 0 3
13.27392578125 -2.593925714492798 0.6137948632240295 0.8983826041221619 1044 7
13.254511833190918 -2.7138671875 0.6139978170394897 0.9710770845413208 1044 7
30.476484298706055 -6.525624752044678 1.414440393447876 0.3743894100189209 0 3
29.75712776184082 -6.651523113250732 1.3837687969207764 0.382687509059906 0 3
29.068300247192383 -6.772050857543945 1.3545089960098267 0.3909544050693512 0 3
28.407928466796875 -6.887617111206055 1.3265635967254639 0.39918994903564453 0 3
27.41162109375 -6.907109260559082 1.2828829288482666 0.41057366132736206 0 3
27.043025970458984 -7.072988033294678 1.2685521841049194 0.4155636429786682 0 3
26.460330963134766 -7.174941062927246 1.2441918849945068 0.423700749874115 0 3
25.89957046508789 -7.27306604385376 1.2208421230316162 0.43180352449417114 0 3
25.412851333618164 -7.383124828338623 1.2009799480438232 0.8965578079223633 0 3
24.734804153442383 -7.427538871765137 1.17203950881958 0.4485042095184326 0 3
19.753984451293945 -6.125663757324219 0.9385918974876404 0.4171690344810486 0 3
19.34748077392578 -6.190507888793945 0.9218829274177551 0.4638613760471344 0 3
18.76089859008789 -6.189023494720459 0.8965429663658142 0.47192609310150146 0 3
18.62158203125 -6.328925609588623 0.8925632834434509 0.4796680808067322 0 3
18.265233993530273 -6.391288757324219 0.8781983852386475 0.4875142574310303 0 3
17.704492568969727 -6.374003887176514 0.8539507985115051 0.49537190794944763 0 3
17.56490135192871 -6.502421855926514 0.8500006198883057 0.5030869841575623 0 3
17.24105453491211 -6.559121131896973 0.8371447324752808 0.5108128190040588 0 3
7.102636337280273 -2.775331974029541 0.34606626629829407 0.21892106533050537 0 6
7.025683403015137 -2.8182029724121094 0.3435360789299011 0.9770077466964722 0 6
16.34488296508789 -6.72732400894165 0.8021377325057983 0.5337411165237427 0 3
15.863574028015137 -6.696367263793945 0.7814361453056335 0.5419961810112 0 3
15.620800018310547 -6.759706974029541 0.7724343538284302 0.8343489170074463 0 3
15.484647750854492 -6.866464614868164 0.7687168717384338 0.5562826991081238 0 3
15.058202743530273 -6.839765548706055 0.7505674362182617 0.5637079477310181 0 3
14.877225875854492 -6.919316291809082 0.744612991809845 0.5710873603820801 0 3
14.62669849395752 -6.963144302368164 0.7351717948913574 0.5784209370613098 0 3
14.382421493530273 -7.005878925323486 0.7260226011276245 0.5857079029083252 0 3
14.144121170043945 -7.047577857971191 0.7171614170074463 0.5929473638534546 0 3
13.91152286529541 -7.088281154632568 0.7085650563240051 0.6001403331756592 0 3
13.684453010559082 -7.128026962280273 0.7002307176589966 0.6072837114334106 0 3
13.394980430603027 -7.130800724029541 0.6886648535728455 0.6143783330917358 0 3
13.187850952148438 -7.173202991485596 0.6813143491744995 0.7817889451980591 0 3
13.107109069824219 -7.28249979019165 0.6804766654968262 0.6284185647964478 0 3
12.759413719177246 -7.239941120147705 0.6657711863517761 0.6355029940605164 0 3
12.557695388793945 -7.275253772735596 0.6586236357688904 0.6418419480323792 0 3
12.50999927520752 -7.398398399353027 0.6595810055732727 0.6490980386734009 0 3
12.314257621765137 -7.432636737823486 0.6527541875839233 0.6558874845504761 0 3
12.12255859375 -7.466191291809082 0.6461184620857239 0.6626238822937012 0 3
11.791854858398438 -7.409335613250732 0.632013201713562 0.66936856508255 0 3
11.609902381896973 -7.441171646118164 0.6258153915405273 0.6759978532791138 0 3
11.556113243103027 -7.553886413574219 0.6265464425086975 0.6825110912322998 0 3
11.379179000854492 -7.584843635559082 0.6206181049346924 0.6890305280685425 0 3
11.205507278442383 -7.615273475646973 0.6148492097854614 0.6954943537712097 0 3
11.035038948059082 -7.645097255706787 0.6092349290847778 0.7019022107124329 0 3
10.7505464553833 -7.591699123382568 0.5972686409950256 0.7083918452262878 0 3
10.587851524353027 -7.620175838470459 0.5920056104660034 0.7141802906990051 0 3
10.554160118103027 -7.740644454956055 0.593981921672821 0.7207853198051453 0 3
10.395136833190918 -7.768456935882568 0.5889348983764648 0.7269636988639832 0 3
10.238788604736328 -7.795820236206055 0.584015965461731 0.7330843806266785 0 3
10.0850191116333 -7.822734355926514 0.5792275667190552 0.7391452789306641 0 3
9.93375015258789 -7.849198818206787 0.5745657086372375 0.7451468706130981 0 3
9.668046951293945 -7.78125 0.5632117986679077 0.7512182593345642 0 3
9.523261070251465 -7.806601524353027 0.5588372945785522 0.757099449634552 0 3
9.482733726501465 -7.916738033294678 0.560606062412262 0.7627893686294556 0 3
9.340781211853027 -7.941581726074219 0.5564050078392029 0.7685481309890747 0 3
9.200898170471191 -7.966073989868164 0.5523109436035156 0.774245023727417 0 3
9.063085556030273 -7.990156173706055 0.5483210682868958 0.779879629611969 0 3
8.927226066589355 -8.013925552368164 0.5444300770759583 0.7854510545730591 0 3
8.79378890991211 -8.037890434265137 0.5406736731529236 0.8163478374481201 0 3
8.666777610778809 -8.06576156616211 0.5372938513755798 0.8214823007583618 0 3
8.541327476501465 -8.093280792236328 0.5339990258216858 0.8265501260757446 0 3
7.722402095794678 -7.44998025894165 0.48696136474609375 0.2905711531639099 0 3
7.327050685882568 -7.196699142456055 0.4660845696926117 0.5789154171943665 0 3
34.076873779296875 34.07683563232422 1.7890042066574097 0.9907126426696777 0 9
34.35400390625 33.74267578125 1.7875792980194092 0.991502046585083 0 9
34.630741119384766 33.409080505371094 1.7862975597381592 0.9922112226486206 0 9
20.781719207763672 14.397655487060547 0.938525378704071 0.8740174770355225 1043 7
20.890018463134766 14.196855545043945 0.9376237392425537 0.5627330541610718 1043 7
41.437400817871094 25.52097511291504 1.8066015243530273 0.9239263534545898 0 6
40.49400329589844 23.948104858398438 1.7464392185211182 0.8894238471984863 0 6
40.64244079589844 16.30286979675293 1.625605583190918 0.699445366859436 0 9
41.16320037841797 16.084375381469727 1.6405889987945557 0.6930552124977112 0 9
41.69371032714844 15.861738204956055 1.6559878587722778 0.6866092085838318 0 9
39.00572204589844 14.439745903015137 1.544016718864441 0.7005825042724609 0 9
37.40724563598633 12.34023380279541 1.4622576236724854 0.5377048254013062 0 9
37.79843521118164 12.094179153442383 1.4732437133789062 0.4126034379005432 0 9
37.28773498535156 11.562870979309082 1.4492403268814087 0.6939506530761719 0 9
41.2216796875 10.386972427368164 1.5780799388885498 0.9966726899147034 0 9
26.41681671142578 -2.7365429401397705 0.9859040379524231 0.6518131494522095 0 6
44.319061279296875 -6.206132888793945 1.6612740755081177 0.2658184766769409 0 3
43.01564407348633 -6.41775369644165 1.6145216226577759 0.3156155049800873 0 3
41.830039978027344 -6.625214576721191 1.5721889734268188 0.3241131901741028 0 3
40.70494079589844 -6.822109222412109 1.5321428775787354 0.3325849175453186 0 3
39.07451248168945 -6.909960746765137 1.4730483293533325 0.3410290479660034 0 3
38.071189880371094 -7.085546493530273 1.437563419342041 0.34944653511047363 0 3
13.2919921875 -2.597460985183716 0.5027632117271423 0.9807220697402954 1044 7
13.281034469604492 -2.719296932220459 0.5032519698143005 0.5346155762672424 1044 7
30.21107292175293 -6.468808650970459 1.1469323635101318 0.3750334680080414 0 3
29.756366729736328 -6.651347637176514 1.1318860054016113 0.3828276991844177 0 3
28.816659927368164 -6.713398456573486 1.098389744758606 0.40161511301994324 0 3
28.163105010986328 -6.82824182510376 1.0757741928100586 0.39983975887298584 0 3
27.773534774780273 -6.998300552368164 1.0632498264312744 0.40754181146621704 0 3
27.042343139648438 -7.072832107543945 1.0376468896865845 0.41571497917175293 0 3
26.459686279296875 -7.174785137176514 1.017721176147461 0.4238549470901489 0 3
25.898944854736328 -7.272910118103027 0.9986230134963989 0.4319603443145752 0 3
25.41128921508789 -7.382675647735596 0.9823355078697205 0.8969184160232544 0 3
24.734315872192383 -7.42736291885376 0.9587017893791199 0.45545777678489685 0 3
19.753631591796875 -6.125566482543945 0.7677514553070068 0.4173184633255005 0 3
19.347030639648438 -6.190390586853027 0.754077136516571 0.46402937173843384 0 3
18.76138687133789 -6.189179420471191 0.7333878874778748 0.4720748960971832 0 3
18.621191024780273 -6.328808307647705 0.730096697807312 0.47984132170677185 0 3
18.264862060546875 -6.391191482543945 0.7183459401130676 0.4876897633075714 0 3
17.704862594604492 -6.37414026260376 0.6985464096069336 0.4955297112464905 0 3
17.5645694732666 -6.502285003662109 0.6952865719795227 0.5032680034637451 0 3
17.24072265625 -6.558984279632568 0.6847704648971558 0.5109963417053223 0 3
7.101621150970459 -2.7749218940734863 0.2830398380756378 0.2190270572900772 0 6
7.024980545043945 -2.81792950630188 0.28098317980766296 0.9774352312088013 0 6
16.344589233398438 -6.727206707000732 0.6561337113380432 0.5339325666427612 0 3
15.863905906677246 -6.696484088897705 0.6392233371734619 0.5421693325042725 0 3
15.619765281677246 -6.759257793426514 0.6318058371543884 0.8346884250640869 0 3
15.484354972839355 -6.866347312927246 0.6287960410118103 0.5564823150634766 0 3
15.057968139648438 -6.839648246765137 0.6139516830444336 0.5639094114303589 0 3
14.876953125 -6.919179439544678 0.6090801954269409 0.5712917447090149 0 3
14.626444816589355 -6.963027000427246 0.6013579964637756 0.5786272287368774 0 3
14.382147789001465 -7.005761623382568 0.5938738584518433 0.5859171748161316 0 3
14.14388656616211 -7.047460556030273 0.5866247415542603 0.593159556388855 0 3
13.911308288574219 -7.088183403015137 0.5795947313308716 0.6003541946411133 0 3
13.684257507324219 -7.127910137176514 0.572776198387146 0.607499897480011 0 3
13.394784927368164 -7.130683422088623 0.5633160471916199 0.6145973205566406 0 3
13.186933517456055 -7.172695159912109 0.557271420955658 0.7821108102798462 0 3
13.106913566589355 -7.282382488250732 0.5566186308860779 0.628642737865448 0 3
12.75966739654541 -7.240077972412109 0.5446102619171143 0.6357070803642273 0 3
12.557889938354492 -7.275390625 0.538768470287323 0.64205002784729 0 3
12.509784698486328 -7.398281097412109 0.5395263433456421 0.6493291258811951 0 3
12.314101219177246 -7.432538986206055 0.5339425802230835 0.6561207175254822 0 3
12.122363090515137 -7.466073989868164 0.5285149812698364 0.6628599166870117 0 3
11.792070388793945 -7.40945291519165 0.5169915556907654 0.6697155833244324 0 3
11.61009693145752 -7.441288948059082 0.5119207501411438 0.6762166619300842 0 3
11.555956840515137 -7.553788661956787 0.5125036239624023 0.6827529668807983 0 3
11.378984451293945 -7.584765434265137 0.5076562166213989 0.6892750263214111 0 3
11.205350875854492 -7.615175724029541 0.502936065196991 0.6957410573959351 0 3
11.034902572631836 -7.644999980926514 0.4983465373516083 0.7021509408950806 0 3
10.750722885131836 -7.591835975646973 0.4885706901550293 0.708621084690094 0 3
10.587987899780273 -7.620292663574219 0.48426559567451477 0.7144124507904053 0 3
10.554022789001465 -7.740527153015137 0.485869437456131 0.7210402488708496 0 3
10.394999504089355 -7.768359184265137 0.4817381203174591 0.7272212505340576 0 3
10.238652229309082 -7.795722484588623 0.47771576046943665 0.7333433032035828 0 3
10.084882736206055 -7.822636604309082 0.4737985134124756 0.7394068241119385 0 3
9.933612823486328 -7.849101543426514 0.46998274326324463 0.7454103827476501 0 3
9.668203353881836 -7.78136682510376 0.460711807012558 0.7514616250991821 0 3
9.5234375 -7.806737899780273 0.4571331739425659 0.7573444843292236 0 3
9.482597351074219 -7.916640281677246 0.4585670232772827 0.7630592584609985 0 3
9.340643882751465 -7.941483974456787 0.4551309049129486 0.7688196897506714 0 3
9.200780868530273 -7.965976238250732 0.4517822265625 0.7745184898376465 0 3
9.062968254089355 -7.990077972412109 0.4485201835632324 0.7801542282104492 0 3
8.92708969116211 -8.013847351074219 0.4453362822532654 0.7857282757759094 0 3
8.793652534484863 -8.037773132324219 0.44226011633872986 0.8166377544403076 0 3
8.66666030883789 -8.065644264221191 0.43949735164642334 0.8217739462852478 0 3
8.541230201721191 -8.09316349029541 0.43680328130722046 0.8268433809280396 0 3
7.723046779632568 -7.450644493103027 0.3983657658100128 0.2906453311443329 0 3
7.327167987823486 -7.196816444396973 0.381256103515625 0.5791041254997253 0 3
20.7803897857666 14.39671802520752 0.7297842502593994 0.8743116855621338 1043 7
20.890018463134766 14.196855545043945 0.7291265726089478 0.5628858208656311 1043 7
41.434608459472656 25.519277572631836 1.4047771692276 0.9727029204368591 0 6
40.53566360473633 23.972753524780273 1.3594927787780762 0.8864763975143433 0 6
42.366756439208984 24.039764404296875 1.4062004089355469 0.20636782050132751 0 6
39.03263473510742 14.449687004089355 1.20151686668396 0.7002902030944824 0 9
26.413925170898438 -2.7362499237060547 0.7665852308273315 0.6520620584487915 0 6
44.31785202026367 -6.205937385559082 1.2918369770050049 0.26589810848236084 0 3
43.01427459716797 -6.417558670043945 1.2554690837860107 0.31571125984191895 0 3
41.82875061035156 -6.625019550323486 1.2225515842437744 0.3242112994194031 0 3
40.39906311035156 -6.770839691162109 1.1824947595596313 0.3330950140953064 0 3
39.19695281982422 -6.931621074676514 1.149085521697998 0.3419193625450134 0 3
38.45037078857422 -7.156093597412109 1.129032850265503 0.34955137968063354 0 3
13.18814468383789 -2.5771679878234863 0.38791197538375854 0.7060881853103638 1044 7
13.259160041809082 -2.7148241996765137 0.390703409910202 0.8964675068855286 1044 7
30.504140853881836 -6.531581878662109 0.9005465507507324 0.3746388554573059 0 3
29.755565643310547 -6.651171684265137 0.8801733255386353 0.38294196128845215 0 3
28.812089920043945 -6.712363243103027 0.8540127277374268 0.3989134132862091 0 3
28.433828353881836 -6.893886566162109 0.8446009755134583 0.3994542360305786 0 3
27.772850036621094 -6.998144149780273 0.8268000483512878 0.4076625108718872 0 3
27.041717529296875 -7.072656154632568 0.8068922162055969 0.41583797335624695 0 3
26.4591007232666 -7.17458963394165 0.791397213935852 0.4239799380302429 0 3
25.898378372192383 -7.27273416519165 0.7765498161315918 0.43208786845207214 0 3
25.409706115722656 -7.382206916809082 0.7638500928878784 0.8972184062004089 0 3
24.7314453125 -7.426503658294678 0.7454383969306946 0.4476536214351654 0 3
19.753280639648438 -6.125449180603027 0.5970190167427063 0.41743943095207214 0 3
19.34663963317871 -6.190253734588623 0.5863833427429199 0.46416544914245605 0 3
18.76187515258789 -6.189316272735596 0.570322573184967 0.472190797328949 0 3
18.62078094482422 -6.328671932220459 0.5677386522293091 0.4799818992614746 0 3
18.264530181884766 -6.391035079956055 0.5586016774177551 0.48783230781555176 0 3
17.705272674560547 -6.374277114868164 0.5432247519493103 0.4956529438495636 0 3
17.564218521118164 -6.502187252044678 0.540668785572052 0.503415048122406 0 3
17.24040985107422 -6.558847427368164 0.5324892997741699 0.5111454725265503 0 3
7.100605487823486 -2.7745115756988525 0.22007186710834503 0.2191181629896164 0 6
7.024296760559082 -2.8176562786102295 0.21848174929618835 0.9777963757514954 0 6
16.344257354736328 -6.727089881896973 0.5102230906486511 0.5340880155563354 0 3
15.864218711853027 -6.696620941162109 0.4970937967300415 0.542306125164032 0 3
15.618730545043945 -6.758808612823486 0.49128082394599915 0.8349713683128357 0 3
15.484101295471191 -6.866230487823486 0.48896467685699463 0.5566431879997253 0 3
15.057695388793945 -6.839530944824219 0.4774227738380432 0.5640730261802673 0 3
14.87669849395752 -6.91906213760376 0.4736340343952179 0.571456789970398 0 3
14.62621021270752 -6.962890625 0.4676302969455719 0.5787945985794067 0 3
14.381914138793945 -7.00564432144165 0.46181243658065796 0.5860865712165833 0 3
14.143671989440918 -7.047324180603027 0.45617157220840454 0.5933306217193604 0 3
13.911093711853027 -7.088066101074219 0.4507061541080475 0.6005272269248962 0 3
13.684022903442383 -7.127792835235596 0.445404052734375 0.6076752543449402 0 3
13.39453125 -7.130585670471191 0.4380468726158142 0.6147744655609131 0 3
13.185996055603027 -7.172187328338623 0.4333120584487915 0.7823793292045593 0 3
13.106698989868164 -7.282265663146973 0.4328402578830719 0.6288236379623413 0 3
12.759882926940918 -7.240234375 0.4235156178474426 0.6358678340911865 0 3
12.558124542236328 -7.27550745010376 0.41897016763687134 0.6422137022018433 0 3
12.50960922241211 -7.398163795471191 0.41955047845840454 0.6495159268379211 0 3
12.313886642456055 -7.432421684265137 0.4152047634124756 0.6563093066215515 0 3
12.122187614440918 -7.465956687927246 0.4109863042831421 0.6630501747131348 0 3
11.792245864868164 -7.409570217132568 0.40203794836997986 0.6698869466781616 0 3
11.610292434692383 -7.441425800323486 0.3980935513973236 0.6763893365859985 0 3
11.555800437927246 -7.553671836853027 0.3985351622104645 0.682948887348175 0 3
11.378828048706055 -7.584648132324219 0.3947650194168091 0.6894727349281311 0 3
11.205195426940918 -7.615058422088623 0.39109739661216736 0.6959402561187744 0 3
11.0347261428833 -7.644882678985596 0.38752472400665283 0.7023519277572632 0 3
10.750917434692383 -7.591952800750732 0.3799370527267456 0.7088014483451843 0 3
10.588183403015137 -7.620409965515137 0.3765941560268402 0.7145960330963135 0 3
10.553847312927246 -7.740429401397705 0.3778231739997864 0.7212467789649963 0 3
10.394882202148438 -7.768261432647705 0.37461143732070923 0.7274285554885864 0 3
10.238515853881836 -7.795624732971191 0.3714851438999176 0.7335529327392578 0 3
10.084765434265137 -7.822519302368164 0.36843839287757874 0.7396180033683777 0 3
9.933476448059082 -7.848984241485596 0.3654710352420807 0.7456230521202087 0 3
9.668339729309082 -7.781503677368164 0.3582713305950165 0.7520983219146729 0 3
9.523573875427246 -7.806835651397705 0.35549110174179077 0.7575386762619019 0 3
9.4824800491333 -7.916543006896973 0.3565937578678131 0.7632765173912048 0 3
9.340507507324219 -7.941367149353027 0.3539227247238159 0.7690390944480896 0 3
9.200663566589355 -7.965859413146973 0.3513173460960388 0.7747394442558289 0 3
9.06283187866211 -7.989980220794678 0.3487808108329773 0.7803772687911987 0 3
8.926992416381836 -8.013750076293945 0.34630706906318665 0.7859520316123962 0 3
8.7935152053833 -8.037636756896973 0.3439132571220398 0.816872775554657 0 3
8.666522979736328 -8.065526962280273 0.34176361560821533 0.8220096826553345 0 3
8.5410737991333 -8.093047142028809 0.33966895937919617 0.8270809650421143 0 3
7.72374963760376 -7.451308250427246 0.3098126947879791 0.2906985282897949 0 3
7.32726526260376 -7.196913719177246 0.29650917649269104 0.5792533755302429 0 3
20.779081344604492 14.395800590515137 0.5211696028709412 0.874546468257904 1043 7
20.890039443969727 14.196855545043945 0.5207328796386719 0.5630007386207581 1043 7
41.42491912841797 24.4986515045166 0.9922335743904114 0.9639663696289062 0 6
39.05955123901367 14.459648132324219 0.8586965799331665 0.6999500393867493 0 9
38.36775207519531 6.076874732971191 0.8008905053138733 0.9871172308921814 1051 7
26.410995483398438 -2.735956907272339 0.5474255084991455 0.6522671580314636 0 6
44.31660079956055 -6.205761432647705 0.9225854277610779 0.2659599184989929 0 3
42.81847381591797 -6.388339519500732 0.892557680606842 0.31609591841697693 0 3
41.82748031616211 -6.624804496765137 0.8731014728546143 0.32428741455078125 0 3
40.52070236206055 -6.791230201721191 0.8470655679702759 0.3330720365047455 0 3
39.34537124633789 -6.957910060882568 0.8237670660018921 0.3412121534347534 0 3
38.4677734375 -7.159355163574219 0.8067014813423157 0.34963345527648926 0 3
13.27798843383789 -2.5947070121765137 0.2789299786090851 0.9111446142196655 1044 7
