ply
format ascii 1.0
element vertex 595
property float32 x
property float32 y
property float32 z
property float32 CosAngle
property uint32 ObjIdx
property uint32 ObjTag
end_header
39.18761444091797 0.8795019388198853 -0.8081362843513489 0.9994392991065979 0 3
36.49570083618164 0.4913574159145355 -0.7525070309638977 0.9997506141662598 0 5
36.50148391723633 0.16376952826976776 -0.7525621056556702 0.999671459197998 0 5
39.184532165527344 -0.17585937678813934 -0.8078764081001282 0.9997586607933044 0 3
39.25939178466797 -0.5286230444908142 -0.8094875812530518 0.9997041821479797 0 3
36.42374801635742 -0.8174608945846558 -0.7511433362960815 0.9990482330322266 0 5
36.428749084472656 -1.1447949409484863 -0.7514259219169617 0.998669445514679 0 5
36.43378829956055 -1.4723925590515137 -0.7517730593681335 0.9982101321220398 0 5
36.43882751464844 -1.8003515005111694 -0.7521763443946838 0.9976704716682434 0 5
36.44384765625 -2.1286816596984863 -0.7526406645774841 0.9970502853393555 0 5
36.44886779785156 -2.4574413299560547 -0.753174901008606 0.9963497519493103 0 5
36.45388412475586 -2.786669969558716 -0.7537728548049927 0.9955691695213318 0 5
36.458946228027344 -3.1164746284484863 -0.7544216513633728 0.9947082996368408 0 5
36.463985443115234 -3.446845531463623 -0.755135178565979 0.9937672019004822 0 5
39.17333984375 -4.058056354522705 -0.8119646906852722 0.994732141494751 0 3
39.17544937133789 -4.414023399353027 -0.812804102897644 0.9977748990058899 0 3
39.171268463134766 -4.769989967346191 -0.8135671615600586 0.9927741289138794 0 3
39.17023468017578 -5.127070426940918 -0.81446772813797 0.991675078868866 0 3
39.16921615600586 -5.484980583190918 -0.8154362440109253 0.9904960989952087 0 3
39.183006286621094 -5.845995903015137 -0.8167875409126282 0.9676976799964905 0 3
39.19191360473633 -6.207382678985596 -0.8180987238883972 0.9872543215751648 0 3
39.19085693359375 -6.568368911743164 -0.8192706108093262 0.9858378767967224 0 3
14.905467987060547 -2.6358885765075684 -0.31207746267318726 0.975541889667511 26 6
38.35509490966797 -7.138329982757568 -0.8043055534362793 0.18008896708488464 0 5
39.16292953491211 -7.653056621551514 -0.8227006196975708 0.9817507266998291 0 3
36.393028259277344 -7.451542854309082 -0.7659095525741577 0.9744776487350464 0 5
39.1608772277832 -8.385127067565918 -0.8256847858428955 0.9782014489173889 0 3
43.10289001464844 -10.450468063354492 -0.9144047498703003 0.23276667296886444 0 3
41.45472717285156 -10.445683479309082 -0.8813908100128174 0.24148473143577576 0 3
39.92130661010742 -10.441279411315918 -0.8507491946220398 0.2501830458641052 0 3
38.49081802368164 -10.437108993530273 -0.8222317099571228 0.2588616907596588 0 3
37.135860443115234 -10.428398132324219 -0.7952480912208557 0.27081501483917236 0 3
35.897090911865234 -10.429081916809082 -0.7706959247589111 0.27944275736808777 0 3
35.74154281616211 -10.732733726501465 -0.7693901062011719 0.958347737789154 0 3
32.00253677368164 -9.923925399780273 -0.6907989382743835 0.10127408802509308 27 6
35.73950958251953 -11.435429573059082 -0.7736479043960571 0.9530816674232483 0 3
35.73845672607422 -11.789746284484863 -0.775883138179779 0.9503334164619446 0 3
35.73746109008789 -12.146181106567383 -0.7781933546066284 0.9475082755088806 0 3
35.73640441894531 -12.504755973815918 -0.7805885076522827 0.9446070194244385 0 3
35.735389709472656 -12.865556716918945 -0.783051609992981 0.9416295886039734 0 3
35.73431396484375 -13.228700637817383 -0.7855970859527588 0.9385762810707092 0 3
35.73331832885742 -13.594188690185547 -0.788227379322052 0.9354474544525146 0 3
35.73226547241211 -13.962197303771973 -0.7909379601478577 0.9322430491447449 0 3
35.7311897277832 -14.332782745361328 -0.7937303185462952 0.9289637804031372 0 3
35.73011779785156 -14.706034660339355 -0.796610414981842 0.9256095290184021 0 3
35.72898483276367 -15.08202075958252 -0.7995707392692566 0.9221805930137634 0 3
35.72789001464844 -15.46083927154541 -0.8026167154312134 0.918677568435669 0 3
35.72683334350586 -15.842577934265137 -0.805754542350769 0.9151005148887634 0 3
35.725704193115234 -16.227373123168945 -0.8089825510978699 0.9114495515823364 0 3
35.724571228027344 -16.615293502807617 -0.8123000860214233 0.9077251553535461 0 3
35.72347640991211 -17.00641632080078 -0.8157145380973816 0.9039279222488403 0 3
35.72232437133789 -17.400907516479492 -0.8192234635353088 0.9000574350357056 0 3
35.72117233276367 -17.79878807067871 -0.8228278756141663 0.8961147665977478 0 3
15.70580005645752 -8.002490043640137 -0.3634181022644043 0.8070178627967834 168 12
15.627812385559082 -8.140273094177246 -0.3632906973361969 0.9009054899215698 168 12
15.560917854309082 -8.28383731842041 -0.3634498417377472 0.8585317730903625 168 12
15.698984146118164 -8.539042472839355 -0.36844968795776367 0.9256407618522644 168 12
35.71527099609375 -19.84390640258789 -0.8423712253570557 0.8753242492675781 0 3
35.71664047241211 -20.266298294067383 -0.846656322479248 0.8697301745414734 0 3
35.77378845214844 -20.725360870361328 -0.8524346947669983 0.8665120005607605 0 3
37.40199279785156 -22.119510650634766 -0.8959397673606873 0.8620007634162903 0 3
38.98130798339844 -23.52829933166504 -0.9387348890304565 0.857445478439331 0 3
35.734493255615234 -22.008583068847656 -0.8652651906013489 0.852770984172821 0 3
39.100799560546875 -24.568632125854492 -0.9520759582519531 0.7128608822822571 0 3
41.75359344482422 -26.76123046875 -1.0224764347076416 0.8435418009757996 0 3
41.751953125 -27.29197120666504 -1.0283957719802856 0.838688313961029 0 3
40.55341720581055 -29.18659019470215 -1.0301223993301392 0.5816760063171387 0 3
39.79206848144531 -29.184404373168945 -1.0173935890197754 0.5889512896537781 0 3
39.04933547973633 -29.182226181030273 -1.0050593614578247 0.596179187297821 0 3
38.32429504394531 -29.18013572692871 -0.9931034445762634 0.603359043598175 0 3
37.61623001098633 -29.1780948638916 -0.9815000891685486 0.6104903221130371 0 3
36.92445373535156 -29.17607307434082 -0.9702433347702026 0.6175723671913147 0 3
36.24831771850586 -29.174129486083984 -0.9593179225921631 0.6246048808097839 0 3
35.58718490600586 -29.17220687866211 -0.9487138390541077 0.6315872073173523 0 3
35.39027404785156 -29.545888900756836 -0.9505054950714111 0.769305408000946 0 3
35.38874816894531 -30.087753295898438 -0.9576780200004578 0.7635429501533508 0 3
35.387107849121094 -30.63785171508789 -0.9650292992591858 0.7577194571495056 0 3
35.38554763793945 -31.196561813354492 -0.9725875854492188 0.751834511756897 0 3
29.853456497192383 -26.79936408996582 -0.8271145224571228 0.4465377628803253 161 14
29.233671188354492 -26.720760345458984 -0.8165563941001892 0.7134478688240051 161 14
28.7725772857666 -26.777225494384766 -0.8103551864624023 0.7282364964485168 161 14
28.399921417236328 -26.910175323486328 -0.8066267371177673 0.8291870355606079 161 14
28.208593368530273 -27.2134952545166 -0.8080964684486389 0.7716141939163208 161 14
28.33558464050293 -27.8314151763916 -0.8188647031784058 0.295414000749588 161 14
19.36636734008789 18.023319244384766 -0.763702392578125 0.91114342212677 0 5
36.870975494384766 33.70161056518555 -1.4420232772827148 0.7358185052871704 0 3
36.869258880615234 33.097450256347656 -1.4302778244018555 0.7418616414070129 0 3
36.86751937866211 32.503074645996094 -1.4188344478607178 0.7478443384170532 0 3
36.86581802368164 31.918075561523438 -1.4076886177062988 0.753767192363739 0 3
7.504785060882568 6.380595684051514 -0.2842411696910858 0.9937434792518616 0 6
36.865196228027344 30.77723503112793 -1.3863497972488403 0.7662191987037659 0 3
11.773066520690918 9.650869369506836 -0.4394580125808716 0.9870095252990723 0 5
12.043632507324219 9.693232536315918 -0.44629332423210144 0.6194010376930237 0 5
12.270155906677246 9.695361137390137 -0.45144394040107727 0.6123340129852295 0 5
12.5020112991333 9.697558403015137 -0.4567520022392273 0.605217456817627 0 5
12.739336013793945 9.699774742126465 -0.46222320199012756 0.5980523824691772 0 5
12.982460975646973 9.70205020904541 -0.46786680817604065 0.5908398628234863 0 5
13.231639862060547 9.704384803771973 -0.47368818521499634 0.5835787057876587 0 5
13.487070083618164 9.706777572631836 -0.4796943664550781 0.5762713551521301 0 5
13.749140739440918 9.709247589111328 -0.4858946204185486 0.5689170360565186 0 5
14.018046379089355 9.711776733398438 -0.4923005700111389 0.5615172386169434 0 5
14.294218063354492 9.714365005493164 -0.4989158511161804 0.5540716052055359 0 5
14.577890396118164 9.717011451721191 -0.5057519674301147 0.5465818047523499 0 5
14.869491577148438 9.719745635986328 -0.5128199458122253 0.5390474200248718 0 5
15.16933536529541 9.72255802154541 -0.5201302766799927 0.5314705967903137 0 5
15.477949142456055 9.725468635559082 -0.527696967124939 0.5238500237464905 0 5
15.79564380645752 9.72842788696289 -0.535529613494873 0.5161877274513245 0 5
16.122968673706055 9.731493949890137 -0.5436451435089111 0.5084837675094604 0 5
16.460390090942383 9.7346773147583 -0.552052915096283 0.5007386207580566 0 5
16.80841827392578 9.737919807434082 -0.5607722401618958 0.4929530918598175 0 5
17.16765594482422 9.74129867553711 -0.5698177814483643 0.4851280748844147 0 5
17.53873062133789 9.744765281677246 -0.5792071223258972 0.47726377844810486 0 5
17.922304153442383 9.748388290405273 -0.5889588594436646 0.4693607687950134 0 5
18.318944931030273 9.75209903717041 -0.5990928411483765 0.46142104268074036 0 5
18.729570388793945 9.75594711303711 -0.6096363663673401 0.4534427523612976 0 5
19.15494155883789 9.759950637817383 -0.6206024289131165 0.44542884826660156 0 5
36.465545654296875 18.169677734375 -1.176188588142395 0.8933411836624146 0 5
36.46429443359375 17.762304306030273 -1.1708967685699463 0.8973300457000732 0 5
43.04751968383789 20.49309539794922 -1.3763216733932495 0.9012460112571716 0 3
36.46199035644531 16.958232879638672 -1.1608952283859253 0.9050897359848022 0 5
36.46085739135742 16.561279296875 -1.1560207605361938 0.9088605642318726 0 5
36.459686279296875 16.16756820678711 -1.1513535976409912 0.9125580191612244 0 5
43.04208755493164 18.625946044921875 -1.353882908821106 0.9161819219589233 0 3
43.040740966796875 18.16845703125 -1.3486557006835938 0.9197320938110352 0 3
43.03941345214844 17.714452743530273 -1.3435806035995483 0.9232081174850464 0 3
36.45515441894531 14.623222351074219 -1.1339054107666016 0.9266098141670227 0 5
36.45408248901367 14.24429702758789 -1.129843831062317 0.9299366474151611 0 5
36.453006744384766 13.867998123168945 -1.125895619392395 0.933188796043396 0 5
44.439666748046875 16.451318740844727 -1.367954969406128 0.3497323989868164 0 3
45.68531036376953 16.447723388671875 -1.4017022848129272 0.3413133919239044 0 3
46.99407958984375 16.443954467773438 -1.437276005744934 0.3328666090965271 0 3
37.372928619384766 11.957939147949219 -1.132852554321289 0.28309252858161926 0 5
38.655235290527344 11.986835479736328 -1.1683292388916016 0.2744764983654022 0 5
40.07464599609375 12.033788681030273 -1.2078999280929565 0.9635486006736755 0 5
43.024295806884766 12.499726295471191 -1.2933766841888428 0.9590445756912231 0 3
43.02308654785156 12.081679344177246 -1.2900265455245972 0.9615339636802673 0 3
43.021873474121094 11.665800094604492 -1.2867965698242188 0.9639458656311035 0 3
43.02070236206055 11.251914024353027 -1.2836893796920776 0.9662802815437317 0 3
43.01945114135742 10.839970588684082 -1.280700445175171 0.9685365557670593 0 3
43.018280029296875 10.429922103881836 -1.2778269052505493 0.9707150459289551 0 3
43.01710891723633 10.021698951721191 -1.275063395500183 0.9728152751922607 0 3
39.69955062866211 8.873906135559082 -1.174323320388794 0.974837064743042 0 3
39.6984748840332 8.500273704528809 -1.1719856262207031 0.9767802953720093 0 3
39.69738006591797 8.128066062927246 -1.1697558164596558 0.978644847869873 0 3
39.6962890625 7.757285118103027 -1.167622685432434 0.9804304838180542 0 3
39.69523239135742 7.387783050537109 -1.1655958890914917 0.9821372032165527 0 3
39.69416046142578 7.019540786743164 -1.163667917251587 0.9837648868560791 0 3
39.73320388793945 6.6591796875 -1.1630096435546875 0.03015156276524067 0 3
39.7902717590332 6.302148342132568 -1.1629774570465088 0.030152389779686928 0 3
39.844139099121094 5.944560527801514 -1.1629493236541748 0.030153222382068634 0 3
39.89511489868164 5.58654260635376 -1.162925124168396 0.030153825879096985 0 3
39.94300842285156 5.228202819824219 -1.162904977798462 0.03015429712831974 0 3
39.96120834350586 4.866142272949219 -1.162118673324585 0.991861879825592 0 3
36.43181610107422 4.104843616485596 -1.0583574771881104 0.9950932860374451 0 5
36.43765640258789 3.7745702266693115 -1.057509422302246 0.9958992004394531 0 5
36.44937515258789 3.115605354309082 -1.0560564994812012 0.997269868850708 0 5
36.46109390258789 2.458203077316284 -1.0549410581588745 0.998319149017334 0 5
36.472694396972656 1.8019824028015137 -1.0541774034500122 0.999046802520752 0 5
36.484413146972656 1.1465331315994263 -1.0537517070770264 0.9994524121284485 0 5
39.188045501708984 0.8795019388198853 -1.1315590143203735 0.9992246627807617 0 3
36.496055603027344 0.49134764075279236 -1.0536601543426514 0.9995359778404236 0 5
36.50189208984375 0.1637597680091858 -1.053747534751892 0.9994569420814514 0 5
39.184959411621094 -0.17587889730930328 -1.1312006711959839 0.9995441436767578 0 3
39.18394470214844 -0.5276171565055847 -1.131260871887207 0.9994895458221436 0 3
36.42412185668945 -0.8174902200698853 -1.0517559051513672 0.9988336563110352 0 5
36.42913818359375 -1.1448339223861694 -1.0521526336669922 0.9984548091888428 0 5
36.43417739868164 -1.4724316596984863 -1.052638053894043 0.9979958534240723 0 5
36.439178466796875 -1.800390601158142 -1.0532029867172241 0.9974561929702759 0 5
36.44419860839844 -2.128720760345459 -1.0538607835769653 0.996836245059967 0 5
36.44921875 -2.4574804306030273 -1.0546026229858398 0.9961358308792114 0 5
36.45429611206055 -2.7867186069488525 -1.0554288625717163 0.9953553080558777 0 5
36.45929718017578 -3.116523265838623 -1.0563427209854126 0.994494616985321 0 5
36.464393615722656 -3.446894407272339 -1.0573451519012451 0.9935538172721863 0 5
39.17374801635742 -4.058056354522705 -1.1369178295135498 0.9945183992385864 0 3
39.172733306884766 -4.413681507110596 -1.1379882097244263 0.9935796856880188 0 3
39.17169952392578 -4.77001953125 -1.139156460762024 0.992560863494873 0 3
39.17068099975586 -5.127109050750732 -1.1404186487197876 0.9914620518684387 0 3
39.16960906982422 -5.484999656677246 -1.141775369644165 0.9902834892272949 0 3
39.18695068359375 -5.846562385559082 -1.1437668800354004 0.968113124370575 0 3
39.190975189208984 -6.207245826721191 -1.1454671621322632 0.9881154298782349 0 3
39.18996047973633 -6.568193435668945 -1.1471107006072998 0.9866964817047119 0 3
14.905624389648438 -2.6359081268310547 -0.4369683861732483 0.9753335118293762 26 6
38.35482406616211 -7.138310432434082 -1.1262390613555908 0.1800534725189209 0 5
39.16335678100586 -7.653124809265137 -1.151949167251587 0.9815398454666138 0 3
36.393436431884766 -7.451611042022705 -1.0724040269851685 0.9742681980133057 0 5
39.16128921508789 -8.385233879089355 -1.1561264991760254 0.9779911637306213 0 3
48.44636535644531 -11.28653335571289 -1.4360036849975586 0.08113487809896469 0 0
43.10269546508789 -10.450429916381836 -1.2803360223770142 0.23272021114826202 0 3
41.45458984375 -10.445653915405273 -1.234113335609436 0.24143634736537933 0 3
39.92116928100586 -10.4412202835083 -1.1911991834640503 0.2501331865787506 0 3
38.490623474121094 -10.437089920043945 -1.1512665748596191 0.2588099539279938 0 3
37.13820266723633 -10.429091453552246 -1.1135720014572144 0.2690339982509613 0 3
35.89695358276367 -10.429052352905273 -1.079114556312561 0.2793866991996765 0 3
35.74195098876953 -10.732831954956055 -1.0773115158081055 0.9581416845321655 0 3
32.00154113769531 -9.923632621765137 -0.9672157168388367 0.1012565940618515 27 6
35.73990249633789 -11.435556411743164 -1.08326256275177 0.9528765678405762 0 3
21.420429229736328 -7.066337585449219 -0.6511407494544983 0.3104075789451599 0 20
21.178789138793945 -7.198085784912109 -0.6457327008247375 0.7601038217544556 0 20
21.176679611206055 -7.410048484802246 -0.6476724147796631 0.7578307390213013 0 20
35.735801696777344 -12.865702629089355 -1.0964404344558716 0.9414268136024475 0 3
35.734764099121094 -13.2288179397583 -1.1000014543533325 0.9383741021156311 0 3
35.73373031616211 -13.594345092773438 -1.1036831140518188 0.9352459907531738 0 3
35.7326545715332 -13.962382316589355 -1.1074731349945068 0.9320422410964966 0 3
35.731563568115234 -14.332958221435547 -1.1113876104354858 0.9287635684013367 0 3
35.73048782348633 -14.706191062927246 -1.1154141426086426 0.9254101514816284 0 3
35.729373931884766 -15.082186698913574 -1.1195647716522217 0.9219818711280823 0 3
35.72834014892578 -15.46102523803711 -1.1238266229629517 0.9184796810150146 0 3
35.72722625732422 -15.842792510986328 -1.1282296180725098 0.9149030447006226 0 3
35.726131439208984 -16.227577209472656 -1.132738709449768 0.9112530946731567 0 3
35.724998474121094 -16.615497589111328 -1.1373897790908813 0.9075294137001038 0 3
35.72390365600586 -17.006601333618164 -1.1421654224395752 0.9037327766418457 0 3
35.72279357910156 -17.401073455810547 -1.147078514099121 0.8998634219169617 0 3
35.721641540527344 -17.798994064331055 -1.152125358581543 0.8959213495254517 0 3
15.622773170471191 -7.960195064544678 -0.5061651468276978 0.7279922366142273 168 12
15.6357421875 -8.144365310668945 -0.5089313983917236 0.8961719870567322 168 12
15.571328163146973 -8.289384841918945 -0.5092384219169617 0.8296562433242798 168 12
15.6845703125 -8.531190872192383 -0.5154231190681458 0.8815820813179016 168 12
35.71574020385742 -19.844120025634766 -1.179495096206665 0.8751351833343506 0 3
35.71699142456055 -20.266504287719727 -1.1854934692382812 0.8701610565185547 0 3
35.71630859375 -20.69207000732422 -1.1915925741195679 0.8657113909721375 0 3
37.40242004394531 -22.119794845581055 -1.254438042640686 0.861814022064209 0 3
38.98152160644531 -23.528427124023438 -1.314402461051941 0.8572342395782471 0 3
35.73493957519531 -22.008846282958984 -1.211556315422058 0.8525863289833069 0 3
39.10029220581055 -24.56831932067871 -1.3330663442611694 0.7127803564071655 0 3
41.07415771484375 -26.325721740722656 -1.4083657264709473 0.843586266040802 0 3
41.07246017456055 -26.847801208496094 -1.4165096282958984 0.8387342691421509 0 3
41.07066345214844 -27.375926971435547 -1.4248672723770142 0.8338148593902588 0 3
41.068904876708984 -27.910409927368164 -1.4334380626678467 0.8248708248138428 0 3
41.07093811035156 -28.45401382446289 -1.4423617124557495 0.8197656869888306 0 3
40.55335998535156 -29.186532974243164 -1.4423595666885376 0.5815582275390625 0 3
34.9328498840332 -25.620506286621094 -1.2505871057510376 0.7355045676231384 0 20
39.04925537109375 -29.18219566345215 -1.4072750806808472 0.5960586071014404 0 3
38.324256896972656 -29.180097579956055 -1.3905268907546997 0.603236734867096 0 3
37.61619186401367 -29.178035736083984 -1.3742860555648804 0.610366702079773 0 3
36.924373626708984 -29.176054000854492 -1.3585259914398193 0.617447555065155 0 3
36.2482795715332 -29.174081802368164 -1.343229055404663 0.6244781613349915 0 3
35.58716583251953 -29.172176361083984 -1.3283816576004028 0.6314588785171509 0 3
35.39078140258789 -29.54631805419922 -1.330893874168396 0.7691378593444824 0 3
35.38925552368164 -30.088163375854492 -1.340965747833252 0.7633765935897827 0 3
35.387657165527344 -30.63827133178711 -1.3512465953826904 0.757554292678833 0 3
35.38603591918945 -31.197011947631836 -1.361822485923767 0.7516703009605408 0 3
29.74753761291504 -26.704286575317383 -1.1540049314498901 0.47113165259361267 161 14
29.166385650634766 -26.65922737121582 -1.1406975984573364 0.7217423319816589 161 14
28.709003448486328 -26.718095779418945 -1.1321467161178589 0.8400120735168457 161 14
28.33054542541504 -26.84444236755371 -1.1266791820526123 0.9939102530479431 161 14
28.27621078491211 -27.278799057006836 -1.134204387664795 0.595719575881958 161 14
28.169784545898438 -27.668554306030273 -1.1398582458496094 0.7110331654548645 161 14
31.54652214050293 31.546531677246094 -1.6561611890792847 0.038094233721494675 0 2
31.82210922241211 31.255878448486328 -1.6558380126953125 0.03810175508260727 0 2
32.09519577026367 30.96302604675293 -1.6555187702178955 0.03810911998152733 0 2
32.365604400634766 30.6678409576416 -1.655202865600586 0.03811640292406082 0 2
19.366483688354492 18.023406982421875 -0.9820829629898071 0.9108902812004089 0 5
32.89861297607422 30.07064437866211 -1.6545825004577637 0.03813067823648453 0 2
33.161170959472656 29.768739700317383 -1.6542775630950928 0.038137584924697876 0 2
33.4208984375 29.4644718170166 -1.6539769172668457 0.038144614547491074 0 2
33.67800521850586 29.15809440612793 -1.6536797285079956 0.038151416927576065 0 2
7.504530906677246 6.380390644073486 -0.36567413806915283 0.9935027360916138 0 6
34.18394470214844 28.538768768310547 -1.6530969142913818 0.03816486895084381 0 2
11.77318286895752 9.650946617126465 -0.5651258826255798 0.9867308735847473 0 5
12.043671607971191 9.69326114654541 -0.5739114284515381 0.6192313432693481 0 5
12.270195007324219 9.695380210876465 -0.5805351138114929 0.6121659278869629 0 5
12.5020112991333 9.697548866271973 -0.5873607993125916 0.6050522923469543 0 5
12.739355087280273 9.699774742126465 -0.5943969488143921 0.5978890061378479 0 5
12.982500076293945 9.702079772949219 -0.601652204990387 0.5906779766082764 0 5
13.231659889221191 9.704413414001465 -0.6091398596763611 0.5834187865257263 0 5
13.48714828491211 9.706777572631836 -0.6168661117553711 0.5761128664016724 0 5
13.749159812927246 9.709257125854492 -0.6248371601104736 0.5687614679336548 0 5
14.018085479736328 9.71175765991211 -0.633072018623352 0.561363160610199 0 5
14.294218063354492 9.714365005493164 -0.641579270362854 0.5539195537567139 0 5
14.577890396118164 9.717031478881836 -0.6503729224205017 0.5464321970939636 0 5
14.869491577148438 9.719755172729492 -0.6594595313072205 0.5389001965522766 0 5
15.169374465942383 9.722578048706055 -0.66886305809021 0.5313248634338379 0 5
15.477968215942383 9.725478172302246 -0.6785926818847656 0.5237069725990295 0 5
15.795663833618164 9.728456497192383 -0.6886651515960693 0.5160466432571411 0 5
16.12300682067871 9.7315034866333 -0.6990989446640015 0.5083443522453308 0 5
16.460430145263672 9.734697341918945 -0.709911048412323 0.5006012320518494 0 5
16.808475494384766 9.737958908081055 -0.7211262583732605 0.4928181767463684 0 5
17.167734146118164 9.74129867553711 -0.7327561974525452 0.4849947392940521 0 5
17.538787841796875 9.744804382324219 -0.7448321580886841 0.47713300585746765 0 5
17.922285079956055 9.748388290405273 -0.7573721408843994 0.4692325294017792 0 5
18.31898307800293 9.752089500427246 -0.7704067826271057 0.46129411458969116 0 5
18.729570388793945 9.755966186523438 -0.7839595079421997 0.45331871509552 0 5
19.154979705810547 9.759961128234863 -0.7980648875236511 0.4453069269657135 0 5
35.79169845581055 17.83391571044922 -1.484483003616333 0.8930877447128296 0 20
35.811893463134766 17.44451141357422 -1.4787644147872925 0.44021397829055786 0 20
35.78941345214844 17.037782669067383 -1.4714596271514893 0.9009904265403748 0 20
35.78824234008789 16.644882202148438 -1.4652080535888672 0.9048330187797546 0 20
35.787109375 16.255273818969727 -1.4591350555419922 0.9086027145385742 0 20
36.179725646972656 16.043437957763672 -1.4692153930664062 0.40772706270217896 0 20
41.72232437133789 18.054834365844727 -1.6876485347747803 0.03833090886473656 0 0
41.878787994384766 17.677978515625 -1.6874898672103882 0.03833451867103577 0 0
42.03199005126953 17.299795150756836 -1.68733549118042 0.03833796828985214 0 0
36.455623626708984 14.623388290405273 -1.4581583738327026 0.9263471364974976 0 5
36.45452880859375 14.2444429397583 -1.4529600143432617 0.9296731352806091 0 5
36.45343780517578 13.86815357208252 -1.4478652477264404 0.9329245090484619 0 5
42.61148452758789 15.774540901184082 -1.6867635250091553 0.038350909948349 0 0
42.74789047241211 15.390185356140137 -1.6866319179534912 0.03835403174161911 0 0
42.88117218017578 15.004765510559082 -1.6865041255950928 0.03835686296224594 0 0
43.01089859008789 14.618183135986328 -1.6863813400268555 0.03835972025990486 0 0
43.137577056884766 14.23055648803711 -1.6862620115280151 0.03836223483085632 0 0
37.373008728027344 11.95799732208252 -1.4566863775253296 0.28301480412483215 0 5
38.65534973144531 11.986884117126465 -1.5025947093963623 0.274400919675827 0 5
40.07511520385742 12.033935546875 -1.5533150434494019 0.9632757902145386 0 5
43.02476501464844 12.499873161315918 -1.6632293462753296 0.9587729573249817 0 3
43.02355194091797 12.081826210021973 -1.6589263677597046 0.9612617492675781 0 3
43.022342681884766 11.665898323059082 -1.654773235321045 0.9636730551719666 0 3
43.02117156982422 11.252020835876465 -1.6507775783538818 0.9660066962242126 0 3
43.01995849609375 10.840116500854492 -1.6469271183013916 0.9682626724243164 0 3
43.018768310546875 10.43008804321289 -1.6432323455810547 0.9704403281211853 0 3
43.017578125 10.021855354309082 -1.639685034751892 0.9725399613380432 0 3
39.39429473876953 8.8056640625 -1.4985040426254272 0.9745611548423767 0 3
39.39324188232422 8.434911727905273 -1.49552583694458 0.9765039086341858 0 3
39.392147064208984 8.06557559967041 -1.492674469947815 0.9783680438995361 0 3
39.39109420776367 7.697636604309082 -1.4899533987045288 0.9801532030105591 0 3
39.390018463134766 7.331005573272705 -1.487365961074829 0.9818595051765442 0 3
39.38898468017578 6.965595722198486 -1.4849063158035278 0.9834866523742676 0 3
39.38788986206055 6.60134744644165 -1.4825735092163086 0.9850346446037292 0 3
39.38683319091797 6.238251686096191 -1.480366587638855 0.9865031242370605 0 3
39.385799407958984 5.876191139221191 -1.478279709815979 0.9878920912742615 0 3
39.384727478027344 5.515126705169678 -1.476326584815979 0.9892016053199768 0 3
39.38370895385742 5.154999732971191 -1.474491834640503 0.9904313087463379 0 3
39.38265609741211 4.795702934265137 -1.4727838039398193 0.991581380367279 0 3
36.432186126708984 4.104863166809082 -1.3610280752182007 0.9948118925094604 0 5
36.438045501708984 3.7746191024780273 -1.3599133491516113 0.9956174492835999 0 5
45.18271255493164 4.27099609375 -1.684775471687317 0.038396112620830536 0 0
36.449764251708984 3.1156249046325684 -1.3580443859100342 0.9969879388809204 0 5
45.25226593017578 3.4592676162719727 -1.684780240058899 0.03839598968625069 0 0
36.461483001708984 2.4582324028015137 -1.3566250801086426 0.9980369210243225 0 5
45.30775451660156 2.6463963985443115 -1.6848032474517822 0.03839540109038353 0 0
36.47316360473633 1.8019921779632568 -1.355621576309204 0.9987643957138062 0 5
45.34890365600586 1.8326854705810547 -1.684844970703125 0.03839459270238876 0 0
36.484825134277344 1.1465429067611694 -1.3550752401351929 0.9991698265075684 0 5
39.1884765625 0.87953120470047 -1.4551424980163574 0.9989421963691711 0 3
31.843631744384766 0.428779274225235 -1.1822227239608765 0.9029829502105713 0 6
36.50226593017578 0.1637890636920929 -1.3550747632980347 0.9991744160652161 0 5
39.18540954589844 -0.1758691370487213 -1.4546762704849243 0.9992614388465881 0 3
39.18437576293945 -0.5276073813438416 -1.4547536373138428 0.9992070198059082 0 3
36.424530029296875 -0.8174804449081421 -1.3525134325027466 0.9985513091087341 0 5
36.42953109741211 -1.1448339223861694 -1.3530194759368896 0.9981726408004761 0 5
36.4345703125 -1.4724316596984863 -1.3536471128463745 0.997713565826416 0 5
36.439571380615234 -1.800380825996399 -1.3543763160705566 0.997174084186554 0 5
36.44462966918945 -2.128740072250366 -1.3552099466323853 0.9965543150901794 0 5
36.44968795776367 -2.4574804306030273 -1.356169581413269 0.9958543181419373 0 5
36.45468521118164 -2.786738157272339 -1.35723078250885 0.9950739741325378 0 5
36.45972442626953 -3.1165525913238525 -1.3584082126617432 0.994213342666626 0 5
36.46476364135742 -3.4469237327575684 -1.3597015142440796 0.9932728409767151 0 5
39.17417907714844 -4.05813455581665 -1.462027668952942 0.9942372441291809 0 3
35.96824264526367 -4.052636623382568 -1.3436781167984009 0.9932988882064819 0 20
35.96728515625 -4.379814147949219 -1.3450614213943481 0.9922803640365601 0 20
35.966365814208984 -4.707685470581055 -1.3465473651885986 0.9911819696426392 0 20
39.17003631591797 -5.485068321228027 -1.4682801961898804 0.9900034070014954 0 3
39.182579040527344 -5.845888614654541 -1.4706547260284424 0.9894448518753052 0 3
39.181541442871094 -6.205751895904541 -1.4726448059082031 0.9880853891372681 0 3
39.18042755126953 -6.566640377044678 -1.4747631549835205 0.9866909980773926 0 3
14.905741691589355 -2.6359472274780273 -0.561924397945404 0.9750585556030273 26 6
38.354705810546875 -7.138251781463623 -1.4482799768447876 0.18000520765781403 0 5
39.163787841796875 -7.653222560882568 -1.481358289718628 0.9812621474266052 0 3
36.02859115600586 -7.376923561096191 -1.3652201890945435 0.97952800989151 0 20
36.02761459350586 -7.714296817779541 -1.3677499294281006 0.9777147173881531 0 20
36.02666091918945 -8.052948951721191 -1.3704041242599487 0.9758226871490479 0 20
43.99872970581055 -10.250439643859863 -1.6770877838134766 0.07047650218009949 0 0
43.10251998901367 -10.450361251831055 -1.6464269161224365 0.23265793919563293 0 3
41.45437240600586 -10.4456148147583 -1.5869958400726318 0.24137185513973236 0 3
39.92097473144531 -10.441171646118164 -1.5318186283111572 0.25006628036499023 0 3
38.49054718017578 -10.437050819396973 -1.4804654121398926 0.2587403655052185 0 3
37.14081954956055 -10.42983341217041 -1.4320958852767944 0.26894205808639526 0 3
35.896873474121094 -10.428994178771973 -1.3876867294311523 0.2793116569519043 0 3
35.74234390258789 -10.732949256896973 -1.3853776454925537 0.9578704833984375 0 3
32.00062561035156 -9.923358917236328 -1.2437459230422974 0.10123185813426971 27 6
35.74031066894531 -11.435673713684082 -1.3930352926254272 0.9526066184043884 0 3
21.420351028442383 -7.066328048706055 -0.8373304605484009 0.31032419204711914 0 20
18.523906707763672 -6.295732498168945 -0.7262848019599915 0.24495890736579895 0 20
18.258203506469727 -6.388818264007568 -0.7180873155593872 0.8990592360496521 0 20
18.121952056884766 -6.524267196655273 -0.7150024175643921 0.9029380083084106 0 20
17.999101638793945 -6.663144588470459 -0.7124856114387512 0.9952338337898254 0 20
17.95374870300293 -6.830244064331055 -0.7130900621414185 0.9943888783454895 0 20
17.908397674560547 -6.997617244720459 -0.7137569785118103 0.9934637546539307 0 20
17.939178466796875 -7.195898056030273 -0.7175250053405762 0.8012657165527344 0 20
17.99492073059082 -7.406474590301514 -0.7223882675170898 0.7958738803863525 0 20
35.72984313964844 -15.082392692565918 -1.4397095441818237 0.9217203855514526 0 3
35.7287483215332 -15.461210250854492 -1.4452053308486938 0.9182189702987671 0 3
35.727657318115234 -15.842978477478027 -1.4508554935455322 0.9146435856819153 0 3
35.7265625 -16.227733612060547 -1.456662893295288 0.9109945893287659 0 3
35.72544860839844 -16.615663528442383 -1.462642788887024 0.9072718620300293 0 3
35.724334716796875 -17.006805419921875 -1.4687845706939697 0.903476357460022 0 3
35.72316360473633 -17.40129852294922 -1.475102186203003 0.8996077179908752 0 3
35.722049713134766 -17.799238204956055 -1.4815924167633057 0.895666778087616 0 3
15.480605125427246 -7.887763500213623 -0.6449770927429199 0.7405284643173218 168 12
15.66234302520752 -8.1582612991333 -0.6555742025375366 0.8686085939407349 168 12
15.599296569824219 -8.304247856140137 -0.6560279726982117 0.7921318411827087 168 12
35.717342376708984 -19.427547454833984 -1.5093640089035034 0.8791847825050354 0 3
35.71615219116211 -19.844385147094727 -1.516783356666565 0.8748863339424133 0 3
35.71738052368164 -20.26675796508789 -1.524501919746399 0.8699139356613159 0 3
35.716758728027344 -20.692304611206055 -1.532334566116333 0.8654652833938599 0 3
35.71617126464844 -21.122440338134766 -1.5403774976730347 0.8614530563354492 0 3
38.98202896118164 -23.528711318969727 -1.6902730464935303 0.8569902777671814 0 3
35.735389709472656 -22.009130477905273 -1.558013916015625 0.8523434400558472 0 3
38.69548797607422 -24.313974380493164 -1.6965097188949585 0.03813061863183975 0 0
38.48292922973633 -24.66501808166504 -1.6968258619308472 0.03812340274453163 0 0
38.26726531982422 -25.014129638671875 -1.697145938873291 0.03811618313193321 0 0
38.04832077026367 -25.36137580871582 -1.697469711303711 0.038109034299850464 0 0
37.826560974121094 -25.706893920898438 -1.6977975368499756 0.038101598620414734 0 0
37.60142517089844 -26.05029296875 -1.6981291770935059 0.03809436783194542 0 0
37.37345504760742 -26.391971588134766 -1.698464274406433 0.03808685019612312 0 0
36.39712905883789 -26.195253372192383 -1.664705514907837 0.03807910159230232 0 2
35.018943786621094 -25.683631896972656 -1.6121431589126587 0.3103408217430115 0 20
35.93562316894531 -26.85529327392578 -1.6653802394866943 0.03806363791227341 0 2
35.70050811767578 -27.182392120361328 -1.6657226085662842 0.03805575519800186 0 2
35.46242141723633 -27.50741195678711 -1.6660690307617188 0.0380479097366333 0 2
35.0546875 -27.69869041442871 -1.658529281616211 0.0380399264395237 0 2
34.812129974365234 -28.0181827545166 -1.658880591392517 0.03803180530667305 0 2
34.56654357910156 -28.335556030273438 -1.6592355966567993 0.038023725152015686 0 2
34.318241119384766 -28.650897979736328 -1.659593939781189 0.03801550343632698 0 2
34.06716537475586 -28.964130401611328 -1.6599555015563965 0.038007162511348724 0 2
33.81325912475586 -29.275146484375 -1.66032075881958 0.037998829036951065 0 2
33.556602478027344 -29.58405113220215 -1.6606889963150024 0.03799036145210266 0 2
33.2971076965332 -29.890722274780273 -1.6610608100891113 0.037981901317834854 0 2
30.011131286621094 -27.43135643005371 -1.509358286857605 0.7355788350105286 161 14
30.012596130371094 -27.931318283081055 -1.5219827890396118 0.729478120803833 161 14
32.502342224121094 -30.797372817993164 -1.6621955633163452 0.03795605152845383 0 2
28.256288528442383 -27.259599685668945 -1.4575082063674927 0.6749616861343384 161 14
28.170351028442383 -27.66903305053711 -1.4658199548721313 0.7108267545700073 161 14
27.500038146972656 27.500057220458984 -1.7649624347686768 0.046332694590091705 0 1
27.74138641357422 27.247743606567383 -1.7646794319152832 0.04634007066488266 0 1
27.98046875 26.993398666381836 -1.764399528503418 0.04634733498096466 0 1
28.217185974121094 26.737010955810547 -1.7641228437423706 0.04635459929704666 0 1
19.366561889648438 18.023544311523438 -1.2006688117980957 0.9105755090713501 0 5
28.683671951293945 26.21799659729004 -1.7635793685913086 0.04636901989579201 0 1
28.91355323791504 25.95563507080078 -1.7633123397827148 0.04637591913342476 0 1
29.140897750854492 25.691181182861328 -1.763048768043518 0.046382952481508255 0 1
29.365976333618164 25.424795150756836 -1.7627882957458496 0.046389851719141006 0 1
7.504296779632568 6.380214691162109 -0.44700300693511963 0.993194580078125 0 6
29.80908203125 24.88636589050293 -1.7622774839401245 0.0464031808078289 0 1
11.77328109741211 9.651054382324219 -0.6908736824989319 0.9863855242729187 0 5
12.043710708618164 9.69327163696289 -0.701606273651123 0.6190195679664612 0 5
12.270195007324219 9.695390701293945 -0.7097036838531494 0.6119571328163147 0 5
12.501992225646973 9.697577476501465 -0.7180476188659668 0.6048458218574524 0 5
12.739394187927246 9.699785232543945 -0.7266514301300049 0.5976849794387817 0 5
12.982500076293945 9.702089309692383 -0.735521674156189 0.5904757380485535 0 5
13.231639862060547 9.7044038772583 -0.7446730136871338 0.583219587802887 0 5
13.48714828491211 9.706796646118164 -0.7541175484657288 0.5759161114692688 0 5
13.749159812927246 9.709277153015137 -0.7638648748397827 0.5685666799545288 0 5
14.0181245803833 9.711787223815918 -0.7739320397377014 0.5611713528633118 0 5
14.294218063354492 9.714374542236328 -0.7843299508094788 0.5537307858467102 0 5
14.57796859741211 9.717031478881836 -0.7950796484947205 0.546245276927948 0 5
14.86953067779541 9.719794273376465 -0.8061932325363159 0.5387159585952759 0 5
15.169413566589355 9.722578048706055 -0.8176844716072083 0.531143069267273 0 5
15.477988243103027 9.725478172302246 -0.8295791149139404 0.5235273838043213 0 5
15.795702934265137 9.728466987609863 -0.8418958783149719 0.5158699154853821 0 5
16.12300682067871 9.73153305053711 -0.8546478152275085 0.5081707239151001 0 5
16.460430145263672 9.734697341918945 -0.8678683042526245 0.5004302263259888 0 5
16.808496475219727 9.737958908081055 -0.881578803062439 0.4926493465900421 0 5
17.167734146118164 9.741317749023438 -0.8957934379577637 0.4848293364048004 0 5
17.538768768310547 9.744804382324219 -0.9105566143989563 0.47697019577026367 0 5
17.922344207763672 9.748427391052246 -0.9258898496627808 0.46907198429107666 0 5
18.31900405883789 9.752128601074219 -0.9418213963508606 0.4611366391181946 0 5
18.72964859008789 9.755995750427246 -0.9583929181098938 0.45316389203071594 0 5
19.155038833618164 9.760000228881836 -0.975634753704071 0.44515401124954224 0 5
32.669921875 16.278427124023438 -1.6564873456954956 0.04654524475336075 0 2
31.722030639648438 15.452255249023438 -1.601333737373352 0.8967594504356384 0 20
31.72101402282715 15.101005554199219 -1.5943739414215088 0.9006732106208801 0 20
31.719961166381836 14.752763748168945 -1.5876046419143677 0.904514491558075 0 20
31.719003677368164 14.407421112060547 -1.5810134410858154 0.9082830548286438 0 20
31.718008041381836 14.064921379089355 -1.5746084451675415 0.9119781851768494 0 20
31.716991424560547 13.725136756896973 -1.5683835744857788 0.9156000018119812 0 20
31.716014862060547 13.38802719116211 -1.562328577041626 0.9191479682922363 0 20
31.715038299560547 13.053485870361328 -1.5564485788345337 0.9226218461990356 0 20
31.714101791381836 12.72142505645752 -1.550732135772705 0.9260213375091553 0 20
31.713592529296875 12.39193344116211 -1.545204997062683 0.5700229406356812 0 20
31.71988296508789 12.067343711853027 -1.5401772260665894 0.5718855261802673 0 20
31.751327514648438 11.754159927368164 -1.5365139245986938 0.04658892750740051 0 20
32.29832077026367 11.628105163574219 -1.557875633239746 0.9388707876205444 0 20
32.29738235473633 11.3013277053833 -1.5528724193572998 0.9418948292732239 0 20
32.296443939208984 10.976630210876465 -1.5480257272720337 0.9448427557945251 0 20
32.29771423339844 10.654667854309082 -1.5434414148330688 0.17607633769512177 0 20
32.29916000366211 10.334599494934082 -1.5390206575393677 0.46642744541168213 0 20
32.32652282714844 10.024404525756836 -1.5359710454940796 0.046605758368968964 0 20
32.41355514526367 9.733339309692383 -1.5358922481536865 0.046608153730630875 0 20
35.00257873535156 10.169198989868164 -1.6541796922683716 0.0466102696955204 0 2
35.090782165527344 9.854169845581055 -1.654102087020874 0.04661251977086067 0 2
35.17626953125 9.538349151611328 -1.654028296470642 0.046614546328783035 0 2
35.25894546508789 9.221816062927246 -1.6539580821990967 0.0466165766119957 0 2
35.33896255493164 8.904638290405273 -1.6538915634155273 0.04661835730075836 0 2
35.58454895019531 8.627626419067383 -1.6616958379745483 0.04662015661597252 0 2
35.659236907958984 8.307558059692383 -1.6616363525390625 0.046621814370155334 0 2
35.73113250732422 7.986865043640137 -1.6615805625915527 0.04662349820137024 0 2
35.80038833618164 7.665605068206787 -1.661528468132019 0.046624805778265 0 2
35.86663818359375 7.343720436096191 -1.661480188369751 0.046626221388578415 0 2
35.93011474609375 7.021308422088623 -1.6614354848861694 0.046627528965473175 0 2
35.99087905883789 6.698349475860596 -1.6613945960998535 0.04662857949733734 0 2
36.048709869384766 6.374902248382568 -1.6613575220108032 0.04662968963384628 0 2
36.1037483215332 6.050966739654541 -1.661324143409729 0.046630628407001495 0 2
36.15593719482422 5.726552486419678 -1.6612942218780518 0.04663147032260895 0 2
36.20534896850586 5.401709079742432 -1.6612682342529297 0.04663218557834625 0 2
36.25187301635742 5.076416015625 -1.6612458229064941 0.046632762998342514 0 2
36.29558563232422 4.750781059265137 -1.6612272262573242 0.04663325101137161 0 2
36.336326599121094 4.424785137176514 -1.66121244430542 0.04663386568427086 0 2
36.37453079223633 4.098427772521973 -1.6612011194229126 0.04663395881652832 0 2
36.40953063964844 3.7717089653015137 -1.66119384765625 0.046634335070848465 0 2
36.441932678222656 3.444765567779541 -1.661190152168274 0.04663432762026787 0 2
36.471405029296875 3.1175193786621094 -1.661190152168274 0.046634312719106674 0 2
36.49789047241211 2.790029287338257 -1.661194086074829 0.046634335070848465 0 2
36.52175521850586 2.462353467941284 -1.6612014770507812 0.046633973717689514 0 2
37.29085922241211 2.178154230117798 -1.6952379941940308 0.04663388058543205 0 0
37.3093147277832 1.8433886766433716 -1.695253849029541 0.04663340374827385 0 0
37.32470703125 1.5084179639816284 -1.69527268409729 0.04663292318582535 0 0
37.33722686767578 1.1733593940734863 -1.6952956914901733 0.04663236811757088 0 0
37.34683609008789 0.8381933569908142 -1.6953223943710327 0.04663163796067238 0 0
31.824100494384766 0.42848631739616394 -1.4443832635879517 0.9043810963630676 0 6
37.357303619384766 0.16765624284744263 -1.6953868865966797 0.04662984609603882 0 0
36.40324020385742 -0.16333983838558197 -1.652079463005066 0.9987167119979858 0 5
36.40822219848633 -0.4901757836341858 -1.6524385213851929 0.9984989762306213 0 5
36.41322326660156 -0.8172167539596558 -1.6529335975646973 0.9982010126113892 0 5
36.41822052001953 -1.1444628238677979 -1.653558611869812 0.9978224635124207 0 5
37.33216857910156 -1.5087499618530273 -1.6956150531768799 0.04662366211414337 0 0
37.318477630615234 -1.8438280820846558 -1.695671796798706 0.04662198945879936 0 0
37.30160140991211 -2.1788084506988525 -1.6957327127456665 0.046620454639196396 0 0
37.28205108642578 -2.5136327743530273 -1.695797085762024 0.04661858081817627 0 0
36.51187515258789 -2.7911033630371094 -1.6618268489837646 0.04661646857857704 0 2
36.48697280883789 -3.118847608566284 -1.6618974208831787 0.04661444202065468 0 2
36.459022521972656 -3.4463963508605957 -1.6619716882705688 0.046612441539764404 0 2
36.428436279296875 -3.773691415786743 -1.6620495319366455 0.04661015048623085 0 2
35.99226379394531 -4.055370807647705 -1.6437467336654663 0.992950439453125 0 20
35.99136734008789 -4.382753849029541 -1.6454381942749023 0.9919323325157166 0 20
35.99039077758789 -4.710849285125732 -1.6472619771957397 0.99083411693573 0 20
36.27699279785156 -5.079960823059082 -1.6623979806900024 0.04660050943493843 0 2
36.232147216796875 -5.405703067779541 -1.66249418258667 0.046597667038440704 0 2
36.18441390991211 -5.731035232543945 -1.662593960762024 0.046594779938459396 0 2
36.13361358642578 -6.055966854095459 -1.662697434425354 0.04659203067421913 0 2
14.905937194824219 -2.6359667778015137 -0.686959981918335 0.9747174382209778 26 6
36.02375030517578 -6.704501628875732 -1.6629154682159424 0.04658599570393562 0 2
35.96464920043945 -7.028066158294678 -1.6630297899246216 0.04658276587724686 0 2
35.90265655517578 -7.351093769073486 -1.6631476879119873 0.04657943919301033 0 2
35.83781051635742 -7.673642635345459 -1.663269281387329 0.04657609760761261 0 2
35.77011489868164 -7.995585918426514 -1.6633944511413574 0.046572644263505936 0 2
35.69984436035156 -8.317011833190918 -1.6635229587554932 0.04656883701682091 0 2
35.626522064208984 -8.637773513793945 -1.663655400276184 0.04656524956226349 0 2
35.55043029785156 -8.957948684692383 -1.6637911796569824 0.04656144604086876 0 2
35.30364990234375 -9.233495712280273 -1.6560529470443726 0.04655751213431358 0 2
35.22234344482422 -9.5508394241333 -1.6561952829360962 0.0465536043047905 0 2
35.13833999633789 -9.867499351501465 -1.6563409566879272 0.046549417078495026 0 2
35.05158233642578 -10.183427810668945 -1.6564900875091553 0.0465451255440712 0 2
34.961875915527344 -10.498544692993164 -1.656643033027649 0.04654095321893692 0 2
31.999589920043945 -9.923027038574219 -1.5204370021820068 0.10120102763175964 27 6
34.774375915527344 -11.126582145690918 -1.6569591760635376 0.04653215408325195 0 2
21.42025375366211 -7.066298484802246 -1.0236300230026245 0.3102196753025055 0 20
21.151639938354492 -7.188817977905273 -1.01383376121521 0.9467028379440308 0 20
18.428163528442383 -6.448300838470459 -0.8860319256782532 0.5066068768501282 0 20
18.25390625 -6.57177734375 -0.8804566860198975 0.8262350559234619 0 20
18.117069244384766 -6.706835746765137 -0.87672358751297 0.9123911261558533 0 20
18.071758270263672 -6.875097274780273 -0.8774798512458801 0.9116042256355286 0 20
18.02945327758789 -7.044902324676514 -0.8784592747688293 0.7362999320030212 0 20
18.087596893310547 -7.255410194396973 -0.8844308257102966 0.7313289046287537 0 20
18.274921417236328 -7.521698951721191 -0.8968579173088074 0.34473294019699097 0 20
33.67325973510742 -14.214247703552246 -1.6587450504302979 0.04648201912641525 0 2
33.548397064208984 -14.51766586303711 -1.6589422225952148 0.046476416289806366 0 2
33.420780181884766 -14.819990158081055 -1.6591427326202393 0.04647082835435867 0 2
33.29050827026367 -15.121191024780273 -1.659346580505371 0.04646510258316994 0 2
33.15757751464844 -15.421366691589355 -1.6595535278320312 0.04645926505327225 0 2
33.02195358276367 -15.720341682434082 -1.659764051437378 0.04645345360040665 0 2
32.883750915527344 -16.018173217773438 -1.659977674484253 0.04644748568534851 0 2
32.743045806884766 -16.31485366821289 -1.6601946353912354 0.046441301703453064 0 2
32.59952926635742 -16.610254287719727 -1.6604148149490356 0.04643521085381508 0 2
15.70882797241211 -8.182451248168945 -0.8038194179534912 0.9947622418403625 168 12
15.532382011413574 -8.26864242553711 -0.798553466796875 0.8690026998519897 168 12
32.15359115600586 -17.489091873168945 -1.6610947847366333 0.046416301280260086 0 2
31.999921798706055 -17.779560089111328 -1.661327838897705 0.04640961438417435 0 2
31.84343719482422 -18.068584442138672 -1.6615639925003052 0.046403199434280396 0 2
31.684627532958984 -18.356348037719727 -1.6618032455444336 0.0463964007794857 0 2
31.52312469482422 -18.64266586303711 -1.6620457172393799 0.04638972133398056 0 2
31.35917854309082 -18.927703857421875 -1.662291169166565 0.04638281837105751 0 2
31.3048038482666 -19.280380249023438 -1.6685140132904053 0.8405691385269165 0 2
31.30160140991211 -19.6680850982666 -1.6776880025863647 0.8359746336936951 0 2
31.29831886291504 -20.060115814208984 -1.6870931386947632 0.8313155770301819 0 2
31.294960021972656 -20.45654296875 -1.6967440843582153 0.8265970945358276 0 2
31.291522979736328 -20.857587814331055 -1.7066363096237183 0.8218036890029907 0 2
31.28902244567871 -21.26396369934082 -1.716841697692871 0.8277917504310608 0 2
31.287811279296875 -21.676210403442383 -1.7273850440979004 0.822740375995636 0 2
31.286640167236328 -22.0936222076416 -1.7381891012191772 0.8176220059394836 0 2
31.285429000854492 -22.51631736755371 -1.7492830753326416 0.8124380111694336 0 2
31.284217834472656 -22.94447135925293 -1.7606627941131592 0.8071886897087097 0 2
31.173397064208984 -23.296424865722656 -1.7661312818527222 0.04630209133028984 0 1
30.968358993530273 -23.579383850097656 -1.7664296627044678 0.04629410430788994 0 1
19.633163452148438 -15.228983879089355 -1.127621054649353 0.8245880007743835 0 20
30.55062484741211 -24.139833450317383 -1.7670360803604126 0.04627816006541252 0 1
30.337890625 -24.417186737060547 -1.7673438787460327 0.046270281076431274 0 1
30.12285041809082 -24.692909240722656 -1.7676544189453125 0.04626208543777466 0 1
29.9053897857666 -24.966796875 -1.767967939376831 0.046253737062215805 0 1
29.68539047241211 -25.23870086669922 -1.768284559249878 0.0462455116212368 0 1
29.462947845458984 -25.50874900817871 -1.768604040145874 0.04623718559741974 0 1
29.23808479309082 -25.77681541442871 -1.7689265012741089 0.04622884839773178 0 1
29.01087760925293 -26.04303741455078 -1.7692517042160034 0.04622027650475502 0 1
28.781307220458984 -26.307254791259766 -1.7695798873901367 0.04621170833706856 0 1
28.549373626708984 -26.569549560546875 -1.7699108123779297 0.04620300605893135 0 1
28.314998626708984 -26.82972526550293 -1.7702445983886719 0.04619443416595459 0 1
