ply
format ascii 1.0
element vertex 1368
property float32 x
property float32 y
property float32 z
property float32 CosAngle
property uint32 ObjIdx
property uint32 ObjTag
end_header
0.8393 -0.0718 -0.4063 0.4458 458 14
0.8392 -0.0699 -0.4061 0.4459 458 14
0.8390 -0.0680 -0.4060 0.4461 458 14
0.8389 -0.0660 -0.4058 0.4462 458 14
0.8387 -0.0642 -0.4057 0.4464 458 14
0.8386 -0.0622 -0.4055 0.4466 458 14
0.8384 -0.0603 -0.4054 0.4467 458 14
0.8382 -0.0584 -0.4053 0.4469 458 14
0.8380 -0.0565 -0.4051 0.4470 458 14
0.8379 -0.0546 -0.4050 0.4472 458 14
0.8377 -0.0527 -0.4048 0.4474 458 14
0.8375 -0.0508 -0.4047 0.4475 458 14
0.8373 -0.0490 -0.4045 0.4477 458 14
0.8371 -0.0471 -0.4044 0.4479 458 14
0.8369 -0.0451 -0.4042 0.4480 458 14
0.8367 -0.0433 -0.4041 0.4482 458 14
0.8365 -0.0413 -0.4039 0.4483 458 14
0.8363 -0.0395 -0.4038 0.4485 458 14
0.8361 -0.0376 -0.4036 0.4487 458 14
0.8359 -0.0357 -0.4035 0.4488 458 14
0.8356 -0.0338 -0.4034 0.4490 458 14
0.8354 -0.0319 -0.4032 0.4491 458 14
0.8352 -0.0300 -0.4031 0.4493 458 14
0.8350 -0.0281 -0.4029 0.4495 458 14
0.8347 -0.0263 -0.4028 0.4496 458 14
0.8345 -0.0244 -0.4026 0.4498 458 14
0.8342 -0.0225 -0.4025 0.4499 458 14
0.8340 -0.0206 -0.4024 0.4501 458 14
0.8337 -0.0187 -0.4022 0.4503 458 14
0.8334 -0.0169 -0.4021 0.4504 458 14
0.8332 -0.0150 -0.4019 0.4506 458 14
0.8329 -0.0131 -0.4018 0.4507 458 14
0.8327 -0.0112 -0.4016 0.4509 458 14
0.8324 -0.0094 -0.4015 0.4511 458 14
0.8321 -0.0075 -0.4014 0.4512 458 14
0.8319 -0.0056 -0.4012 0.4514 458 14
0.8316 -0.0038 -0.4011 0.4515 458 14
0.8313 -0.0019 -0.4009 0.4517 458 14
0.8310 -0.0000 -0.4008 0.4519 458 14
0.8307 0.0018 -0.4007 0.4520 458 14
0.8304 0.0037 -0.4005 0.4522 458 14
0.8301 0.0056 -0.4004 0.4523 458 14
0.8298 0.0074 -0.4002 0.4525 458 14
0.8295 0.0093 -0.4001 0.4526 458 14
0.8292 0.0111 -0.4000 0.4528 458 14
0.8289 0.0130 -0.3998 0.4530 458 14
0.8286 0.0148 -0.3997 0.4531 458 14
0.8282 0.0167 -0.3995 0.4533 458 14
0.8279 0.0186 -0.3994 0.4534 458 14
0.8275 0.0204 -0.3993 0.4536 458 14
0.8272 0.0222 -0.3991 0.4538 458 14
0.8269 0.0241 -0.3990 0.4539 458 14
0.8265 0.0260 -0.3988 0.4541 458 14
3.7353 0.1258 -1.8026 0.4347 0 1
3.7350 0.1341 -1.8026 0.4347 0 1
3.7347 0.1425 -1.8026 0.4347 0 1
3.7344 0.1509 -1.8026 0.4347 0 1
3.7340 0.1593 -1.8026 0.4347 0 1
3.7337 0.1676 -1.8026 0.4347 0 1
3.7333 0.1760 -1.8026 0.4347 0 1
3.7329 0.1844 -1.8026 0.4347 0 1
3.7325 0.1928 -1.8026 0.4347 0 1
3.7320 0.2012 -1.8026 0.4347 0 1
3.7315 0.2095 -1.8026 0.4347 0 1
3.7311 0.2179 -1.8026 0.4347 0 1
3.7305 0.2263 -1.8026 0.4347 0 1
3.7300 0.2346 -1.8026 0.4347 0 1
3.7295 0.2430 -1.8026 0.4347 0 1
3.7289 0.2514 -1.8026 0.4347 0 1
3.7284 0.2598 -1.8026 0.4347 0 1
3.7278 0.2681 -1.8026 0.4347 0 1
3.7272 0.2765 -1.8026 0.4347 0 1
3.7266 0.2848 -1.8026 0.4347 0 1
3.7259 0.2932 -1.8026 0.4347 0 1
3.7252 0.3016 -1.8026 0.4347 0 1
3.7245 0.3099 -1.8026 0.4347 0 1
3.7238 0.3183 -1.8026 0.4347 0 1
3.7231 0.3266 -1.8026 0.4347 0 1
3.7224 0.3350 -1.8026 0.4347 0 1
3.7216 0.3434 -1.8026 0.4347 0 1
3.7208 0.3517 -1.8026 0.4347 0 1
3.7200 0.3600 -1.8026 0.4347 0 1
3.7192 0.3684 -1.8026 0.4347 0 1
3.7184 0.3767 -1.8026 0.4347 0 1
3.7175 0.3851 -1.8026 0.4347 0 1
3.7166 0.3934 -1.8026 0.4347 0 1
3.7158 0.4018 -1.8026 0.4347 0 1
3.7149 0.4101 -1.8026 0.4347 0 1
3.7139 0.4184 -1.8026 0.4347 0 1
3.7130 0.4267 -1.8026 0.4347 0 1
3.7120 0.4351 -1.8026 0.4347 0 1
3.7110 0.4434 -1.8026 0.4347 0 1
3.7100 0.4517 -1.8026 0.4347 0 1
3.7090 0.4601 -1.8026 0.4347 0 1
3.7080 0.4684 -1.8026 0.4347 0 1
3.7069 0.4767 -1.8026 0.4347 0 1
3.7058 0.4850 -1.8026 0.4347 0 1
3.7047 0.4933 -1.8026 0.4347 0 1
3.7036 0.5017 -1.8026 0.4347 0 1
3.7025 0.5100 -1.8026 0.4347 0 1
3.7013 0.5183 -1.8026 0.4347 0 1
3.7002 0.5266 -1.8026 0.4347 0 1
3.6990 0.5349 -1.8026 0.4347 0 1
3.6978 0.5432 -1.8026 0.4347 0 1
3.6965 0.5515 -1.8026 0.4347 0 1
3.6953 0.5598 -1.8026 0.4347 0 1
3.6940 0.5680 -1.8026 0.4347 0 1
3.6927 0.5763 -1.8026 0.4347 0 1
3.6914 0.5846 -1.8026 0.4347 0 1
3.6901 0.5929 -1.8026 0.4347 0 1
3.6888 0.6012 -1.8026 0.4347 0 1
3.6874 0.6094 -1.8026 0.4347 0 1
3.6861 0.6177 -1.8026 0.4347 0 1
3.6846 0.6260 -1.8026 0.4347 0 1
3.6832 0.6343 -1.8026 0.4347 0 1
3.6818 0.6426 -1.8026 0.4347 0 1
3.6804 0.6508 -1.8026 0.4347 0 1
3.6789 0.6591 -1.8026 0.4347 0 1
3.6774 0.6673 -1.8026 0.4347 0 1
3.6759 0.6756 -1.8026 0.4347 0 1
3.6744 0.6838 -1.8026 0.4347 0 1
3.6728 0.6921 -1.8026 0.4347 0 1
3.6713 0.7003 -1.8026 0.4347 0 1
3.6697 0.7085 -1.8026 0.4347 0 1
3.6681 0.7168 -1.8026 0.4347 0 1
3.6665 0.7250 -1.8026 0.4347 0 1
3.6648 0.7332 -1.8026 0.4347 0 1
3.6632 0.7414 -1.8026 0.4347 0 1
3.6615 0.7497 -1.8026 0.4347 0 1
3.6598 0.7579 -1.8026 0.4347 0 1
3.6581 0.7661 -1.8026 0.4347 0 1
3.6564 0.7743 -1.8026 0.4347 0 1
3.6546 0.7825 -1.8026 0.4347 0 1
3.6529 0.7907 -1.8026 0.4347 0 1
3.6511 0.7989 -1.8026 0.4347 0 1
3.6493 0.8071 -1.8026 0.4347 0 1
3.6475 0.8153 -1.8026 0.4347 0 1
3.6456 0.8234 -1.8026 0.4347 0 1
3.6437 0.8316 -1.8026 0.4347 0 1
3.6419 0.8398 -1.8026 0.4347 0 1
3.6400 0.8480 -1.8026 0.4347 0 1
3.6381 0.8562 -1.8026 0.4347 0 1
3.6362 0.8643 -1.8026 0.4347 0 1
3.6342 0.8725 -1.8026 0.4347 0 1
3.6323 0.8806 -1.8026 0.4347 0 1
3.6303 0.8888 -1.8026 0.4347 0 1
3.6283 0.8969 -1.8026 0.4347 0 1
3.6263 0.9051 -1.8026 0.4347 0 1
3.6242 0.9132 -1.8026 0.4347 0 1
3.6221 0.9213 -1.8026 0.4347 0 1
3.6201 0.9294 -1.8026 0.4347 0 1
3.6180 0.9376 -1.8026 0.4347 0 1
3.6159 0.9457 -1.8026 0.4347 0 1
3.6137 0.9538 -1.8026 0.4347 0 1
3.6116 0.9619 -1.8026 0.4347 0 1
3.6095 0.9700 -1.8026 0.4347 0 1
3.6073 0.9781 -1.8026 0.4347 0 1
3.6050 0.9862 -1.8026 0.4347 0 1
3.6028 0.9943 -1.8026 0.4347 0 1
3.6006 1.0023 -1.8026 0.4347 0 1
3.5984 1.0104 -1.8026 0.4347 0 1
3.5961 1.0185 -1.8026 0.4347 0 1
3.5938 1.0266 -1.8026 0.4347 0 1
3.5914 1.0346 -1.8026 0.4347 0 1
3.5891 1.0427 -1.8026 0.4347 0 1
3.5868 1.0507 -1.8026 0.4347 0 1
3.5844 1.0588 -1.8026 0.4347 0 1
3.5820 1.0669 -1.8026 0.4347 0 1
3.5796 1.0749 -1.8026 0.4347 0 1
3.5772 1.0829 -1.8026 0.4347 0 1
3.5748 1.0909 -1.8026 0.4347 0 1
3.5723 1.0990 -1.8026 0.4347 0 1
3.5698 1.1070 -1.8026 0.4347 0 1
3.5673 1.1150 -1.8026 0.4347 0 1
3.5648 1.1230 -1.8026 0.4347 0 1
3.5623 1.1310 -1.8026 0.4347 0 1
3.5597 1.1390 -1.8026 0.4347 0 1
3.5572 1.1470 -1.8026 0.4347 0 1
3.5546 1.1549 -1.8026 0.4347 0 1
3.5520 1.1629 -1.8026 0.4347 0 1
3.5494 1.1709 -1.8026 0.4347 0 1
3.5468 1.1788 -1.8026 0.4347 0 1
3.5441 1.1868 -1.8026 0.4347 0 1
3.5414 1.1947 -1.8026 0.4347 0 1
3.5388 1.2027 -1.8026 0.4347 0 1
3.5360 1.2106 -1.8026 0.4347 0 1
3.5333 1.2186 -1.8026 0.4347 0 1
3.5306 1.2265 -1.8026 0.4347 0 1
3.5279 1.2344 -1.8026 0.4347 0 1
3.5250 1.2423 -1.8026 0.4347 0 1
3.5222 1.2502 -1.8026 0.4347 0 1
3.5195 1.2581 -1.8026 0.4347 0 1
3.5166 1.2660 -1.8026 0.4347 0 1
3.5137 1.2739 -1.8026 0.4347 0 1
3.5109 1.2818 -1.8026 0.4347 0 1
3.5080 1.2896 -1.8026 0.4347 0 1
3.5051 1.2975 -1.8026 0.4347 0 1
3.5022 1.3054 -1.8026 0.4347 0 1
3.4993 1.3133 -1.8027 0.4347 0 1
3.4963 1.3211 -1.8027 0.4347 0 1
3.4933 1.3290 -1.8027 0.4347 0 1
3.4904 1.3368 -1.8027 0.4347 0 1
3.4873 1.3446 -1.8027 0.4347 0 1
3.4843 1.3524 -1.8027 0.4347 0 1
3.4813 1.3603 -1.8027 0.4347 0 1
3.4782 1.3681 -1.8027 0.4347 0 1
3.4751 1.3759 -1.8027 0.4347 0 1
3.4720 1.3837 -1.8027 0.4347 0 1
3.4689 1.3915 -1.8027 0.4347 0 1
3.4658 1.3992 -1.8027 0.4347 0 1
3.4627 1.4070 -1.8027 0.4347 0 1
3.4595 1.4148 -1.8027 0.4347 0 1
3.4563 1.4225 -1.8027 0.4347 0 1
3.4531 1.4303 -1.8027 0.4347 0 1
3.4499 1.4380 -1.8027 0.4347 0 1
3.4466 1.4458 -1.8027 0.4347 0 1
3.4434 1.4535 -1.8027 0.4347 0 1
3.4401 1.4612 -1.8027 0.4347 0 1
3.4368 1.4689 -1.8027 0.4347 0 1
3.4335 1.4767 -1.8027 0.4347 0 1
3.4302 1.4844 -1.8027 0.4347 0 1
3.4269 1.4920 -1.8027 0.4347 0 1
3.4236 1.4998 -1.8027 0.4347 0 1
3.4202 1.5074 -1.8027 0.4347 0 1
3.4168 1.5151 -1.8027 0.4347 0 1
3.4134 1.5228 -1.8027 0.4347 0 1
3.4099 1.5304 -1.8027 0.4347 0 1
3.4065 1.5381 -1.8027 0.4347 0 1
3.4030 1.5457 -1.8027 0.4347 0 1
3.3996 1.5534 -1.8027 0.4347 0 1
3.3961 1.5610 -1.8027 0.4347 0 1
3.3926 1.5686 -1.8027 0.4347 0 1
3.3890 1.5762 -1.8027 0.4347 0 1
3.3855 1.5838 -1.8027 0.4347 0 1
3.3819 1.5914 -1.8027 0.4347 0 1
3.3783 1.5990 -1.8027 0.4347 0 1
3.3748 1.6065 -1.8027 0.4347 0 1
3.3712 1.6141 -1.8027 0.4347 0 1
3.3675 1.6217 -1.8027 0.4347 0 1
3.3639 1.6292 -1.8027 0.4347 0 1
3.3602 1.6368 -1.8027 0.4347 0 1
3.3565 1.6443 -1.8027 0.4347 0 1
3.3529 1.6519 -1.8027 0.4347 0 1
3.3491 1.6594 -1.8027 0.4347 0 1
3.3454 1.6669 -1.8027 0.4347 0 1
3.3416 1.6744 -1.8027 0.4347 0 1
3.3379 1.6819 -1.8027 0.4347 0 1
3.3341 1.6894 -1.8027 0.4347 0 1
3.3303 1.6969 -1.8027 0.4347 0 1
3.3265 1.7043 -1.8027 0.4347 0 1
3.3227 1.7118 -1.8027 0.4347 0 1
3.3188 1.7193 -1.8027 0.4347 0 1
3.3150 1.7267 -1.8027 0.4347 0 1
3.3111 1.7341 -1.8027 0.4347 0 1
3.3072 1.7415 -1.8027 0.4347 0 1
3.3033 1.7490 -1.8027 0.4347 0 1
3.2993 1.7564 -1.8027 0.4347 0 1
3.2954 1.7638 -1.8027 0.4347 0 1
3.2914 1.7712 -1.8027 0.4347 0 1
3.2874 1.7786 -1.8027 0.4347 0 1
3.2835 1.7859 -1.8027 0.4347 0 1
3.2794 1.7933 -1.8027 0.4347 0 1
3.2754 1.8006 -1.8027 0.4347 0 1
3.2713 1.8080 -1.8027 0.4347 0 1
3.2673 1.8153 -1.8027 0.4347 0 1
3.2632 1.8226 -1.8027 0.4347 0 1
3.2591 1.8300 -1.8027 0.4347 0 1
3.2550 1.8373 -1.8027 0.4347 0 1
3.2509 1.8446 -1.8027 0.4347 0 1
3.2467 1.8519 -1.8027 0.4347 0 1
3.2426 1.8592 -1.8027 0.4347 0 1
3.2384 1.8664 -1.8027 0.4347 0 1
3.2342 1.8737 -1.8027 0.4347 0 1
3.2300 1.8809 -1.8027 0.4347 0 1
3.2257 1.8882 -1.8027 0.4347 0 1
3.2215 1.8954 -1.8027 0.4347 0 1
3.2173 1.9027 -1.8027 0.4347 0 1
3.2130 1.9099 -1.8027 0.4347 0 1
3.2087 1.9171 -1.8027 0.4347 0 1
3.2044 1.9243 -1.8027 0.4347 0 1
3.2000 1.9315 -1.8027 0.4347 0 1
3.1957 1.9387 -1.8028 0.4347 0 1
3.1913 1.9458 -1.8028 0.4347 0 1
3.1870 1.9530 -1.8028 0.4347 0 1
3.1826 1.9601 -1.8028 0.4347 0 1
3.1782 1.9673 -1.8028 0.4347 0 1
3.1738 1.9744 -1.8028 0.4347 0 1
3.1693 1.9815 -1.8028 0.4347 0 1
3.1649 1.9886 -1.8028 0.4347 0 1
3.1604 1.9957 -1.8028 0.4347 0 1
3.1560 2.0028 -1.8028 0.4347 0 1
3.1514 2.0099 -1.8028 0.4347 0 1
3.1469 2.0169 -1.8028 0.4347 0 1
3.1424 2.0240 -1.8028 0.4347 0 1
3.1379 2.0311 -1.8028 0.4347 0 1
3.1333 2.0381 -1.8028 0.4347 0 1
3.1287 2.0451 -1.8028 0.4347 0 1
3.1241 2.0521 -1.8028 0.4347 0 1
3.1195 2.0591 -1.8028 0.4346 0 1
3.1148 2.0661 -1.8028 0.4347 0 1
3.1102 2.0731 -1.8028 0.4346 0 1
3.1056 2.0801 -1.8028 0.4346 0 1
3.1009 2.0871 -1.8028 0.4346 0 1
3.0962 2.0940 -1.8028 0.4346 0 1
3.0915 2.1009 -1.8028 0.4346 0 1
3.0868 2.1079 -1.8028 0.4346 0 1
3.0821 2.1148 -1.8028 0.4346 0 1
3.0773 2.1217 -1.8028 0.4346 0 1
3.0726 2.1287 -1.8028 0.4346 0 1
3.0677 2.1355 -1.8028 0.4346 0 1
3.0630 2.1424 -1.8028 0.4346 0 1
3.0581 2.1493 -1.8028 0.4346 0 1
3.0533 2.1561 -1.8028 0.4346 0 1
3.0485 2.1630 -1.8028 0.4346 0 1
3.0436 2.1698 -1.8028 0.4346 0 1
3.0387 2.1767 -1.8028 0.4346 0 1
3.0338 2.1835 -1.8028 0.4346 0 1
3.0289 2.1903 -1.8028 0.4346 0 1
3.0240 2.1971 -1.8028 0.4346 0 1
3.0191 2.2038 -1.8028 0.4346 0 1
3.0141 2.2106 -1.8028 0.4346 0 1
1.5801 1.1643 -0.9466 0.4131 458 14
1.5814 1.1707 -0.9490 0.4120 458 14
1.5829 1.1773 -0.9514 0.4110 458 14
1.5842 1.1839 -0.9539 0.4099 458 14
1.5856 1.1905 -0.9563 0.4089 458 14
1.5870 1.1971 -0.9588 0.4078 458 14
1.5885 1.2038 -0.9613 0.4068 458 14
1.5899 1.2105 -0.9638 0.4057 458 14
1.5914 1.2173 -0.9663 0.4046 458 14
1.5929 1.2241 -0.9689 0.4036 458 14
1.5943 1.2310 -0.9715 0.4025 458 14
1.5958 1.2378 -0.9741 0.4014 458 14
1.5973 1.2447 -0.9767 0.4003 458 14
1.5988 1.2517 -0.9793 0.3993 458 14
1.6004 1.2587 -0.9820 0.3982 458 14
1.6019 1.2657 -0.9847 0.3971 458 14
1.6034 1.2728 -0.9874 0.3960 458 14
1.6050 1.2799 -0.9901 0.3949 458 14
1.6066 1.2871 -0.9929 0.3938 458 14
1.6082 1.2943 -0.9956 0.3927 458 14
1.6098 1.3016 -0.9984 0.3916 458 14
1.6114 1.3089 -1.0013 0.3905 458 14
1.6130 1.3162 -1.0041 0.3894 458 14
2.7256 2.2343 -1.6998 0.4346 0 2
2.7206 2.2403 -1.6998 0.4346 0 2
2.7156 2.2465 -1.6998 0.4346 0 2
2.7105 2.2525 -1.6998 0.4346 0 2
2.7054 2.2587 -1.6998 0.4346 0 2
2.7004 2.2647 -1.6998 0.4346 0 2
2.6953 2.2707 -1.6998 0.4346 0 2
2.6902 2.2768 -1.6998 0.4346 0 2
2.6851 2.2828 -1.6998 0.4346 0 2
2.6800 2.2889 -1.6998 0.4346 0 2
2.6748 2.2949 -1.6998 0.4346 0 2
2.6696 2.3009 -1.6998 0.4346 0 2
2.6645 2.3069 -1.6998 0.4346 0 2
2.6593 2.3128 -1.6998 0.4346 0 2
2.6541 2.3188 -1.6998 0.4346 0 2
2.6489 2.3248 -1.6998 0.4346 0 2
2.6437 2.3307 -1.6998 0.4346 0 2
2.6385 2.3366 -1.6998 0.4346 0 2
2.6332 2.3425 -1.6998 0.4346 0 2
2.6530 2.3709 -1.7161 0.5770 0 2
2.6402 2.3701 -1.7112 0.5786 0 2
2.6274 2.3693 -1.7063 0.5803 0 2
2.6146 2.3684 -1.7015 0.5819 0 2
2.6068 2.3720 -1.6998 0.4346 0 2
2.6014 2.3778 -1.6999 0.4346 0 2
2.5961 2.3837 -1.6999 0.4346 0 2
2.5907 2.3895 -1.6999 0.4346 0 2
2.5854 2.3953 -1.6999 0.4346 0 2
2.5800 2.4011 -1.6999 0.4346 0 2
2.5746 2.4068 -1.6999 0.4346 0 2
2.5692 2.4126 -1.6999 0.4346 0 2
2.5638 2.4184 -1.6999 0.4346 0 2
2.5584 2.4241 -1.6999 0.4346 0 2
2.5529 2.4299 -1.6999 0.4346 0 2
2.5475 2.4356 -1.6999 0.4346 0 2
2.5420 2.4413 -1.6999 0.4346 0 2
2.5365 2.4470 -1.6999 0.4346 0 2
2.5310 2.4527 -1.6999 0.4346 0 2
2.5255 2.4584 -1.6999 0.4346 0 2
2.5200 2.4640 -1.6999 0.4346 0 2
2.5144 2.4697 -1.6999 0.4346 0 2
2.5089 2.4753 -1.6999 0.4346 0 2
2.5034 2.4810 -1.6999 0.4346 0 2
2.4977 2.4866 -1.6999 0.4346 0 2
2.5885 -2.5885 -1.8029 0.4420 0 1
2.5943 -2.5828 -1.8029 0.4420 0 1
2.6001 -2.5769 -1.8029 0.4420 0 1
2.6059 -2.5711 -1.8029 0.4420 0 1
2.6116 -2.5652 -1.8029 0.4420 0 1
2.6173 -2.5593 -1.8029 0.4420 0 1
2.6231 -2.5534 -1.8029 0.4420 0 1
2.6288 -2.5476 -1.8029 0.4420 0 1
2.6345 -2.5416 -1.8029 0.4420 0 1
2.6402 -2.5357 -1.8029 0.4420 0 1
2.6459 -2.5298 -1.8029 0.4420 0 1
2.6516 -2.5238 -1.8029 0.4420 0 1
2.6572 -2.5179 -1.8029 0.4420 0 1
2.6629 -2.5119 -1.8029 0.4420 0 1
2.6685 -2.5059 -1.8029 0.4420 0 1
2.6741 -2.4999 -1.8029 0.4420 0 1
2.6797 -2.4939 -1.8029 0.4420 0 1
2.6853 -2.4879 -1.8029 0.4420 0 1
2.6909 -2.4819 -1.8029 0.4420 0 1
2.6964 -2.4758 -1.8029 0.4420 0 1
2.7020 -2.4697 -1.8029 0.4420 0 1
2.7075 -2.4637 -1.8029 0.4420 0 1
0.6737 -0.6103 -0.4477 0.3288 458 14
0.6750 -0.6087 -0.4477 0.3289 458 14
0.6763 -0.6072 -0.4476 0.3289 458 14
0.6777 -0.6056 -0.4476 0.3289 458 14
0.6789 -0.6041 -0.4476 0.3289 458 14
0.6802 -0.6025 -0.4475 0.3290 458 14
0.6815 -0.6009 -0.4475 0.3290 458 14
0.6828 -0.5993 -0.4474 0.3290 458 14
0.6841 -0.5977 -0.4474 0.3291 458 14
0.6854 -0.5961 -0.4474 0.3291 458 14
0.6866 -0.5945 -0.4473 0.3291 458 14
0.6879 -0.5929 -0.4473 0.3291 458 14
0.6892 -0.5913 -0.4472 0.3292 458 14
0.6904 -0.5897 -0.4472 0.3292 458 14
0.6917 -0.5881 -0.4471 0.3292 458 14
0.6929 -0.5865 -0.4471 0.3293 458 14
0.6942 -0.5849 -0.4471 0.3293 458 14
0.6954 -0.5833 -0.4470 0.3294 458 14
0.6966 -0.5816 -0.4470 0.3294 458 14
0.6979 -0.5800 -0.4469 0.3294 458 14
0.6991 -0.5784 -0.4469 0.3295 458 14
0.7003 -0.5768 -0.4468 0.3295 458 14
0.7015 -0.5751 -0.4468 0.3295 458 14
0.7027 -0.5735 -0.4467 0.3296 458 14
0.7039 -0.5718 -0.4467 0.3296 458 14
0.7051 -0.5702 -0.4466 0.3296 458 14
0.7063 -0.5685 -0.4465 0.3297 458 14
0.7075 -0.5669 -0.4465 0.3297 458 14
0.7087 -0.5652 -0.4464 0.3298 458 14
0.7098 -0.5635 -0.4464 0.3298 458 14
0.7110 -0.5619 -0.4463 0.3299 458 14
0.7122 -0.5602 -0.4463 0.3299 458 14
0.7134 -0.5586 -0.4462 0.3299 458 14
0.7145 -0.5568 -0.4461 0.3300 458 14
0.7157 -0.5552 -0.4461 0.3300 458 14
0.7168 -0.5535 -0.4460 0.3301 458 14
0.7179 -0.5518 -0.4460 0.3301 458 14
0.7191 -0.5502 -0.4459 0.3302 458 14
0.7202 -0.5484 -0.4458 0.3302 458 14
0.7213 -0.5467 -0.4458 0.3303 458 14
0.7225 -0.5451 -0.4457 0.3303 458 14
0.7236 -0.5433 -0.4456 0.3303 458 14
0.7247 -0.5416 -0.4456 0.3304 458 14
0.7258 -0.5399 -0.4455 0.3304 458 14
0.7269 -0.5382 -0.4455 0.3305 458 14
0.7280 -0.5365 -0.4454 0.3306 458 14
0.7291 -0.5347 -0.4453 0.3306 458 14
0.7302 -0.5330 -0.4452 0.3307 458 14
0.7312 -0.5313 -0.4452 0.3307 458 14
0.7323 -0.5296 -0.4451 0.3308 458 14
0.7334 -0.5279 -0.4450 0.3308 458 14
0.7345 -0.5262 -0.4450 0.3309 458 14
0.7355 -0.5244 -0.4449 0.3309 458 14
0.7366 -0.5227 -0.4448 0.3310 458 14
0.7376 -0.5209 -0.4447 0.3310 458 14
0.7387 -0.5192 -0.4447 0.3311 458 14
0.7397 -0.5174 -0.4446 0.3311 458 14
0.7407 -0.5157 -0.4445 0.3312 458 14
0.7418 -0.5139 -0.4444 0.3313 458 14
0.7428 -0.5122 -0.4444 0.3313 458 14
0.7438 -0.5104 -0.4443 0.3314 458 14
0.7448 -0.5087 -0.4442 0.3314 458 14
0.7458 -0.5069 -0.4441 0.3315 458 14
0.7468 -0.5051 -0.4440 0.3315 458 14
0.7478 -0.5034 -0.4440 0.3316 458 14
0.7488 -0.5016 -0.4439 0.3317 458 14
0.7498 -0.4998 -0.4438 0.3317 458 14
0.7507 -0.4980 -0.4437 0.3318 458 14
0.7517 -0.4963 -0.4436 0.3319 458 14
0.7527 -0.4945 -0.4435 0.3319 458 14
0.7537 -0.4927 -0.4435 0.3320 458 14
0.7546 -0.4909 -0.4434 0.3320 458 14
0.7556 -0.4891 -0.4433 0.3321 458 14
0.7565 -0.4873 -0.4432 0.3322 458 14
0.7575 -0.4855 -0.4431 0.3322 458 14
0.7584 -0.4837 -0.4430 0.3323 458 14
0.7594 -0.4819 -0.4429 0.3324 458 14
0.7603 -0.4801 -0.4428 0.3324 458 14
0.7612 -0.4783 -0.4428 0.3325 458 14
0.7621 -0.4765 -0.4427 0.3326 458 14
0.7630 -0.4747 -0.4426 0.3326 458 14
0.7639 -0.4729 -0.4425 0.3327 458 14
0.7648 -0.4711 -0.4424 0.3328 458 14
0.7657 -0.4693 -0.4423 0.3329 458 14
0.7666 -0.4674 -0.4422 0.3329 458 14
0.7675 -0.4656 -0.4421 0.3330 458 14
0.7684 -0.4638 -0.4420 0.3331 458 14
0.7692 -0.4620 -0.4419 0.3332 458 14
0.7701 -0.4601 -0.4418 0.3332 458 14
0.7709 -0.4583 -0.4417 0.3333 458 14
0.7718 -0.4565 -0.4416 0.3334 458 14
0.7726 -0.4547 -0.4415 0.3334 458 14
0.7734 -0.4528 -0.4414 0.3335 458 14
0.7743 -0.4509 -0.4413 0.3336 458 14
0.7751 -0.4491 -0.4412 0.3337 458 14
0.7760 -0.4473 -0.4411 0.3338 458 14
0.7768 -0.4454 -0.4410 0.3338 458 14
0.7776 -0.4436 -0.4409 0.3339 458 14
0.7784 -0.4417 -0.4408 0.3340 458 14
0.7792 -0.4399 -0.4407 0.3341 458 14
0.7800 -0.4380 -0.4406 0.3341 458 14
0.7808 -0.4362 -0.4405 0.3342 458 14
0.7816 -0.4343 -0.4404 0.3343 458 14
0.7824 -0.4325 -0.4403 0.3344 458 14
0.7831 -0.4306 -0.4402 0.3345 458 14
0.7839 -0.4287 -0.4401 0.3345 458 14
0.7847 -0.4269 -0.4399 0.3346 458 14
0.7855 -0.4250 -0.4398 0.3347 458 14
0.7862 -0.4231 -0.4397 0.3348 458 14
0.7870 -0.4212 -0.4396 0.3349 458 14
0.7877 -0.4194 -0.4395 0.3350 458 14
0.7884 -0.4175 -0.4394 0.3351 458 14
0.7892 -0.4156 -0.4393 0.3351 458 14
0.7899 -0.4138 -0.4392 0.3352 458 14
0.7906 -0.4119 -0.4391 0.3353 458 14
0.7914 -0.4100 -0.4389 0.3354 458 14
0.7920 -0.4081 -0.4388 0.3355 458 14
0.7927 -0.4062 -0.4387 0.3356 458 14
0.7935 -0.4043 -0.4386 0.3357 458 14
0.7941 -0.4024 -0.4385 0.3358 458 14
0.7948 -0.4006 -0.4384 0.3358 458 14
0.7955 -0.3987 -0.4382 0.3359 458 14
0.7962 -0.3968 -0.4381 0.3360 458 14
0.7969 -0.3949 -0.4380 0.3361 458 14
0.7975 -0.3930 -0.4379 0.3362 458 14
0.7982 -0.3910 -0.4378 0.3363 458 14
0.7988 -0.3892 -0.4376 0.3364 458 14
0.7995 -0.3873 -0.4375 0.3365 458 14
0.8001 -0.3854 -0.4374 0.3366 458 14
0.8008 -0.3835 -0.4373 0.3367 458 14
0.8014 -0.3816 -0.4371 0.3368 458 14
0.8020 -0.3797 -0.4370 0.3369 458 14
0.8027 -0.3777 -0.4369 0.3370 458 14
0.8033 -0.3758 -0.4368 0.3371 458 14
0.8039 -0.3739 -0.4366 0.3372 458 14
0.8045 -0.3720 -0.4365 0.3373 458 14
0.8051 -0.3701 -0.4364 0.3374 458 14
0.8057 -0.3682 -0.4363 0.3375 458 14
0.8062 -0.3663 -0.4361 0.3376 458 14
0.8068 -0.3643 -0.4360 0.3377 458 14
0.8074 -0.3624 -0.4359 0.3378 458 14
0.8080 -0.3605 -0.4357 0.3379 458 14
0.8085 -0.3586 -0.4356 0.3380 458 14
0.8091 -0.3567 -0.4355 0.3381 458 14
0.8096 -0.3547 -0.4354 0.3382 458 14
0.8102 -0.3528 -0.4352 0.3383 458 14
0.8107 -0.3509 -0.4351 0.3384 458 14
0.8113 -0.3490 -0.4350 0.3385 458 14
0.8118 -0.3470 -0.4348 0.3386 458 14
0.8123 -0.3451 -0.4347 0.3387 458 14
0.8129 -0.3432 -0.4346 0.3388 458 14
0.8134 -0.3413 -0.4344 0.3389 458 14
0.8139 -0.3393 -0.4343 0.3390 458 14
0.8144 -0.3374 -0.4341 0.3391 458 14
0.8149 -0.3354 -0.4340 0.3392 458 14
0.8154 -0.3335 -0.4339 0.3393 458 14
0.8159 -0.3315 -0.4337 0.3394 458 14
0.8163 -0.3296 -0.4336 0.3395 458 14
0.8168 -0.3277 -0.4335 0.3396 458 14
0.8173 -0.3258 -0.4333 0.3398 458 14
0.8177 -0.3238 -0.4332 0.3399 458 14
0.8182 -0.3219 -0.4330 0.3400 458 14
0.8186 -0.3199 -0.4329 0.3401 458 14
0.8191 -0.3180 -0.4327 0.3402 458 14
0.8195 -0.3161 -0.4326 0.3403 458 14
0.8200 -0.3141 -0.4325 0.3404 458 14
0.8204 -0.3121 -0.4323 0.3405 458 14
0.8208 -0.3102 -0.4322 0.3407 458 14
0.8212 -0.3083 -0.4320 0.3408 458 14
0.8216 -0.3063 -0.4319 0.3409 458 14
0.8220 -0.3044 -0.4317 0.4084 458 14
0.8221 -0.3023 -0.4314 0.4087 458 14
0.8222 -0.3002 -0.4311 0.4090 458 14
0.8223 -0.2981 -0.4308 0.4093 458 14
0.8224 -0.2961 -0.4305 0.4096 458 14
0.8224 -0.2941 -0.4302 0.4098 458 14
0.8225 -0.2920 -0.4299 0.4101 458 14
0.8226 -0.2899 -0.4295 0.4104 458 14
0.8226 -0.2879 -0.4292 0.4107 458 14
0.8227 -0.2858 -0.4289 0.4110 458 14
0.8227 -0.2838 -0.4286 0.4113 458 14
0.8228 -0.2817 -0.4283 0.4116 458 14
0.8228 -0.2797 -0.4280 0.4119 458 14
0.8228 -0.2776 -0.4277 0.4122 458 14
0.8229 -0.2756 -0.4274 0.4125 458 14
0.8229 -0.2735 -0.4271 0.4128 458 14
0.8229 -0.2715 -0.4268 0.4131 458 14
0.8229 -0.2695 -0.4265 0.4134 458 14
0.8229 -0.2674 -0.4262 0.4137 458 14
0.8229 -0.2654 -0.4259 0.4140 458 14
0.8229 -0.2634 -0.4255 0.4143 458 14
0.8229 -0.2613 -0.4252 0.4146 458 14
0.8229 -0.2593 -0.4249 0.4149 458 14
0.8229 -0.2572 -0.4246 0.4152 458 14
0.8229 -0.2552 -0.4243 0.4155 458 14
0.8229 -0.2532 -0.4240 0.4158 458 14
0.8229 -0.2512 -0.4237 0.4161 458 14
0.8228 -0.2491 -0.4234 0.4164 458 14
0.8228 -0.2471 -0.4231 0.4167 458 14
0.8228 -0.2451 -0.4228 0.4170 458 14
0.8227 -0.2431 -0.4225 0.4173 458 14
0.8227 -0.2411 -0.4222 0.4176 458 14
0.8226 -0.2390 -0.4219 0.4179 458 14
0.8225 -0.2370 -0.4216 0.4182 458 14
0.8225 -0.2350 -0.4213 0.4185 458 14
0.8225 -0.2330 -0.4210 0.4188 458 14
0.8224 -0.2310 -0.4207 0.4191 458 14
0.8223 -0.2290 -0.4204 0.4194 458 14
0.8223 -0.2270 -0.4201 0.4197 458 14
0.8222 -0.2249 -0.4198 0.4200 458 14
0.8221 -0.2230 -0.4195 0.4203 458 14
0.8220 -0.2209 -0.4192 0.4206 458 14
0.8219 -0.2189 -0.4189 0.4209 458 14
0.8218 -0.2170 -0.4186 0.4212 458 14
0.8217 -0.2150 -0.4183 0.4215 458 14
0.8216 -0.2130 -0.4180 0.4218 458 14
0.8215 -0.2110 -0.4177 0.4221 458 14
0.8215 -0.2090 -0.4175 0.4412 458 14
0.8217 -0.2071 -0.4173 0.4414 458 14
0.8218 -0.2052 -0.4172 0.4415 458 14
0.8220 -0.2033 -0.4170 0.4417 458 14
0.8221 -0.2013 -0.4169 0.4418 458 14
0.8223 -0.1994 -0.4167 0.4420 458 14
0.8224 -0.1975 -0.4166 0.4422 458 14
0.8225 -0.1956 -0.4164 0.4423 458 14
0.8227 -0.1937 -0.4162 0.4425 458 14
0.8228 -0.1917 -0.4161 0.4427 458 14
0.8229 -0.1898 -0.4159 0.4428 458 14
0.8230 -0.1879 -0.4158 0.4430 458 14
0.8232 -0.1860 -0.4156 0.4432 458 14
0.8233 -0.1840 -0.4155 0.4433 458 14
0.8234 -0.1821 -0.4153 0.4435 458 14
0.8235 -0.1802 -0.4152 0.4436 458 14
0.8236 -0.1783 -0.4150 0.4438 458 14
0.8237 -0.1764 -0.4149 0.4440 458 14
0.8237 -0.1745 -0.4147 0.4441 458 14
0.8238 -0.1726 -0.4146 0.4443 458 14
0.8239 -0.1707 -0.4144 0.4445 458 14
0.8240 -0.1688 -0.4143 0.4446 458 14
0.8241 -0.1668 -0.4141 0.4448 458 14
0.8241 -0.1649 -0.4140 0.4450 458 14
0.8242 -0.1630 -0.4138 0.4451 458 14
0.8243 -0.1611 -0.4136 0.4453 458 14
0.8243 -0.1592 -0.4135 0.4454 458 14
0.8244 -0.1573 -0.4133 0.4456 458 14
0.8245 -0.1554 -0.4132 0.4458 458 14
0.8245 -0.1535 -0.4130 0.4459 458 14
0.8245 -0.1516 -0.4129 0.4461 458 14
0.8246 -0.1496 -0.4127 0.4463 458 14
0.8246 -0.1478 -0.4126 0.4464 458 14
0.8246 -0.1459 -0.4124 0.4466 458 14
0.8246 -0.1439 -0.4123 0.4468 458 14
0.8247 -0.1420 -0.4121 0.4469 458 14
0.8247 -0.1402 -0.4120 0.4471 458 14
0.8247 -0.1382 -0.4118 0.4472 458 14
0.8247 -0.1364 -0.4117 0.4474 458 14
0.8247 -0.1344 -0.4115 0.4476 458 14
0.8247 -0.1326 -0.4114 0.4477 458 14
0.8247 -0.1307 -0.4112 0.4479 458 14
0.8247 -0.1287 -0.4111 0.4481 458 14
0.8246 -0.1269 -0.4109 0.4482 458 14
0.8246 -0.1250 -0.4108 0.4484 458 14
0.8246 -0.1231 -0.4106 0.4485 458 14
0.8246 -0.1212 -0.4105 0.4487 458 14
0.8246 -0.1193 -0.4103 0.4489 458 14
0.8246 -0.1174 -0.4102 0.4490 458 14
0.8245 -0.1155 -0.4100 0.4492 458 14
0.8245 -0.1136 -0.4099 0.4494 458 14
0.8244 -0.1117 -0.4097 0.4495 458 14
0.8244 -0.1098 -0.4096 0.4497 458 14
0.8243 -0.1079 -0.4095 0.4498 458 14
0.8243 -0.1061 -0.4093 0.4500 458 14
0.8242 -0.1041 -0.4092 0.4502 458 14
0.8241 -0.1023 -0.4090 0.4503 458 14
0.8241 -0.1004 -0.4089 0.4505 458 14
0.8240 -0.0985 -0.4087 0.4507 458 14
0.8239 -0.0966 -0.4086 0.4508 458 14
0.8238 -0.0947 -0.4084 0.4510 458 14
0.8237 -0.0929 -0.4083 0.4511 458 14
0.8237 -0.0910 -0.4081 0.4513 458 14
0.8236 -0.0891 -0.4080 0.4515 458 14
0.8235 -0.0872 -0.4078 0.4516 458 14
0.8234 -0.0853 -0.4077 0.4518 458 14
0.8233 -0.0835 -0.4075 0.4520 458 14
0.8232 -0.0816 -0.4074 0.4521 458 14
0.8230 -0.0797 -0.4072 0.4523 458 14
0.8229 -0.0778 -0.4071 0.4524 458 14
0.8228 -0.0759 -0.4070 0.4526 458 14
0.8227 -0.0741 -0.4068 0.4528 458 14
0.8226 -0.0722 -0.4067 0.4529 458 14
0.8224 -0.0703 -0.4065 0.4531 458 14
0.8223 -0.0684 -0.4064 0.4532 458 14
0.8221 -0.0666 -0.4062 0.4534 458 14
0.8220 -0.0647 -0.4061 0.4536 458 14
0.8218 -0.0629 -0.4059 0.4537 458 14
0.8217 -0.0610 -0.4058 0.4539 458 14
0.8215 -0.0591 -0.4057 0.4541 458 14
0.8214 -0.0573 -0.4055 0.4542 458 14
0.8212 -0.0554 -0.4054 0.4544 458 14
0.8210 -0.0536 -0.4052 0.4545 458 14
0.8209 -0.0517 -0.4051 0.4547 458 14
0.8207 -0.0498 -0.4049 0.4549 458 14
0.8205 -0.0479 -0.4048 0.4550 458 14
0.8203 -0.0461 -0.4047 0.4552 458 14
0.8201 -0.0442 -0.4045 0.4553 458 14
0.8199 -0.0424 -0.4044 0.4555 458 14
0.8197 -0.0405 -0.4042 0.4557 458 14
0.8195 -0.0387 -0.4041 0.4558 458 14
0.8193 -0.0368 -0.4039 0.4560 458 14
0.8191 -0.0350 -0.4038 0.4561 458 14
0.8189 -0.0331 -0.4037 0.4563 458 14
0.8187 -0.0313 -0.4035 0.4565 458 14
0.8185 -0.0294 -0.4034 0.4566 458 14
0.8183 -0.0276 -0.4032 0.4568 458 14
0.8180 -0.0257 -0.4031 0.4569 458 14
0.8178 -0.0239 -0.4030 0.4571 458 14
0.8176 -0.0220 -0.4028 0.4573 458 14
0.8173 -0.0202 -0.4027 0.4574 458 14
0.8171 -0.0184 -0.4025 0.4576 458 14
0.8168 -0.0165 -0.4024 0.4577 458 14
0.8166 -0.0147 -0.4023 0.4579 458 14
3.6596 -0.0575 -1.8026 0.4421 0 1
3.6597 -0.0493 -1.8026 0.4421 0 1
3.6598 -0.0411 -1.8026 0.4421 0 1
3.6599 -0.0329 -1.8026 0.4421 0 1
3.6600 -0.0247 -1.8026 0.4421 0 1
3.6600 -0.0165 -1.8026 0.4421 0 1
3.6600 -0.0083 -1.8026 0.4421 0 1
3.6600 -0.0001 -1.8026 0.4421 0 1
3.6600 0.0082 -1.8026 0.4421 0 1
3.6600 0.0164 -1.8026 0.4421 0 1
3.6599 0.0246 -1.8026 0.4421 0 1
3.6599 0.0329 -1.8026 0.4421 0 1
3.6598 0.0411 -1.8026 0.4421 0 1
3.6597 0.0493 -1.8026 0.4421 0 1
3.6596 0.0575 -1.8026 0.4421 0 1
3.6595 0.0657 -1.8026 0.4421 0 1
3.6593 0.0739 -1.8026 0.4421 0 1
3.6591 0.0821 -1.8026 0.4421 0 1
3.6589 0.0903 -1.8026 0.4421 0 1
3.6587 0.0985 -1.8026 0.4421 0 1
3.6585 0.1067 -1.8026 0.4421 0 1
3.6582 0.1150 -1.8026 0.4421 0 1
3.6579 0.1231 -1.8026 0.4421 0 1
3.6577 0.1313 -1.8026 0.4421 0 1
3.6573 0.1396 -1.8026 0.4421 0 1
3.6570 0.1478 -1.8026 0.4421 0 1
3.6567 0.1560 -1.8026 0.4421 0 1
3.6564 0.1641 -1.8026 0.4421 0 1
3.6560 0.1724 -1.8026 0.4421 0 1
3.6555 0.1806 -1.8026 0.4421 0 1
3.6552 0.1888 -1.8026 0.4421 0 1
3.6547 0.1970 -1.8026 0.4421 0 1
3.6543 0.2052 -1.8026 0.4421 0 1
3.6538 0.2134 -1.8026 0.4421 0 1
3.6533 0.2216 -1.8026 0.4421 0 1
3.6528 0.2298 -1.8026 0.4421 0 1
3.6523 0.2380 -1.8026 0.4421 0 1
3.6518 0.2462 -1.8026 0.4421 0 1
3.6512 0.2544 -1.8026 0.4421 0 1
3.6506 0.2625 -1.8026 0.4421 0 1
3.6500 0.2708 -1.8026 0.4421 0 1
3.6494 0.2789 -1.8026 0.4421 0 1
3.6487 0.2871 -1.8026 0.4421 0 1
3.6481 0.2953 -1.8026 0.4421 0 1
3.6474 0.3035 -1.8026 0.4421 0 1
3.6468 0.3117 -1.8026 0.4421 0 1
3.6460 0.3199 -1.8026 0.4421 0 1
3.6453 0.3280 -1.8026 0.4421 0 1
3.6446 0.3362 -1.8026 0.4421 0 1
3.6438 0.3444 -1.8026 0.4421 0 1
3.6430 0.3526 -1.8026 0.4421 0 1
3.6422 0.3608 -1.8026 0.4421 0 1
3.6414 0.3689 -1.8026 0.4421 0 1
3.6406 0.3771 -1.8026 0.4421 0 1
3.6397 0.3853 -1.8026 0.4421 0 1
3.6388 0.3935 -1.8026 0.4421 0 1
3.6379 0.4016 -1.8026 0.4421 0 1
3.6370 0.4097 -1.8026 0.4421 0 1
3.6361 0.4179 -1.8026 0.4421 0 1
3.6352 0.4261 -1.8026 0.4421 0 1
3.6342 0.4343 -1.8026 0.4421 0 1
3.6332 0.4423 -1.8026 0.4421 0 1
3.6322 0.4506 -1.8026 0.4421 0 1
3.6312 0.4587 -1.8026 0.4421 0 1
3.6302 0.4668 -1.8026 0.4421 0 1
3.6291 0.4750 -1.8026 0.4421 0 1
3.6280 0.4831 -1.8026 0.4421 0 1
3.6269 0.4912 -1.8026 0.4421 0 1
3.6258 0.4994 -1.8026 0.4421 0 1
3.6247 0.5075 -1.8026 0.4421 0 1
3.6235 0.5157 -1.8026 0.4421 0 1
3.6224 0.5238 -1.8026 0.4421 0 1
3.6212 0.5319 -1.8026 0.4421 0 1
3.6200 0.5401 -1.8026 0.4421 0 1
3.6188 0.5482 -1.8026 0.4421 0 1
3.6175 0.5563 -1.8026 0.4421 0 1
3.6163 0.5644 -1.8026 0.4421 0 1
3.6150 0.5725 -1.8026 0.4421 0 1
3.6137 0.5806 -1.8026 0.4421 0 1
3.6124 0.5887 -1.8026 0.4421 0 1
3.6111 0.5968 -1.8026 0.4421 0 1
3.6097 0.6049 -1.8026 0.4421 0 1
3.6084 0.6130 -1.8026 0.4421 0 1
3.6070 0.6212 -1.8026 0.4421 0 1
3.6055 0.6292 -1.8026 0.4421 0 1
3.6041 0.6373 -1.8026 0.4421 0 1
3.6027 0.6454 -1.8026 0.4421 0 1
3.6012 0.6535 -1.8026 0.4421 0 1
3.5998 0.6616 -1.8026 0.4421 0 1
3.5983 0.6696 -1.8026 0.4421 0 1
3.5968 0.6777 -1.8026 0.4421 0 1
3.5953 0.6858 -1.8026 0.4421 0 1
3.5937 0.6938 -1.8026 0.4421 0 1
3.5921 0.7020 -1.8026 0.4421 0 1
3.5906 0.7100 -1.8026 0.4421 0 1
3.5889 0.7180 -1.8026 0.4421 0 1
3.5873 0.7261 -1.8026 0.4421 0 1
3.5857 0.7342 -1.8026 0.4421 0 1
3.5840 0.7422 -1.8026 0.4421 0 1
3.5823 0.7502 -1.8026 0.4421 0 1
3.5807 0.7582 -1.8026 0.4421 0 1
3.5790 0.7663 -1.8026 0.4421 0 1
3.5772 0.7743 -1.8026 0.4421 0 1
3.5755 0.7823 -1.8026 0.4421 0 1
3.5737 0.7904 -1.8026 0.4421 0 1
3.5719 0.7984 -1.8026 0.4421 0 1
3.5702 0.8064 -1.8026 0.4421 0 1
3.5684 0.8144 -1.8026 0.4421 0 1
3.5665 0.8224 -1.8026 0.4421 0 1
3.5646 0.8304 -1.8026 0.4421 0 1
3.5628 0.8384 -1.8026 0.4421 0 1
3.5609 0.8464 -1.8026 0.4421 0 1
3.5590 0.8544 -1.8026 0.4421 0 1
3.5570 0.8624 -1.8026 0.4421 0 1
3.5551 0.8704 -1.8026 0.4421 0 1
3.5532 0.8783 -1.8026 0.4421 0 1
3.5512 0.8863 -1.8026 0.4421 0 1
3.5492 0.8943 -1.8026 0.4421 0 1
3.5471 0.9023 -1.8026 0.4421 0 1
3.5451 0.9102 -1.8026 0.4421 0 1
3.5431 0.9182 -1.8026 0.4421 0 1
3.5410 0.9261 -1.8026 0.4421 0 1
3.5389 0.9340 -1.8026 0.4421 0 1
3.5368 0.9420 -1.8026 0.4421 0 1
3.5347 0.9499 -1.8026 0.4421 0 1
3.5326 0.9578 -1.8026 0.4421 0 1
3.5304 0.9658 -1.8026 0.4421 0 1
3.5282 0.9737 -1.8026 0.4421 0 1
3.5261 0.9817 -1.8026 0.4421 0 1
3.5238 0.9895 -1.8026 0.4421 0 1
3.5216 0.9974 -1.8026 0.4421 0 1
3.5193 1.0053 -1.8026 0.4421 0 1
3.5171 1.0132 -1.8026 0.4421 0 1
3.5148 1.0211 -1.8026 0.4421 0 1
3.5125 1.0290 -1.8026 0.4421 0 1
3.5102 1.0369 -1.8026 0.4421 0 1
3.5079 1.0447 -1.8026 0.4421 0 1
3.5055 1.0526 -1.8026 0.4421 0 1
3.5031 1.0605 -1.8026 0.4421 0 1
3.5007 1.0684 -1.8026 0.4421 0 1
3.4983 1.0762 -1.8026 0.4421 0 1
3.4959 1.0840 -1.8027 0.4421 0 1
3.4935 1.0919 -1.8027 0.4421 0 1
3.4910 1.0997 -1.8027 0.4421 0 1
3.4885 1.1075 -1.8027 0.4421 0 1
3.4861 1.1154 -1.8027 0.4421 0 1
3.4835 1.1232 -1.8027 0.4421 0 1
3.4810 1.1310 -1.8027 0.4421 0 1
3.4785 1.1388 -1.8027 0.4421 0 1
3.4759 1.1466 -1.8027 0.4421 0 1
3.4733 1.1544 -1.8027 0.4421 0 1
3.4707 1.1622 -1.8027 0.4421 0 1
3.4681 1.1700 -1.8027 0.4421 0 1
3.4655 1.1778 -1.8027 0.4421 0 1
3.4628 1.1856 -1.8027 0.4421 0 1
3.4602 1.1933 -1.8027 0.4421 0 1
3.4575 1.2011 -1.8027 0.4421 0 1
3.4548 1.2088 -1.8027 0.4421 0 1
3.4521 1.2166 -1.8027 0.4421 0 1
3.4493 1.2244 -1.8027 0.4421 0 1
3.4466 1.2321 -1.8027 0.4421 0 1
3.4438 1.2398 -1.8027 0.4421 0 1
3.4410 1.2475 -1.8027 0.4421 0 1
3.4382 1.2553 -1.8027 0.4421 0 1
3.4354 1.2629 -1.8027 0.4421 0 1
3.4325 1.2707 -1.8027 0.4421 0 1
3.4297 1.2784 -1.8027 0.4421 0 1
3.4268 1.2861 -1.8027 0.4421 0 1
3.4239 1.2937 -1.8027 0.4421 0 1
3.4210 1.3014 -1.8027 0.4421 0 1
3.4180 1.3092 -1.8027 0.4421 0 1
3.4151 1.3168 -1.8027 0.4421 0 1
3.4122 1.3244 -1.8027 0.4421 0 1
3.4092 1.3321 -1.8027 0.4421 0 1
3.4062 1.3397 -1.8027 0.4421 0 1
3.4032 1.3474 -1.8027 0.4421 0 1
3.4002 1.3550 -1.8027 0.4421 0 1
3.3971 1.3627 -1.8027 0.4421 0 1
3.3940 1.3702 -1.8027 0.4421 0 1
3.3910 1.3779 -1.8027 0.4421 0 1
3.3879 1.3855 -1.8027 0.4421 0 1
3.3847 1.3931 -1.8027 0.4421 0 1
3.3816 1.4007 -1.8027 0.4421 0 1
3.3785 1.4083 -1.8027 0.4421 0 1
3.3753 1.4158 -1.8027 0.4421 0 1
3.3721 1.4234 -1.8027 0.4421 0 1
3.3689 1.4310 -1.8027 0.4421 0 1
3.3657 1.4385 -1.8027 0.4421 0 1
3.3624 1.4461 -1.8027 0.4421 0 1
3.3592 1.4537 -1.8027 0.4421 0 1
3.3559 1.4612 -1.8027 0.4421 0 1
3.3526 1.4687 -1.8027 0.4421 0 1
3.3493 1.4762 -1.8027 0.4421 0 1
3.3460 1.4837 -1.8027 0.4421 0 1
3.3427 1.4912 -1.8027 0.4421 0 1
3.3393 1.4987 -1.8027 0.4421 0 1
3.3360 1.5062 -1.8027 0.4421 0 1
3.3326 1.5137 -1.8027 0.4421 0 1
3.3292 1.5212 -1.8027 0.4421 0 1
3.3257 1.5286 -1.8027 0.4421 0 1
3.3223 1.5361 -1.8027 0.4421 0 1
3.3189 1.5435 -1.8027 0.4421 0 1
3.3154 1.5510 -1.8027 0.4421 0 1
3.3119 1.5584 -1.8027 0.4421 0 1
3.3084 1.5659 -1.8027 0.4421 0 1
3.3049 1.5733 -1.8027 0.4421 0 1
3.3014 1.5807 -1.8027 0.4421 0 1
3.2978 1.5881 -1.8027 0.4421 0 1
3.2942 1.5955 -1.8027 0.4421 0 1
3.2907 1.6029 -1.8027 0.4421 0 1
3.2870 1.6103 -1.8027 0.4421 0 1
3.2834 1.6177 -1.8027 0.4421 0 1
3.2798 1.6250 -1.8027 0.4421 0 1
3.2761 1.6324 -1.8027 0.4421 0 1
3.2725 1.6397 -1.8027 0.4421 0 1
3.2688 1.6471 -1.8027 0.4421 0 1
3.2651 1.6544 -1.8027 0.4421 0 1
3.2614 1.6617 -1.8027 0.4421 0 1
3.2576 1.6690 -1.8027 0.4421 0 1
3.2539 1.6763 -1.8027 0.4421 0 1
3.2501 1.6837 -1.8027 0.4421 0 1
3.2463 1.6910 -1.8027 0.4421 0 1
3.2425 1.6982 -1.8027 0.4421 0 1
3.2387 1.7055 -1.8027 0.4421 0 1
3.2349 1.7128 -1.8027 0.4421 0 1
3.2310 1.7200 -1.8027 0.4421 0 1
3.2271 1.7272 -1.8027 0.4421 0 1
3.2232 1.7345 -1.8027 0.4421 0 1
3.2194 1.7417 -1.8027 0.4421 0 1
3.2154 1.7489 -1.8027 0.4421 0 1
3.2115 1.7562 -1.8027 0.4421 0 1
3.2076 1.7633 -1.8027 0.4421 0 1
3.2036 1.7706 -1.8027 0.4421 0 1
3.1996 1.7777 -1.8027 0.4421 0 1
3.1956 1.7849 -1.8027 0.4421 0 1
3.1916 1.7921 -1.8028 0.4421 0 1
3.1876 1.7993 -1.8028 0.4421 0 1
3.1835 1.8064 -1.8028 0.4421 0 1
3.1795 1.8135 -1.8028 0.4421 0 1
3.1754 1.8207 -1.8028 0.4421 0 1
3.1713 1.8278 -1.8028 0.4421 0 1
3.1672 1.8349 -1.8028 0.4421 0 1
3.1631 1.8420 -1.8028 0.4421 0 1
3.1590 1.8491 -1.8028 0.4421 0 1
3.1548 1.8562 -1.8028 0.4421 0 1
3.1506 1.8633 -1.8028 0.4421 0 1
3.1464 1.8703 -1.8028 0.4421 0 1
3.1422 1.8774 -1.8028 0.4421 0 1
3.1380 1.8844 -1.8028 0.4421 0 1
3.1338 1.8915 -1.8028 0.4421 0 1
3.1296 1.8985 -1.8028 0.4421 0 1
3.1253 1.9055 -1.8028 0.4421 0 1
3.1210 1.9125 -1.8028 0.4421 0 1
3.1167 1.9195 -1.8028 0.4421 0 1
3.1124 1.9265 -1.8028 0.4421 0 1
3.1081 1.9335 -1.8028 0.4421 0 1
3.1037 1.9405 -1.8028 0.4421 0 1
3.0994 1.9474 -1.8028 0.4421 0 1
3.0950 1.9544 -1.8028 0.4421 0 1
3.0906 1.9613 -1.8028 0.4421 0 1
3.0862 1.9683 -1.8028 0.4421 0 1
3.0818 1.9752 -1.8028 0.4421 0 1
3.0773 1.9821 -1.8028 0.4421 0 1
3.0729 1.9890 -1.8028 0.4421 0 1
3.0684 1.9959 -1.8028 0.4421 0 1
3.0639 2.0028 -1.8028 0.4421 0 1
3.0594 2.0096 -1.8028 0.4421 0 1
3.0549 2.0165 -1.8028 0.4421 0 1
3.0504 2.0233 -1.8028 0.4421 0 1
3.0458 2.0302 -1.8028 0.4421 0 1
3.0412 2.0370 -1.8028 0.4421 0 1
3.0367 2.0439 -1.8028 0.4421 0 1
3.0321 2.0507 -1.8028 0.4421 0 1
3.0275 2.0575 -1.8028 0.4421 0 1
3.0229 2.0643 -1.8028 0.4421 0 1
3.0182 2.0711 -1.8028 0.4421 0 1
3.0136 2.0778 -1.8028 0.4421 0 1
1.5802 1.0947 -0.9468 0.4200 458 14
1.5814 1.1008 -0.9490 0.4190 458 14
1.5827 1.1070 -0.9513 0.4180 458 14
1.5841 1.1133 -0.9536 0.4170 458 14
1.5854 1.1195 -0.9559 0.4160 458 14
1.5867 1.1258 -0.9582 0.4150 458 14
1.5880 1.1321 -0.9605 0.4140 458 14
1.5894 1.1385 -0.9629 0.4130 458 14
1.5908 1.1449 -0.9653 0.4120 458 14
1.5921 1.1513 -0.9677 0.4110 458 14
1.5936 1.1578 -0.9701 0.4099 458 14
1.5950 1.1643 -0.9725 0.4089 458 14
1.5964 1.1708 -0.9750 0.4079 458 14
1.5978 1.1773 -0.9775 0.4068 458 14
1.5992 1.1839 -0.9800 0.4058 458 14
1.6006 1.1906 -0.9825 0.4048 458 14
1.6021 1.1973 -0.9850 0.4037 458 14
1.6036 1.2040 -0.9876 0.4027 458 14
1.6050 1.2107 -0.9902 0.4016 458 14
1.6065 1.2175 -0.9928 0.4006 458 14
1.6080 1.2243 -0.9954 0.3995 458 14
1.6096 1.2312 -0.9981 0.3985 458 14
1.6111 1.2381 -1.0007 0.3974 458 14
1.6126 1.2451 -1.0034 0.3963 458 14
1.6142 1.2521 -1.0061 0.3953 458 14
1.6157 1.2591 -1.0089 0.3942 458 14
1.6173 1.2662 -1.0116 0.3931 458 14
1.6189 1.2733 -1.0144 0.3920 458 14
1.6205 1.2805 -1.0172 0.3910 458 14
1.6221 1.2877 -1.0201 0.3899 458 14
1.6238 1.2949 -1.0229 0.3888 458 14
1.6254 1.3022 -1.0258 0.3877 458 14
1.6271 1.3096 -1.0287 0.3866 458 14
2.7164 2.1963 -1.7205 0.5377 0 2
2.7029 2.1955 -1.7150 0.5394 0 2
2.6896 2.1947 -1.7097 0.5411 0 2
2.6762 2.1938 -1.7043 0.5428 0 2
2.6642 2.1940 -1.6998 0.4420 0 2
2.6593 2.1999 -1.6998 0.4420 0 2
2.6544 2.2059 -1.6998 0.4420 0 2
2.6494 2.2119 -1.6998 0.4420 0 2
2.6445 2.2178 -1.6998 0.4420 0 2
2.6395 2.2237 -1.6998 0.4420 0 2
2.6345 2.2297 -1.6998 0.4420 0 2
2.6295 2.2355 -1.6998 0.4420 0 2
2.6245 2.2415 -1.6998 0.4420 0 2
2.6194 2.2474 -1.6998 0.4420 0 2
2.6144 2.2533 -1.6998 0.4420 0 2
2.6093 2.2591 -1.6998 0.4420 0 2
2.6043 2.2649 -1.6998 0.4420 0 2
2.5992 2.2708 -1.6999 0.4420 0 2
2.5941 2.2766 -1.6999 0.4420 0 2
2.5889 2.2824 -1.6999 0.4420 0 2
2.5838 2.2882 -1.6999 0.4420 0 2
2.5787 2.2940 -1.6999 0.4420 0 2
2.5735 2.2998 -1.6999 0.4420 0 2
2.5684 2.3056 -1.6999 0.4420 0 2
2.5632 2.3113 -1.6999 0.4420 0 2
2.5580 2.3171 -1.6999 0.4420 0 2
2.5528 2.3228 -1.6999 0.4420 0 2
2.5476 2.3286 -1.6999 0.4420 0 2
2.5675 2.3574 -1.7167 0.5866 0 2
2.5551 2.3566 -1.7120 0.5882 0 2
2.5428 2.3558 -1.7072 0.5899 0 2
2.5306 2.3551 -1.7025 0.5915 0 2
2.5213 2.3570 -1.6999 0.4421 0 2
2.5160 2.3627 -1.6999 0.4421 0 2
2.5107 2.3683 -1.6999 0.4421 0 2
2.5054 2.3739 -1.6999 0.4421 0 2
2.5000 2.3796 -1.6999 0.4421 0 2
2.4947 2.3851 -1.6999 0.4421 0 2
2.4894 2.3908 -1.6999 0.4420 0 2
2.4840 2.3963 -1.6999 0.4420 0 2
2.4786 2.4019 -1.6999 0.4420 0 2
2.4732 2.4075 -1.6999 0.4420 0 2
2.4678 2.4130 -1.6999 0.4420 0 2
2.4624 2.4186 -1.6999 0.4420 0 2
2.4570 2.4241 -1.6999 0.4420 0 2
2.4515 2.4296 -1.6999 0.4420 0 2
2.4460 2.4351 -1.6999 0.4420 0 2
2.5355 -2.5356 -1.8029 0.4494 0 1
2.5412 -2.5299 -1.8029 0.4494 0 1
2.5469 -2.5242 -1.8029 0.4494 0 1
2.5526 -2.5185 -1.8029 0.4494 0 1
2.5582 -2.5127 -1.8029 0.4494 0 1
2.5638 -2.5070 -1.8029 0.4494 0 1
2.5694 -2.5012 -1.8029 0.4494 0 1
2.5750 -2.4954 -1.8029 0.4494 0 1
2.5806 -2.4896 -1.8029 0.4494 0 1
2.5862 -2.4839 -1.8029 0.4494 0 1
2.5918 -2.4780 -1.8029 0.4494 0 1
2.5973 -2.4722 -1.8029 0.4494 0 1
2.6029 -2.4664 -1.8029 0.4494 0 1
2.6084 -2.4605 -1.8029 0.4494 0 1
2.6139 -2.4547 -1.8029 0.4494 0 1
2.6194 -2.4488 -1.8029 0.4494 0 1
2.6249 -2.4429 -1.8029 0.4494 0 1
2.6304 -2.4370 -1.8029 0.4494 0 1
2.6358 -2.4312 -1.8029 0.4494 0 1
2.6413 -2.4252 -1.8029 0.4494 0 1
2.6467 -2.4192 -1.8029 0.4494 0 1
2.6521 -2.4133 -1.8029 0.4494 0 1
2.6575 -2.4074 -1.8029 0.4494 0 1
2.6629 -2.4014 -1.8029 0.4494 0 1
2.6683 -2.3954 -1.8029 0.4494 0 1
2.6737 -2.3894 -1.8029 0.4494 0 1
2.6790 -2.3834 -1.8029 0.4494 0 1
2.6844 -2.3774 -1.8029 0.4494 0 1
2.6897 -2.3713 -1.8029 0.4494 0 1
2.6950 -2.3653 -1.8029 0.4494 0 1
2.7003 -2.3592 -1.8029 0.4494 0 1
2.7056 -2.3532 -1.8029 0.4494 0 1
2.7109 -2.3471 -1.8029 0.4494 0 1
2.7161 -2.3410 -1.8029 0.4494 0 1
2.7214 -2.3349 -1.8029 0.4494 0 1
2.7266 -2.3288 -1.8029 0.4494 0 1
2.7318 -2.3227 -1.8029 0.4494 0 1
2.7370 -2.3165 -1.8029 0.4494 0 1
2.7422 -2.3104 -1.8029 0.4494 0 1
2.7474 -2.3042 -1.8029 0.4494 0 1
2.7525 -2.2980 -1.8029 0.4494 0 1
2.7577 -2.2919 -1.8029 0.4494 0 1
2.7628 -2.2857 -1.8029 0.4494 0 1
2.7679 -2.2795 -1.8029 0.4494 0 1
2.7730 -2.2732 -1.8029 0.4494 0 1
2.7781 -2.2670 -1.8029 0.4494 0 1
2.7832 -2.2607 -1.8029 0.4494 0 1
2.7883 -2.2545 -1.8029 0.4494 0 1
0.6872 -0.5531 -0.4436 0.3375 458 14
0.6884 -0.5515 -0.4435 0.3375 458 14
0.6895 -0.5499 -0.4434 0.3375 458 14
0.6907 -0.5483 -0.4434 0.3376 458 14
0.6918 -0.5467 -0.4433 0.3376 458 14
0.6929 -0.5451 -0.4433 0.3377 458 14
0.6941 -0.5434 -0.4432 0.3377 458 14
0.6952 -0.5418 -0.4432 0.3378 458 14
0.6963 -0.5402 -0.4431 0.3378 458 14
0.6975 -0.5386 -0.4431 0.3378 458 14
0.6986 -0.5369 -0.4430 0.3379 458 14
0.6997 -0.5353 -0.4429 0.3379 458 14
0.7008 -0.5336 -0.4429 0.3380 458 14
0.7019 -0.5320 -0.4428 0.3380 458 14
0.7030 -0.5303 -0.4427 0.3381 458 14
0.7040 -0.5287 -0.4427 0.3381 458 14
0.7051 -0.5270 -0.4426 0.3382 458 14
0.7063 -0.5254 -0.4426 0.3382 458 14
0.7073 -0.5237 -0.4425 0.3383 458 14
0.7084 -0.5221 -0.4424 0.3383 458 14
0.7094 -0.5204 -0.4424 0.3384 458 14
0.7105 -0.5187 -0.4423 0.3384 458 14
0.7115 -0.5170 -0.4422 0.3385 458 14
0.7126 -0.5153 -0.4422 0.3385 458 14
0.7136 -0.5137 -0.4421 0.3386 458 14
0.7147 -0.5120 -0.4420 0.3386 458 14
0.7157 -0.5103 -0.4419 0.3387 458 14
0.7167 -0.5086 -0.4419 0.3387 458 14
0.7178 -0.5069 -0.4418 0.3388 458 14
0.7188 -0.5052 -0.4417 0.3388 458 14
0.7198 -0.5035 -0.4417 0.3389 458 14
0.7208 -0.5018 -0.4416 0.3390 458 14
0.7218 -0.5001 -0.4415 0.3390 458 14
0.7228 -0.4984 -0.4414 0.3391 458 14
0.7238 -0.4967 -0.4414 0.3391 458 14
0.7248 -0.4950 -0.4413 0.3392 458 14
0.7258 -0.4933 -0.4412 0.3393 458 14
0.7267 -0.4915 -0.4411 0.3393 458 14
0.7277 -0.4898 -0.4411 0.3394 458 14
0.7287 -0.4881 -0.4410 0.3394 458 14
0.7296 -0.4864 -0.4409 0.3395 458 14
0.7306 -0.4846 -0.4408 0.3396 458 14
0.7315 -0.4829 -0.4407 0.3396 458 14
0.7325 -0.4812 -0.4407 0.3397 458 14
0.7334 -0.4795 -0.4406 0.3397 458 14
0.7344 -0.4778 -0.4405 0.3398 458 14
0.7353 -0.4760 -0.4404 0.3399 458 14
0.7362 -0.4743 -0.4403 0.3399 458 14
0.7372 -0.4725 -0.4402 0.3400 458 14
0.7380 -0.4707 -0.4401 0.3401 458 14
0.7390 -0.4690 -0.4401 0.3401 458 14
0.7399 -0.4673 -0.4400 0.3402 458 14
0.7408 -0.4655 -0.4399 0.3403 458 14
0.7416 -0.4637 -0.4398 0.3403 458 14
0.7425 -0.4620 -0.4397 0.3404 458 14
0.7434 -0.4602 -0.4396 0.3405 458 14
0.7443 -0.4585 -0.4395 0.3405 458 14
0.7452 -0.4567 -0.4394 0.3406 458 14
0.7460 -0.4549 -0.4393 0.3407 458 14
0.7469 -0.4532 -0.4393 0.3408 458 14
0.7478 -0.4514 -0.4392 0.3408 458 14
0.7486 -0.4496 -0.4391 0.3409 458 14
0.7495 -0.4478 -0.4390 0.3410 458 14
0.7503 -0.4461 -0.4389 0.3411 458 14
0.7512 -0.4443 -0.4388 0.3411 458 14
0.7520 -0.4425 -0.4387 0.3412 458 14
0.7528 -0.4407 -0.4386 0.3413 458 14
0.7536 -0.4389 -0.4385 0.3414 458 14
0.7544 -0.4371 -0.4384 0.3414 458 14
0.7552 -0.4354 -0.4383 0.3415 458 14
0.7561 -0.4335 -0.4382 0.3416 458 14
0.7569 -0.4317 -0.4381 0.3417 458 14
0.7576 -0.4300 -0.4380 0.3417 458 14
0.7584 -0.4281 -0.4379 0.3418 458 14
0.7592 -0.4263 -0.4378 0.3419 458 14
0.7600 -0.4246 -0.4377 0.3420 458 14
0.7608 -0.4228 -0.4376 0.3421 458 14
0.7615 -0.4209 -0.4375 0.3421 458 14
0.7623 -0.4191 -0.4374 0.3422 458 14
0.7630 -0.4173 -0.4373 0.3423 458 14
0.7638 -0.4155 -0.4372 0.3424 458 14
0.7646 -0.4137 -0.4371 0.3425 458 14
0.7653 -0.4119 -0.4370 0.3425 458 14
0.7660 -0.4100 -0.4369 0.3426 458 14
0.7668 -0.4082 -0.4367 0.3427 458 14
0.7675 -0.4064 -0.4366 0.3428 458 14
0.7682 -0.4046 -0.4365 0.3429 458 14
0.7689 -0.4028 -0.4364 0.3430 458 14
0.7696 -0.4009 -0.4363 0.3431 458 14
0.7703 -0.3991 -0.4362 0.3431 458 14
0.7710 -0.3972 -0.4361 0.3432 458 14
0.7717 -0.3954 -0.4360 0.3433 458 14
0.7724 -0.3936 -0.4359 0.3434 458 14
0.7730 -0.3917 -0.4357 0.3435 458 14
0.7738 -0.3899 -0.4356 0.3436 458 14
0.7744 -0.3881 -0.4355 0.3437 458 14
0.7751 -0.3862 -0.4354 0.3438 458 14
0.7757 -0.3844 -0.4353 0.3439 458 14
0.7764 -0.3825 -0.4352 0.3440 458 14
0.7770 -0.3807 -0.4351 0.3440 458 14
0.7777 -0.3788 -0.4349 0.3441 458 14
0.7783 -0.3770 -0.4348 0.3442 458 14
0.7789 -0.3752 -0.4347 0.3443 458 14
0.7796 -0.3733 -0.4346 0.3444 458 14
0.7802 -0.3715 -0.4345 0.3445 458 14
0.7808 -0.3696 -0.4343 0.3446 458 14
0.7814 -0.3677 -0.4342 0.3447 458 14
0.7820 -0.3659 -0.4341 0.3448 458 14
0.7826 -0.3640 -0.4340 0.3449 458 14
0.7832 -0.3622 -0.4339 0.3450 458 14
0.7838 -0.3603 -0.4337 0.3451 458 14
0.7844 -0.3585 -0.4336 0.3452 458 14
0.7849 -0.3566 -0.4335 0.3453 458 14
0.7855 -0.3547 -0.4334 0.3454 458 14
0.7861 -0.3529 -0.4332 0.3455 458 14
0.7867 -0.3510 -0.4331 0.3456 458 14
0.7872 -0.3491 -0.4330 0.3457 458 14
0.7878 -0.3473 -0.4329 0.3458 458 14
0.7883 -0.3454 -0.4327 0.3459 458 14
0.7888 -0.3435 -0.4326 0.3460 458 14
0.7894 -0.3416 -0.4325 0.3461 458 14
0.7899 -0.3397 -0.4323 0.3462 458 14
0.7904 -0.3379 -0.4322 0.3463 458 14
0.7909 -0.3360 -0.4321 0.3464 458 14
0.7914 -0.3341 -0.4320 0.3465 458 14
0.7920 -0.3322 -0.4318 0.3466 458 14
0.7925 -0.3304 -0.4317 0.3467 458 14
0.7929 -0.3285 -0.4316 0.3468 458 14
0.7935 -0.3266 -0.4314 0.3469 458 14
0.7939 -0.3247 -0.4313 0.3471 458 14
0.7944 -0.3229 -0.4312 0.3472 458 14
0.7949 -0.3210 -0.4310 0.3473 458 14
0.7954 -0.3191 -0.4309 0.3474 458 14
0.7958 -0.3172 -0.4307 0.3475 458 14
0.7963 -0.3153 -0.4306 0.3476 458 14
0.7967 -0.3134 -0.4305 0.3477 458 14
0.7972 -0.3115 -0.4303 0.3478 458 14
0.7976 -0.3096 -0.4302 0.3479 458 14
0.7981 -0.3078 -0.4301 0.3480 458 14
0.7985 -0.3059 -0.4299 0.3482 458 14
0.7989 -0.3040 -0.4298 0.3483 458 14
0.7994 -0.3021 -0.4296 0.3484 458 14
0.7998 -0.3002 -0.4295 0.3485 458 14
0.8001 -0.2983 -0.4294 0.3486 458 14
0.8005 -0.2964 -0.4292 0.3487 458 14
0.8009 -0.2945 -0.4291 0.3488 458 14
0.8013 -0.2926 -0.4289 0.3490 458 14
0.8018 -0.2907 -0.4288 0.3491 458 14
0.8021 -0.2888 -0.4287 0.3492 458 14
0.8025 -0.2870 -0.4285 0.3493 458 14
0.8029 -0.2850 -0.4284 0.3494 458 14
0.8032 -0.2831 -0.4282 0.3495 458 14
0.8036 -0.2812 -0.4281 0.3497 458 14
0.8039 -0.2793 -0.4279 0.3498 458 14
0.8043 -0.2774 -0.4278 0.3499 458 14
0.8046 -0.2755 -0.4276 0.3500 458 14
0.8050 -0.2736 -0.4275 0.4193 458 14
0.8050 -0.2716 -0.4272 0.4196 458 14
0.8050 -0.2696 -0.4269 0.4199 458 14
0.8051 -0.2676 -0.4266 0.4202 458 14
0.8051 -0.2656 -0.4263 0.4205 458 14
0.8051 -0.2637 -0.4260 0.4208 458 14
0.8052 -0.2616 -0.4257 0.4211 458 14
0.8052 -0.2597 -0.4254 0.4214 458 14
0.8052 -0.2577 -0.4251 0.4217 458 14
0.8052 -0.2557 -0.4248 0.4220 458 14
0.8052 -0.2537 -0.4245 0.4223 458 14
0.8052 -0.2517 -0.4242 0.4226 458 14
0.8052 -0.2497 -0.4239 0.4229 458 14
0.8052 -0.2477 -0.4236 0.4232 458 14
0.8052 -0.2457 -0.4233 0.4235 458 14
0.8052 -0.2438 -0.4230 0.4238 458 14
0.8052 -0.2418 -0.4227 0.4241 458 14
0.8051 -0.2398 -0.4224 0.4244 458 14
0.8051 -0.2379 -0.4221 0.4246 458 14
0.8051 -0.2359 -0.4218 0.4249 458 14
0.8050 -0.2339 -0.4215 0.4252 458 14
0.8050 -0.2319 -0.4212 0.4255 458 14
0.8050 -0.2300 -0.4209 0.4258 458 14
0.8049 -0.2280 -0.4206 0.4261 458 14
0.8048 -0.2261 -0.4203 0.4264 458 14
0.8048 -0.2241 -0.4200 0.4267 458 14
0.8047 -0.2221 -0.4198 0.4270 458 14
0.8047 -0.2202 -0.4195 0.4273 458 14
0.8046 -0.2182 -0.4192 0.4276 458 14
0.8045 -0.2163 -0.4189 0.4279 458 14
0.8045 -0.2143 -0.4186 0.4282 458 14
0.8044 -0.2123 -0.4183 0.4285 458 14
0.8043 -0.2104 -0.4180 0.4288 458 14
0.8044 -0.2085 -0.4178 0.4482 458 14
0.8046 -0.2066 -0.4177 0.4484 458 14
0.8047 -0.2047 -0.4175 0.4485 458 14
0.8049 -0.2028 -0.4174 0.4487 458 14
0.8050 -0.2010 -0.4172 0.4489 458 14
0.8052 -0.1991 -0.4170 0.4490 458 14
0.8054 -0.1972 -0.4169 0.4492 458 14
0.8055 -0.1953 -0.4167 0.4494 458 14
0.8057 -0.1934 -0.4166 0.4495 458 14
0.8058 -0.1916 -0.4164 0.4497 458 14
0.8059 -0.1897 -0.4163 0.4498 458 14
0.8061 -0.1878 -0.4161 0.4500 458 14
0.8062 -0.1859 -0.4160 0.4502 458 14
0.8063 -0.1841 -0.4158 0.4503 458 14
0.8064 -0.1822 -0.4157 0.4505 458 14
0.8066 -0.1803 -0.4155 0.4507 458 14
0.8066 -0.1784 -0.4154 0.4508 458 14
0.8068 -0.1766 -0.4152 0.4510 458 14
0.8069 -0.1747 -0.4151 0.4512 458 14
0.8070 -0.1728 -0.4149 0.4513 458 14
0.8071 -0.1710 -0.4148 0.4515 458 14
0.8071 -0.1691 -0.4146 0.4516 458 14
0.8072 -0.1672 -0.4145 0.4518 458 14
0.8073 -0.1653 -0.4143 0.4520 458 14
0.8074 -0.1635 -0.4142 0.4521 458 14
0.8075 -0.1616 -0.4140 0.4523 458 14
0.8075 -0.1597 -0.4139 0.4525 458 14
0.8076 -0.1579 -0.4137 0.4526 458 14
0.8077 -0.1560 -0.4136 0.4528 458 14
0.8077 -0.1542 -0.4134 0.4529 458 14
0.8078 -0.1522 -0.4133 0.4531 458 14
0.8078 -0.1504 -0.4131 0.4533 458 14
0.8079 -0.1485 -0.4130 0.4534 458 14
0.8079 -0.1466 -0.4129 0.4536 458 14
0.8079 -0.1448 -0.4127 0.4538 458 14
0.8080 -0.1429 -0.4126 0.4539 458 14
0.8080 -0.1411 -0.4124 0.4541 458 14
0.8080 -0.1392 -0.4123 0.4542 458 14
0.8080 -0.1373 -0.4121 0.4544 458 14
0.8081 -0.1354 -0.4120 0.4546 458 14
0.8081 -0.1336 -0.4118 0.4547 458 14
0.8081 -0.1317 -0.4117 0.4549 458 14
0.8081 -0.1299 -0.4115 0.4551 458 14
