ply
format ascii 1.0
element vertex 1404
property float32 x
property float32 y
property float32 z
property float32 CosAngle
property uint32 ObjIdx
property uint32 ObjTag
end_header
12.5371 -10.6108 4.5100 0.7519 0 3
12.5382 -10.5635 4.5019 0.7532 0 3
12.5393 -10.5164 4.4938 0.7546 0 3
12.5404 -10.4695 4.4857 0.7559 0 3
12.5415 -10.4228 4.4777 0.7573 0 3
12.5426 -10.3762 4.4698 0.7586 0 3
12.5437 -10.3297 4.4619 0.7600 0 3
12.5447 -10.2835 4.4541 0.7613 0 3
12.5458 -10.2374 4.4463 0.7626 0 3
12.5469 -10.1914 4.4386 0.7640 0 3
12.5479 -10.1456 4.4309 0.7653 0 3
12.5490 -10.1000 4.4232 0.7666 0 3
12.5501 -10.0546 4.4156 0.7679 0 3
12.5511 -10.0093 4.4081 0.7693 0 3
12.5522 -9.9640 4.4006 0.7706 0 3
12.5532 -9.9190 4.3932 0.7719 0 3
12.5542 -9.8742 4.3858 0.7732 0 3
12.5553 -9.8295 4.3784 0.7745 0 3
12.5563 -9.7849 4.3711 0.7758 0 3
12.5573 -9.7405 4.3638 0.7771 0 3
12.5584 -9.6962 4.3566 0.7783 0 3
12.5594 -9.6522 4.3494 0.7796 0 3
12.5604 -9.6081 4.3423 0.7809 0 3
12.5614 -9.5644 4.3352 0.7822 0 3
12.5624 -9.5207 4.3282 0.7835 0 3
12.5634 -9.4771 4.3212 0.7847 0 3
12.5645 -9.4337 4.3143 0.7860 0 3
12.5655 -9.3904 4.3074 0.7872 0 3
12.5665 -9.3473 4.3005 0.7885 0 3
12.5751 -9.3100 4.2963 0.9576 0 3
12.5921 -9.2789 4.2950 0.9579 0 3
12.6091 -9.2479 4.2937 0.9582 0 3
12.6262 -9.2169 4.2925 0.9585 0 3
12.6431 -9.1859 4.2912 0.9588 0 3
12.6602 -9.1548 4.2900 0.9591 0 3
12.6771 -9.1238 4.2888 0.9593 0 3
12.6941 -9.0929 4.2876 0.9596 0 3
12.7110 -9.0620 4.2865 0.9598 0 3
12.7280 -9.0310 4.2854 0.9601 0 3
12.7509 -9.0044 4.2862 0.9226 0 3
12.7800 -8.9820 4.2892 0.9219 0 3
12.8092 -8.9596 4.2923 0.9213 0 3
12.8383 -8.9371 4.2953 0.9206 0 3
12.8676 -8.9147 4.2984 0.9200 0 3
12.8968 -8.8922 4.3015 0.9193 0 3
12.9261 -8.8697 4.3046 0.9187 0 3
12.9554 -8.8471 4.3078 0.9180 0 3
12.9848 -8.8245 4.3109 0.9173 0 3
13.0214 -8.8068 4.3164 0.4749 0 3
13.0931 -8.8125 4.3337 0.4730 0 3
13.1654 -8.8183 4.3510 0.4711 0 3
13.2383 -8.8241 4.3686 0.4692 0 3
13.3117 -8.8299 4.3862 0.4673 0 3
13.3441 -8.8084 4.3904 0.8186 0 3
13.3451 -8.7661 4.3843 0.8197 0 3
13.3460 -8.7239 4.3781 0.8209 0 3
13.3470 -8.6819 4.3721 0.8220 0 3
13.3479 -8.6400 4.3660 0.8232 0 3
13.3489 -8.5981 4.3600 0.8243 0 3
13.3499 -8.5564 4.3540 0.8254 0 3
13.3508 -8.5148 4.3481 0.8266 0 3
13.3518 -8.4734 4.3422 0.8277 0 3
13.3528 -8.4320 4.3364 0.8288 0 3
13.3537 -8.3907 4.3305 0.8299 0 3
13.3547 -8.3496 4.3248 0.8310 0 3
13.3556 -8.3086 4.3190 0.8321 0 3
13.3565 -8.2676 4.3133 0.8332 0 3
13.3575 -8.2268 4.3076 0.8343 0 3
13.3584 -8.1860 4.3020 0.8354 0 3
13.3593 -8.1455 4.2964 0.8365 0 3
13.3603 -8.1050 4.2908 0.8376 0 3
13.3612 -8.0646 4.2853 0.8387 0 3
13.3785 -8.0341 4.2851 0.9662 0 3
13.3957 -8.0036 4.2848 0.9663 0 3
13.4129 -7.9731 4.2846 0.9663 0 3
13.4301 -7.9425 4.2844 0.9664 0 3
13.4473 -7.9120 4.2842 0.9664 0 3
13.4644 -7.8815 4.2840 0.9664 0 3
13.4816 -7.8510 4.2839 0.9665 0 3
13.4988 -7.8205 4.2837 0.9665 0 3
13.5160 -7.7900 4.2836 0.9665 0 3
13.5332 -7.7595 4.2835 0.9665 0 3
13.5515 -7.7297 4.2838 0.9641 0 3
13.5710 -7.7004 4.2845 0.9640 0 3
13.5905 -7.6712 4.2852 0.9638 0 3
13.6100 -7.6420 4.2860 0.9637 0 3
13.6294 -7.6128 4.2867 0.9635 0 3
13.6649 -7.5924 4.2925 0.7769 0 3
13.7046 -7.5743 4.2996 0.7756 0 3
13.7444 -7.5561 4.3068 0.7743 0 3
13.7844 -7.5379 4.3140 0.7730 0 3
13.8330 -7.5241 4.3239 0.6743 0 3
13.8817 -7.5103 4.3339 0.6727 0 3
13.9307 -7.4965 4.3439 0.6712 0 3
13.9799 -7.4826 4.3540 0.6696 0 3
14.0294 -7.4686 4.3642 0.6681 0 3
14.0791 -7.4545 4.3744 0.6665 0 3
14.1290 -7.4404 4.3847 0.6649 0 3
14.1791 -7.4262 4.3951 0.6634 0 3
14.2295 -7.4119 4.4055 0.6618 0 3
14.2879 -7.4016 4.4185 0.4251 0 3
14.3702 -7.4034 4.4388 0.4231 0 3
14.4532 -7.4052 4.4593 0.4212 0 3
14.5370 -7.4070 4.4800 0.4192 0 3
14.6216 -7.4088 4.5009 0.4173 0 3
14.7070 -7.4107 4.5221 0.4153 0 3
14.7932 -7.4126 4.5434 0.4134 0 3
14.8802 -7.4144 4.5651 0.4114 0 3
14.9681 -7.4163 4.5869 0.4095 0 3
15.0567 -7.4182 4.6090 0.4075 0 3
15.1463 -7.4201 4.6313 0.4055 0 3
15.2367 -7.4221 4.6538 0.4036 0 3
15.3280 -7.4241 4.6766 0.4016 0 3
15.4202 -7.4260 4.6996 0.3996 0 3
15.5133 -7.4280 4.7229 0.3977 0 3
15.6073 -7.4301 4.7465 0.3957 0 3
15.7024 -7.4321 4.7703 0.3937 0 3
15.7983 -7.4342 4.7943 0.3917 0 3
15.8952 -7.4362 4.8187 0.3898 0 3
15.9931 -7.4384 4.8433 0.3878 0 3
16.0921 -7.4405 4.8682 0.3858 0 3
16.1920 -7.4426 4.8933 0.3838 0 3
16.2929 -7.4448 4.9188 0.3818 0 3
16.3950 -7.4470 4.9445 0.3798 0 3
16.4981 -7.4492 4.9706 0.3778 0 3
16.6023 -7.4514 4.9969 0.3759 0 3
16.7076 -7.4537 5.0236 0.3739 0 3
16.8141 -7.4560 5.0505 0.3719 0 3
16.9216 -7.4584 5.0778 0.3699 0 3
17.0304 -7.4607 5.1054 0.3679 0 3
17.1404 -7.4630 5.1333 0.3659 0 3
17.2515 -7.4654 5.1616 0.3639 0 3
17.3639 -7.4678 5.1902 0.3619 0 3
17.4775 -7.4703 5.2191 0.3599 0 3
17.5925 -7.4728 5.2484 0.3578 0 3
17.7087 -7.4753 5.2781 0.3558 0 3
17.8263 -7.4778 5.3081 0.3538 0 3
18.1047 -7.5468 5.3860 0.3523 0 3
18.2258 -7.5494 5.4169 0.3503 0 3
18.3484 -7.5520 5.4483 0.3482 0 3
18.4724 -7.5546 5.4801 0.3462 0 3
18.5979 -7.5572 5.5123 0.3442 0 3
18.7248 -7.5599 5.5448 0.3422 0 3
18.8532 -7.5626 5.5778 0.3401 0 3
18.9832 -7.5653 5.6113 0.3381 0 3
19.1147 -7.5681 5.6451 0.3361 0 3
19.2479 -7.5709 5.6794 0.3341 0 3
19.3826 -7.5738 5.7141 0.3320 0 3
19.5191 -7.5765 5.7493 0.3300 0 3
19.6572 -7.5795 5.7850 0.3280 0 3
19.7970 -7.5824 5.8211 0.3259 0 3
19.9386 -7.5854 5.8577 0.3239 0 3
20.0821 -7.5883 5.8948 0.3219 0 3
20.2273 -7.5914 5.9325 0.3198 0 3
20.3743 -7.5946 5.9706 0.3178 0 3
20.5233 -7.5976 6.0092 0.3157 0 3
20.6743 -7.6008 6.0484 0.3137 0 3
20.8272 -7.6041 6.0881 0.3116 0 3
20.9821 -7.6073 6.1284 0.3096 0 3
21.1392 -7.6106 6.1693 0.3075 0 3
21.2983 -7.6139 6.2107 0.3055 0 3
21.4595 -7.6173 6.2527 0.3034 0 3
45.2043 3.0477 12.4408 0.4745 0 3
45.1240 3.1440 12.4206 0.9321 0 3
45.0896 3.2433 12.4131 0.9626 0 3
45.0917 3.3452 12.4157 0.9624 0 3
45.0939 3.4471 12.4184 0.9622 0 3
45.0960 3.5491 12.4211 0.9620 0 3
44.3388 3.5896 12.2148 0.0985 0 3
43.3823 3.6102 11.9535 0.1006 0 3
42.6604 3.6466 11.7568 0.9613 0 3
42.6624 3.7432 11.7596 0.9611 0 3
42.6645 3.8398 11.7625 0.9608 0 3
42.6665 3.9366 11.7655 0.9606 0 3
42.6686 4.0333 11.7685 0.9603 0 3
42.6707 4.1302 11.7716 0.9601 0 3
42.6727 4.2271 11.7748 0.9598 0 3
42.6748 4.3239 11.7780 0.9596 0 3
42.6769 4.4210 11.7813 0.9593 0 3
42.6789 4.5180 11.7846 0.9590 0 3
42.6810 4.6151 11.7880 0.9587 0 3
42.6831 4.7122 11.7915 0.9585 0 3
42.6851 4.8094 11.7950 0.9582 0 3
42.6872 4.9067 11.7986 0.9579 0 3
42.6893 5.0041 11.8022 0.9576 0 3
42.6913 5.1014 11.8060 0.9573 0 3
42.6934 5.1989 11.8097 0.9570 0 3
42.6955 5.2963 11.8135 0.9567 0 3
42.6975 5.3939 11.8175 0.9564 0 3
42.6996 5.4916 11.8214 0.9560 0 3
42.7017 5.5893 11.8254 0.9557 0 3
42.7038 5.6871 11.8295 0.9554 0 3
42.7059 5.7849 11.8336 0.9551 0 3
42.7079 5.8828 11.8378 0.9547 0 3
42.7100 5.9808 11.8421 0.9544 0 3
42.7121 6.0788 11.8464 0.9540 0 3
42.7142 6.1769 11.8508 0.9537 0 3
42.7162 6.2751 11.8553 0.9533 0 3
42.7183 6.3734 11.8598 0.9529 0 3
42.7204 6.4717 11.8644 0.9526 0 3
42.7225 6.5701 11.8690 0.9522 0 3
42.7246 6.6687 11.8737 0.9518 0 3
42.7267 6.7672 11.8785 0.9514 0 3
42.7288 6.8658 11.8833 0.9511 0 3
42.7308 6.9646 11.8882 0.9507 0 3
42.7329 7.0635 11.8932 0.9503 0 3
42.7350 7.1623 11.8982 0.9499 0 3
42.7371 7.2613 11.9033 0.9495 0 3
42.7392 7.3604 11.9085 0.9491 0 3
42.7413 7.4596 11.9137 0.9486 0 3
42.7434 7.5587 11.9190 0.9482 0 3
42.7455 7.6581 11.9243 0.9478 0 3
42.7476 7.7575 11.9297 0.9474 0 3
42.7497 7.8570 11.9352 0.9469 0 3
42.7518 7.9566 11.9407 0.9465 0 3
42.7539 8.0563 11.9463 0.9460 0 3
42.7560 8.1561 11.9520 0.9456 0 3
42.7581 8.2560 11.9578 0.9451 0 3
42.7602 8.3560 11.9636 0.9447 0 3
42.7623 8.4560 11.9694 0.9442 0 3
42.7645 8.5562 11.9754 0.9438 0 3
42.7665 8.6565 11.9814 0.9433 0 3
42.7687 8.7569 11.9874 0.9428 0 3
42.7708 8.8574 11.9936 0.9423 0 3
42.7729 8.9580 11.9998 0.9418 0 3
42.7750 9.0587 12.0060 0.9413 0 3
42.7771 9.1595 12.0124 0.9408 0 3
42.7792 9.2604 12.0188 0.9403 0 3
42.7813 9.3613 12.0252 0.9398 0 3
42.7835 9.4625 12.0318 0.9393 0 3
42.7856 9.5637 12.0384 0.9388 0 3
42.7878 9.6650 12.0450 0.9383 0 3
42.7899 9.7665 12.0518 0.9378 0 3
42.7920 9.8680 12.0586 0.9372 0 3
42.7941 9.9697 12.0655 0.9367 0 3
42.7963 10.0716 12.0724 0.9362 0 3
42.7984 10.1735 12.0794 0.9356 0 3
42.8006 10.2755 12.0865 0.9351 0 3
42.8027 10.3776 12.0936 0.9345 0 3
42.8048 10.4799 12.1009 0.9340 0 3
42.8070 10.5823 12.1082 0.9334 0 3
42.8091 10.6849 12.1155 0.9328 0 3
42.8113 10.7875 12.1229 0.9323 0 3
42.8134 10.8903 12.1304 0.9317 0 3
42.8156 10.9931 12.1380 0.9311 0 3
9.6590 2.5031 2.7399 0.4298 0 6
9.6390 2.5210 2.7358 0.9152 0 6
9.6306 2.5419 2.7350 0.9607 0 6
9.6324 2.5655 2.7372 0.8637 0 6
42.8264 11.5096 12.1769 0.9281 0 3
42.8286 11.6133 12.1849 0.9275 0 3
42.8307 11.7171 12.1930 0.9269 0 3
42.8329 11.8211 12.2011 0.9263 0 3
42.8351 11.9252 12.2093 0.9257 0 3
42.8372 12.0295 12.2176 0.9250 0 3
42.8394 12.1338 12.2260 0.9244 0 3
42.8416 12.2384 12.2344 0.9238 0 3
42.8438 12.3430 12.2429 0.9231 0 3
42.8460 12.4479 12.2515 0.9225 0 3
42.8481 12.5529 12.2601 0.9218 0 3
42.8503 12.6580 12.2688 0.9212 0 3
42.8525 12.7633 12.2776 0.9205 0 3
42.8547 12.8687 12.2865 0.9199 0 3
42.8569 12.9742 12.2955 0.9192 0 3
42.8591 13.0800 12.3045 0.9185 0 3
28.8790 10.2510 8.4146 0.9041 0 3
28.8806 10.3245 8.4218 0.9033 0 3
28.8821 10.3982 8.4290 0.9025 0 3
28.8836 10.4720 8.4363 0.9018 0 3
28.8852 10.5460 8.4436 0.9010 0 3
28.8867 10.6201 8.4510 0.9002 0 3
28.8882 10.6942 8.4585 0.8994 0 3
28.8897 10.7686 8.4660 0.8986 0 3
28.8913 10.8430 8.4735 0.8978 0 3
28.8928 10.9177 8.4811 0.8970 0 3
28.8944 10.9924 8.4888 0.8962 0 3
28.8959 11.0673 8.4965 0.8954 0 3
28.8975 11.1423 8.5043 0.8945 0 3
28.8990 11.2175 8.5122 0.8937 0 3
28.9006 11.2928 8.5201 0.8929 0 3
28.9021 11.3682 8.5280 0.8921 0 3
28.9037 11.4438 8.5360 0.8912 0 3
28.9052 11.5195 8.5441 0.8904 0 3
28.9068 11.5953 8.5523 0.8895 0 3
28.9084 11.6713 8.5604 0.8887 0 3
28.9099 11.7475 8.5687 0.8878 0 3
23.8725 10.2670 7.1356 0.9038 0 3
23.8697 10.3293 7.1417 0.9030 0 3
23.8670 10.3918 7.1479 0.9023 0 3
23.7997 10.4261 7.1347 0.4061 0 3
23.6619 10.4290 7.1004 0.4080 0 3
23.5254 10.4321 7.0665 0.4100 0 3
23.3900 10.4348 7.0328 0.4091 0 3
23.2557 10.4376 6.9994 0.4134 0 3
23.1230 10.4404 6.9665 0.4154 0 3
22.6567 10.2911 6.8330 0.4174 0 3
22.6063 10.3295 6.8248 0.9122 0 3
22.5655 10.3721 6.8194 0.9128 0 3
22.5247 10.4147 6.8142 0.9135 0 3
22.5240 10.4757 6.8210 0.8676 0 3
22.5253 10.5379 6.8286 0.8667 0 3
22.6870 10.6756 6.8848 0.8657 0 3
22.6883 10.7385 6.8925 0.8647 0 3
22.6896 10.8015 6.9003 0.8638 0 3
22.6909 10.8646 6.9081 0.8628 0 3
22.6922 10.9280 6.9159 0.8621 0 3
22.6935 10.9914 6.9238 0.8611 0 3
22.6948 11.0550 6.9318 0.8601 0 3
22.6961 11.1187 6.9398 0.8591 0 3
22.6974 11.1826 6.9478 0.8581 0 3
22.6987 11.2466 6.9559 0.8571 0 3
22.7000 11.3107 6.9641 0.8561 0 3
22.7013 11.3751 6.9723 0.8551 0 3
22.7027 11.4395 6.9806 0.8541 0 3
22.7040 11.5041 6.9889 0.8531 0 3
22.7053 11.5689 6.9973 0.8521 0 3
22.7066 11.6338 7.0057 0.8510 0 3
22.7079 11.6989 7.0142 0.8500 0 3
22.7093 11.7642 7.0227 0.8490 0 3
22.7106 11.8295 7.0313 0.8479 0 3
22.7119 11.8951 7.0400 0.8469 0 3
22.6961 11.9518 7.0434 0.5369 0 3
22.5936 11.9627 7.0199 0.5387 0 3
22.5554 12.0073 7.0164 0.8436 0 3
22.5568 12.0731 7.0252 0.8426 0 3
22.6409 12.1836 7.0599 0.2591 0 3
24.5409 13.2771 7.6617 0.6187 0 3
24.5487 13.3526 7.6734 0.6177 0 3
24.5566 13.4284 7.6853 0.6168 0 3
24.5646 13.5045 7.6973 0.6158 0 3
24.5726 13.5808 7.7093 0.6149 0 3
24.5806 13.6573 7.7214 0.6139 0 3
24.5887 13.7341 7.7336 0.6129 0 3
24.5969 13.8112 7.7459 0.6120 0 3
24.6050 13.8885 7.7583 0.6110 0 3
24.6108 13.9646 7.7699 0.8307 0 3
24.6123 14.0386 7.7803 0.8296 0 3
24.6138 14.1128 7.7908 0.8285 0 3
24.6153 14.1871 7.8013 0.8274 0 3
24.6168 14.2617 7.8120 0.8262 0 3
24.6183 14.3364 7.8226 0.8251 0 3
24.6198 14.4114 7.8334 0.8240 0 3
24.6213 14.4865 7.8442 0.8229 0 3
24.6229 14.5620 7.8550 0.8217 0 3
24.6244 14.6375 7.8660 0.8206 0 3
24.6259 14.7133 7.8770 0.8194 0 3
24.6275 14.7893 7.8881 0.8183 0 3
24.6290 14.8655 7.8993 0.8171 0 3
24.6306 14.9420 7.9105 0.8160 0 3
24.6321 15.0186 7.9218 0.8148 0 3
24.6337 15.0955 7.9332 0.8136 0 3
24.6352 15.1726 7.9446 0.8125 0 3
24.6368 15.2499 7.9561 0.8113 0 3
24.6383 15.3275 7.9677 0.8101 0 3
24.6399 15.4053 7.9794 0.8089 0 3
24.6415 15.4833 7.9911 0.8077 0 3
23.9737 17.2540 8.1105 0.5800 0 3
23.8638 17.2564 8.0865 0.5817 0 3
23.7546 17.2587 8.0626 0.5834 0 3
23.6461 17.2611 8.0388 0.5851 0 3
23.5382 17.2634 8.0153 0.5869 0 3
23.4308 17.2657 7.9920 0.5886 0 3
23.3242 17.2680 7.9688 0.5903 0 3
23.2182 17.2703 7.9458 0.5920 0 3
23.1127 17.2725 7.9229 0.5937 0 3
23.0055 17.2730 7.8994 0.3369 0 3
22.8730 17.2539 7.8672 0.3383 0 3
22.7899 17.2716 7.8519 0.4343 0 3
22.7432 17.3167 7.8492 0.4344 0 3
22.6966 17.3618 7.8465 0.4346 0 3
22.7095 17.4526 7.8645 0.3800 0 3
22.7306 17.5501 7.8855 0.3790 0 3
22.7452 17.6429 7.9042 0.7515 0 3
22.7468 17.7261 7.9186 0.7501 0 3
22.7485 17.8096 7.9331 0.7488 0 3
22.7502 17.8934 7.9476 0.7474 0 3
22.7518 17.9775 7.9623 0.7460 0 3
22.7535 18.0619 7.9770 0.7446 0 3
22.7552 18.1466 7.9919 0.7433 0 3
22.7569 18.2317 8.0068 0.7419 0 3
22.7586 18.3171 8.0219 0.7405 0 3
22.7603 18.4028 8.0370 0.7391 0 3
22.7620 18.4887 8.0522 0.7377 0 3
22.7638 18.5751 8.0676 0.7363 0 3
22.7654 18.6617 8.0830 0.7349 0 3
22.7672 18.7488 8.0986 0.7335 0 3
22.7689 18.8361 8.1142 0.7321 0 3
22.7707 18.9237 8.1299 0.7306 0 3
22.8399 19.0681 8.1699 0.2581 0 3
22.7958 19.1183 8.1694 0.2581 0 3
32.6895 30.1499 12.2111 0.6688 0 3
31.6567 29.3290 11.8498 0.6704 0 3
31.5177 29.3320 11.8224 0.6719 0 3
31.3795 29.3350 11.7952 0.6735 0 3
31.2418 29.3379 11.7682 0.6750 0 3
31.0734 29.3113 11.7295 0.6766 0 3
30.9372 29.3143 11.7029 0.6781 0 3
30.8015 29.3172 11.6764 0.6797 0 3
30.6664 29.3201 11.6501 0.6812 0 3
30.5320 29.3230 11.6240 0.6827 0 3
30.3982 29.3259 11.5981 0.6842 0 3
30.2649 29.3287 11.5723 0.6858 0 3
30.1323 29.3316 11.5468 0.6873 0 3
30.0002 29.3345 11.5214 0.6888 0 3
29.8687 29.3373 11.4961 0.6903 0 3
29.7378 29.3401 11.4710 0.6918 0 3
29.6075 29.3429 11.4461 0.6933 0 3
29.4777 29.3457 11.4214 0.6948 0 3
8.3919 -8.3919 3.1538 0.5048 0 3
8.4344 -8.3966 3.1627 0.5034 0 3
8.4772 -8.4014 3.1716 0.5020 0 3
8.5203 -8.4063 3.1807 0.5006 0 3
8.5636 -8.4112 3.1898 0.4991 0 3
8.6071 -8.4161 3.1990 0.4977 0 3
8.6510 -8.4211 3.2083 0.4963 0 3
8.6951 -8.4261 3.2176 0.4948 0 3
8.7394 -8.4312 3.2270 0.4934 0 3
8.7841 -8.4362 3.2365 0.4919 0 3
8.8290 -8.4414 3.2460 0.4905 0 3
8.8742 -8.4465 3.2557 0.4890 0 3
8.9196 -8.4518 3.2654 0.4876 0 3
8.9654 -8.4570 3.2752 0.4861 0 3
9.0114 -8.4623 3.2850 0.4847 0 3
9.0577 -8.4676 3.2950 0.4832 0 3
9.1043 -8.4730 3.3050 0.4817 0 3
9.1512 -8.4784 3.3151 0.4803 0 3
9.1984 -8.4838 3.3253 0.4788 0 3
9.2459 -8.4894 3.3356 0.4773 0 3
9.2938 -8.4949 3.3460 0.4758 0 3
9.3419 -8.5005 3.3564 0.4744 0 3
9.3903 -8.5061 3.3670 0.4729 0 3
9.4391 -8.5117 3.3776 0.4714 0 3
9.4881 -8.5175 3.3883 0.4699 0 3
9.5375 -8.5233 3.3991 0.4684 0 3
9.5870 -8.5288 3.4099 0.5165 0 3
9.6353 -8.5331 3.4202 0.5150 0 3
9.6838 -8.5375 3.4307 0.5134 0 3
9.7328 -8.5419 3.4412 0.5118 0 3
9.7820 -8.5463 3.4518 0.5103 0 3
9.8315 -8.5508 3.4625 0.5087 0 3
9.8814 -8.5552 3.4733 0.5071 0 3
9.9315 -8.5598 3.4842 0.5055 0 3
12.5352 -10.7548 4.3891 0.7494 0 3
12.5363 -10.7070 4.3811 0.7507 0 3
12.5374 -10.6594 4.3731 0.7521 0 3
12.5385 -10.6120 4.3652 0.7535 0 3
12.5396 -10.5647 4.3573 0.7548 0 3
12.5407 -10.5176 4.3495 0.7562 0 3
12.5418 -10.4707 4.3417 0.7575 0 3
12.5429 -10.4239 4.3339 0.7589 0 3
12.5439 -10.3773 4.3263 0.7602 0 3
12.5450 -10.3308 4.3186 0.7616 0 3
12.5461 -10.2846 4.3110 0.7629 0 3
12.5471 -10.2385 4.3035 0.7643 0 3
12.5482 -10.1925 4.2960 0.7656 0 3
12.5493 -10.1467 4.2886 0.7669 0 3
12.5503 -10.1011 4.2812 0.7683 0 3
12.5514 -10.0556 4.2738 0.7696 0 3
12.5524 -10.0103 4.2665 0.7709 0 3
12.5535 -9.9651 4.2593 0.7722 0 3
12.5545 -9.9201 4.2521 0.7735 0 3
12.5556 -9.8752 4.2449 0.7748 0 3
12.5566 -9.8305 4.2378 0.7761 0 3
12.5576 -9.7860 4.2307 0.7774 0 3
12.5587 -9.7415 4.2237 0.7787 0 3
12.5597 -9.6973 4.2167 0.7800 0 3
12.5607 -9.6531 4.2097 0.7813 0 3
12.5617 -9.6092 4.2028 0.7826 0 3
12.5628 -9.5654 4.1960 0.7838 0 3
12.5637 -9.5217 4.1892 0.7851 0 3
12.5647 -9.4781 4.1824 0.7864 0 3
12.5658 -9.4347 4.1757 0.7877 0 3
12.5668 -9.3914 4.1690 0.7889 0 3
12.5678 -9.3483 4.1624 0.7902 0 3
12.5761 -9.3107 4.1582 0.9597 0 3
12.5931 -9.2797 4.1569 0.9600 0 3
12.6102 -9.2486 4.1557 0.9603 0 3
12.6271 -9.2175 4.1545 0.9606 0 3
12.6441 -9.1865 4.1533 0.9608 0 3
12.6611 -9.1555 4.1521 0.9611 0 3
12.6781 -9.1246 4.1509 0.9614 0 3
12.6951 -9.0936 4.1498 0.9617 0 3
12.7120 -9.0626 4.1487 0.9619 0 3
12.7290 -9.0317 4.1476 0.9622 0 3
12.7517 -9.0049 4.1484 0.9246 0 3
12.7808 -8.9825 4.1513 0.9239 0 3
12.8099 -8.9601 4.1542 0.9233 0 3
12.8391 -8.9377 4.1572 0.9226 0 3
12.8683 -8.9152 4.1601 0.9220 0 3
12.8976 -8.8927 4.1631 0.9213 0 3
12.9269 -8.8702 4.1662 0.9206 0 3
12.9562 -8.8477 4.1692 0.9200 0 3
12.9856 -8.8250 4.1723 0.9193 0 3
13.0214 -8.8068 4.1774 0.4759 0 3
13.0932 -8.8125 4.1940 0.4740 0 3
13.1654 -8.8183 4.2109 0.4722 0 3
13.2383 -8.8240 4.2278 0.4703 0 3
13.3117 -8.8299 4.2449 0.4684 0 3
13.3454 -8.8093 4.2494 0.8203 0 3
13.3464 -8.7670 4.2434 0.8215 0 3
13.3474 -8.7248 4.2375 0.8226 0 3
13.3483 -8.6828 4.2316 0.8238 0 3
13.3493 -8.6408 4.2258 0.8249 0 3
13.3503 -8.5990 4.2199 0.8261 0 3
13.3512 -8.5573 4.2142 0.8272 0 3
13.3522 -8.5156 4.2084 0.8283 0 3
13.3531 -8.4742 4.2027 0.8294 0 3
13.3541 -8.4328 4.1970 0.8306 0 3
13.3550 -8.3915 4.1914 0.8317 0 3
13.3560 -8.3504 4.1858 0.8328 0 3
13.3569 -8.3093 4.1803 0.8339 0 3
13.3579 -8.2684 4.1747 0.8350 0 3
13.3588 -8.2276 4.1692 0.8361 0 3
13.3597 -8.1868 4.1638 0.8372 0 3
13.3606 -8.1463 4.1584 0.8383 0 3
13.3616 -8.1058 4.1530 0.8394 0 3
13.3625 -8.0654 4.1476 0.8405 0 3
13.3795 -8.0347 4.1473 0.9683 0 3
13.3967 -8.0042 4.1471 0.9683 0 3
13.4139 -7.9736 4.1469 0.9684 0 3
13.4311 -7.9432 4.1466 0.9684 0 3
13.4483 -7.9127 4.1465 0.9685 0 3
13.4655 -7.8821 4.1463 0.9685 0 3
13.4827 -7.8516 4.1462 0.9685 0 3
13.4998 -7.8211 4.1460 0.9686 0 3
13.5170 -7.7906 4.1459 0.9686 0 3
13.5342 -7.7601 4.1458 0.9686 0 3
13.5525 -7.7302 4.1461 0.9662 0 3
13.5720 -7.7010 4.1468 0.9661 0 3
13.5914 -7.6718 4.1475 0.9659 0 3
13.6109 -7.6426 4.1482 0.9657 0 3
13.6304 -7.6133 4.1489 0.9656 0 3
13.6655 -7.5928 4.1544 0.7786 0 3
13.7053 -7.5747 4.1613 0.7773 0 3
13.7451 -7.5565 4.1682 0.7760 0 3
13.7851 -7.5382 4.1752 0.7747 0 3
13.8335 -7.5244 4.1847 0.6758 0 3
13.8822 -7.5106 4.1944 0.6742 0 3
13.9313 -7.4967 4.2041 0.6727 0 3
13.9805 -7.4829 4.2139 0.6711 0 3
14.0300 -7.4689 4.2237 0.6695 0 3
14.0796 -7.4548 4.2336 0.6680 0 3
14.1296 -7.4407 4.2436 0.6664 0 3
14.1797 -7.4265 4.2537 0.6648 0 3
14.2301 -7.4123 4.2638 0.6632 0 3
14.2880 -7.4017 4.2761 0.4260 0 3
14.3703 -7.4035 4.2958 0.4241 0 3
14.4534 -7.4053 4.3156 0.4221 0 3
14.5372 -7.4071 4.3357 0.4202 0 3
14.6217 -7.4089 4.3559 0.4182 0 3
14.7071 -7.4107 4.3764 0.4162 0 3
14.7934 -7.4126 4.3971 0.4143 0 3
14.8803 -7.4145 4.4180 0.4123 0 3
14.9682 -7.4163 4.4391 0.4104 0 3
15.0569 -7.4183 4.4605 0.4084 0 3
15.1465 -7.4202 4.4821 0.4064 0 3
15.2369 -7.4221 4.5039 0.4045 0 3
15.3281 -7.4241 4.5259 0.4025 0 3
15.4204 -7.4261 4.5482 0.4005 0 3
15.5135 -7.4281 4.5708 0.3985 0 3
15.6075 -7.4302 4.5936 0.3966 0 3
15.7025 -7.4321 4.6166 0.3946 0 3
15.7985 -7.4342 4.6399 0.3926 0 3
15.8954 -7.4363 4.6634 0.3906 0 3
15.9933 -7.4384 4.6873 0.3886 0 3
16.0922 -7.4405 4.7113 0.3867 0 3
16.1921 -7.4427 4.7357 0.3847 0 3
16.2931 -7.4449 4.7603 0.3827 0 3
16.3951 -7.4471 4.7852 0.3807 0 3
16.4983 -7.4493 4.8105 0.3787 0 3
16.6025 -7.4515 4.8360 0.3767 0 3
16.7078 -7.4538 4.8617 0.3747 0 3
16.8142 -7.4561 4.8878 0.3727 0 3
16.9218 -7.4584 4.9142 0.3707 0 3
17.0306 -7.4607 4.9409 0.3687 0 3
17.1405 -7.4631 4.9680 0.3667 0 3
17.2517 -7.4655 4.9953 0.3647 0 3
17.3641 -7.4679 5.0230 0.3627 0 3
17.4777 -7.4704 5.0510 0.3607 0 3
17.5926 -7.4729 5.0794 0.3586 0 3
17.7089 -7.4753 5.1081 0.3566 0 3
17.8264 -7.4779 5.1371 0.3546 0 3
17.9452 -7.4804 5.1665 0.3526 0 3
18.0655 -7.4830 5.1963 0.3506 0 3
18.1871 -7.4856 5.2264 0.3485 0 3
18.3103 -7.4883 5.2570 0.3465 0 3
18.4347 -7.4909 5.2879 0.3445 0 3
18.5609 -7.4937 5.3192 0.3425 0 3
18.8534 -7.5627 5.3982 0.3409 0 3
18.9834 -7.5654 5.4305 0.3389 0 3
19.1149 -7.5682 5.4633 0.3368 0 3
19.2481 -7.5710 5.4965 0.3348 0 3
19.3829 -7.5738 5.5301 0.3328 0 3
19.5193 -7.5766 5.5641 0.3307 0 3
19.6574 -7.5795 5.5986 0.3287 0 3
19.7972 -7.5825 5.6336 0.3267 0 3
19.9389 -7.5855 5.6691 0.3246 0 3
20.0822 -7.5885 5.7050 0.3226 0 3
20.2275 -7.5915 5.7414 0.3205 0 3
20.3746 -7.5946 5.7783 0.3185 0 3
20.5236 -7.5978 5.8157 0.3164 0 3
20.6745 -7.6009 5.8536 0.3144 0 3
20.8275 -7.6042 5.8921 0.3123 0 3
20.9824 -7.6074 5.9310 0.3103 0 3
21.1394 -7.6107 5.9706 0.3082 0 3
21.2986 -7.6140 6.0107 0.3062 0 3
21.4598 -7.6174 6.0514 0.3041 0 3
48.2145 3.0334 12.8379 0.9313 0 3
48.1768 3.1396 12.8297 0.9319 0 3
45.2071 3.0479 12.0407 0.4756 0 3
45.1277 3.1443 12.0213 0.9341 0 3
45.0934 3.2436 12.0141 0.9647 0 3
45.0956 3.3455 12.0167 0.9645 0 3
45.0977 3.4475 12.0193 0.9642 0 3
45.0999 3.5494 12.0220 0.9640 0 3
44.3371 3.5895 11.8207 0.0987 0 3
43.3807 3.6100 11.5679 0.1008 0 3
42.6640 3.6469 11.3789 0.9634 0 3
42.6661 3.7435 11.3817 0.9631 0 3
42.6681 3.8402 11.3845 0.9629 0 3
42.6702 3.9369 11.3874 0.9626 0 3
42.6722 4.0337 11.3903 0.9624 0 3
42.6743 4.1305 11.3933 0.9621 0 3
42.6764 4.2274 11.3964 0.9619 0 3
42.6785 4.3244 11.3995 0.9616 0 3
42.6805 4.4213 11.4026 0.9614 0 3
42.6826 4.5184 11.4059 0.9611 0 3
42.6846 4.6155 11.4092 0.9608 0 3
42.6867 4.7126 11.4125 0.9605 0 3
42.6888 4.8098 11.4159 0.9602 0 3
42.6909 4.9071 11.4194 0.9599 0 3
42.6929 5.0044 11.4229 0.9596 0 3
42.6950 5.1018 11.4265 0.9593 0 3
42.6971 5.1993 11.4302 0.9590 0 3
42.6992 5.2968 11.4339 0.9587 0 3
42.7012 5.3944 11.4377 0.9584 0 3
42.7033 5.4921 11.4415 0.9581 0 3
42.7053 5.5897 11.4454 0.9578 0 3
42.7074 5.6875 11.4493 0.9574 0 3
42.7095 5.7854 11.4533 0.9571 0 3
42.7116 5.8833 11.4574 0.9568 0 3
42.7137 5.9813 11.4615 0.9564 0 3
42.7158 6.0793 11.4657 0.9561 0 3
42.7178 6.1774 11.4700 0.9557 0 3
42.7199 6.2757 11.4743 0.9554 0 3
42.7220 6.3739 11.4786 0.9550 0 3
42.7241 6.4723 11.4831 0.9546 0 3
42.7262 6.5707 11.4876 0.9542 0 3
42.7283 6.6692 11.4921 0.9539 0 3
42.7304 6.7678 11.4968 0.9535 0 3
42.7324 6.8664 11.5014 0.9531 0 3
42.7345 6.9653 11.5062 0.9527 0 3
42.7366 7.0640 11.5110 0.9523 0 3
42.7387 7.1630 11.5158 0.9519 0 3
42.7408 7.2619 11.5208 0.9515 0 3
42.7429 7.3610 11.5257 0.9511 0 3
42.7450 7.4602 11.5308 0.9507 0 3
42.7471 7.5595 11.5359 0.9503 0 3
42.7492 7.6588 11.5411 0.9498 0 3
42.7513 7.7582 11.5463 0.9494 0 3
42.7534 7.8577 11.5516 0.9490 0 3
42.7555 7.9573 11.5570 0.9485 0 3
42.7576 8.0570 11.5624 0.9481 0 3
42.7597 8.1569 11.5679 0.9476 0 3
42.7618 8.2567 11.5735 0.9472 0 3
42.7639 8.3567 11.5791 0.9467 0 3
42.7660 8.4568 11.5848 0.9462 0 3
42.7681 8.5570 11.5905 0.9458 0 3
42.7703 8.6573 11.5963 0.9453 0 3
42.7724 8.7577 11.6022 0.9448 0 3
42.7745 8.8581 11.6081 0.9443 0 3
42.7766 8.9587 11.6141 0.9439 0 3
42.7787 9.0595 11.6202 0.9434 0 3
42.7809 9.1603 11.6263 0.9429 0 3
42.7830 9.2612 11.6325 0.9424 0 3
42.7851 9.3622 11.6388 0.9419 0 3
42.7872 9.4633 11.6451 0.9413 0 3
42.7893 9.5645 11.6515 0.9408 0 3
42.7915 9.6659 11.6580 0.9403 0 3
42.7936 9.7674 11.6645 0.9398 0 3
42.7958 9.8690 11.6711 0.9392 0 3
42.7979 9.9706 11.6777 0.9387 0 3
42.8000 10.0724 11.6844 0.9382 0 3
42.8021 10.1743 11.6912 0.9376 0 3
42.8043 10.2764 11.6981 0.9371 0 3
42.8064 10.3785 11.7050 0.9365 0 3
42.8086 10.4809 11.7120 0.9360 0 3
42.8107 10.5833 11.7190 0.9354 0 3
42.8129 10.6858 11.7262 0.9348 0 3
42.8150 10.7885 11.7334 0.9343 0 3
42.8172 10.8912 11.7406 0.9337 0 3
42.8194 10.9941 11.7479 0.9331 0 3
9.6592 2.5031 2.6516 0.7482 0 6
9.6395 2.5211 2.6478 0.9172 0 6
9.6312 2.5421 2.6470 0.9628 0 6
9.6331 2.5657 2.6492 0.8656 0 6
42.8302 11.5107 11.7856 0.9301 0 3
42.8323 11.6143 11.7933 0.9295 0 3
42.8345 11.7182 11.8011 0.9289 0 3
42.8367 11.8221 11.8090 0.9283 0 3
42.8389 11.9262 11.8170 0.9276 0 3
42.8410 12.0305 11.8250 0.9270 0 3
42.8432 12.1349 11.8331 0.9264 0 3
42.8454 12.2395 11.8412 0.9257 0 3
42.8476 12.3442 11.8495 0.9251 0 3
42.8497 12.4490 11.8578 0.9245 0 3
42.8520 12.5540 11.8661 0.9238 0 3
42.8541 12.6591 11.8746 0.9231 0 3
42.8563 12.7644 11.8831 0.9225 0 3
42.8586 12.8697 11.8917 0.9218 0 3
42.8607 12.9754 11.9003 0.9212 0 3
42.8629 13.0811 11.9091 0.9205 0 3
29.9372 10.1748 8.4025 0.1272 0 3
29.5290 10.1100 8.2943 0.1289 0 3
29.3055 10.1070 8.2378 0.2483 0 3
29.2817 10.1724 8.2375 0.2483 0 3
29.2103 10.2211 8.2239 0.3387 0 3
29.0135 10.2254 8.1749 0.3408 0 3
28.9133 10.2630 8.1531 0.9060 0 3
28.9148 10.3367 8.1601 0.9052 0 3
28.9163 10.4105 8.1671 0.9045 0 3
28.9179 10.4844 8.1741 0.9037 0 3
28.9194 10.5585 8.1813 0.9029 0 3
28.9210 10.6326 8.1884 0.9021 0 3
28.9225 10.7069 8.1956 0.9013 0 3
28.9240 10.7813 8.2029 0.9005 0 3
28.9255 10.8559 8.2102 0.8997 0 3
28.9271 10.9306 8.2176 0.8989 0 3
28.9286 11.0055 8.2250 0.8981 0 3
28.9302 11.0804 8.2325 0.8973 0 3
28.9079 11.1464 8.2333 0.2484 0 3
28.9016 11.2185 8.2387 0.8956 0 3
28.9032 11.2937 8.2463 0.8948 0 3
28.9048 11.3692 8.2540 0.8939 0 3
28.9063 11.4448 8.2618 0.8931 0 3
28.9079 11.5205 8.2696 0.8923 0 3
28.9095 11.5964 8.2775 0.8914 0 3
28.9110 11.6724 8.2854 0.8906 0 3
28.9126 11.7485 8.2934 0.8897 0 3
28.9142 11.8248 8.3014 0.8888 0 3
28.9158 11.9013 8.3095 0.8880 0 3
28.9173 11.9779 8.3177 0.8871 0 3
28.9189 12.0547 8.3259 0.8862 0 3
24.0103 10.2624 6.9389 0.3981 0 3
23.8746 10.2679 6.9063 0.9057 0 3
23.8719 10.3302 6.9122 0.9050 0 3
23.8691 10.3927 6.9182 0.9051 0 3
23.7995 10.4260 6.9047 0.4070 0 3
23.6617 10.4290 6.8716 0.4090 0 3
23.5253 10.4320 6.8387 0.4109 0 3
23.3894 10.4346 6.8060 0.4101 0 3
23.2551 10.4373 6.7737 0.4143 0 3
23.1223 10.4401 6.7419 0.4163 0 3
22.6561 10.2908 6.6126 0.4183 0 3
22.6075 10.3300 6.6052 0.9142 0 3
22.5667 10.3727 6.6001 0.9148 0 3
22.5260 10.4152 6.5950 0.9155 0 3
22.5261 10.4767 6.6019 0.8696 0 3
22.5273 10.5388 6.6092 0.8685 0 3
22.6890 10.6766 6.6636 0.8676 0 3
22.6904 10.7395 6.6711 0.8666 0 3
22.6917 10.8025 6.6786 0.8656 0 3
22.6930 10.8657 6.6861 0.8646 0 3
22.6943 10.9290 6.6937 0.8637 0 3
22.6956 10.9924 6.7013 0.8627 0 3
22.6970 11.0560 6.7090 0.8617 0 3
22.6983 11.1197 6.7168 0.8609 0 3
22.6996 11.1836 6.7246 0.8600 0 3
22.7009 11.2476 6.7324 0.8589 0 3
22.7022 11.3118 6.7403 0.8579 0 3
22.7035 11.3761 6.7483 0.8569 0 3
22.7048 11.4406 6.7563 0.8559 0 3
22.7062 11.5053 6.7644 0.8549 0 3
22.7075 11.5700 6.7725 0.8539 0 3
22.7088 11.6350 6.7806 0.8528 0 3
22.7101 11.7001 6.7888 0.8518 0 3
22.7114 11.7653 6.7971 0.8508 0 3
22.7128 11.8307 6.8054 0.8497 0 3
22.7141 11.8963 6.8138 0.8487 0 3
22.6962 11.9518 6.8165 0.5381 0 3
22.5937 11.9627 6.7938 0.5402 0 3
22.5576 12.0085 6.7910 0.8454 0 3
22.5590 12.0743 6.7995 0.8444 0 3
22.6462 12.1864 6.8340 0.2595 0 3
24.3846 13.1925 7.3675 0.6241 0 3
24.3921 13.2675 7.3788 0.6231 0 3
24.3997 13.3426 7.3902 0.6221 0 3
24.4074 13.4180 7.4016 0.6212 0 3
24.4151 13.4937 7.4131 0.6202 0 3
24.4228 13.5696 7.4246 0.6193 0 3
24.4306 13.6458 7.4363 0.6183 0 3
24.4384 13.7222 7.4480 0.6173 0 3
24.4463 13.7989 7.4599 0.6163 0 3
24.4543 13.8758 7.4718 0.6153 0 3
24.4622 13.9530 7.4838 0.6144 0 3
24.4703 14.0305 7.4958 0.6134 0 3
24.4784 14.1082 7.5080 0.6124 0 3
24.4865 14.1862 7.5202 0.6114 0 3
24.4947 14.2644 7.5325 0.6104 0 3
24.5029 14.3429 7.5450 0.6094 0 3
24.5112 14.4217 7.5575 0.6084 0 3
24.5196 14.5008 7.5700 0.6074 0 3
24.5279 14.5801 7.5827 0.6063 0 3
24.5364 14.6598 7.5955 0.6053 0 3
24.5449 14.7397 7.6083 0.6043 0 3
24.5534 14.8199 7.6213 0.6033 0 3
24.5620 14.9004 7.6343 0.6022 0 3
24.5707 14.9812 7.6474 0.6012 0 3
24.5794 15.0623 7.6606 0.6002 0 3
24.5882 15.1437 7.6739 0.5991 0 3
24.5970 15.2253 7.6873 0.5981 0 3
24.6059 15.3073 7.7008 0.5970 0 3
24.6148 15.3896 7.7144 0.5960 0 3
24.6238 15.4722 7.7281 0.5949 0 3
24.6329 15.5551 7.7419 0.5939 0 3
24.6420 15.6383 7.7557 0.5928 0 3
24.6488 15.7203 7.7690 0.8058 0 3
24.6504 15.7992 7.7806 0.8046 0 3
24.6519 15.8784 7.7924 0.8034 0 3
24.6535 15.9578 7.8042 0.8022 0 3
24.6551 16.0375 7.8160 0.8010 0 3
24.6568 16.1174 7.8280 0.7998 0 3
25.0736 16.4702 7.9720 0.7985 0 3
25.0752 16.5520 7.9843 0.7973 0 3
25.0769 16.6340 7.9967 0.7961 0 3
24.0290 17.2121 7.8547 0.3286 0 3
23.8881 17.1924 7.8212 0.3300 0 3
23.7483 17.1729 7.7880 0.3314 0 3
23.6098 17.1535 7.7552 0.3328 0 3
23.4726 17.1344 7.7227 0.3342 0 3
23.3365 17.1154 7.6906 0.3356 0 3
23.2015 17.0967 7.6587 0.3370 0 3
23.0678 17.0781 7.6272 0.3384 0 3
22.9616 17.0794 7.6047 0.5933 0 3
22.8573 17.0816 7.5829 0.5950 0 3
22.7536 17.0839 7.5612 0.5967 0 3
22.6505 17.0861 7.5397 0.5984 0 3
22.5799 17.1124 7.5289 0.9617 0 3
22.5357 17.1587 7.5270 0.9619 0 3
22.4914 17.2049 7.5251 0.9622 0 3
22.4855 17.2805 7.5361 0.7558 0 3
22.4871 17.3621 7.5497 0.7545 0 3
22.4888 17.4441 7.5633 0.7531 0 3
22.4904 17.5263 7.5771 0.7517 0 3
22.4921 17.6088 7.5909 0.7504 0 3
22.4937 17.6917 7.6049 0.7490 0 3
22.4954 17.7749 7.6189 0.7476 0 3
22.5151 17.8726 7.6391 0.3795 0 3
22.5360 17.9719 7.6599 0.3784 0 3
22.5571 18.0716 7.6808 0.3774 0 3
22.5785 18.1720 7.7020 0.3764 0 3
22.5999 18.2731 7.7233 0.3753 0 3
22.6215 18.3746 7.7447 0.3743 0 3
22.6434 18.4769 7.7664 0.3733 0 3
22.6654 18.5797 7.7882 0.3722 0 3
22.6875 18.6832 7.8102 0.3712 0 3
22.7099 18.7872 7.8324 0.3701 0 3
22.7325 18.8920 7.8548 0.3691 0 3
33.0489 29.2686 11.7315 0.6561 0 3
32.9034 29.2717 11.7031 0.6577 0 3
32.7586 29.2749 11.6749 0.6593 0 3
32.6145 29.2779 11.6469 0.6609 0 3
32.4710 29.2810 11.6191 0.6625 0 3
32.3283 29.2841 11.5915 0.6641 0 3
32.1863 29.2872 11.5642 0.6656 0 3
32.0449 29.2902 11.5369 0.6672 0 3
31.9041 29.2933 11.5099 0.6688 0 3
31.7640 29.2963 11.4830 0.6703 0 3
31.6246 29.2993 11.4564 0.6719 0 3
31.4858 29.3023 11.4299 0.6734 0 3
31.3477 29.3053 11.4036 0.6750 0 3
31.2102 29.3082 11.3775 0.6765 0 3
31.0733 29.3112 11.3515 0.6781 0 3
30.9370 29.3141 11.3257 0.6796 0 3
30.8013 29.3170 11.3001 0.6812 0 3
30.6663 29.3200 11.2747 0.6827 0 3
30.5319 29.3229 11.2494 0.6842 0 3
30.3980 29.3257 11.2243 0.6858 0 3
30.2647 29.3286 11.1994 0.6873 0 3
30.1321 29.3314 11.1747 0.6888 0 3
30.0001 29.3343 11.1501 0.6903 0 3
29.8686 29.3371 11.1256 0.6919 0 3
29.7377 29.3400 11.1014 0.6934 0 3
29.6073 29.3427 11.0773 0.6949 0 3
29.4776 29.3455 11.0533 0.6964 0 3
8.3275 -8.3275 3.0258 0.4597 0 3
8.3708 -8.3334 3.0348 0.4583 0 3
8.4144 -8.3392 3.0438 0.4569 0 3
8.4583 -8.3452 3.0529 0.4556 0 3
8.5024 -8.3512 3.0621 0.4542 0 3
8.5466 -8.3570 3.0712 0.5023 0 3
8.5900 -8.3617 3.0800 0.5009 0 3
8.6336 -8.3665 3.0889 0.4994 0 3
8.6774 -8.3713 3.0979 0.4980 0 3
8.7216 -8.3762 3.1069 0.4965 0 3
8.7660 -8.3812 3.1160 0.4951 0 3
8.8106 -8.3861 3.1252 0.4936 0 3
8.8556 -8.3911 3.1345 0.4922 0 3
8.9008 -8.3961 3.1438 0.4907 0 3
8.9463 -8.4012 3.1532 0.4892 0 3
8.9921 -8.4063 3.1627 0.4878 0 3
9.0382 -8.4114 3.1723 0.4863 0 3
9.0846 -8.4166 3.1819 0.4848 0 3
9.1312 -8.4218 3.1916 0.4834 0 3
9.1782 -8.4271 3.2014 0.4819 0 3
9.2254 -8.4324 3.2113 0.4804 0 3
9.2730 -8.4378 3.2212 0.4789 0 3
9.3208 -8.4431 3.2313 0.4774 0 3
9.3690 -8.4486 3.2414 0.4759 0 3
9.4175 -8.4540 3.2516 0.4744 0 3
9.4663 -8.4596 3.2619 0.4730 0 3
9.5154 -8.4651 3.2722 0.4715 0 3
9.5648 -8.4708 3.2827 0.4700 0 3
9.6146 -8.4764 3.2932 0.4684 0 3
9.6647 -8.4822 3.3039 0.4669 0 3
9.7151 -8.4879 3.3146 0.4654 0 3
9.7659 -8.4937 3.3254 0.4639 0 3
9.8171 -8.4995 3.3363 0.4624 0 3
9.8685 -8.5054 3.3473 0.4609 0 3
9.9204 -8.5113 3.3584 0.4594 0 3
9.9725 -8.5173 3.3696 0.4578 0 3
10.0251 -8.5234 3.3809 0.4563 0 3
12.5398 -10.6131 4.2209 0.7550 0 3
12.5409 -10.5658 4.2133 0.7564 0 3
12.5420 -10.5188 4.2057 0.7577 0 3
12.5431 -10.4718 4.1982 0.7591 0 3
12.5442 -10.4250 4.1907 0.7605 0 3
12.5453 -10.3784 4.1833 0.7618 0 3
12.5463 -10.3320 4.1759 0.7631 0 3
12.5474 -10.2857 4.1686 0.7645 0 3
12.5485 -10.2395 4.1613 0.7658 0 3
12.5496 -10.1936 4.1540 0.7672 0 3
12.5506 -10.1479 4.1468 0.7685 0 3
12.5517 -10.1022 4.1397 0.7698 0 3
12.5527 -10.0567 4.1326 0.7712 0 3
12.5538 -10.0113 4.1255 0.7725 0 3
12.5548 -9.9662 4.1185 0.7738 0 3
12.5559 -9.9212 4.1115 0.7751 0 3
12.5569 -9.8763 4.1046 0.7764 0 3
12.5579 -9.8316 4.0977 0.7777 0 3
12.5589 -9.7870 4.0909 0.7790 0 3
12.5600 -9.7426 4.0841 0.7803 0 3
12.5610 -9.6983 4.0773 0.7816 0 3
12.5620 -9.6542 4.0706 0.7829 0 3
12.5630 -9.6102 4.0640 0.7842 0 3
12.5641 -9.5663 4.0573 0.7855 0 3
12.5651 -9.5226 4.0507 0.7867 0 3
12.5661 -9.4791 4.0442 0.7880 0 3
12.5671 -9.4357 4.0377 0.7893 0 3
12.5681 -9.3924 4.0312 0.7905 0 3
12.5691 -9.3492 4.0248 0.7918 0 3
12.5771 -9.3114 4.0207 0.9617 0 3
12.5941 -9.2804 4.0194 0.9620 0 3
12.6111 -9.2493 4.0182 0.9623 0 3
12.6281 -9.2183 4.0171 0.9626 0 3
12.6451 -9.1872 4.0159 0.9628 0 3
12.6621 -9.1562 4.0148 0.9631 0 3
12.6791 -9.1252 4.0136 0.9634 0 3
12.6960 -9.0943 4.0125 0.9637 0 3
12.7130 -9.0633 4.0115 0.9639 0 3
12.7300 -9.0324 4.0104 0.9642 0 3
12.7524 -9.0054 4.0111 0.9265 0 3
12.7815 -8.9830 4.0139 0.9259 0 3
12.8107 -8.9606 4.0167 0.9252 0 3
12.8398 -8.9382 4.0196 0.9246 0 3
12.8691 -8.9157 4.0225 0.9239 0 3
12.8983 -8.8933 4.0254 0.9232 0 3
12.9276 -8.8707 4.0283 0.9226 0 3
12.9570 -8.8482 4.0312 0.9219 0 3
12.9864 -8.8256 4.0342 0.9212 0 3
13.0214 -8.8068 4.0389 0.4770 0 3
13.0931 -8.8125 4.0550 0.4751 0 3
13.1654 -8.8182 4.0712 0.4732 0 3
13.2382 -8.8240 4.0876 0.4713 0 3
13.3116 -8.8300 4.1041 0.4694 0 3
13.3467 -8.8101 4.1089 0.8220 0 3
13.3477 -8.7678 4.1032 0.8232 0 3
13.3600 -8.7330 4.1009 0.5124 0 3
13.3924 -8.7114 4.1048 0.2407 0 3
13.4125 -8.6817 4.1050 0.2407 0 3
13.4325 -8.6520 4.1052 0.2407 0 3
13.4525 -8.6221 4.1054 0.2407 0 3
13.4723 -8.5923 4.1055 0.2407 0 3
13.4921 -8.5624 4.1057 0.2407 0 3
13.5119 -8.5324 4.1059 0.2406 0 3
13.5315 -8.5025 4.1060 0.2406 0 3
13.5511 -8.4725 4.1062 0.2406 0 3
13.5707 -8.4423 4.1064 0.2406 0 3
13.5901 -8.4122 4.1065 0.2406 0 3
13.6095 -8.3820 4.1067 0.2406 0 3
13.6288 -8.3518 4.1069 0.2406 0 3
13.6481 -8.3215 4.1070 0.2406 0 3
13.6673 -8.2913 4.1072 0.2406 0 3
13.6864 -8.2609 4.1074 0.2406 0 3
13.7054 -8.2305 4.1075 0.2405 0 3
13.7244 -8.2000 4.1077 0.2405 0 3
13.7433 -8.1695 4.1078 0.2405 0 3
13.7621 -8.1389 4.1080 0.2405 0 3
13.7809 -8.1084 4.1082 0.2405 0 3
13.7996 -8.0778 4.1083 0.2405 0 3
13.8183 -8.0470 4.1085 0.2405 0 3
13.8368 -8.0163 4.1086 0.2405 0 3
13.8553 -7.9856 4.1088 0.2405 0 3
13.8737 -7.9548 4.1090 0.2405 0 3
13.8920 -7.9239 4.1091 0.2405 0 3
13.9103 -7.8930 4.1093 0.2404 0 3
13.9285 -7.8621 4.1094 0.2404 0 3
13.9466 -7.8311 4.1096 0.2404 0 3
13.9646 -7.8000 4.1097 0.2404 0 3
13.9827 -7.7690 4.1099 0.2404 0 3
14.0006 -7.7379 4.1100 0.2404 0 3
14.0184 -7.7067 4.1102 0.2404 0 3
14.0362 -7.6755 4.1103 0.2404 0 3
14.0539 -7.6443 4.1105 0.2404 0 3
14.0715 -7.6130 4.1106 0.2404 0 3
14.0891 -7.5817 4.1108 0.2404 0 3
14.1065 -7.5503 4.1109 0.2404 0 3
14.1240 -7.5189 4.1111 0.2403 0 3
14.1413 -7.4875 4.1112 0.2403 0 3
14.1586 -7.4560 4.1114 0.2403 0 3
14.1803 -7.4268 4.1128 0.6662 0 3
14.2307 -7.4126 4.1226 0.6647 0 3
14.2882 -7.4018 4.1344 0.4269 0 3
14.3704 -7.4035 4.1534 0.4250 0 3
14.4535 -7.4053 4.1726 0.4230 0 3
14.5373 -7.4071 4.1920 0.4211 0 3
14.6219 -7.4090 4.2116 0.4191 0 3
14.7073 -7.4108 4.2314 0.4171 0 3
14.7935 -7.4127 4.2514 0.4152 0 3
14.8805 -7.4146 4.2716 0.4132 0 3
14.9683 -7.4164 4.2920 0.4112 0 3
15.0571 -7.4183 4.3127 0.4093 0 3
15.1466 -7.4202 4.3335 0.4073 0 3
15.2370 -7.4222 4.3546 0.4053 0 3
15.3283 -7.4242 4.3760 0.4034 0 3
15.4205 -7.4262 4.3975 0.4014 0 3
15.5137 -7.4281 4.4193 0.3994 0 3
15.6077 -7.4302 4.4413 0.3974 0 3
15.7027 -7.4322 4.4636 0.3954 0 3
15.7986 -7.4343 4.4861 0.3934 0 3
15.8956 -7.4364 4.5089 0.3915 0 3
15.9935 -7.4385 4.5319 0.3895 0 3
16.0924 -7.4406 4.5552 0.3875 0 3
16.1923 -7.4428 4.5788 0.3855 0 3
16.2933 -7.4450 4.6026 0.3835 0 3
16.3954 -7.4471 4.6267 0.3815 0 3
16.4984 -7.4494 4.6511 0.3795 0 3
16.6027 -7.4516 4.6757 0.3775 0 3
16.7080 -7.4539 4.7006 0.3755 0 3
16.8145 -7.4562 4.7259 0.3735 0 3
16.9220 -7.4585 4.7514 0.3715 0 3
17.0307 -7.4608 4.7772 0.3695 0 3
17.1407 -7.4632 4.8033 0.3675 0 3
17.2519 -7.4656 4.8298 0.3655 0 3
17.3643 -7.4680 4.8566 0.3634 0 3
17.4779 -7.4704 4.8836 0.3614 0 3
17.5928 -7.4729 4.9110 0.3594 0 3
17.7090 -7.4754 4.9388 0.3574 0 3
17.8266 -7.4779 4.9669 0.3554 0 3
17.9454 -7.4805 4.9953 0.3533 0 3
18.0657 -7.4831 5.0241 0.3513 0 3
18.1874 -7.4858 5.0532 0.3493 0 3
18.3104 -7.4884 5.0828 0.3473 0 3
18.4350 -7.4911 5.1126 0.3452 0 3
18.5609 -7.4938 5.1429 0.3432 0 3
18.6884 -7.4965 5.1736 0.3412 0 3
18.8175 -7.4992 5.2046 0.3391 0 3
18.9480 -7.5021 5.2361 0.3371 0 3
19.0802 -7.5049 5.2679 0.3351 0 3
19.2140 -7.5078 5.3002 0.3330 0 3
19.5195 -7.5767 5.3798 0.3314 0 3
19.6577 -7.5797 5.4131 0.3294 0 3
19.7976 -7.5826 5.4469 0.3274 0 3
19.9391 -7.5856 5.4812 0.3253 0 3
20.0825 -7.5886 5.5159 0.3233 0 3
20.2278 -7.5916 5.5511 0.3212 0 3
20.3748 -7.5947 5.5868 0.3192 0 3
20.5238 -7.5978 5.6230 0.3171 0 3
20.6748 -7.6010 5.6596 0.3151 0 3
20.8277 -7.6042 5.6968 0.3130 0 3
20.9826 -7.6075 5.7345 0.3109 0 3
21.1397 -7.6108 5.7728 0.3089 0 3
21.2988 -7.6141 5.8115 0.3068 0 3
21.4601 -7.6175 5.8508 0.3048 0 3
48.2184 3.0336 12.4133 0.9332 0 3
48.1807 3.1398 12.4054 0.9338 0 3
45.2100 3.0481 11.6423 0.4766 0 3
45.1313 3.1446 11.6238 0.9360 0 3
45.0972 3.2439 11.6169 0.9667 0 3
45.0994 3.3458 11.6193 0.9665 0 3
45.1016 3.4477 11.6218 0.9662 0 3
45.1037 3.5497 11.6244 0.9660 0 3
44.3353 3.5894 11.4284 0.0989 0 3
43.3790 3.6099 11.1840 0.1011 0 3
42.6676 3.6472 11.0027 0.9654 0 3
42.6696 3.7438 11.0053 0.9651 0 3
42.6717 3.8405 11.0081 0.9649 0 3
42.6738 3.9373 11.0108 0.9646 0 3
42.6759 4.0340 11.0137 0.9644 0 3
42.6779 4.1309 11.0166 0.9641 0 3
42.6800 4.2278 11.0195 0.9639 0 3
42.6821 4.3247 11.0225 0.9636 0 3
42.6841 4.4217 11.0256 0.9633 0 3
42.6862 4.5188 11.0287 0.9631 0 3
42.6883 4.6159 11.0319 0.9628 0 3
42.6903 4.7130 11.0352 0.9625 0 3
42.6924 4.8103 11.0385 0.9622 0 3
42.6945 4.9076 11.0418 0.9619 0 3
42.6965 5.0049 11.0452 0.9616 0 3
42.6986 5.1023 11.0487 0.9613 0 3
42.7007 5.1997 11.0522 0.9610 0 3
42.7028 5.2973 11.0558 0.9607 0 3
42.7049 5.3949 11.0595 0.9604 0 3
42.7069 5.4925 11.0632 0.9601 0 3
42.7090 5.5903 11.0669 0.9598 0 3
42.7111 5.6880 11.0707 0.9594 0 3
42.7132 5.7859 11.0746 0.9591 0 3
42.7153 5.8838 11.0786 0.9587 0 3
42.7173 5.9818 11.0825 0.9584 0 3
42.7194 6.0798 11.0866 0.9580 0 3
42.7215 6.1780 11.0907 0.9577 0 3
42.7236 6.2762 11.0949 0.9573 0 3
42.7257 6.3745 11.0991 0.9570 0 3
42.7277 6.4729 11.1034 0.9566 0 3
42.7298 6.5713 11.1077 0.9562 0 3
42.7319 6.6698 11.1121 0.9558 0 3
42.7340 6.7684 11.1166 0.9555 0 3
42.7361 6.8671 11.1211 0.9551 0 3
42.7382 6.9658 11.1257 0.9547 0 3
42.7403 7.0646 11.1304 0.9543 0 3
42.7424 7.1636 11.1351 0.9539 0 3
42.7445 7.2625 11.1398 0.9535 0 3
42.7466 7.3617 11.1446 0.9531 0 3
42.7486 7.4609 11.1495 0.9526 0 3
42.7508 7.5601 11.1545 0.9522 0 3
42.7529 7.6594 11.1595 0.9518 0 3
42.7550 7.7588 11.1646 0.9514 0 3
42.7571 7.8584 11.1697 0.9509 0 3
42.7592 7.9580 11.1749 0.9505 0 3
42.7613 8.0578 11.1801 0.9500 0 3
42.7634 8.1576 11.1854 0.9496 0 3
42.7655 8.2574 11.1908 0.9491 0 3
42.7676 8.3575 11.1962 0.9487 0 3
42.7697 8.4575 11.2017 0.9482 0 3
42.7719 8.5577 11.2073 0.9477 0 3
42.7740 8.6580 11.2129 0.9473 0 3
42.7761 8.7584 11.2186 0.9468 0 3
42.7782 8.8589 11.2243 0.9463 0 3
42.7803 8.9596 11.2301 0.9458 0 3
42.7824 9.0603 11.2360 0.9453 0 3
42.7846 9.1610 11.2419 0.9448 0 3
42.7867 9.2620 11.2479 0.9443 0 3
42.7888 9.3630 11.2539 0.9438 0 3
42.7909 9.4642 11.2601 0.9433 0 3
42.7930 9.5654 11.2662 0.9428 0 3
42.7952 9.6668 11.2725 0.9422 0 3
42.7973 9.7682 11.2788 0.9417 0 3
42.7995 9.8698 11.2852 0.9412 0 3
42.8016 9.9715 11.2916 0.9407 0 3
42.8037 10.0733 11.2981 0.9401 0 3
42.8059 10.1752 11.3047 0.9396 0 3
42.8080 10.2773 11.3113 0.9390 0 3
42.8102 10.3795 11.3180 0.9385 0 3
42.8123 10.4818 11.3247 0.9379 0 3
42.8145 10.5842 11.3316 0.9373 0 3
42.8166 10.6867 11.3385 0.9368 0 3
42.8188 10.7893 11.3454 0.9362 0 3
42.8209 10.8922 11.3524 0.9356 0 3
42.8231 10.9951 11.3595 0.9350 0 3
9.6595 2.5032 2.5638 0.7498 0 6
9.6400 2.5213 2.5601 0.9191 0 6
9.6318 2.5422 2.5595 0.9648 0 6
9.6338 2.5659 2.5615 0.8674 0 6
42.8339 11.5116 11.3959 0.9320 0 3
42.8361 11.6154 11.4034 0.9314 0 3
42.8383 11.7192 11.4110 0.9308 0 3
42.8404 11.8232 11.4186 0.9302 0 3
42.8426 11.9273 11.4263 0.9296 0 3
42.8448 12.0315 11.4340 0.9289 0 3
42.8470 12.1360 11.4418 0.9283 0 3
42.8491 12.2406 11.4497 0.9277 0 3
42.8513 12.3452 11.4577 0.9270 0 3
42.8536 12.4501 11.4657 0.9264 0 3
42.8557 12.5551 11.4738 0.9257 0 3
42.8579 12.6602 11.4820 0.9251 0 3
42.8601 12.7655 11.4902 0.9244 0 3
42.8623 12.8710 11.4985 0.9237 0 3
42.8645 12.9765 11.5069 0.9231 0 3
42.8667 13.0823 11.5153 0.9224 0 3
30.0218 10.2035 8.1469 0.3313 0 3
29.8152 10.2080 8.0970 0.3334 0 3
29.6110 10.2124 8.0478 0.3354 0 3
29.4093 10.2167 7.9992 0.3374 0 3
29.1233 10.1907 7.9276 0.1026 0 3
28.8172 10.1562 7.8504 0.5311 0 3
28.8262 10.2321 7.8591 0.5305 0 3
28.8353 10.3083 7.8679 0.5299 0 3
28.8445 10.3846 7.8767 0.5293 0 3
28.8537 10.4611 7.8857 0.5287 0 3
28.8630 10.5379 7.8946 0.5281 0 3
28.8723 10.6147 7.9037 0.5275 0 3
28.8818 10.6919 7.9128 0.5269 0 3
28.8912 10.7691 7.9220 0.5263 0 3
28.9008 10.8466 7.9313 0.5257 0 3
28.9104 10.9243 7.9406 0.5250 0 3
28.9201 11.0022 7.9501 0.5244 0 3
28.9298 11.0803 7.9596 0.5238 0 3
28.9344 11.1566 7.9677 0.8983 0 3
28.9359 11.2318 7.9750 0.8975 0 3
28.9375 11.3072 7.9824 0.8966 0 3
28.9391 11.3827 7.9899 0.8958 0 3
28.9406 11.4584 7.9974 0.8950 0 3
28.9422 11.5342 8.0049 0.8941 0 3
28.9438 11.6101 8.0126 0.8933 0 3
28.9453 11.6862 8.0202 0.8924 0 3
28.9469 11.7625 8.0280 0.8915 0 3
28.9485 11.8389 8.0358 0.8907 0 3
28.9501 11.9154 8.0436 0.8898 0 3
28.9516 11.9921 8.0515 0.8889 0 3
24.0101 10.2623 6.7088 0.3990 0 3
23.8768 10.2688 6.6780 0.9076 0 3
23.8740 10.3312 6.6837 0.9068 0 3
23.8712 10.3936 6.6894 0.9070 0 3
23.7993 10.4259 6.6758 0.4079 0 3
23.6615 10.4289 6.6437 0.4098 0 3
23.5247 10.4317 6.6119 0.4090 0 3
23.3887 10.4342 6.5802 0.4110 0 3
23.2545 10.4370 6.5490 0.4152 0 3
23.1217 10.4398 6.5182 0.4172 0 3
22.6555 10.2906 6.3933 0.4192 0 3
22.6087 10.3306 6.3866 0.9161 0 3
22.5679 10.3732 6.3816 0.9168 0 3
22.5271 10.4158 6.3767 0.9175 0 3
22.5281 10.4777 6.3836 0.8714 0 3
22.5294 10.5398 6.3907 0.8703 0 3
22.6911 10.6776 6.4433 0.8694 0 3
22.6924 10.7404 6.4505 0.8684 0 3
22.6938 10.8035 6.4578 0.8674 0 3
22.6951 10.8667 6.4651 0.8664 0 3
22.6964 10.9300 6.4724 0.8655 0 3
22.6977 10.9934 6.4798 0.8645 0 3
22.6990 11.0570 6.4872 0.8635 0 3
22.7004 11.1208 6.4947 0.8625 0 3
22.7017 11.1846 6.5023 0.8615 0 3
22.7030 11.2487 6.5099 0.8605 0 3
22.7044 11.3129 6.5175 0.8597 0 3
22.7057 11.3772 6.5252 0.8587 0 3
22.7070 11.4417 6.5330 0.8577 0 3
22.7083 11.5063 6.5408 0.8567 0 3
22.7096 11.5711 6.5486 0.8556 0 3
22.7110 11.6361 6.5565 0.8546 0 3
22.7123 11.7011 6.5644 0.8536 0 3
22.7136 11.7664 6.5724 0.8525 0 3
22.7150 11.8319 6.5805 0.8515 0 3
22.7163 11.8974 6.5886 0.8504 0 3
22.6962 11.9519 6.5905 0.5393 0 3
22.5939 11.9628 6.5686 0.5414 0 3
22.5598 12.0097 6.5665 0.8471 0 3
22.5611 12.0754 6.5748 0.8462 0 3
22.6515 12.1892 6.6091 0.2600 0 3
24.2309 13.1094 7.0784 0.6294 0 3
24.2382 13.1838 7.0892 0.6284 0 3
24.2454 13.2582 7.1000 0.6275 0 3
24.2528 13.3331 7.1109 0.6265 0 3
24.2602 13.4082 7.1219 0.6255 0 3
24.2677 13.4835 7.1329 0.6246 0 3
24.2752 13.5590 7.1441 0.6236 0 3
24.2827 13.6347 7.1553 0.6226 0 3
24.2903 13.7108 7.1666 0.6216 0 3
24.2979 13.7871 7.1779 0.6206 0 3
24.3056 13.8637 7.1894 0.6197 0 3
24.3134 13.9405 7.2009 0.6187 0 3
24.3212 14.0176 7.2125 0.6177 0 3
24.3290 14.0949 7.2242 0.6167 0 3
24.3368 14.1725 7.2359 0.6157 0 3
24.3448 14.2504 7.2478 0.6147 0 3
24.3528 14.3285 7.2597 0.6136 0 3
24.3608 14.4069 7.2717 0.6126 0 3
24.3688 14.4856 7.2838 0.6116 0 3
24.3770 14.5646 7.2960 0.6106 0 3
24.3852 14.6438 7.3083 0.6096 0 3
24.3934 14.7233 7.3206 0.6085 0 3
24.4017 14.8032 7.3330 0.6075 0 3
24.4100 14.8832 7.3456 0.6065 0 3
24.4184 14.9636 7.3582 0.6054 0 3
24.4268 15.0442 7.3709 0.6044 0 3
24.4353 15.1252 7.3836 0.6033 0 3
24.4438 15.2065 7.3965 0.6023 0 3
24.4524 15.2880 7.4095 0.6012 0 3
24.4611 15.3699 7.4225 0.6002 0 3
24.4697 15.4521 7.4357 0.5991 0 3
24.4785 15.5346 7.4489 0.5981 0 3
24.4873 15.6173 7.4622 0.5970 0 3
24.4962 15.7004 7.4757 0.5959 0 3
24.5051 15.7838 7.4892 0.5948 0 3
24.5141 15.8676 7.5028 0.5938 0 3
24.5231 15.9516 7.5165 0.5927 0 3
24.5322 16.0360 7.5303 0.5916 0 3
24.5414 16.1207 7.5442 0.5905 0 3
24.5506 16.2057 7.5582 0.5894 0 3
25.0617 16.6240 7.7270 0.6419 0 3
25.0693 16.7101 7.7409 0.6408 0 3
24.2615 17.0513 7.6191 0.5738 0 3
24.1496 17.0537 7.5960 0.5756 0 3
24.0383 17.0561 7.5730 0.5773 0 3
23.9277 17.0585 7.5502 0.5791 0 3
23.8178 17.0608 7.5275 0.5808 0 3
23.7143 17.0673 7.5069 0.2417 0 3
23.6746 17.1195 7.5065 0.2417 0 3
23.6348 17.1717 7.5061 0.2417 0 3
23.5677 17.2038 7.4970 0.5877 0 3
23.4601 17.2062 7.4750 0.5894 0 3
23.3532 17.2084 7.4533 0.5912 0 3
23.2469 17.2107 7.4316 0.5929 0 3
23.1412 17.2130 7.4102 0.5946 0 3
23.0361 17.2153 7.3889 0.5963 0 3
22.9316 17.2175 7.3677 0.5980 0 3
22.8277 17.2198 7.3467 0.5997 0 3
22.7604 17.2493 7.3375 0.9637 0 3
22.7159 17.2959 7.3357 0.9639 0 3
22.6712 17.3424 7.3338 0.9642 0 3
22.6693 17.4217 7.3458 0.7576 0 3
22.6736 17.5060 7.3599 0.3174 0 3
22.6727 17.5867 7.3724 0.7546 0 3
22.6743 17.6696 7.3858 0.7532 0 3
22.6760 17.7529 7.3993 0.7518 0 3
22.6777 17.8364 7.4129 0.7504 0 3
22.6794 17.9203 7.4266 0.7491 0 3
22.6811 18.0044 7.4404 0.7477 0 3
22.6828 18.0889 7.4542 0.7463 0 3
22.6845 18.1737 7.4681 0.7449 0 3
22.6862 18.2588 7.4822 0.7435 0 3
22.6877 18.3440 7.4962 0.2420 0 3
22.6451 18.3938 7.4958 0.2420 0 3
22.6025 18.4435 7.4954 0.2421 0 3
22.5597 18.4930 7.4949 0.2421 0 3
22.5168 18.5425 7.4945 0.2421 0 3
22.5149 18.6260 7.5077 0.7351 0 3
22.5166 18.7126 7.5223 0.7337 0 3
22.5184 18.7997 7.5370 0.7323 0 3
22.5201 18.8870 7.5517 0.7308 0 3
22.5219 18.9748 7.5665 0.7294 0 3
22.5236 19.0628 7.5815 0.7280 0 3
22.5254 19.1513 7.5965 0.7265 0 3
33.1949 29.2653 11.3701 0.6560 0 3
33.0487 29.2684 11.3425 0.6576 0 3
32.9032 29.2716 11.3150 0.6591 0 3
32.7584 29.2747 11.2878 0.6607 0 3
32.6143 29.2778 11.2608 0.6623 0 3
32.4709 29.2809 11.2339 0.6639 0 3
32.3281 29.2839 11.2073 0.6655 0 3
32.1860 29.2870 11.1808 0.6671 0 3
32.0446 29.2901 11.1544 0.6686 0 3
31.9039 29.2931 11.1283 0.6702 0 3
31.7638 29.2961 11.1023 0.6718 0 3
31.6244 29.2991 11.0766 0.6733 0 3
31.4856 29.3021 11.0509 0.6749 0 3
31.3475 29.3051 11.0255 0.6765 0 3
31.2099 29.3081 11.0003 0.6780 0 3
31.0730 29.3110 10.9752 0.6796 0 3
30.9368 29.3139 10.9502 0.6811 0 3
30.8011 29.3169 10.9255 0.6827 0 3
30.6661 29.3197 10.9009 0.6842 0 3
30.5317 29.3227 10.8765 0.6857 0 3
30.3979 29.3255 10.8522 0.6873 0 3
30.2646 29.3284 10.8281 0.6888 0 3
30.1320 29.3313 10.8042 0.6903 0 3
29.9999 29.3341 10.7804 0.6918 0 3
29.8684 29.3370 10.7568 0.6934 0 3
29.7375 29.3398 10.7333 0.6949 0 3
29.6072 29.3426 10.7100 0.6964 0 3
29.4774 29.3454 10.6869 0.6979 0 3
7.8962 -7.8963 2.7712 0.6645 0 3
7.9327 -7.8972 2.7778 0.6629 0 3
7.9694 -7.8982 2.7844 0.6614 0 3
8.0062 -7.8991 2.7911 0.6598 0 3
8.0432 -7.9001 2.7978 0.6582 0 3
8.0804 -7.9011 2.8045 0.6566 0 3
8.5116 -8.2855 2.9478 0.4567 0 3
8.5560 -8.2913 2.9567 0.4553 0 3
8.6006 -8.2972 2.9656 0.4539 0 3
8.6454 -8.3031 2.9747 0.4525 0 3
8.6906 -8.3091 2.9838 0.4512 0 3
8.7361 -8.3151 2.9930 0.4498 0 3
8.7819 -8.3212 3.0023 0.4484 0 3
8.8279 -8.3274 3.0116 0.4470 0 3
8.8743 -8.3336 3.0210 0.4456 0 3
8.9210 -8.3398 3.0306 0.4442 0 3
8.9679 -8.3461 3.0401 0.4428 0 3
9.0152 -8.3524 3.0498 0.4414 0 3
9.0628 -8.3587 3.0596 0.4400 0 3
9.1107 -8.3651 3.0694 0.4386 0 3
9.1583 -8.3711 3.0791 0.4849 0 3
9.2053 -8.3762 3.0886 0.4834 0 3
9.2527 -8.3814 3.0981 0.4820 0 3
9.3003 -8.3866 3.1077 0.4805 0 3
9.3481 -8.3918 3.1175 0.4790 0 3
9.3964 -8.3971 3.1272 0.4775 0 3
9.4449 -8.4024 3.1371 0.4760 0 3
9.4938 -8.4078 3.1471 0.4745 0 3
9.5429 -8.4132 3.1571 0.4729 0 3
9.5924 -8.4187 3.1672 0.4714 0 3
9.6423 -8.4242 3.1774 0.4699 0 3
9.6924 -8.4297 3.1877 0.4684 0 3
