ply
format ascii 1.0
element vertex 608
property float32 x
property float32 y
property float32 z
property float32 CosAngle
property uint32 ObjIdx
property uint32 ObjTag
end_header
34.262107849121094 26.08707046508789 3.227123737335205 0.48430049419403076 0 9
35.105918884277344 26.481523513793945 3.295372486114502 0.7998152375221252 0 9
23.73954963684082 17.740936279296875 2.2209291458129883 0.8832690119743347 0 9
23.875858306884766 17.676366806030273 2.22623872756958 0.8811618089675903 0 9
24.01287078857422 17.611522674560547 2.231621265411377 0.8790368437767029 0 9
33.675018310546875 24.466190338134766 3.1193203926086426 0.48034045100212097 0 9
36.30986404418945 26.132343292236328 3.3524935245513916 0.7861894965171814 0 9
24.231502532958984 17.274999618530273 2.2301220893859863 0.3810281753540039 0 9
30.82648277282715 21.768592834472656 2.8280513286590576 0.5432296991348267 0 9
24.31412124633789 17.006816864013672 2.2235846519470215 0.28575262427330017 0 9
31.424100875854492 21.770526885986328 2.864834785461426 0.5362549424171448 0 9
31.728750228881836 21.771503448486328 2.883671998977661 0.532752513885498 0 9
31.713651657104492 21.552440643310547 2.873483896255493 0.4458671510219574 0 9
31.533260345458984 21.22359275817871 2.848472833633423 0.4497810900211334 0 9
31.35593605041504 20.900390625 2.8239598274230957 0.4536856412887573 0 9
27.678104400634766 18.270097732543945 2.4853243827819824 0.9658491015434265 0 9
27.784725189208984 18.162012100219727 2.4875576496124268 0.9649821519851685 0 9
27.891620635986328 18.0537109375 2.4898462295532227 0.9640954732894897 0 9
27.9986515045166 17.945234298706055 2.4921865463256836 0.9631893634796143 0 9
28.10593605041504 17.836523056030273 2.494584321975708 0.9622635245323181 0 9
28.213436126708984 17.727636337280273 2.497036933898926 0.9613183736801147 0 9
28.32111358642578 17.61849594116211 2.4995498657226562 0.9603535532951355 0 9
28.42904281616211 17.509159088134766 2.5021088123321533 0.9593692421913147 0 9
28.472597122192383 17.360214233398438 2.4990615844726562 0.5750167965888977 0 9
28.447772979736328 17.17041015625 2.4900949001312256 0.5770873427391052 0 9
28.751543045043945 17.178203582763672 2.5099077224731445 0.971071720123291 0 9
28.850605010986328 17.06214714050293 2.5118494033813477 0.9703235626220703 0 9
28.9498233795166 16.9459171295166 2.51383638381958 0.9695554971694946 0 9
23.071874618530273 13.36654281616211 1.9982006549835205 0.7845284938812256 0 9
23.1856632232666 13.293886184692383 2.0028700828552246 0.7826989889144897 0 9
23.111873626708984 13.114081382751465 1.991388201713562 0.701869547367096 0 9
23.247323989868164 13.053359031677246 1.997991919517517 0.6995492577552795 0 9
23.383710861206055 12.992265701293945 2.0046868324279785 0.6972144842147827 0 9
23.521074295043945 12.930761337280273 2.0114645957946777 0.6948648691177368 0 9
23.65935516357422 12.868846893310547 2.0183284282684326 0.6925007104873657 0 9
23.79865264892578 12.806523323059082 2.0252859592437744 0.690121591091156 0 9
23.938886642456055 12.743788719177246 2.0323355197906494 0.6877282857894897 0 9
24.080156326293945 12.680604934692383 2.039475440979004 0.6853201389312744 0 9
24.222421646118164 12.617011070251465 2.0467097759246826 0.6828979849815369 0 9
24.355976104736328 12.547929763793945 2.0532166957855225 0.7635079026222229 0 9
24.47640609741211 12.471308708190918 2.0586321353912354 0.7615000605583191 0 9
24.59748077392578 12.394257545471191 2.064113140106201 0.7594765424728394 0 9
24.71923828125 12.316816329956055 2.069674015045166 0.7574369311332703 0 9
30.55499839782715 15.053808212280273 2.5525951385498047 0.639377236366272 0 9
30.707109451293945 14.957831382751465 2.559669017791748 0.6376104950904846 0 9
30.860076904296875 14.861367225646973 2.5668370723724365 0.6358301639556885 0 9
31.013944625854492 14.764374732971191 2.574099063873291 0.6340360641479492 0 9
31.16878890991211 14.66683578491211 2.5814621448516846 0.6322281360626221 0 9
38.587440490722656 17.946680068969727 3.1891887187957764 0.9150939583778381 0 9
35.71085739135742 16.414257049560547 2.94533109664917 0.6118975877761841 0 9
35.584861755371094 16.163320541381836 2.9289255142211914 0.6153247356414795 0 9
35.46027374267578 15.915136337280273 2.9127566814422607 0.6187393069267273 0 9
35.337032318115234 15.669648170471191 2.8968310356140137 0.6221411824226379 0 9
35.21515655517578 15.426855087280273 2.881136655807495 0.6255302429199219 0 9
35.025936126708984 15.15697193145752 2.8600621223449707 0.6217244267463684 0 9
35.27601623535156 15.077577590942383 2.874926805496216 0.6185096502304077 0 9
26.020097732543945 10.983613014221191 2.116544723510742 0.5083869695663452 0 9
26.266483306884766 10.949003219604492 2.1325628757476807 0.5045678615570068 0 9
26.087656021118164 10.737265586853027 2.11411452293396 0.5854414701461792 0 9
26.295175552368164 10.684941291809082 2.1270251274108887 0.5818879008293152 0 9
26.505292892456055 10.631972312927246 2.1401402950286865 0.5783221125602722 0 9
26.243709564208984 10.390546798706055 2.115231990814209 0.7919376492500305 0 9
26.20181655883789 10.238203048706055 2.1081295013427734 0.7946063876152039 0 9
26.16015625 10.08681583404541 2.1011135578155518 0.7972589731216431 0 9
26.11880874633789 9.936464309692383 2.0941884517669678 0.7998954653739929 0 9
36.655643463134766 13.757011413574219 2.9340553283691406 0.8303209543228149 0 9
36.81259536743164 13.627714157104492 2.94169020652771 0.8281652927398682 0 9
36.970333099365234 13.49779224395752 2.9494264125823975 0.825993537902832 0 9
37.08595657348633 13.351698875427246 2.953843593597412 0.38193055987358093 0 9
36.96857452392578 13.122284889221191 2.9397695064544678 0.383758544921875 0 9
36.85218811035156 12.895038604736328 2.9258835315704346 0.3855799734592438 0 9
36.73679733276367 12.669901847839355 2.9121780395507812 0.38739490509033203 0 9
36.62226486206055 12.446757316589355 2.8986430168151855 0.3892035484313965 0 9
42.73552703857422 14.310858726501465 3.3773837089538574 0.9744744300842285 0 9
42.84328079223633 14.133437156677246 3.3808534145355225 0.9734740257263184 0 9
38.39314270019531 12.474609375 3.0252416133880615 0.6646328568458557 0 9
43.05949020385742 13.777461051940918 3.388019561767578 0.9714152216911316 0 9
44.28589630126953 13.95107364654541 3.479560136795044 0.7653597593307495 0 9
37.54527282714844 11.642656326293945 2.9458088874816895 0.7512898445129395 0 9
37.74382781982422 11.518808364868164 2.9572999477386475 0.7483699321746826 0 9
37.94396209716797 11.393964767456055 2.9689457416534424 0.7454347610473633 0 9
35.38066482543945 10.451367378234863 2.764681100845337 0.7996154427528381 0 9
35.331016540527344 10.264531135559082 2.7571725845336914 0.801792562007904 0 9
35.845821380615234 10.239882469177246 2.7937374114990234 0.3957141041755676 0 9
36.26792907714844 10.1846284866333 2.8230392932891846 0.3916059136390686 0 9
36.69900131225586 10.128222465515137 2.853027820587158 0.3874899446964264 0 9
37.139373779296875 10.070566177368164 2.8837149143218994 0.3833657503128052 0 9
35.4880256652832 9.452031135559082 2.7521748542785645 0.3533703088760376 0 9
37.45241928100586 9.795449256896973 2.901085376739502 0.9952854514122009 0 9
37.48005676269531 9.623144149780273 2.8998491764068604 0.9957093000411987 0 9
37.25095748901367 9.386327743530273 2.8788344860076904 0.27789199352264404 0 9
37.535194396972656 9.279004096984863 2.8975584506988525 0.996497392654419 0 9
37.56275177001953 9.107148170471191 2.8964974880218506 0.9968615770339966 0 9
37.59025192260742 8.935370445251465 2.8954973220825195 0.9972056150436401 0 9
37.61775207519531 8.763710975646973 2.8945584297180176 0.9975299835205078 0 9
37.645233154296875 8.59218692779541 2.8936727046966553 0.9978341460227966 0 9
37.67267608642578 8.420761108398438 2.8928515911102295 0.9981183409690857 0 9
49.06675720214844 -7.771425724029541 3.7228872776031494 0.3253338634967804 0 3
48.397518157958984 -7.888261318206787 3.6747567653656006 0.32022374868392944 0 3
48.04939270019531 -8.053027153015137 3.651026725769043 0.3328876495361328 0 3
47.19230270385742 -8.127304077148438 3.588656187057495 0.3356742858886719 0 3
47.209022521972656 -8.348515510559082 3.5927212238311768 0.9369139075279236 0 3
47.24880599975586 -8.574414253234863 3.598642110824585 0.9353725910186768 0 3
47.28868865966797 -8.801074028015137 3.6046559810638428 0.9338124394416809 0 3
47.32878875732422 -9.028437614440918 3.6107587814331055 0.9322335124015808 0 3
47.36894607543945 -9.256621360778809 3.6169490814208984 0.9306358098983765 0 3
47.40929412841797 -9.485605239868164 3.623253345489502 0.9290193319320679 0 3
47.449764251708984 -9.7153902053833 3.6296346187591553 0.9273843169212341 0 3
47.49037170410156 -9.945996284484863 3.6361238956451416 0.9257303476333618 0 3
47.531131744384766 -10.17740249633789 3.6427059173583984 0.9240579009056091 0 3
47.57202911376953 -10.409687042236328 3.649380683898926 0.9223667979240417 0 3
47.61308670043945 -10.642812728881836 3.656157970428467 0.9206569194793701 0 3
47.65431594848633 -10.87679672241211 3.663036823272705 0.9189287424087524 0 3
47.69566345214844 -11.111699104309082 3.6700100898742676 0.9171820282936096 0 3
47.73714828491211 -11.347479820251465 3.677090644836426 0.9154168367385864 0 3
47.77888488769531 -11.584159851074219 3.6842617988586426 0.9136332273483276 0 3
47.82072067260742 -11.821816444396973 3.6915431022644043 0.9118311405181885 0 3
47.86273193359375 -12.060370445251465 3.698934555053711 0.9100106358528137 0 3
47.90496063232422 -12.299921989440918 3.706425905227661 0.9081718921661377 0 3
47.94728469848633 -12.54042911529541 3.7140145301818848 0.9063149094581604 0 3
47.989803314208984 -12.781933784484863 3.7217183113098145 0.9044396281242371 0 3
48.03253936767578 -13.024453163146973 3.7295241355895996 0.9025461673736572 0 3
8.877558708190918 -2.6224608421325684 0.693701446056366 0.9475528597831726 0 6
8.862167358398438 -2.661210775375366 0.6934229731559753 0.886444091796875 0 6
47.5617561340332 -14.748827934265137 3.7317068576812744 0.12526264786720276 0 3
45.869667053222656 -14.450117111206055 3.6039931774139404 0.12970136106014252 0 3
44.28968811035156 -14.171152114868164 3.48480486869812 0.13412363827228546 0 3
42.81046676635742 -13.909979820251465 3.3733022212982178 0.1385573148727417 0 3
41.83710861206055 -13.801620483398438 3.3014590740203857 0.9868414402008057 0 3
41.80236053466797 -13.998496055603027 3.3036367893218994 0.986189603805542 0 3
41.84450912475586 -14.221757888793945 3.311981439590454 0.9855180978775024 0 3
41.80958938598633 -14.419530868530273 3.314302682876587 0.9848267436027527 0 3
41.774627685546875 -14.61757755279541 3.316699981689453 0.984115481376648 0 3
41.73960876464844 -14.815937042236328 3.319164752960205 0.9833844304084778 0 3
41.70452880859375 -15.014589309692383 3.3216958045959473 0.982633650302887 0 3
41.66941452026367 -15.213496208190918 3.3243086338043213 0.9818629622459412 0 3
41.557655334472656 -15.384432792663574 3.3208718299865723 0.9810726642608643 0 3
41.599021911621094 -15.612343788146973 3.3297359943389893 0.9802623391151428 0 3
41.5637092590332 -15.812265396118164 3.3325605392456055 0.9794323444366455 0 3
41.52833938598633 -16.01253890991211 3.3354506492614746 0.9785827994346619 0 3
41.49294662475586 -16.213144302368164 3.3384194374084473 0.9777132868766785 0 3
41.45745849609375 -16.414140701293945 3.3414559364318848 0.9768243432044983 0 3
41.421913146972656 -16.615468978881836 3.3445723056793213 0.9759156107902527 0 3
41.386287689208984 -16.81722640991211 3.3477492332458496 0.9749870896339417 0 3
41.350624084472656 -17.01935577392578 3.351010322570801 0.9740390777587891 0 3
41.314842224121094 -17.221874237060547 3.3543434143066406 0.973071277141571 0 3
41.279022216796875 -17.42476463317871 3.3577516078948975 0.9720841646194458 0 3
41.243125915527344 -17.628124237060547 3.3612306118011475 0.9710772633552551 0 3
41.20714569091797 -17.831912994384766 3.36478853225708 0.9700509309768677 0 3
41.0954475402832 -18.002967834472656 3.362227439880371 0.9690081477165222 0 3
41.13496017456055 -18.240760803222656 3.3721253871917725 0.9679394364356995 0 3
41.09874725341797 -18.445859909057617 3.3759164810180664 0.9668543934822083 0 3
13.671972274780273 -6.210097312927246 1.125311255455017 0.5276122689247131 0 3
13.546581268310547 -6.226640701293945 1.1172808408737183 0.5314047336578369 0 3
13.422987937927246 -6.242929458618164 1.1093883514404297 0.5351864099502563 0 3
13.30111312866211 -6.259003639221191 1.1016229391098022 0.5389571189880371 0 3
13.18863296508789 -6.278534889221191 1.0946322679519653 0.578279435634613 0 3
13.077987670898438 -6.298007488250732 1.0877844095230103 0.5819196105003357 0 3
12.968729972839355 -6.317265510559082 1.0810424089431763 0.5855484008789062 0 3
12.860819816589355 -6.336249828338623 1.074406385421753 0.5891650915145874 0 3
12.754199028015137 -6.355039119720459 1.0678726434707642 0.5927695631980896 0 3
12.495468139648438 -6.296269416809082 1.0485668182373047 0.5965674519538879 0 3
12.393359184265137 -6.31472635269165 1.0423660278320312 0.6062029004096985 0 3
12.336523056030273 -6.355663776397705 1.0399682521820068 0.7937788367271423 0 3
12.3501558303833 -6.432968616485596 1.0435442924499512 0.7910622954368591 0 3
12.256171226501465 -6.454121112823486 1.0380409955978394 0.6106133460998535 0 3
12.156757354736328 -6.471640586853027 1.032070279121399 0.6141459345817566 0 3
12.058476448059082 -6.488925457000732 1.0261892080307007 0.6176653504371643 0 3
11.961308479309082 -6.506034851074219 1.0203967094421387 0.6211729645729065 0 3
11.865253448486328 -6.522988319396973 1.0146856307983398 0.6246675252914429 0 3
11.770234107971191 -6.539706707000732 1.0090627670288086 0.6281496286392212 0 3
11.67626953125 -6.556249618530273 1.0035187005996704 0.6316196918487549 0 3
11.427909851074219 -6.484414100646973 0.9846673607826233 0.6351978778839111 0 3
11.337225914001465 -6.500390529632568 0.9793551564216614 0.6386414766311646 0 3
11.247499465942383 -6.516191482543945 0.97412109375 0.642073392868042 0 3
11.25478458404541 -6.588066101074219 0.9773007035255432 0.7601404190063477 0 3
11.206582069396973 -6.62755823135376 0.9756887555122375 0.6487751007080078 0 3
11.118574142456055 -6.643046855926514 0.9706133604049683 0.6521673798561096 0 3
11.031484603881836 -6.658378601074219 0.9656106233596802 0.6555468440055847 0 3
10.9453125 -6.673554420471191 0.9606778025627136 0.6589123606681824 0 3
10.859999656677246 -6.688573837280273 0.955814778804779 0.6622649431228638 0 3
10.775527000427246 -6.703437328338623 0.9510204792022705 0.6656042337417603 0 3
10.691933631896973 -6.718163967132568 0.9462908506393433 0.668930172920227 0 3
10.609121322631836 -6.732773303985596 0.9416292905807495 0.6722420454025269 0 3
10.399843215942383 -6.665624618530273 0.9257028102874756 0.6757455468177795 0 3
10.31966781616211 -6.679746150970459 0.9212228059768677 0.6790305972099304 0 3
10.240253448486328 -6.693749904632568 0.9168044924736023 0.6823020577430725 0 3
10.241660118103027 -6.760468482971191 0.9196264147758484 0.7242971658706665 0 3
10.22054672241211 -6.812558650970459 0.9204800128936768 0.6885998845100403 0 3
10.142285346984863 -6.826347351074219 0.9161831736564636 0.6918299794197083 0 3
10.06478500366211 -6.839999675750732 0.9119418263435364 0.695046067237854 0 3
9.987968444824219 -6.853535175323486 0.9077609181404114 0.6982477903366089 0 3
9.911835670471191 -6.866933345794678 0.903635561466217 0.7014361619949341 0 3
9.836405754089355 -6.880234241485596 0.8995645046234131 0.7046103477478027 0 3
9.761640548706055 -6.893398284912109 0.8955481052398682 0.7077702283859253 0 3
9.557929039001465 -6.813984394073486 0.8796520829200745 0.7115768790245056 0 3
9.48550796508789 -6.826757431030273 0.8757967948913574 0.714242696762085 0 3
9.413652420043945 -6.839433670043945 0.8719924688339233 0.7173599004745483 0 3
9.342480659484863 -6.851972579956055 0.8682372570037842 0.7204616069793701 0 3
9.307734489440918 -6.890956878662109 0.8678759336471558 0.6863542795181274 0 3
9.314315795898438 -6.960761547088623 0.8713921904563904 0.7264269590377808 0 3
9.244081497192383 -6.973124980926514 0.8677389621734619 0.7294850945472717 0 3
9.174413681030273 -6.985410213470459 0.8641330003738403 0.7325290441513062 0 3
9.10531234741211 -6.99755859375 0.860575258731842 0.7355580925941467 0 3
9.036757469177246 -7.009628772735596 0.8570629954338074 0.7385728359222412 0 3
8.863163948059082 -6.938906192779541 0.8435418605804443 0.7409820556640625 0 3
8.796504020690918 -6.950585842132568 0.8401577472686768 0.7445570230484009 0 3
8.730409622192383 -6.962245941162109 0.836820662021637 0.7475264072418213 0 3
8.664804458618164 -6.973808288574219 0.8335238695144653 0.750481367111206 0 3
8.599745750427246 -6.985253810882568 0.8302733898162842 0.7534205913543701 0 3
8.588788986206055 -7.040546894073486 0.8322558403015137 0.6498219966888428 0 3
8.518828392028809 -7.047382831573486 0.8285348415374756 0.759253740310669 0 3
8.454901695251465 -7.058632850646973 0.8253890872001648 0.7621473073959351 0 3
8.391425132751465 -7.069804668426514 0.8222851157188416 0.7650258541107178 0 3
8.32845687866211 -7.080898284912109 0.8192187547683716 0.7678893804550171 0 3
8.26595687866211 -7.09191370010376 0.8161910772323608 0.7707364559173584 0 3
8.203886985778809 -7.102831840515137 0.8132036924362183 0.7735685110092163 0 3
8.142285346984863 -7.113671779632568 0.8102529644966125 0.7763849496841431 0 3
8.0811128616333 -7.124453067779541 0.8073415756225586 0.7791862487792969 0 3
8.020390510559082 -7.135156154632568 0.804468035697937 0.7819707989692688 0 3
7.960097312927246 -7.145761489868164 0.8016265630722046 0.7847403287887573 0 3
7.900234222412109 -7.156308650970459 0.7988241314888 0.7874937653541565 0 3
7.840761661529541 -7.166796684265137 0.7960571050643921 0.790231466293335 0 3
7.78173828125 -7.177187442779541 0.7933236360549927 0.792953372001648 0 3
7.723105430603027 -7.1875 0.790625274181366 0.7956588864326477 0 3
7.66482400894165 -7.19775390625 0.7879638671875 0.7983485460281372 0 3
7.606992244720459 -7.207949161529541 0.7853323221206665 0.8010221719741821 0 3
7.549491882324219 -7.21804666519165 0.7827349901199341 0.8036801815032959 0 3
7.492421627044678 -7.228124618530273 0.7801721096038818 0.8063215017318726 0 3
7.435722351074219 -7.238105297088623 0.7776406407356262 0.8089457750320435 0 3
7.379355430603027 -7.248027324676514 0.7751385569572449 0.8115543723106384 0 3
7.32335901260376 -7.257890224456787 0.772672712802887 0.8141469359397888 0 3
23.61423683166504 23.614198684692383 1.9450701475143433 0.4708016514778137 0 6
23.706893920898438 23.495019912719727 1.9439959526062012 0.6684958338737488 0 6
34.84781265258789 34.227657318115234 2.8449339866638184 0.41721248626708984 0 9
34.66544723510742 33.744197845458984 2.817655563354492 0.42125198245048523 0 9
34.486541748046875 33.26995849609375 2.7909505367279053 0.4252828061580658 0 9
35.93181610107422 34.35425567626953 2.895402193069458 0.5937837958335876 0 9
36.019161224365234 34.12966537475586 2.89007830619812 0.5948797464370728 0 9
36.10611343383789 33.90583801269531 2.8848185539245605 0.5959644317626953 0 9
36.19273376464844 33.68277359008789 2.879625082015991 0.5970379710197449 0 9
36.40480422973633 31.805936813354492 2.8155887126922607 0.649875283241272 0 6
34.74736404418945 29.81201171875 2.6665823459625244 0.18415936827659607 0 9
33.435508728027344 28.426952362060547 2.556088447570801 0.857830286026001 0 9
33.65234375 28.352088928222656 2.5629141330718994 0.8555461764335632 0 9
33.870330810546875 28.27681541442871 2.569822072982788 0.8532446622848511 0 9
34.0895881652832 28.201171875 2.576826810836792 0.850925862789154 0 9
34.309959411621094 28.125078201293945 2.583923578262329 0.8485898971557617 0 9
34.53158187866211 28.048593521118164 2.5911014080047607 0.8462370038032532 0 9
34.754451751708984 27.97165870666504 2.5983805656433105 0.843866765499115 0 9
34.97583770751953 27.89208984375 2.6055493354797363 0.8771554231643677 0 9
35.18595504760742 27.802284240722656 2.6118829250335693 0.8750280737876892 0 9
35.92365264892578 28.12419891357422 2.657240152359009 0.3264639675617218 0 9
35.389530181884766 27.450761795043945 2.6085939407348633 0.6436694860458374 0 9
34.69023513793945 26.65984344482422 2.548203945159912 0.8047760725021362 0 9
34.925193786621094 26.59193229675293 2.556671619415283 0.802111804485321 0 9
35.161678314208984 26.52357292175293 2.5652432441711426 0.799431562423706 0 9
35.39976501464844 26.45472526550293 2.573923349380493 0.7967350482940674 0 9
33.51853561401367 24.815195083618164 2.42901873588562 0.3348453640937805 0 9
33.31736373901367 24.43552589416504 2.406468391418457 0.4844447076320648 0 9
33.700801849365234 24.484920501708984 2.4262008666992188 0.4273338317871094 0 9
36.36849594116211 26.174551010131836 2.6097726821899414 0.7857908010482788 0 9
36.61494064331055 26.103281021118164 2.619030475616455 0.7830154299736023 0 9
38.03771209716797 26.860937118530273 2.7121472358703613 0.5143527388572693 0 9
31.426504135131836 21.98160171508789 2.2336995601654053 0.48927417397499084 0 9
31.754295349121094 21.999296188354492 2.249953508377075 0.4857388138771057 0 9
32.086971282958984 22.017303466796875 2.2664971351623535 0.4821927845478058 0 9
31.534589767456055 21.430742263793945 2.220665216445923 0.44889572262763977 0 9
31.35675621032715 21.104764938354492 2.201446771621704 0.4528140723705292 0 9
33.07146453857422 22.043886184692383 2.3148698806762695 0.5821778774261475 0 9
33.35784912109375 22.01919937133789 2.3279755115509033 0.5789008140563965 0 9
28.306835174560547 18.50326156616211 1.9696667194366455 0.1327819973230362 0 9
28.721874237060547 18.59113311767578 1.9927181005477905 0.41655027866363525 0 9
29.089101791381836 18.644102096557617 2.012369394302368 0.41248199343681335 0 9
29.463613510131836 18.698144912719727 2.032456874847412 0.40840575098991394 0 9
37.45777130126953 23.536151885986328 2.576587677001953 0.44141900539398193 0 9
37.22599411010742 23.158124923706055 2.553464889526367 0.4454157054424286 0 9
39.2097053527832 24.148807525634766 2.6820735931396484 0.8175692558288574 0 9
34.024471282958984 20.745214462280273 2.3209927082061768 0.33631548285484314 0 9
34.55072021484375 20.85396385192871 2.350482225418091 0.33209601044654846 0 9
35.09048843383789 20.96546745300293 2.3807787895202637 0.32787004113197327 0 9
35.602752685546875 21.055273056030273 2.4090962409973145 0.4873426854610443 0 9
28.90035057067871 16.916973114013672 1.9504263401031494 0.9722887277603149 0 9
27.940780639648438 16.18734359741211 1.8807467222213745 0.9489520788192749 0 9
25.69466781616211 14.732460975646973 1.7250847816467285 0.7420320510864258 0 9
25.86359405517578 14.675448417663574 1.7319881916046143 0.7390754222869873 0 9
26.03386688232422 14.61800765991211 1.7389782667160034 0.7361040711402893 0 9
28.397733688354492 15.778124809265137 1.8921297788619995 0.9432415962219238 0 9
28.51287078857422 15.67503833770752 1.895097255706787 0.9417663216590881 0 9
28.628339767456055 15.571600914001465 1.8981081247329712 0.9402719736099243 0 9
28.744218826293945 15.467870712280273 1.9011657238006592 0.9387588500976562 0 9
28.860429763793945 15.36376953125 1.9042736291885376 0.9372268915176392 0 9
28.977069854736328 15.259355545043945 1.9074312448501587 0.935675859451294 0 9
29.09406089782715 15.154569625854492 1.9106343984603882 0.9341061115264893 0 9
29.211483001708984 15.049452781677246 1.9138919115066528 0.9325176477432251 0 9
29.329296112060547 14.943964958190918 1.917196273803711 0.9309101700782776 0 9
29.78204917907715 15.006659507751465 1.9423671960830688 0.6537672281265259 0 9
29.928749084472656 14.912538528442383 1.9475536346435547 0.652026355266571 0 9
30.07632827758789 14.8179292678833 1.9528063535690308 0.6502715945243835 0 9
30.22474479675293 14.722850799560547 1.9581369161605835 0.6485028266906738 0 9
38.23316192626953 18.411991119384766 2.4715962409973145 0.9187225103378296 0 9
38.38720703125 18.274452209472656 2.4762256145477295 0.9170046448707581 0 9
38.54181671142578 18.136308670043945 2.4809253215789795 0.9152683019638062 0 9
38.69702911376953 17.997655868530273 2.4856882095336914 0.9135136604309082 0 9
38.85279083251953 17.858476638793945 2.49051833152771 0.9117409586906433 0 9
39.426231384277344 17.908124923706055 2.522104501724243 0.3302658200263977 0 9
38.89322280883789 17.455917358398438 2.482969045639038 0.3156319856643677 0 9
38.45753860473633 17.05339813232422 2.4502453804016113 0.3198475241661072 0 9
38.033241271972656 16.661405563354492 2.418423652648926 0.3240561783313751 0 9
37.71054458618164 16.318710327148438 2.393226146697998 0.22086137533187866 0 9
42.48958969116211 17.488065719604492 2.676161766052246 0.9951651096343994 0 9
35.97492218017578 14.618242263793945 2.2616822719573975 0.8381031155586243 0 9
36.12900161743164 14.492304801940918 2.267259359359741 0.8360429406166077 0 9
36.283809661865234 14.365702629089355 2.272904872894287 0.8339662551879883 0 9
36.43937301635742 14.23843765258789 2.2786223888397217 0.83187335729599 0 9
36.595664978027344 14.110527038574219 2.284412384033203 0.8297640085220337 0 9
36.75279235839844 13.9819917678833 2.290281057357788 0.8276385068893433 0 9
37.100704193115234 13.924022674560547 2.3080432415008545 0.8274163603782654 0 9
37.24259567260742 13.786932945251465 2.312999725341797 0.8256433010101318 0 9
37.38517379760742 13.64925765991211 2.3180296421051025 0.8238531351089478 0 9
37.528377532958984 13.510956764221191 2.3231265544891357 0.822045624256134 0 9
37.672245025634766 13.3720703125 2.328294277191162 0.820221483707428 0 9
37.79527282714844 13.225019454956055 2.3322083950042725 0.8810071349143982 0 9
37.91316223144531 13.075624465942383 2.3358287811279297 0.8796389698982239 0 9
38.03140640258789 12.925722122192383 2.3395135402679443 0.8782526850700378 0 9
38.15003967285156 12.775331497192383 2.3432650566101074 0.8768481016159058 0 9
42.924217224121094 14.160136222839355 2.632575511932373 0.9727147817611694 0 9
43.03249740600586 13.982011795043945 2.635345935821533 0.9716938138008118 0 9
43.140995025634766 13.803515434265137 2.638171672821045 0.9706535339355469 0 9
37.330467224121094 11.759941101074219 2.279594659805298 0.6808335185050964 0 9
37.50078201293945 11.628847122192383 2.2867813110351562 0.7530137896537781 0 9
37.6989631652832 11.50511646270752 2.2956912517547607 0.7500905990600586 0 9
37.8986701965332 11.380351066589355 2.304722309112549 0.7471522092819214 0 9
38.09996032714844 11.254667282104492 2.313873529434204 0.7441988587379456 0 9
38.30287170410156 11.1279296875 2.323134422302246 0.7412300705909729 0 9
38.50746154785156 11.000234603881836 2.3325271606445312 0.7382466197013855 0 9
38.71364974975586 10.871444702148438 2.3420393466949463 0.7352482676506042 0 9
38.92158126831055 10.741621017456055 2.351673126220703 0.7322348356246948 0 9
38.98005676269531 10.56972599029541 2.352313280105591 0.6787248849868774 0 9
38.83919906616211 10.344609260559082 2.3409905433654785 0.6820083260536194 0 9
38.69964599609375 10.1216402053833 2.329822540283203 0.6852781176567078 0 9
38.56146240234375 9.900819778442383 2.318798542022705 0.6885343790054321 0 9
38.42458724975586 9.682069778442383 2.307939052581787 0.6917763948440552 0 9
38.28898239135742 9.465351104736328 2.2972137928009033 0.6950048208236694 0 9
38.15460968017578 9.25064468383789 2.286637544631958 0.6982192993164062 0 9
48.402400970458984 -7.889042854309082 2.856309413909912 0.3205462396144867 0 3
48.0490608215332 -8.052968978881836 2.8375682830810547 0.33325859904289246 0 3
47.149452209472656 -8.119921684265137 2.786560535430908 0.3363514542579651 0 3
47.208377838134766 -8.348398208618164 2.792234182357788 0.9379642605781555 0 3
47.24816131591797 -8.5742769241333 2.79683518409729 0.936421275138855 0 3
47.28806686401367 -8.800956726074219 2.801509380340576 0.9348593950271606 0 3
47.328125 -9.028339385986328 2.8062517642974854 0.9332787394523621 0 3
47.36827850341797 -9.256543159484863 2.811072587966919 0.9316791296005249 0 3
47.40861129760742 -9.485487937927246 2.8159611225128174 0.9300609230995178 0 3
47.449119567871094 -9.715272903442383 2.8209307193756104 0.9284240007400513 0 3
47.48972702026367 -9.9458589553833 2.82596492767334 0.9267682433128357 0 3
47.530487060546875 -10.17724609375 2.831085443496704 0.9250940084457397 0 3
47.57138442993164 -10.40951156616211 2.836270332336426 0.9234009981155396 0 3
47.61244201660156 -10.642656326293945 2.8415400981903076 0.9216893315315247 0 3
47.65361404418945 -10.876660346984863 2.846881151199341 0.9199591875076294 0 3
47.69501876831055 -11.111523628234863 2.8523049354553223 0.918210506439209 0 3
47.736541748046875 -11.347285270690918 2.8578102588653564 0.9164432883262634 0 3
47.778202056884766 -11.584023475646973 2.863387107849121 0.9146576523780823 0 3
47.8200569152832 -11.821640014648438 2.869047164916992 0.9128535985946655 0 3
15.89281177520752 -4.004628658294678 0.9545825123786926 0.1306861788034439 0 20
15.685546875 -4.027324199676514 0.9432119727134705 0.9669548273086548 0 20
15.685507774353027 -4.102460861206055 0.9443047642707825 0.9658316373825073 0 20
15.685487747192383 -4.177753925323486 0.9454259872436523 0.9646892547607422 0 20
15.685468673706055 -4.253242015838623 0.9465658068656921 0.9635271430015564 0 20
15.685468673706055 -4.328906059265137 0.9477288722991943 0.9623458981513977 0 20
15.68544864654541 -4.404746055603027 0.9489108324050903 0.9611452221870422 0 20
15.685800552368164 -4.480917930603027 0.9501400589942932 0.6371210813522339 0 20
15.687089920043945 -4.557538986206055 0.9514483213424683 0.6362452507019043 0 20
8.876738548278809 -2.622206926345825 0.5390962362289429 0.9486919045448303 0 6
8.861308097839355 -2.660937547683716 0.5388795137405396 0.9909685254096985 0 6
15.691093444824219 -4.788710594177246 0.9555160403251648 0.6335365176200867 0 20
15.692500114440918 -4.866230487823486 0.9569201469421387 0.6326062679290771 0 20
15.6939058303833 -4.943984031677246 0.9583492875099182 0.6316626667976379 0 20
15.695351600646973 -5.02197265625 0.9598031640052795 0.6307053565979004 0 20
15.696816444396973 -5.100195407867432 0.9612850546836853 0.6297345757484436 0 20
41.83658218383789 -13.801445007324219 2.5658693313598633 0.9879468679428101 0 3
41.80185317993164 -13.99828052520752 2.5675647258758545 0.9872945547103882 0 3
41.8439826965332 -14.22158145904541 2.5740509033203125 0.9866222143173218 0 3
41.80906295776367 -14.419316291809082 2.5758607387542725 0.9859302043914795 0 3
41.77408218383789 -14.617382049560547 2.577714681625366 0.9852180480957031 0 3
41.73908233642578 -14.815741539001465 2.5796282291412354 0.9844862818717957 0 3
41.704002380371094 -15.014354705810547 2.5816097259521484 0.9837345480918884 0 3
41.66886520385742 -15.213300704956055 2.583630084991455 0.9829630851745605 0 3
41.55714797973633 -15.384218215942383 2.5809571743011475 0.9821717143058777 0 3
41.59845733642578 -15.612167358398438 2.58785080909729 0.981360673904419 0 3
41.56316375732422 -15.812089920043945 2.59004545211792 0.98052978515625 0 3
33.909061431884766 -13.074726104736328 2.116708993911743 0.9315001964569092 0 6
33.80859375 -13.210546493530273 2.1141133308410645 0.5914576649665833 0 6
41.45689392089844 -16.413944244384766 2.5969598293304443 0.977918803691864 0 3
41.42136764526367 -16.615312576293945 2.5993764400482178 0.9770090579986572 0 3
41.38572311401367 -16.81702995300293 2.6018550395965576 0.976079523563385 0 3
41.35007858276367 -17.019121170043945 2.6043832302093506 0.9751304984092712 0 3
41.31429672241211 -17.22163963317871 2.60697340965271 0.9741617441177368 0 3
41.27845764160156 -17.424589157104492 2.6096174716949463 0.9731733798980713 0 3
41.242557525634766 -17.6279296875 2.61232590675354 0.9721654057502747 0 3
41.20661926269531 -17.83167839050293 2.6150925159454346 0.9711378812789917 0 3
41.09492111206055 -18.00273323059082 2.613098621368408 0.9700940251350403 0 3
41.13443374633789 -18.24052619934082 2.6207995414733887 0.9690240621566772 0 3
41.09823989868164 -18.44560432434082 2.6237337589263916 0.9679379463195801 0 3
13.671953201293945 -6.210058689117432 0.8745956420898438 0.5281980633735657 0 3
13.546562194824219 -6.226621150970459 0.8683526515960693 0.5319947004318237 0 3
13.422948837280273 -6.242909908294678 0.8622167706489563 0.5357806086540222 0 3
13.301093101501465 -6.259003639221191 0.8561831712722778 0.5395553708076477 0 3
13.188573837280273 -6.278495788574219 0.8507476449012756 0.5789221525192261 0 3
13.07796859741211 -6.297987937927246 0.8454253673553467 0.5825662612915039 0 3
12.968690872192383 -6.317226409912109 0.8401870727539062 0.5861989855766296 0 3
12.86074161529541 -6.336230278015137 0.8350289463996887 0.5898197293281555 0 3
12.75413990020752 -6.355000019073486 0.829950213432312 0.5934287309646606 0 3
12.49632740020752 -6.296718597412109 0.8150054812431335 0.5971861481666565 0 3
12.393573760986328 -6.314843654632568 0.8101428151130676 0.6007708311080933 0 3
12.33632755279541 -6.355566501617432 0.8082565069198608 0.7946708798408508 0 3
12.34994125366211 -6.432870864868164 0.8110320568084717 0.7919512391090393 0 3
12.256132125854492 -6.4541015625 0.8067666292190552 0.6112923622131348 0 3
12.15673828125 -6.471621036529541 0.8021261692047119 0.6148282289505005 0 3
12.05843734741211 -6.488925457000732 0.7975555062294006 0.6183516383171082 0 3
11.96126937866211 -6.506034851074219 0.7930508255958557 0.6218632459640503 0 3
11.865195274353027 -6.52294921875 0.788614809513092 0.6253615021705627 0 3
11.770195007324219 -6.53966760635376 0.7842431664466858 0.6288474798202515 0 3
11.676230430603027 -6.556230545043945 0.7799353003501892 0.6323213577270508 0 3
11.428632736206055 -6.484843730926514 0.7653341293334961 0.6358607411384583 0 3
11.3379487991333 -6.500800609588623 0.7612075805664062 0.6393084526062012 0 3
11.24820327758789 -6.516621112823486 0.7571383714675903 0.642743706703186 0 3
11.254590034484863 -6.587949275970459 0.759550154209137 0.7609949707984924 0 3
11.20654296875 -6.627519607543945 0.7583059668540955 0.6494960784912109 0 3
11.11855411529541 -6.643027305603027 0.7543637156486511 0.6528915166854858 0 3
11.031464576721191 -6.658359050750732 0.7504745125770569 0.6562749147415161 0 3
10.945273399353027 -6.673534870147705 0.7466396689414978 0.6596439480781555 0 3
10.859960556030273 -6.688554763793945 0.7428591847419739 0.6630010604858398 0 3
10.775527000427246 -6.703417778015137 0.7391327023506165 0.6663434505462646 0 3
10.69189453125 -6.718144416809082 0.7354580760002136 0.669672966003418 0 3
10.609082221984863 -6.732714653015137 0.7318344116210938 0.6729891896247864 0 3
10.400507926940918 -6.666015625 0.7195053100585938 0.6764513254165649 0 3
10.320351600646973 -6.68017578125 0.7160214185714722 0.6797394752502441 0 3
10.240859031677246 -6.694140434265137 0.7125808596611023 0.6824858784675598 0 3
10.241483688354492 -6.760351181030273 0.7147268652915955 0.7251121997833252 0 3
10.220526695251465 -6.812539100646973 0.715399444103241 0.6893644332885742 0 3
10.142285346984863 -6.826347351074219 0.7120562791824341 0.6925978660583496 0 3
10.064764976501465 -6.839980125427246 0.7087618708610535 0.6958176493644714 0 3
9.987929344177246 -6.853515625 0.7055127024650574 0.6990236639976501 0 3
9.911816596984863 -6.866913795471191 0.7023049592971802 0.702215313911438 0 3
9.836366653442383 -6.880195140838623 0.6991427540779114 0.7053931951522827 0 3
9.76162052154541 -6.893378734588623 0.6960210800170898 0.7085557579994202 0 3
9.558456420898438 -6.814355373382568 0.6837072372436523 0.7123250961303711 0 3
9.486054420471191 -6.827187538146973 0.6807125806808472 0.7149908542633057 0 3
9.414237976074219 -6.839824199676514 0.6777551174163818 0.7181112170219421 0 3
9.343008041381836 -6.852363109588623 0.6748384237289429 0.7212176322937012 0 3
9.307578086853027 -6.890839576721191 0.6745039224624634 0.6871271729469299 0 3
9.314315795898438 -6.960741996765137 0.6772474646568298 0.7272331118583679 0 3
9.24404239654541 -6.973105430603027 0.6744082570075989 0.7302954196929932 0 3
9.1743745803833 -6.985371112823486 0.6716050505638123 0.7333427667617798 0 3
9.105273246765137 -6.997519493103027 0.6688406467437744 0.7363749742507935 0 3
9.036738395690918 -7.009609222412109 0.6661103963851929 0.7393932342529297 0 3
8.863203048706055 -6.938925743103027 0.6556047201156616 0.7418007850646973 0 3
8.796504020690918 -6.950585842132568 0.6529729962348938 0.7447917461395264 0 3
8.730390548706055 -6.962226390838623 0.6503785848617554 0.7483565211296082 0 3
8.664804458618164 -6.973769187927246 0.647817075252533 0.751314640045166 0 3
8.599706649780273 -6.985234260559082 0.6452887058258057 0.7542572021484375 0 3
8.588613510131836 -7.040410041809082 0.6468231081962585 0.6505539417266846 0 3
8.518808364868164 -7.04736328125 0.6439394950866699 0.7600969076156616 0 3
8.454863548278809 -7.058613300323486 0.6414945721626282 0.762993574142456 0 3
8.39144515991211 -7.069785118103027 0.639080822467804 0.7658753395080566 0 3
8.328436851501465 -7.080878734588623 0.6366973519325256 0.7687418460845947 0 3
8.265898704528809 -7.091894149780273 0.6343454122543335 0.7715929746627808 0 3
8.203847885131836 -7.10281229019165 0.6320236325263977 0.7744272947311401 0 3
8.14224624633789 -7.113652229309082 0.6297309994697571 0.7772469520568848 0 3
8.0811128616333 -7.124413967132568 0.6274675130844116 0.7800506353378296 0 3
8.020370483398438 -7.135136604309082 0.6252313256263733 0.7828390002250671 0 3
7.96007776260376 -7.145761489868164 0.6230261325836182 0.7856115698814392 0 3
7.900195121765137 -7.156289100646973 0.620846688747406 0.7883687019348145 0 3
7.840742111206055 -7.166757583618164 0.6186951994895935 0.7911087274551392 0 3
7.781699180603027 -7.177167892456055 0.6165733337402344 0.7938336133956909 0 3
7.723066329956055 -7.187480449676514 0.6144750714302063 0.796542227268219 0 3
7.66482400894165 -7.197734355926514 0.6124052405357361 0.7992349863052368 0 3
7.606972694396973 -7.207929611206055 0.6103619337081909 0.801911473274231 0 3
7.549491882324219 -7.21804666519165 0.6083428859710693 0.8045724034309387 0 3
7.492421627044678 -7.228085994720459 0.6063503623008728 0.8072157502174377 0 3
7.435702800750732 -7.238085746765137 0.6043827533721924 0.8098437786102295 0 3
7.379316329956055 -7.248007774353027 0.6024407744407654 0.8124560117721558 0 3
7.323339462280273 -7.257851600646973 0.6005212068557739 0.8150513768196106 0 3
34.45994186401367 34.459861755371094 2.0263113975524902 0.5484464168548584 0 9
34.823787689208984 34.51250076293945 2.0385801792144775 0.5451462864875793 0 9
35.19207000732422 34.565818786621094 2.0510404109954834 0.5418355464935303 0 9
34.55357360839844 33.635292053222656 2.005005121231079 0.42296695709228516 0 9
35.942344665527344 34.67441177368164 2.0765347480773926 0.535180389881134 0 9
36.36435317993164 32.059452056884766 2.0157058238983154 0.8815712332725525 0 6
35.45355224609375 30.418025970458984 1.9423364400863647 0.7231879830360413 0 6
36.431640625 30.97445297241211 1.9882943630218506 0.80885249376297 0 6
37.269256591796875 30.55107307434082 2.0037450790405273 0.4543871283531189 0 6
34.56658172607422 26.812421798706055 1.8189419507980347 0.7656732797622681 0 9
34.74496078491211 26.701894760131836 1.822005271911621 0.8041759133338928 0 9
34.980430603027344 26.633983612060547 1.8280681371688843 0.8015093803405762 0 9
35.217498779296875 26.565643310546875 1.8342089653015137 0.7988266348838806 0 9
35.45615005493164 26.496854782104492 1.8404232263565063 0.7961282134056091 0 9
33.36042785644531 24.698144912719727 1.725869059562683 0.3367113471031189 0 9
33.3415412902832 24.45326042175293 1.719199776649475 0.4844951927661896 0 9
33.73228454589844 24.5078125 1.7336537837982178 0.42728930711746216 0 9
36.427207946777344 26.216815948486328 1.866093397140503 0.7851751446723938 0 9
37.066307067871094 26.425039291381836 1.8927370309829712 0.5265914797782898 0 9
37.38880920410156 26.402694702148438 1.903143286705017 0.5237139463424683 0 9
32.71730422973633 21.807811737060547 1.6348577737808228 0.4776249825954437 0 9
33.050819396972656 21.8165225982666 1.6466180086135864 0.5847638845443726 0 9
33.336055755615234 21.7906436920166 1.6559417247772217 0.5814716815948486 0 9
35.028202056884766 21.142147064208984 1.701176404953003 0.23153069615364075 0 9
35.058712005615234 20.946483612060547 1.6980761289596558 0.3284396827220917 0 9
35.61167907714844 21.060546875 1.7202661037445068 0.32420337200164795 0 9
35.65855407714844 20.872831344604492 1.7179843187332153 0.9355255365371704 0 9
35.69679641723633 20.680702209472656 1.7153398990631104 0.9369683861732483 0 9
25.646522521972656 14.704843521118164 1.229215383529663 0.7440426349639893 0 9
25.81494140625 14.64785099029541 1.2341220378875732 0.7410835027694702 0 9
25.98466682434082 14.5903902053833 1.239093542098999 0.7381095886230469 0 9
35.84877014160156 19.91792869567871 1.7051836252212524 0.9425495266914368 0 9
36.38550567626953 20.00308609008789 1.7264355421066284 0.9827588796615601 0 6
30.1612491607666 15.710468292236328 1.414015769958496 0.25844496488571167 0 9
29.374765396118164 15.133573532104492 1.3739473819732666 0.9068915247917175 0 9
29.503496170043945 15.03271484375 1.3768023252487183 0.9050126671791077 0 9
44.16484451293945 22.254003524780273 2.0562949180603027 0.9860718846321106 0 9
44.297420501708984 22.072050094604492 2.057835102081299 0.9853339195251465 0 9
44.430213928222656 21.889883041381836 2.0594191551208496 0.9845759868621826 0 9
44.563201904296875 21.70736312866211 2.0610432624816895 0.9837982654571533 0 9
44.69642639160156 21.524627685546875 2.0627214908599854 0.9830008745193481 0 9
44.8298225402832 21.341503143310547 2.0644359588623047 0.982183575630188 0 9
44.96347427368164 21.15816307067871 2.066192626953125 0.9813464879989624 0 9
45.09734344482422 20.97445297241211 2.068002223968506 0.9804897308349609 0 9
44.54275131225586 20.473846435546875 2.038330316543579 0.1914321333169937 0 9
43.63488006591797 19.819862365722656 1.9926912784576416 0.1958162784576416 0 9
45.54437255859375 20.44109344482422 2.0756895542144775 0.7615858316421509 0 9
45.62056350708008 20.22980499267578 2.0750081539154053 0.7618380188941956 0 9
36.56138610839844 14.097304344177246 1.6292961835861206 0.8374539613723755 0 9
36.70054626464844 13.962089538574219 1.6326828002929688 0.8357134461402893 0 9
36.84035110473633 13.82632827758789 1.6361275911331177 0.8339559435844421 0 9
36.980682373046875 13.689960479736328 1.639615774154663 0.8321811556816101 0 9
37.12171936035156 13.553046226501465 1.6431530714035034 0.8303894400596619 0 9
37.26332092285156 13.415507316589355 1.646745204925537 0.8285805583000183 0 9
37.40556716918945 13.277421951293945 1.6503829956054688 0.8267549276351929 0 9
37.54843521118164 13.138690948486328 1.6540707349777222 0.8249122500419617 0 9
37.69134521484375 12.999101638793945 1.6577752828598022 0.8855499029159546 0 9
37.808555603027344 12.849960327148438 1.6603749990463257 0.884162425994873 0 9
37.92611312866211 12.700312614440918 1.6630123853683472 0.882756769657135 0 9
43.00529098510742 14.18685531616211 1.8829210996627808 0.9716866612434387 0 9
43.113826751708984 14.008437156677246 1.8849029541015625 0.970664918422699 0 9
43.22267532348633 13.829668045043945 1.8869261741638184 0.9696237444877625 0 9
49.26591873168945 -7.802948951721191 2.0739758014678955 0.32507023215293884 0 3
48.59703063964844 -7.920742034912109 2.047295570373535 0.3293071389198303 0 3
47.945037841796875 -8.035566329956055 2.021327257156372 0.3335375487804413 0 3
47.34531021118164 -8.15365219116211 1.9975656270980835 0.3777186870574951 0 3
47.207733154296875 -8.34830093383789 1.9933217763900757 0.9387553334236145 0 3
47.24751663208008 -8.574179649353027 1.9966063499450684 0.9372110366821289 0 3
47.28744125366211 -8.800800323486328 1.9999444484710693 0.9356478452682495 0 3
47.32748031616211 -9.028242111206055 2.0033345222473145 0.9340658187866211 0 3
47.36767578125 -9.256386756896973 2.006769895553589 0.9324650764465332 0 3
47.40798568725586 -9.4853515625 2.0102651119232178 0.9308455586433411 0 3
47.44843673706055 -9.715136528015137 2.0138020515441895 0.9292072057723999 0 3
47.48908233642578 -9.94570255279541 2.0174002647399902 0.9275500774383545 0 3
47.529842376708984 -10.177108764648438 2.021057367324829 0.9258745312690735 0 3
47.57072067260742 -10.409394264221191 2.0247647762298584 0.9241799712181091 0 3
19.041112899780273 -4.256191253662109 0.8112545609474182 0.21773763000965118 0 20
18.766855239868164 -4.283417701721191 0.8003796339035034 0.22211168706417084 0 20
18.3857421875 -4.283339977264404 0.7849410772323608 0.2264813631772995 0 20
18.019023895263672 -4.283242225646973 0.7700945734977722 0.23084664344787598 0 20
17.665918350219727 -4.283164024353027 0.7558202743530273 0.23520708084106445 0 20
17.32564353942871 -4.283105373382568 0.742075502872467 0.2395630031824112 0 20
16.889219284057617 -4.255722522735596 0.7241949439048767 0.24391357600688934 0 20
16.574628829956055 -4.255663871765137 0.7115148901939392 0.24825970828533173 0 20
15.938652038574219 -4.168691158294678 0.6850114464759827 0.9666458964347839 0 20
15.938632011413574 -4.245214939117432 0.6858213543891907 0.9655023813247681 0 20
15.938593864440918 -4.321894645690918 0.6866493225097656 0.9643397331237793 0 20
15.929277420043945 -4.396210670471191 0.6870898008346558 0.04228896275162697 0 20
15.911288261413574 -4.468203067779541 0.6871739029884338 0.961955726146698 0 20
15.911288261413574 -4.545331954956055 0.688047468662262 0.9607346653938293 0 20
15.911250114440918 -4.622675895690918 0.6889355182647705 0.9594942927360535 0 20
8.875917434692383 -2.6219334602355957 0.3848204016685486 0.949569046497345 0 6
8.860487937927246 -2.6606836318969727 0.3846650719642639 0.9918830990791321 0 6
8.896445274353027 -2.7150585651397705 0.3867509365081787 0.27809637784957886 0 6
15.9111909866333 -4.934023380279541 0.6926550269126892 0.9543396830558777 0 20
15.9111909866333 -5.012421607971191 0.6936261057853699 0.9530028700828552 0 20
15.911171913146973 -5.091015338897705 0.6946160793304443 0.9516469836235046 0 20
15.911151885986328 -5.169843673706055 0.6956213116645813 0.950271725654602 0 20
15.9111328125 -5.248906135559082 0.6966433525085449 0.9488775730133057 0 20
15.9111328125 -5.328203201293945 0.6976833939552307 0.947464108467102 0 20
15.911112785339355 -5.40771484375 0.698740541934967 0.9460317492485046 0 20
15.911073684692383 -5.487499713897705 0.6998128890991211 0.9445802569389343 0 20
15.911073684692383 -5.567519187927246 0.700905442237854 0.9431095123291016 0 20
15.911054611206055 -5.647792816162109 0.7020114064216614 0.9416199922561646 0 20
41.62681579589844 -14.986542701721191 1.8395696878433228 0.9845636487007141 0 3
41.59173583984375 -15.185136795043945 1.8410149812698364 0.9837914109230042 0 3
41.55662155151367 -15.384042739868164 1.8424962759017944 0.9829995036125183 0 3
41.52146530151367 -15.583222389221191 1.844021201133728 0.9821878671646118 0 3
41.486209869384766 -15.782793045043945 1.8455859422683716 0.9813562631607056 0 3
41.45093536376953 -15.982675552368164 1.847190499305725 0.9805049896240234 0 3
35.025508880615234 -13.68603515625 1.5635689496994019 0.4371747672557831 0 6
34.958377838134766 -13.84097671508789 1.5633245706558228 0.3825759291648865 0 6
41.34464645385742 -16.584531784057617 1.85223388671875 0.977832555770874 0 3
41.30910110473633 -16.785879135131836 1.8540019989013672 0.9769023656845093 0 3
41.273475646972656 -16.98759651184082 1.8558013439178467 0.9759524464607239 0 3
41.23777389526367 -17.18978500366211 1.8576472997665405 0.9749828577041626 0 3
41.202030181884766 -17.392303466796875 1.8595352172851562 0.9739938378334045 0 3
41.16628646850586 -17.595273971557617 1.861458659172058 0.9729880690574646 0 3
41.13039016723633 -17.79865264892578 1.8634310960769653 0.9719598293304443 0 3
41.09437561035156 -18.002500534057617 1.865445852279663 0.9709118008613586 0 3
41.05830001831055 -18.206777572631836 1.867492914199829 0.9698443412780762 0 3
41.02214813232422 -18.411483764648438 1.8695935010910034 0.9687573313713074 0 3
13.671894073486328 -6.210058689117432 0.6243635416030884 0.5286381244659424 0 3
13.546504020690918 -6.226601600646973 0.6199064254760742 0.5324382781982422 0 3
