ply
format ascii 1.0
element vertex 1406
property float32 x
property float32 y
property float32 z
property float32 CosAngle
property uint32 ObjIdx
property uint32 ObjTag
end_header
17.6825 -11.3639 6.5243 0.8036 0 3
17.6832 -9.6558 6.2538 0.8384 0 3
18.7092 -8.5442 6.3842 0.4810 0 3
15.7687 8.6104 5.5767 0.4581 0 3
13.3996 8.6114 4.9440 0.5167 0 3
11.3764 8.5162 4.4110 0.5727 0 3
9.9398 8.6129 4.0824 0.6257 0 3
9.3955 -9.3955 4.0045 0.6768 0 3
10.7686 -9.3311 4.2943 0.2887 0 3
17.6817 -13.2364 6.6566 0.7667 0 3
17.6825 -11.3639 6.3347 0.8056 0 3
17.6832 -9.6558 6.0721 0.8405 0 3
18.8416 -8.6047 6.2426 0.4788 0 3
15.7687 8.6104 5.4147 0.4592 0 3
13.3995 8.6114 4.8004 0.5180 0 3
11.3763 8.5162 4.2828 0.5741 0 3
9.9397 8.6128 3.9638 0.6273 0 3
9.3955 -9.3955 3.8853 0.6784 0 3
11.0989 -9.6173 4.2943 0.2808 0 3
17.6817 -13.2364 6.4584 0.7686 0 3
17.6824 -11.3638 6.1461 0.8076 0 3
17.6831 -9.6557 5.8913 0.8425 0 3
19.1887 -8.7632 6.1683 0.8732 0 3
15.7687 8.6104 5.2535 0.4603 0 3
13.3995 8.6113 4.6574 0.5192 0 3
11.3763 8.5162 4.1553 0.5755 0 3
9.9397 8.6128 3.8458 0.6288 0 3
9.3955 -9.3955 3.7666 0.6800 0 3
11.4484 -9.9201 4.2942 0.2728 0 3
12.2651 -9.1815 4.3431 0.5762 0 3
17.6824 -11.3638 5.9584 0.8095 0 3
17.6831 -9.6557 5.7114 0.8445 0 3
19.5712 -8.9379 6.0991 0.3993 0 3
18.4682 8.4341 5.7554 0.4000 0 3
15.6015 8.5190 5.0391 0.4614 0 3
13.3995 8.6113 4.5152 0.5205 0 3
11.3763 8.5162 4.0284 0.5769 0 3
9.9397 8.6128 3.7283 0.6303 0 3
9.3955 -9.3955 3.6485 0.6816 0 3
11.8188 -10.2410 4.2941 0.2649 0 3
12.5185 -9.3712 4.2939 0.2649 0 3
17.6823 -11.3638 5.7716 0.8114 0 3
17.6830 -9.6557 5.5323 0.8465 0 3
19.5713 -8.9379 5.9079 0.4002 0 3
18.7772 8.5753 5.6682 0.2620 0 3
15.6014 8.5190 4.8810 0.4625 0 3
13.3995 8.6113 4.3736 0.5217 0 3
11.3763 8.5162 3.9021 0.5782 0 3
9.9397 8.6128 3.6114 0.6318 0 3
9.3955 -9.3955 3.5310 0.6831 0 3
12.0174 -10.4131 4.2256 0.6326 0 3
12.9350 -9.6830 4.2938 0.2570 0 3
17.6823 -11.3637 5.5856 0.8132 0 3
17.6830 -9.6557 5.3540 0.8484 0 3
19.7445 -9.0170 5.7682 0.4011 0 3
22.8132 -8.5089 6.4704 0.4111 0 3
18.8510 8.6090 5.5072 0.4019 0 3
15.6014 8.5190 4.7238 0.4635 0 3
13.3994 8.6113 4.2327 0.5228 0 3
11.3763 8.5162 3.7764 0.5795 0 3
9.9397 8.6128 3.4951 0.6332 0 3
9.3955 -9.3955 3.4139 0.6846 0 3
12.0174 -10.4131 4.0856 0.6340 0 3
13.3783 -10.0148 4.2937 0.2490 0 3
14.2881 -9.1824 4.3638 0.5233 0 3
17.6830 -9.6556 5.1765 0.8502 0 3
19.6144 -8.9576 5.5402 0.4652 0 3
23.0000 -8.5786 6.3071 0.4087 0 3
18.8510 8.6089 5.3246 0.4027 0 3
15.6014 8.5190 4.5672 0.4645 0 3
13.3994 8.6113 4.0924 0.5240 0 3
11.3762 8.5162 3.6512 0.5807 0 3
9.9397 8.6128 3.3792 0.6346 0 3
9.3956 -9.3955 3.2974 0.6860 0 3
12.0174 -10.4132 3.9461 0.6353 0 3
13.8509 -10.3686 4.2937 0.2410 0 3
14.5543 -9.3535 4.2934 0.2410 0 3
17.6829 -9.6556 4.9998 0.8520 0 3
19.7540 -9.0214 5.3892 0.2410 0 3
23.4121 -8.7322 6.2009 0.2167 0 3
18.6981 8.5392 5.1011 0.4036 0 3
15.6014 8.5190 4.4113 0.4655 0 3
13.3994 8.6112 3.9527 0.5251 0 3
11.3762 8.5161 3.5265 0.5820 0 3
9.9396 8.6128 3.2638 0.6359 0 3
9.3956 -9.3956 3.1813 0.6874 0 3
12.0174 -10.4132 3.8072 0.6366 0 3
13.9115 -10.4140 4.1606 0.5825 0 3
15.0850 -9.6946 4.2933 0.2330 0 3
17.6829 -9.6556 4.8238 0.8537 0 3
20.4025 -9.3176 5.3702 0.4602 0 3
23.6653 -8.8267 6.0474 0.9113 0 3
18.7963 8.5840 4.9474 0.8844 0 3
15.6013 8.5189 4.2559 0.4664 0 3
13.3994 8.6112 3.8135 0.5261 0 3
11.5044 8.6121 3.4407 0.5831 0 3
9.9396 8.6127 3.1489 0.6372 0 3
9.3956 -9.3956 3.0657 0.6887 0 3
12.0175 -10.4132 3.6688 0.6378 0 3
13.9115 -10.4140 4.0094 0.5836 0 3
15.6536 -10.0600 4.2932 0.2250 0 3
16.8184 -9.1836 4.4212 0.4666 0 3
20.4303 -9.3302 5.1820 0.6943 0 3
23.6653 -8.8267 5.8276 0.9131 0 3
18.7963 8.5840 4.7676 0.8861 0 3
15.6013 8.5189 4.1013 0.4673 0 3
13.3993 8.6112 3.6749 0.5271 0 3
11.5044 8.6121 3.3157 0.5843 0 3
9.9396 8.6127 3.0345 0.6384 0 3
9.3956 -9.3956 2.9505 0.6900 0 3
12.0193 -10.4148 3.5315 0.2169 0 3
13.9115 -10.4140 3.8588 0.5847 0 3
16.2061 -10.4150 4.2777 0.5274 0 3
16.9673 -9.2648 4.2928 0.2169 0 3
20.4303 -9.3302 4.9873 0.6956 0 3
23.8685 -8.9025 5.6568 0.4022 0 3
23.4379 8.7419 5.5547 0.3415 0 3
18.7962 8.5839 4.5884 0.8878 0 3
15.6013 8.5189 3.9472 0.4682 0 3
13.3993 8.6112 3.5369 0.5281 0 3
11.5044 8.6120 3.1911 0.5854 0 3
9.9396 8.6127 2.9205 0.6396 0 3
9.3956 -9.3956 2.8358 0.6912 0 3
12.1312 -10.5118 3.4258 0.6401 0 3
13.9115 -10.4140 3.7087 0.5857 0 3
16.2061 -10.4150 4.1113 0.5284 0 3
17.6533 -9.6395 4.2926 0.2089 0 3
20.4303 -9.3302 4.7934 0.6968 0 3
24.0790 -8.9810 5.4847 0.3941 0 3
28.9782 -8.5088 6.4456 0.3350 0 3
23.5588 8.7870 5.3662 0.2070 0 3
18.7962 8.5839 4.4100 0.8894 0 3
15.6012 8.5189 3.7936 0.4691 0 3
13.3993 8.6112 3.3993 0.5291 0 3
11.5043 8.6120 3.0670 0.5864 0 3
9.9396 8.6127 2.8069 0.6408 0 3
9.3956 -9.3956 2.7214 0.6924 0 3
12.1313 -10.5118 3.2876 0.6412 0 3
13.9116 -10.4141 3.5592 0.5868 0 3
16.2061 -10.4151 3.9456 0.5293 0 3
17.6827 -9.6555 4.1264 0.8600 0 3
20.4303 -9.3302 4.6001 0.6980 0 3
24.6482 -9.1933 5.3880 0.2008 0 3
29.2666 -8.5935 6.2472 0.3323 0 3
23.9065 8.9167 5.2258 0.3428 0 3
18.7962 8.5839 4.2321 0.8909 0 3
15.6012 8.5189 3.6406 0.4699 0 3
13.3993 8.6112 3.2622 0.5300 0 3
11.5043 8.6120 2.9433 0.5874 0 3
9.9396 8.6127 2.6937 0.6419 0 3
9.3956 -9.3956 2.6075 0.6936 0 3
12.1313 -10.5118 3.1500 0.6423 0 3
13.9408 -10.4360 3.4173 0.5877 0 3
16.2061 -10.4151 3.7803 0.5302 0 3
17.6826 -9.6555 3.9536 0.8614 0 3
20.4303 -9.3302 4.4074 0.6992 0 3
25.1015 -9.3624 5.2573 0.3888 0 3
29.8404 -8.7620 6.1030 0.2668 0 3
23.9064 8.9166 5.0070 0.3433 0 3
18.7961 8.5839 4.0549 0.8924 0 3
15.6012 8.5189 3.4882 0.4706 0 3
13.3992 8.6112 3.1256 0.5309 0 3
11.5043 8.6120 2.8200 0.5884 0 3
9.9396 8.6127 2.5809 0.6429 0 3
9.3956 -9.3957 2.4939 0.6947 0 3
12.1313 -10.5118 3.0127 0.6433 0 3
13.9409 -10.4360 3.2684 0.5887 0 3
16.2062 -10.4151 3.6156 0.5310 0 3
17.6826 -9.6554 3.7813 0.8628 0 3
20.4303 -9.3302 4.2154 0.7003 0 3
25.2807 -9.4292 5.0641 0.3431 0 3
30.4564 -8.9428 5.9575 0.2765 0 3
23.9064 8.9166 4.7888 0.3439 0 3
18.7961 8.5839 3.8782 0.8938 0 3
15.7683 8.6102 3.3719 0.4714 0 3
13.3992 8.6112 2.9894 0.5317 0 3
11.5043 8.6120 2.6972 0.5893 0 3
9.9395 8.6127 2.4684 0.6439 0 3
9.3956 -9.3957 2.3806 0.6957 0 3
12.1313 -10.5119 2.8759 0.6443 0 3
13.9409 -10.4360 3.1200 0.5895 0 3
16.3596 -10.5137 3.4841 0.5318 0 3
17.6826 -9.6554 3.6096 0.8641 0 3
20.4303 -9.3302 4.0240 0.7013 0 3
25.2807 -9.4292 4.8342 0.3436 0 3
30.5631 -8.9742 5.7069 0.9445 0 3
29.7623 8.7390 5.5574 0.2777 0 3
23.9063 8.9166 4.5713 0.3444 0 3
18.7960 8.5839 3.7021 0.8951 0 3
15.7683 8.6101 3.2188 0.4721 0 3
10.2013 6.5559 2.1726 0.5325 0 3
9.4798 7.0965 2.1216 0.3259 0 3
9.6448 8.3573 2.2865 0.3024 0 3
9.3957 -9.3957 2.2677 0.6967 0 3
12.1313 -10.5119 2.7395 0.6452 0 3
13.9409 -10.4360 2.9720 0.5904 0 3
16.3596 -10.5137 3.3189 0.5326 0 3
17.6825 -9.6554 3.4384 0.8653 0 3
20.3365 -9.2874 3.8155 0.3851 0 3
25.2808 -9.4293 4.6049 0.3441 0 3
30.6083 -8.9874 5.4443 0.3197 0 3
30.1636 8.8568 5.3652 0.1669 0 3
23.9062 8.9166 4.3545 0.3449 0 3
18.6978 8.5390 3.5081 0.4099 0 3
15.7682 8.6101 3.0661 0.4728 0 3
10.5925 6.8074 2.1489 0.1685 0 3
9.2846 6.9504 1.9794 0.3333 0 3
9.4312 8.1721 2.1298 0.3097 0 3
9.3957 -9.3957 2.1551 0.6977 0 3
12.1313 -10.5119 2.6035 0.6461 0 3
13.9409 -10.4361 2.8244 0.5912 0 3
16.3597 -10.5137 3.1541 0.5333 0 3
17.6825 -9.6554 3.2676 0.8665 0 3
20.3871 -9.3105 3.6351 0.4097 0 3
25.2809 -9.4293 4.3762 0.3446 0 3
31.6866 -9.3041 5.3562 0.1603 0 3
35.7375 -0.0000 5.7963 0.3902 0 6
30.3574 8.9137 5.1315 0.2785 0 3
23.9062 8.9165 4.1383 0.3454 0 3
18.8505 8.6087 3.3611 0.4104 0 3
12.0048 6.5551 2.2184 0.4734 0 3
11.1450 7.1625 2.1487 0.1604 0 3
9.0683 6.7885 1.8372 0.2992 0 3
9.2273 7.9955 1.9803 0.3170 0 3
9.3957 -9.3957 2.0428 0.6986 0 3
12.1314 -10.5119 2.4678 0.6469 0 3
13.9410 -10.4361 2.6773 0.5920 0 3
16.3597 -10.5137 2.9897 0.5340 0 3
17.6824 -9.6554 3.0973 0.8677 0 3
20.3872 -9.3105 3.4457 0.4102 0 3
25.2472 -9.4167 4.1427 0.3450 0 3
32.0686 -9.4162 5.1383 0.2488 0 3
30.0466 8.8225 4.8143 0.2789 0 3
23.9061 8.9165 3.9226 0.3458 0 3
18.8505 8.6087 3.1860 0.4110 0 3
12.2655 6.6974 2.1485 0.1522 0 3
11.7566 7.5555 2.1485 0.1522 0 3
8.8619 6.6339 1.7019 0.3065 0 3
9.0326 7.8268 1.8375 0.3243 0 3
9.3957 -9.3957 1.9308 0.6995 0 3
10.6234 -9.2052 2.0426 0.6477 0 3
13.9410 -10.4361 2.5305 0.5927 0 3
16.3597 -10.5138 2.8258 0.5347 0 3
17.6824 -9.6553 2.9275 0.8687 0 3
20.3872 -9.3105 3.2568 0.4107 0 3
24.7982 -9.2493 3.8459 0.3265 0 3
32.1235 -9.4323 4.8649 0.2784 0 3
35.7486 2.5568 5.2079 0.4078 0 6
30.2440 8.8805 4.5802 0.9494 0 3
23.9060 8.9165 3.7075 0.3462 0 3
18.8504 8.6087 3.0113 0.4115 0 3
12.9758 7.0853 2.1483 0.1441 0 3
12.4375 7.9930 2.1483 0.1441 0 3
8.7585 6.5565 1.5898 0.5934 0 3
8.8465 7.6655 1.7009 0.3315 0 3
9.3957 -9.3957 1.8191 0.7003 0 3
10.6415 -9.2209 1.9276 0.6249 0 3
13.9410 -10.4361 2.3840 0.5934 0 3
16.3598 -10.5138 2.6623 0.5353 0 3
17.6824 -9.6553 2.7581 0.8697 0 3
20.3873 -9.3106 3.0683 0.4112 0 3
24.9679 -9.3125 3.6481 0.3458 0 3
32.1236 -9.4324 4.5833 0.2787 0 3
40.2699 8.7602 5.6418 0.1343 0 3
30.2440 8.8804 4.3152 0.9505 0 3
23.9060 8.9165 3.4929 0.3466 0 3
14.3514 6.5540 2.1599 0.4120 0 3
13.7713 7.5197 2.1480 0.1359 0 3
13.2000 8.4831 2.1481 0.1359 0 3
11.5042 8.6119 1.9673 0.5941 0 3
8.6639 7.5073 1.5694 0.2967 0 3
9.3957 -9.3957 1.7076 0.7010 0 3
12.0177 -10.4134 2.0435 0.6492 0 3
12.2977 -9.2060 1.9741 0.5940 0 3
16.3598 -10.5138 2.4991 0.5359 0 3
17.6823 -9.6553 2.5890 0.8707 0 3
20.4303 -9.3302 2.8863 0.7067 0 3
24.9680 -9.3126 3.4245 0.3462 0 3
32.1237 -9.4324 4.3024 0.2790 0 3
41.0455 8.9289 5.3980 0.2113 0 3
30.2439 8.8804 4.0507 0.9515 0 3
23.9059 8.9165 3.2788 0.3470 0 3
15.0630 6.8790 2.1280 0.9020 0 3
14.6686 8.0096 2.1478 0.1277 0 3
13.3991 8.6111 2.0468 0.5366 0 3
11.3760 8.5160 1.8261 0.5947 0 3
8.4658 7.3356 1.4395 0.3040 0 3
9.3957 -9.3957 1.5963 0.7018 0 3
12.0177 -10.4134 1.9103 0.6499 0 3
13.9410 -10.4361 2.0921 0.5947 0 3
14.3262 -9.2069 2.0458 0.5364 0 3
17.6823 -9.6553 2.4203 0.8716 0 3
20.4303 -9.3302 2.6982 0.7074 0 3
24.9680 -9.3126 3.2014 0.3466 0 3
31.8514 -9.3524 3.9880 0.2182 0 3
40.6049 8.8331 4.9922 0.2115 0 3
30.2438 8.8804 3.7867 0.9525 0 3
23.9059 8.9164 3.0652 0.3474 0 3
15.0630 6.8790 1.9894 0.9029 0 3
15.6887 8.5666 2.1474 0.1195 0 3
13.3990 8.6111 1.9135 0.5371 0 3
11.3760 8.5159 1.7072 0.5953 0 3
8.2769 7.1719 1.3157 0.3113 0 3
9.3958 -9.3957 1.4853 0.7024 0 3
12.0177 -10.4134 1.7775 0.6505 0 3
13.9411 -10.4361 1.9466 0.5952 0 3
14.3674 -9.2333 1.9090 0.5168 0 3
17.6822 -9.6552 2.2520 0.8724 0 3
20.4303 -9.3302 2.5105 0.7081 0 3
24.9879 -9.3200 2.9811 0.3638 0 3
31.7260 -9.3156 3.6960 0.2796 0 3
40.9767 8.9139 4.6874 0.9710 0 3
30.2438 8.8804 3.5233 0.9534 0 3
17.9971 6.7126 2.1471 0.1114 0 3
15.0630 6.8790 1.8510 0.9038 0 3
15.7680 8.6100 2.0082 0.4767 0 3
13.3990 8.6110 1.7803 0.5377 0 3
11.3760 8.5159 1.5884 0.5959 0 3
8.0965 7.0157 1.1975 0.3185 0 3
9.3957 -9.3958 1.3744 0.7030 0 3
12.0177 -10.4134 1.6448 0.6511 0 3
13.9411 -10.4361 1.8013 0.5957 0 3
16.2064 -10.4153 1.9927 0.5374 0 3
16.8632 -9.2080 1.9874 0.4763 0 3
20.4303 -9.3302 2.3232 0.7087 0 3
25.2476 -9.4169 2.7873 0.3472 0 3
31.7261 -9.3156 3.4202 0.2798 0 3
40.9767 8.9139 4.3376 0.9718 0 3
30.0460 8.8223 3.2391 0.2807 0 3
19.4446 7.2524 2.1466 0.1032 0 3
15.0629 6.8790 1.7129 0.9046 0 3
15.6368 8.5384 1.8428 0.4771 0 3
13.3990 8.6110 1.6475 0.5381 0 3
11.3760 8.5159 1.4699 0.5964 0 3
7.9242 6.8664 1.0846 0.3257 0 3
9.3958 -9.3958 1.2638 0.7036 0 3
10.6497 -9.2280 1.3403 0.5080 0 3
13.9411 -10.4362 1.6563 0.5962 0 3
16.2065 -10.4153 1.8323 0.5378 0 3
17.6821 -9.6552 1.9161 0.8739 0 3
20.4303 -9.3302 2.1362 0.7093 0 3
25.2814 -9.4295 2.5663 0.3475 0 3
31.7262 -9.3157 3.1449 0.2800 0 3
40.9766 8.9139 3.9884 0.9726 0 3
30.3566 8.9135 3.0091 0.2809 0 3
23.9057 8.9163 2.4267 0.3483 0 3
15.0629 6.8790 1.5750 0.9053 0 3
15.7680 8.6100 1.7087 0.4775 0 3
13.3990 8.6110 1.5149 0.5386 0 3
11.3759 8.5159 1.3516 0.5969 0 3
7.7593 6.7235 0.9765 0.3329 0 3
9.3958 -9.3958 1.1533 0.7041 0 3
10.6232 -9.2051 1.2201 0.6521 0 3
12.3254 -9.2267 1.3363 0.4653 0 3
16.2065 -10.4153 1.6721 0.5382 0 3
17.6821 -9.6552 1.7486 0.8746 0 3
20.4303 -9.3302 1.9494 0.7098 0 3
25.2815 -9.4295 2.3420 0.3477 0 3
31.8414 -9.3496 2.8804 0.2927 0 3
40.9765 8.9139 3.6398 0.9734 0 3
30.3565 8.9135 2.7461 0.2811 0 3
23.9056 8.9163 2.2145 0.3486 0 3
15.0629 6.8790 1.4373 0.9060 0 3
15.7679 8.6100 1.5593 0.4778 0 3
13.3989 8.6110 1.3824 0.5390 0 3
11.3759 8.5159 1.2334 0.5974 0 3
7.6014 6.5867 0.8730 0.3401 0 3
9.3958 -9.3958 1.0430 0.7046 0 3
10.6232 -9.2051 1.1034 0.6525 0 3
12.2975 -9.2058 1.2058 0.5971 0 3
14.3624 -9.2302 1.3401 0.4199 0 3
17.6821 -9.6552 1.5814 0.8752 0 3
20.4303 -9.3302 1.7630 0.7103 0 3
25.2815 -9.4296 2.1180 0.3480 0 3
32.1243 -9.4326 2.6280 0.2804 0 3
41.0445 8.9287 3.2971 0.2123 0 3
23.4634 6.8895 1.9195 0.4929 0 3
23.4208 8.7355 1.9621 0.4822 0 3
15.0628 6.8790 1.2998 0.9066 0 3
15.7679 8.6099 1.4102 0.4782 0 3
13.3989 8.6110 1.2502 0.5394 0 3
11.3759 8.5159 1.1154 0.5978 0 3
7.5806 6.5687 0.7873 0.7531 0 3
9.3958 -9.3958 0.9328 0.7051 0 3
10.6232 -9.2051 0.9868 0.6529 0 3
12.2976 -9.2058 1.0784 0.5975 0 3
14.3259 -9.2067 1.1955 0.5389 0 3
17.6820 -9.6552 1.4143 0.8757 0 3
20.4303 -9.3302 1.5768 0.7107 0 3
25.2816 -9.4296 1.8943 0.3482 0 3
32.1244 -9.4326 2.3504 0.2806 0 3
41.0443 8.9287 2.9488 0.2125 0 3
25.2190 7.4050 1.8452 0.0703 0 3
23.0966 8.6146 1.7306 0.4893 0 3
15.0628 6.8789 1.1625 0.9072 0 3
15.7679 8.6099 1.2612 0.4785 0 3
13.3989 8.6110 1.1181 0.5397 0 3
11.3759 8.5158 0.9976 0.5982 0 3
7.8699 6.8193 0.7311 0.6536 0 3
9.1027 -9.1027 0.7971 0.7054 0 3
10.6233 -9.2051 0.8704 0.6533 0 3
12.2976 -9.2058 0.9512 0.5978 0 3
14.3260 -9.2068 1.0545 0.5392 0 3
16.8630 -9.2079 1.1897 0.4779 0 3
20.2415 -9.2440 1.3779 0.4142 0 3
25.2479 -9.4170 1.6686 0.3484 0 3
32.1245 -9.4327 2.0732 0.2808 0 3
41.0442 8.9287 2.6010 0.2126 0 3
28.5773 8.3911 1.8443 0.0621 0 3
22.7815 8.4971 1.5056 0.4963 0 3
15.0628 6.8789 1.0254 0.9077 0 3
15.7679 8.6099 1.1124 0.4787 0 3
13.3989 8.6109 0.9862 0.5400 0 3
11.3758 8.5158 0.8799 0.5985 0 3
7.8699 6.8193 0.6448 0.6539 0 3
9.1027 -9.1027 0.6906 0.7058 0 3
10.6233 -9.2051 0.7541 0.6536 0 3
12.2976 -9.2058 0.8241 0.5981 0 3
14.3260 -9.2068 0.9136 0.5395 0 3
16.8630 -9.2079 1.0307 0.4782 0 3
20.3877 -9.3108 1.2024 0.4144 0 3
24.9343 -9.3000 1.4277 0.1727 0 3
32.1246 -9.4327 1.7962 0.2809 0 3
33.1572 7.2129 1.8204 0.9756 0 3
30.3561 8.9134 1.6973 0.2818 0 3
22.4753 8.3828 1.2869 0.5033 0 3
15.0627 6.8789 0.8884 0.9081 0 3
15.7678 8.6099 0.9638 0.4790 0 3
13.3989 8.6109 0.8545 0.5402 0 3
11.3758 8.5158 0.7624 0.5988 0 3
7.8699 6.8193 0.5587 0.6543 0 3
9.1027 -9.1027 0.5842 0.7061 0 3
10.6233 -9.2051 0.6379 0.6539 0 3
12.2976 -9.2059 0.6971 0.5983 0 3
14.3260 -9.2068 0.7728 0.5397 0 3
16.8630 -9.2079 0.8719 0.4784 0 3
20.3878 -9.3108 1.0172 0.4146 0 3
24.9686 -9.3128 1.2094 0.3487 0 3
31.8582 -9.3545 1.5068 0.2462 0 3
33.1571 7.2129 1.5399 0.9760 0 3
30.2355 8.8780 1.4301 0.9584 0 3
22.1774 8.2718 1.0742 0.5103 0 3
15.0627 6.8789 0.7515 0.9085 0 3
15.7678 8.6099 0.8153 0.4791 0 3
13.3988 8.6109 0.7228 0.5405 0 3
11.3758 8.5158 0.6449 0.5990 0 3
7.8699 6.8193 0.4726 0.6545 0 3
9.1027 -9.1028 0.4779 0.7063 0 3
10.6233 -9.2051 0.5218 0.6541 0 3
12.3019 -9.2090 0.5705 0.5993 0 3
14.3260 -9.2068 0.6322 0.5399 0 3
16.8631 -9.2079 0.7132 0.4785 0 3
19.7456 -9.0175 0.8058 0.4147 0 3
24.9687 -9.3129 0.9893 0.3488 0 3
31.7269 -9.3159 1.2275 0.2811 0 3
33.1571 7.2129 1.2597 0.9764 0 3
30.2355 8.8779 1.1698 0.9587 0 3
21.8679 8.1563 0.8664 0.4827 0 3
15.0627 6.8789 0.6147 0.9088 0 3
15.7678 8.6098 0.6669 0.4793 0 3
10.6177 6.8236 0.4685 0.5406 0 3
11.3758 8.5158 0.5275 0.5992 0 3
7.8699 6.8193 0.3866 0.6547 0 3
9.1028 -9.1028 0.3716 0.7065 0 3
10.6233 -9.2051 0.4058 0.6542 0 3
12.3031 -9.2100 0.4437 0.6512 0 3
14.3261 -9.2068 0.4916 0.5400 0 3
16.8631 -9.2079 0.5546 0.4787 0 3
19.7457 -9.0176 0.6266 0.4148 0 3
24.1823 -9.0195 0.7451 0.3489 0 3
31.7270 -9.3159 0.9545 0.2812 0 3
33.1570 7.2129 0.9796 0.9766 0 3
30.2354 8.8779 0.9097 0.9590 0 3
21.5601 8.0415 0.6643 0.4898 0 3
14.9373 6.8216 0.4740 0.4156 0 3
12.5272 6.8404 0.4120 0.0291 0 3
13.3988 8.6109 0.4598 0.5408 0 3
11.3758 8.5158 0.4102 0.5994 0 3
7.8698 6.8192 0.3006 0.6549 0 3
9.3959 -9.3959 0.2740 0.7066 0 3
10.6233 -9.2052 0.2898 0.6544 0 3
12.3031 -9.2100 0.3169 0.6513 0 3
14.3261 -9.2068 0.3511 0.5401 0 3
16.8631 -9.2079 0.3961 0.4788 0 3
20.3879 -9.3108 0.4621 0.4149 0 3
24.1823 -9.0196 0.5321 0.3490 0 3
30.7278 -9.0225 0.6603 0.2812 0 3
47.1039 3.3689 0.9736 0.7704 154 7
33.1569 7.2129 0.6996 0.9768 0 3
30.2353 8.8779 0.6497 0.9592 0 3
18.3569 6.8468 0.4039 0.9366 0 3
15.0626 6.8789 0.3414 0.9092 0 3
15.7677 8.6098 0.3704 0.4795 0 3
13.3988 8.6109 0.3284 0.5409 0 3
11.5039 8.6117 0.2963 0.5995 0 3
7.8698 6.8192 0.2147 0.6551 0 3
9.3959 -9.3959 0.1644 0.7067 0 3
10.6233 -9.2052 0.1739 0.6545 0 3
12.3031 -9.2100 0.1901 0.6514 0 3
14.3261 -9.2068 0.2106 0.5402 0 3
16.8631 -9.2080 0.2376 0.4788 0 3
20.3879 -9.3109 0.2772 0.4150 0 3
24.9688 -9.3129 0.3296 0.3490 0 3
31.7272 -9.3160 0.4090 0.2813 0 3
47.1088 3.3693 0.5842 0.9973 154 7
33.1569 7.2128 0.4197 0.9770 0 3
30.2353 8.8779 0.3898 0.9593 0 3
18.3569 6.8468 0.2423 0.9367 0 3
15.0626 6.8788 0.2048 0.9094 0 3
15.7677 8.6098 0.2222 0.4796 0 3
13.3987 8.6109 0.1970 0.5410 0 3
11.5039 8.6117 0.1777 0.5996 0 3
7.8698 6.8192 0.1288 0.6552 0 3
9.3959 -9.3959 0.0548 0.7068 0 3
10.6233 -9.2052 0.0580 0.6545 0 3
12.3032 -9.2100 0.0634 0.6514 0 3
14.3261 -9.2068 0.0702 0.5403 0 3
16.8632 -9.2080 0.0792 0.4788 0 3
20.3880 -9.3109 0.0924 0.4150 0 3
24.9689 -9.3129 0.1099 0.3490 0 3
31.7273 -9.3160 0.1363 0.2813 0 3
32.7463 7.1235 0.1382 0.2130 0 3
24.3584 7.1523 0.1047 0.2822 0 3
18.3569 6.8468 0.0808 0.9368 0 3
15.0625 6.8788 0.0683 0.9094 0 3
15.7676 8.6098 0.0741 0.4796 0 3
13.3987 8.6109 0.0657 0.5410 0 3
9.2232 6.9044 0.0475 0.5503 0 3
7.8698 6.8192 0.0429 0.6552 0 3
9.3959 -9.3959 -0.0548 0.7068 0 3
10.6233 -9.2052 -0.0580 0.6545 0 3
12.3032 -9.2100 -0.0634 0.6514 0 3
14.3261 -9.2069 -0.0702 0.5403 0 3
16.8632 -9.2080 -0.0792 0.4788 0 3
20.3880 -9.3109 -0.0924 0.4150 0 3
24.9690 -9.3130 -0.1099 0.3490 0 3
31.7274 -9.3160 -0.1363 0.2813 0 3
32.8729 7.1511 -0.1387 0.9770 0 3
24.3583 7.1522 -0.1047 0.2822 0 3
18.3568 6.8467 -0.0808 0.9368 0 3
15.0625 6.8788 -0.0683 0.9094 0 3
15.7676 8.6098 -0.0741 0.4796 0 3
13.3987 8.6108 -0.0657 0.5410 0 3
9.1244 6.8304 -0.0470 0.5562 0 3
7.8698 6.8192 -0.0429 0.6552 0 3
9.3959 -9.3959 -0.1644 0.7067 0 3
10.6234 -9.2052 -0.1739 0.6545 0 3
12.3032 -9.2100 -0.1901 0.6514 0 3
14.3262 -9.2069 -0.2106 0.5402 0 3
16.8633 -9.2080 -0.2377 0.4788 0 3
20.3881 -9.3109 -0.2772 0.4150 0 3
24.9690 -9.3130 -0.3296 0.3490 0 3
31.7275 -9.3161 -0.4090 0.2813 0 3
32.8729 7.1510 -0.4161 0.9770 0 3
24.3583 7.1522 -0.3140 0.2821 0 3
18.3568 6.8467 -0.2423 0.9367 0 3
15.0625 6.8788 -0.2048 0.9094 0 3
15.7676 8.6098 -0.2222 0.4796 0 3
13.3987 8.6108 -0.1970 0.5410 0 3
9.1206 6.8276 -0.1409 0.5996 0 3
7.8698 6.8192 -0.1288 0.6552 0 3
9.3959 -9.3959 -0.2740 0.7066 0 3
10.6234 -9.2052 -0.2898 0.6544 0 3
12.3032 -9.2100 -0.3169 0.6513 0 3
14.3262 -9.2069 -0.3511 0.5401 0 3
16.8633 -9.2081 -0.3961 0.4787 0 3
20.3881 -9.3110 -0.4621 0.4149 0 3
24.9691 -9.3130 -0.5494 0.3490 0 3
31.7276 -9.3161 -0.6818 0.2812 0 3
32.5624 0.0000 -0.6713 0.7494 261 13
33.1566 7.2128 -0.6996 0.9768 0 3
24.3582 7.1522 -0.5233 0.2821 0 3
18.2023 6.7891 -0.4005 0.3498 0 3
14.9371 6.8215 -0.3386 0.4157 0 3
12.4947 6.8226 -0.2935 0.4795 0 3
10.7670 6.9196 -0.2639 0.0203 0 3
9.1747 6.8680 -0.2363 0.8001 0 3
7.8698 6.8192 -0.2147 0.6551 0 3
9.3959 -9.3959 -0.3836 0.7065 0 3
10.6234 -9.2053 -0.4058 0.6542 0 3
12.3032 -9.2101 -0.4437 0.6512 0 3
14.3262 -9.2069 -0.4916 0.5400 0 3
16.8633 -9.2081 -0.5547 0.4787 0 3
20.3881 -9.3110 -0.6470 0.4148 0 3
24.9692 -9.3130 -0.7693 0.3489 0 3
31.7277 -9.3161 -0.9546 0.2812 0 3
32.3787 -0.0000 -0.9347 0.3402 261 13
32.6037 7.0925 -0.9632 0.2129 0 3
24.1679 7.0964 -0.7271 0.2821 0 3
18.2022 6.7891 -0.5608 0.3497 0 3
14.8693 6.7906 -0.4719 0.4157 0 3
12.4381 6.7917 -0.4091 0.4794 0 3
10.6175 6.8235 -0.3643 0.5408 0 3
9.1746 6.8680 -0.3308 0.7999 0 3
7.8698 6.8192 -0.3006 0.6549 0 3
9.3960 -9.3960 -0.4933 0.7063 0 3
10.6234 -9.2053 -0.5218 0.6541 0 3
12.3032 -9.2101 -0.5705 0.6510 0 3
14.3262 -9.2069 -0.6322 0.5399 0 3
16.8633 -9.2081 -0.7133 0.4785 0 3
20.3882 -9.3110 -0.8320 0.4147 0 3
24.9693 -9.3131 -0.9893 0.3488 0 3
31.7278 -9.3162 -1.2275 0.2811 0 3
45.6609 -9.9329 -1.7347 0.0369 0 2
45.7798 -6.5821 -1.7169 0.0369 0 2
48.9338 -3.4998 -1.8212 0.0369 0 1
31.9976 -0.0000 -1.1878 0.9605 261 18
46.1607 3.3015 -1.7180 0.0368 0 2
45.8146 6.5871 -1.7182 0.0368 0 2
32.6036 7.0925 -1.2386 0.2129 0 3
24.1679 7.0963 -0.9350 0.2820 0 3
18.2022 6.7891 -0.7212 0.3497 0 3
14.8693 6.7906 -0.6068 0.4155 0 3
12.4380 6.7917 -0.5261 0.4793 0 3
10.5694 6.7925 -0.4664 0.5407 0 3
9.1746 6.8680 -0.4254 0.7997 0 3
7.8698 6.8192 -0.3866 0.6548 0 3
9.3960 -9.3960 -0.6030 0.7061 0 3
10.6234 -9.2053 -0.6379 0.6538 0 3
12.3032 -9.2101 -0.6975 0.6508 0 3
14.3263 -9.2070 -0.7728 0.5397 0 3
16.8634 -9.2081 -0.8720 0.4784 0 3
20.3883 -9.3110 -1.0172 0.4146 0 3
24.9693 -9.3131 -1.2094 0.3487 0 3
31.7279 -9.3162 -1.5007 0.2810 0 3
36.9183 -8.0311 -1.7146 0.0451 0 2
37.4062 -5.3782 -1.7150 0.0451 0 2
39.9803 -2.8595 -1.8190 0.0451 0 1
32.2644 0.0000 -1.4642 0.9135 261 13
38.6557 2.7647 -1.7588 0.0807 0 2
37.4279 5.3813 -1.7160 0.0451 0 2
14.7359 3.2056 -0.6844 0.1092 0 20
24.1678 7.0963 -1.1431 0.2819 0 3
18.2021 6.7890 -0.8816 0.3495 0 3
14.8692 6.7906 -0.7418 0.4154 0 3
12.4380 6.7917 -0.6431 0.4792 0 3
10.5694 6.7925 -0.5702 0.5405 0 3
9.1746 6.8680 -0.5201 0.7995 0 3
7.8698 6.8192 -0.4725 0.6545 0 3
9.3960 -9.3960 -0.7129 0.7058 0 3
10.6234 -9.2053 -0.7541 0.6536 0 3
12.3032 -9.2101 -0.8245 0.6505 0 3
14.3280 -9.2080 -0.9137 0.5414 0 3
16.8634 -9.2081 -1.0308 0.4782 0 3
20.3883 -9.3111 -1.2025 0.4144 0 3
24.9694 -9.3131 -1.4297 0.3485 0 3
30.6362 -8.9956 -1.7130 0.0534 0 2
31.2067 -6.7886 -1.7133 0.0534 0 2
33.5281 -4.8206 -1.8172 0.0533 0 1
33.7926 -2.4169 -1.8175 0.0533 0 1
33.8842 0.0000 -1.8178 0.0533 0 1
33.8022 2.4176 -1.8181 0.0533 0 1
31.6330 4.5481 -1.7145 0.0533 0 2
14.3468 3.1209 -0.7877 0.9757 0 20
22.8179 6.6999 -1.2758 0.7773 0 21
18.2021 6.7890 -1.0422 0.3494 0 3
14.8692 6.7905 -0.8770 0.4152 0 3
12.4380 6.7916 -0.7603 0.4790 0 3
10.5693 6.7925 -0.6740 0.5402 0 3
9.1746 6.8680 -0.6148 0.7991 0 3
7.8697 6.8192 -0.5586 0.6543 0 3
9.3960 -9.3960 -0.8228 0.7054 0 3
10.6235 -9.2053 -0.8704 0.6533 0 3
12.2978 -9.2060 -0.9512 0.5978 0 3
14.3263 -9.2070 -1.0545 0.5392 0 3
16.8634 -9.2081 -1.1897 0.4779 0 3
20.3883 -9.3111 -1.3879 0.4142 0 3
24.9694 -9.3131 -1.6502 0.3484 0 3
26.5291 -7.7897 -1.7121 0.0616 0 2
27.0223 -5.8784 -1.7124 0.0616 0 2
29.0316 -4.1741 -1.8162 0.0616 0 1
29.2600 -2.0927 -1.8164 0.0616 0 1
29.3387 0.0000 -1.8167 0.0616 0 1
29.2673 2.0932 -1.8169 0.0615 0 1
27.3885 3.9379 -1.7134 0.0615 0 2
14.3467 3.1209 -0.9091 0.9752 0 20
22.8178 6.6999 -1.4726 0.7769 0 21
18.2021 6.7890 -1.2029 0.3492 0 3
14.8692 6.7905 -1.0122 0.4150 0 3
12.4380 6.7916 -0.8775 0.4787 0 3
10.5693 6.7925 -0.7780 0.5400 0 3
9.1745 6.8680 -0.7096 0.7988 0 3
7.8697 6.8192 -0.6448 0.6540 0 3
9.3960 -9.3960 -0.9329 0.7050 0 3
10.6235 -9.2053 -0.9868 0.6529 0 3
12.2979 -9.2060 -1.0785 0.5974 0 3
14.3263 -9.2070 -1.1955 0.5389 0 3
16.8635 -9.2081 -1.3489 0.4777 0 3
20.3884 -9.3111 -1.5735 0.4140 0 3
22.8365 -8.5176 -1.7111 0.0698 0 2
23.3902 -6.8680 -1.7114 0.0698 0 2
24.2749 -5.2807 -1.7440 0.2219 0 2
25.5956 -3.6801 -1.8154 0.0698 0 1
25.7964 -1.8450 -1.8156 0.0698 0 1
25.8653 0.0000 -1.8158 0.0698 0 1
25.8020 1.8454 -1.8160 0.0698 0 1
24.1455 3.4716 -1.7125 0.0698 0 2
14.2970 3.1101 -1.0272 0.9519 0 20
22.8178 6.6999 -1.6695 0.7765 0 21
18.2020 6.7890 -1.3638 0.3490 0 3
14.8692 6.7905 -1.1476 0.4148 0 3
12.4379 6.7916 -0.9949 0.4785 0 3
10.5693 6.7925 -0.8820 0.5397 0 3
9.1745 6.8679 -0.8046 0.7983 0 3
7.8697 6.8192 -0.7310 0.6536 0 3
9.3960 -9.3960 -1.0430 0.7046 0 3
10.6235 -9.2053 -1.1034 0.6525 0 3
12.2979 -9.2061 -1.2058 0.5971 0 3
14.3263 -9.2070 -1.3367 0.5386 0 3
16.8635 -9.2082 -1.5082 0.4774 0 3
19.8194 -9.0512 -1.7103 0.0781 0 2
20.4182 -7.6156 -1.7106 0.0781 0 2
20.9129 -6.1406 -1.7108 0.0780 0 2
22.5879 -4.9137 -1.8145 0.0780 0 1
22.8840 -3.2902 -1.8147 0.0780 0 1
23.0632 -1.6495 -1.8150 0.0780 0 1
23.1245 0.0000 -1.8151 0.0780 0 1
23.0677 1.6499 -1.8153 0.0780 0 1
21.5865 3.1037 -1.7118 0.0780 0 2
14.2964 3.1100 -1.1484 0.9741 0 20
20.9271 6.1447 -1.7120 0.0780 0 2
18.2019 6.7889 -1.5249 0.3488 0 3
14.8692 6.7905 -1.2831 0.4146 0 3
12.4379 6.7916 -1.1124 0.4782 0 3
10.5693 6.7925 -0.9862 0.5394 0 3
9.1401 6.8422 -0.8962 0.7967 0 3
7.8697 6.8191 -0.8174 0.6532 0 3
9.3960 -9.3961 -1.1533 0.7041 0 3
10.6235 -9.2053 -1.2201 0.6521 0 3
12.2979 -9.2061 -1.3334 0.5967 0 3
14.3264 -9.2070 -1.4781 0.5382 0 3
16.8635 -9.2082 -1.6677 0.4770 0 3
17.9197 -8.1837 -1.7099 0.0863 0 2
18.4608 -6.8855 -1.7102 0.0863 0 2
18.9078 -5.5518 -1.7104 0.0863 0 2
20.4218 -4.4425 -1.8140 0.0863 0 1
20.6893 -2.9747 -1.8142 0.0862 0 1
20.8511 -1.4913 -1.8144 0.0862 0 1
20.9063 0.0000 -1.8146 0.0862 0 1
20.8547 1.4916 -1.8147 0.0862 0 1
19.5155 2.8059 -1.7113 0.0862 0 2
14.2963 3.1100 -1.2699 0.9734 0 20
10.7796 3.1652 -0.9751 0.5776 0 20
18.2019 6.7889 -1.6862 0.3486 0 3
14.8691 6.7905 -1.4188 0.4143 0 3
12.4379 6.7916 -1.2300 0.4779 0 3
10.5693 6.7925 -1.0905 0.5390 0 3
9.1401 6.8422 -0.9910 0.7961 0 3
7.8697 6.8191 -0.9038 0.6528 0 3
9.3960 -9.3961 -1.2638 0.7036 0 3
10.6235 -9.2053 -1.3370 0.6516 0 3
12.2979 -9.2061 -1.4611 0.5962 0 3
14.3264 -9.2070 -1.6197 0.5378 0 3
15.7735 -8.6130 -1.7093 0.0945 0 2
13.1801 -6.0192 -1.3781 0.5243 0 6
16.8438 -6.2824 -1.7098 0.0945 0 2
17.9606 -5.2737 -1.7804 0.2800 0 2
18.6325 -4.0533 -1.8136 0.0945 0 1
18.8763 -2.7140 -1.8138 0.0945 0 1
19.0238 -1.3606 -1.8140 0.0944 0 1
19.0740 0.0000 -1.8141 0.0944 0 1
19.0268 1.3608 -1.8143 0.0944 0 1
18.8825 2.7149 -1.8144 0.0944 0 1
14.2963 3.1100 -1.3915 0.9727 0 20
10.7326 3.1514 -1.0639 0.8233 0 20
16.8555 6.2868 -1.7110 0.0944 0 2
14.8691 6.7904 -1.5547 0.4140 0 3
12.4379 6.7916 -1.3478 0.4775 0 3
10.5693 6.7924 -1.1949 0.5386 0 3
9.1401 6.8422 -1.0859 0.7955 0 3
7.8697 6.8191 -0.9904 0.6523 0 3
9.3960 -9.3961 -1.3745 0.7030 0 3
10.6235 -9.2053 -1.4540 0.6510 0 3
12.2979 -9.2061 -1.5890 0.5957 0 3
13.8977 -8.9315 -1.7088 0.1027 0 2
14.5016 -7.9185 -1.7091 0.1027 0 2
13.1605 -6.0102 -1.4965 0.8095 0 6
15.4852 -5.7757 -1.7095 0.1027 0 2
16.8180 -4.9382 -1.8130 0.1027 0 1
17.1294 -3.7263 -1.8133 0.1027 0 1
17.3534 -2.4950 -1.8134 0.1027 0 1
17.4887 -1.2508 -1.8136 0.1026 0 1
17.5348 0.0000 -1.8138 0.1026 0 1
17.4913 1.2510 -1.8139 0.1026 0 1
17.3585 2.4958 -1.8140 0.1026 0 1
14.2963 3.1100 -1.5134 0.9719 0 20
10.7225 3.1484 -1.1559 0.8209 0 20
15.4950 5.7793 -1.7106 0.1026 0 2
14.8690 6.7904 -1.6908 0.4136 0 3
12.4379 6.7916 -1.4658 0.4771 0 3
10.5692 6.7924 -1.2996 0.5382 0 3
9.0789 6.7963 -1.1731 0.5984 0 3
7.8697 6.8191 -1.0771 0.6517 0 3
9.3961 -9.3961 -1.4853 0.7024 0 3
10.6235 -9.2054 -1.5713 0.6505 0 3
12.2351 -9.1591 -1.7084 0.1110 0 2
12.8592 -8.2641 -1.7086 0.1109 0 2
13.4179 -7.3267 -1.7089 0.1109 0 2
13.1460 -6.0036 -1.6154 0.9733 0 6
14.3277 -5.3439 -1.7093 0.1109 0 2
15.5607 -4.5690 -1.8128 0.1109 0 1
15.8486 -3.4477 -1.8130 0.1109 0 1
16.0557 -2.3085 -1.8131 0.1109 0 1
16.1809 -1.1573 -1.8133 0.1108 0 1
16.2234 0.0000 -1.8134 0.1108 0 1
16.1831 1.1574 -1.8135 0.1108 0 1
16.0601 2.3091 -1.8136 0.1108 0 1
14.2962 3.1100 -1.6354 0.9710 0 20
10.6062 3.1143 -1.2356 0.5549 0 20
14.3359 5.3470 -1.7103 0.1108 0 2
13.9180 6.3561 -1.7103 0.1108 0 2
12.4378 6.7916 -1.5840 0.4767 0 3
10.5692 6.7924 -1.4043 0.5377 0 3
9.0789 6.7963 -1.2677 0.5979 0 3
7.8697 6.8191 -1.1639 0.6512 0 3
9.3961 -9.3961 -1.5964 0.7017 0 3
10.6235 -9.2054 -1.6887 0.6498 0 3
11.3830 -8.5212 -1.7082 0.1191 0 2
11.9636 -7.6886 -1.7085 0.1191 0 2
12.4832 -6.8164 -1.7087 0.1191 0 2
12.9393 -5.9092 -1.7089 0.1191 0 2
14.1347 -5.2720 -1.8123 0.1191 0 1
14.4764 -4.2507 -1.8125 0.1191 0 1
14.7442 -3.2074 -1.8127 0.1191 0 1
14.9368 -2.1476 -1.8129 0.1190 0 1
15.0531 -1.0766 -1.8130 0.1190 0 1
15.0926 0.0000 -1.8131 0.1190 0 1
15.0550 1.0768 -1.8133 0.1190 0 1
14.9405 2.1481 -1.8133 0.1190 0 1
13.8304 3.0086 -1.7004 0.1190 0 20
10.7225 3.1484 -1.3425 0.8195 0 20
13.3365 4.9743 -1.7100 0.1190 0 2
12.9477 5.9130 -1.7100 0.1190 0 2
12.4378 6.7916 -1.7025 0.4762 0 3
10.5692 6.7924 -1.5093 0.5372 0 3
9.0789 6.7963 -1.3624 0.5973 0 3
7.8696 6.8191 -1.2510 0.6505 0 3
9.3961 -9.3961 -1.7076 0.7010 0 3
10.0439 -8.7031 -1.7079 0.1273 0 2
10.6406 -7.9654 -1.7081 0.1273 0 2
11.1831 -7.1870 -1.7083 0.1273 0 2
11.6688 -6.3717 -1.7085 0.1273 0 2
12.0950 -5.5236 -1.7087 0.1273 0 2
13.2124 -4.9279 -1.8122 0.1273 0 1
13.5316 -3.9732 -1.8123 0.1273 0 1
13.7818 -2.9981 -1.8125 0.1272 0 1
13.9618 -2.0074 -1.8127 0.1272 0 1
14.0704 -1.0063 -1.8128 0.1272 0 1
14.1073 0.0000 -1.8129 0.1272 0 1
14.0721 1.0065 -1.8130 0.1272 0 1
13.9651 2.0079 -1.8131 0.1272 0 1
13.0000 2.8280 -1.7097 0.1272 0 2
10.7225 3.1484 -1.4361 0.8186 0 20
12.4657 4.6495 -1.7097 0.1272 0 2
12.1023 5.5269 -1.7097 0.1272 0 2
11.6770 6.3761 -1.7097 0.1272 0 2
10.5692 6.7924 -1.6145 0.5366 0 3
9.0788 6.7963 -1.4574 0.5967 0 3
7.8696 6.8191 -1.3382 0.6499 0 3
8.8198 -8.8198 -1.7076 0.1355 0 2
9.4277 -8.1692 -1.7078 0.1355 0 2
9.9878 -7.4768 -1.7080 0.1355 0 2
10.4969 -6.7460 -1.7082 0.1355 0 2
10.9527 -5.9806 -1.7084 0.1355 0 2
11.5517 -5.2755 -1.7385 0.4311 0 2
12.4014 -4.6255 -1.8120 0.1354 0 1
12.7009 -3.7294 -1.8122 0.1354 0 1
12.9358 -2.8140 -1.8123 0.1354 0 1
13.1046 -1.8842 -1.8125 0.1354 0 1
13.2065 -0.9446 -1.8126 0.1354 0 1
13.2410 0.0000 -1.8127 0.1354 0 1
13.2080 0.9447 -1.8128 0.1354 0 1
13.1075 1.8846 -1.8129 0.1354 0 1
12.7543 2.7746 -1.7869 0.2111 0 2
10.7224 3.1484 -1.5299 0.8177 0 20
11.7001 4.3639 -1.7095 0.1354 0 2
11.3590 5.1875 -1.7095 0.1354 0 2
10.9599 5.9846 -1.7095 0.1354 0 2
10.5048 6.7511 -1.7095 0.1354 0 2
9.0787 6.7962 -1.5525 0.5953 0 3
7.8696 6.8191 -1.4255 0.6492 0 3
8.3090 -8.3090 -1.7075 0.1437 0 2
8.8817 -7.6960 -1.7077 0.1437 0 2
9.4092 -7.0436 -1.7079 0.1437 0 2
9.8888 -6.3552 -1.7081 0.1436 0 2
10.3181 -5.6341 -1.7083 0.1436 0 2
11.3410 -5.1792 -1.8117 0.1436 0 1
11.6827 -4.3574 -1.8118 0.1436 0 1
11.9648 -3.5132 -1.8120 0.1436 0 1
12.1860 -2.6509 -1.8121 0.1436 0 1
12.3449 -1.7749 -1.8123 0.1436 0 1
12.4409 -0.8898 -1.8124 0.1436 0 1
12.4734 0.0000 -1.8125 0.1436 0 1
12.4422 0.8899 -1.8126 0.1435 0 1
12.3475 1.7753 -1.8127 0.1435 0 1
12.1898 2.6517 -1.8127 0.1435 0 1
10.7224 3.1484 -1.6238 0.8167 0 20
11.0217 4.1109 -1.7093 0.1435 0 2
10.7004 4.8867 -1.7093 0.1435 0 2
10.3244 5.6376 -1.7093 0.1435 0 2
9.8957 6.3596 -1.7093 0.1435 0 2
9.0787 6.7962 -1.6479 0.5946 0 3
7.8696 6.8190 -1.5131 0.6484 0 3
7.8531 -7.8531 -1.7074 0.1519 0 2
8.3943 -7.2737 -1.7076 0.1518 0 2
8.8928 -6.6571 -1.7078 0.1518 0 2
9.3460 -6.0063 -1.7080 0.1518 0 2
9.7517 -5.3248 -1.7082 0.1518 0 2
10.7184 -4.8949 -1.8115 0.1518 0 1
11.0413 -4.1182 -1.8117 0.1518 0 1
11.3079 -3.3203 -1.8118 0.1517 0 1
11.5168 -2.5053 -1.8120 0.1517 0 1
11.6670 -1.6775 -1.8121 0.1517 0 1
11.7577 -0.8409 -1.8122 0.1517 0 1
11.7883 0.0000 -1.8123 0.1517 0 1
11.7588 0.8410 -1.8124 0.1517 0 1
11.6693 1.6778 -1.8125 0.1517 0 1
11.5202 2.5061 -1.8125 0.1517 0 1
10.6668 3.1321 -1.7091 0.1517 0 2
10.4163 3.8851 -1.7091 0.1517 0 2
10.1126 4.6182 -1.7092 0.1517 0 2
9.7573 5.3279 -1.7091 0.1517 0 2
9.3522 6.0103 -1.7091 0.1517 0 2
8.8994 6.6620 -1.7091 0.1517 0 2
7.8696 6.8190 -1.6009 0.6476 0 3
7.4436 -7.4436 -1.7074 0.1600 0 2
7.9565 -6.8944 -1.7075 0.1600 0 2
8.4290 -6.3099 -1.7077 0.1600 0 2
8.8586 -5.6931 -1.7079 0.1599 0 2
9.6512 -5.2700 -1.7835 0.4727 0 2
10.1592 -4.6396 -1.8114 0.1599 0 1
10.4652 -3.9033 -1.8116 0.1599 0 1
10.7179 -3.1471 -1.8117 0.1599 0 1
10.9159 -2.3746 -1.8119 0.1599 0 1
11.0582 -1.5899 -1.8120 0.1599 0 1
11.1441 -0.7971 -1.8121 0.1599 0 1
11.1731 0.0000 -1.8122 0.1599 0 1
11.1451 0.7971 -1.8122 0.1598 0 1
11.0602 1.5902 -1.8123 0.1598 0 1
10.9189 2.3753 -1.8124 0.1598 0 1
10.1713 2.9866 -1.7193 0.3102 0 2
9.8726 3.6823 -1.7090 0.1598 0 2
9.5848 4.3772 -1.7090 0.1598 0 2
9.2480 5.0498 -1.7090 0.1598 0 2
8.8640 5.6966 -1.7090 0.1598 0 2
8.4349 6.3143 -1.7089 0.1598 0 2
7.8696 6.8190 -1.6889 0.6468 0 3
7.0738 -7.0738 -1.7073 0.1681 0 2
7.5612 -6.5518 -1.7075 0.1681 0 2
8.0101 -5.9963 -1.7077 0.1681 0 2
8.4183 -5.4101 -1.7078 0.1681 0 2
9.3143 -5.0860 -1.8112 0.1681 0 1
9.6542 -4.4089 -1.8113 0.1681 0 1
9.9450 -3.7093 -1.8115 0.1680 0 1
10.1850 -2.9906 -1.8116 0.1680 0 1
10.3732 -2.2565 -1.8117 0.1680 0 1
10.5083 -1.5109 -1.8118 0.1680 0 1
10.5900 -0.7574 -1.8119 0.1680 0 1
10.6175 0.0000 -1.8120 0.1680 0 1
10.5909 0.7575 -1.8121 0.1680 0 1
10.5102 1.5112 -1.8122 0.1680 0 1
10.3759 2.2571 -1.8122 0.1680 0 1
9.6072 2.8209 -1.7088 0.1680 0 2
9.3816 3.4991 -1.7088 0.1680 0 2
9.1081 4.1595 -1.7089 0.1680 0 2
8.7881 4.7987 -1.7088 0.1680 0 2
8.4232 5.4133 -1.7088 0.1680 0 2
8.0154 6.0003 -1.7088 0.1680 0 2
7.5667 6.5566 -1.7087 0.1680 0 2
6.7381 -6.7381 -1.7073 0.1763 0 2
7.2023 -6.2409 -1.7074 0.1762 0 2
7.6299 -5.7117 -1.7076 0.1762 0 2
8.2031 -5.2718 -1.7470 0.5578 0 2
8.8721 -4.8445 -1.8111 0.1762 0 1
9.1959 -4.1996 -1.8112 0.1762 0 1
9.4728 -3.5331 -1.8114 0.1762 0 1
9.7014 -2.8486 -1.8115 0.1761 0 1
9.8805 -2.1494 -1.8116 0.1761 0 1
10.0093 -1.4391 -1.8117 0.1761 0 1
10.0870 -0.7214 -1.8118 0.1761 0 1
10.1132 0.0000 -1.8119 0.1761 0 1
10.0878 0.7215 -1.8120 0.1761 0 1
10.0110 1.4394 -1.8120 0.1761 0 1
9.8830 2.1499 -1.8121 0.1761 0 1
9.4543 2.7761 -1.7654 0.2778 0 2
8.9359 3.3329 -1.7087 0.1761 0 2
8.6754 3.9619 -1.7087 0.1761 0 2
8.3706 4.5707 -1.7087 0.1761 0 2
8.0231 5.1562 -1.7087 0.1761 0 2
7.6347 5.7153 -1.7087 0.1761 0 2
7.2073 6.2452 -1.7086 0.1761 0 2
6.4319 -6.4320 -1.7072 0.1844 0 2
6.8750 -5.9573 -1.7074 0.1843 0 2
7.2953 -5.4612 -1.7104 0.6153 0 2
8.1167 -5.2163 -1.8109 0.1843 0 1
8.4689 -4.6244 -1.8110 0.1843 0 1
8.7779 -4.0087 -1.8111 0.1843 0 1
9.0421 -3.3725 -1.8113 0.1843 0 1
9.2603 -2.7191 -1.8114 0.1843 0 1
9.4313 -2.0517 -1.8115 0.1842 0 1
9.5542 -1.3737 -1.8116 0.1842 0 1
9.6283 -0.6886 -1.8117 0.1842 0 1
9.6533 0.0000 -1.8118 0.1842 0 1
9.6291 0.6887 -1.8119 0.1842 0 1
9.5557 1.3739 -1.8119 0.1842 0 1
9.4336 2.0522 -1.8120 0.1842 0 1
9.2633 2.7200 -1.8120 0.1842 0 1
8.5296 3.1814 -1.7086 0.1842 0 2
8.2809 3.7818 -1.7086 0.1842 0 2
7.9900 4.3629 -1.7086 0.1842 0 2
7.6583 4.9217 -1.7086 0.1842 0 2
7.2875 5.4554 -1.7085 0.1842 0 2
6.8796 5.9612 -1.7085 0.1842 0 2
6.1516 -6.1516 -1.7072 0.1925 0 2
6.5753 -5.6976 -1.7073 0.1924 0 2
7.0475 -5.2757 -1.7275 0.6159 0 2
7.7628 -4.9888 -1.8108 0.1924 0 1
8.0996 -4.4227 -1.8109 0.1924 0 1
8.3951 -3.8339 -1.8111 0.1924 0 1
8.6478 -3.2255 -1.8112 0.1924 0 1
8.8564 -2.6005 -1.8113 0.1924 0 1
9.0199 -1.9622 -1.8114 0.1923 0 1
9.1374 -1.3138 -1.8115 0.1923 0 1
9.2083 -0.6586 -1.8116 0.1923 0 1
9.2322 0.0000 -1.8117 0.1923 0 1
9.2090 0.6586 -1.8118 0.1923 0 1
9.1389 1.3140 -1.8118 0.1923 0 1
9.0220 1.9626 -1.8118 0.1923 0 1
8.8592 2.6013 -1.8119 0.1923 0 1
8.1574 3.0426 -1.7085 0.1923 0 2
7.9196 3.6168 -1.7085 0.1923 0 2
7.6414 4.1725 -1.7085 0.1923 0 2
7.3241 4.7070 -1.7085 0.1923 0 2
6.9696 5.2173 -1.7084 0.1923 0 2
6.5794 5.7011 -1.7084 0.1923 0 2
5.8938 -5.8938 -1.7071 0.2005 0 2
6.3026 -5.4612 -1.7080 0.6702 0 2
7.0383 -5.2688 -1.8007 0.5867 0 2
7.4375 -4.7798 -1.8107 0.2005 0 1
7.7601 -4.2373 -1.8109 0.2005 0 1
8.0432 -3.6732 -1.8110 0.2005 0 1
8.2853 -3.0903 -1.8111 0.2005 0 1
8.4852 -2.4915 -1.8112 0.2004 0 1
8.6418 -1.8799 -1.8113 0.2004 0 1
8.7543 -1.2587 -1.8114 0.2004 0 1
8.8222 -0.6310 -1.8115 0.2004 0 1
8.8451 0.0000 -1.8116 0.2004 0 1
8.8229 0.6310 -1.8117 0.2004 0 1
8.7556 1.2589 -1.8117 0.2004 0 1
8.6437 1.8803 -1.8117 0.2004 0 1
8.4877 2.4922 -1.8118 0.2004 0 1
7.8154 2.9150 -1.7084 0.2004 0 2
7.5875 3.4651 -1.7084 0.2004 0 2
7.3209 3.9975 -1.7084 0.2004 0 2
7.0170 4.5096 -1.7084 0.2004 0 2
6.6773 4.9986 -1.7083 0.2004 0 2
6.3035 5.4621 -1.7083 0.2004 0 2
5.6560 -5.6561 -1.7071 0.2086 0 2
6.0900 -5.2770 -1.7198 0.6706 0 2
6.7914 -5.0840 -1.8105 0.2086 0 1
7.1373 -4.5869 -1.8107 0.2086 0 1
7.4469 -4.0663 -1.8108 0.2086 0 1
7.7186 -3.5249 -1.8109 0.2085 0 1
7.9509 -2.9655 -1.8111 0.2085 0 1
8.1427 -2.3909 -1.8112 0.2085 0 1
8.2929 -1.8040 -1.8113 0.2085 0 1
8.4009 -1.2079 -1.8114 0.2085 0 1
8.4661 -0.6055 -1.8114 0.2085 0 1
8.4880 0.0000 -1.8115 0.2085 0 1
8.4667 0.6055 -1.8116 0.2085 0 1
8.4021 1.2080 -1.8116 0.2085 0 1
8.2947 1.8044 -1.8116 0.2085 0 1
8.1450 2.3916 -1.8117 0.2085 0 1
7.4998 2.7973 -1.7083 0.2085 0 2
7.2812 3.3252 -1.7083 0.2085 0 2
7.0253 3.8361 -1.7083 0.2085 0 2
6.7337 4.3275 -1.7083 0.2085 0 2
6.4077 4.7967 -1.7082 0.2085 0 2
6.0490 5.2415 -1.7082 0.2085 0 2
5.4359 -5.4360 -1.7071 0.2167 0 2
6.0800 -5.2684 -1.7864 0.6389 0 2
6.5271 -4.8861 -1.8105 0.2166 0 1
6.8595 -4.4083 -1.8106 0.2166 0 1
7.1571 -3.9080 -1.8108 0.2166 0 1
7.4181 -3.3877 -1.8109 0.2166 0 1
7.6414 -2.8501 -1.8110 0.2166 0 1
7.8257 -2.2978 -1.8111 0.2166 0 1
7.9701 -1.7338 -1.8112 0.2166 0 1
8.0738 -1.1608 -1.8113 0.2165 0 1
8.1364 -0.5819 -1.8114 0.2165 0 1
8.1575 0.0000 -1.8114 0.2165 0 1
8.1370 0.5820 -1.8115 0.2165 0 1
8.0750 1.1610 -1.8115 0.2165 0 1
7.9717 1.7342 -1.8116 0.2165 0 1
7.8278 2.2985 -1.8116 0.2165 0 1
7.4453 2.7770 -1.7645 0.3416 0 2
6.9976 3.1957 -1.7082 0.2165 0 2
6.7518 3.6867 -1.7082 0.2165 0 2
6.4715 4.1590 -1.7082 0.2165 0 2
6.1582 4.6100 -1.7082 0.2165 0 2
5.8135 5.0374 -1.7081 0.2165 0 2
5.2762 -5.2762 -1.7216 0.7216 0 2
5.9298 -5.1382 -1.8103 0.2247 0 1
6.2817 -4.7024 -1.8105 0.2247 0 1
6.6017 -4.2426 -1.8106 0.2247 0 1
6.8880 -3.7611 -1.8107 0.2247 0 1
7.1392 -3.2604 -1.8108 0.2246 0 1
7.3540 -2.7429 -1.8109 0.2246 0 1
7.5314 -2.2114 -1.8110 0.2246 0 1
7.6704 -1.6686 -1.8111 0.2246 0 1
7.7702 -1.1172 -1.8112 0.2246 0 1
7.8304 -0.5600 -1.8113 0.2246 0 1
7.8507 0.0000 -1.8113 0.2246 0 1
7.8310 0.5601 -1.8114 0.2246 0 1
7.7712 1.1174 -1.8114 0.2246 0 1
7.6719 1.6689 -1.8115 0.2246 0 1
7.5334 2.2120 -1.8115 0.2246 0 1
7.3564 2.7438 -1.8115 0.2246 0 1
6.7344 3.0755 -1.7081 0.2246 0 2
6.4978 3.5481 -1.7081 0.2246 0 2
6.2281 4.0025 -1.7081 0.2246 0 2
5.9266 4.4366 -1.7081 0.2246 0 2
5.5948 4.8479 -1.7081 0.2246 0 2
5.2680 -5.2680 -1.7837 0.6873 0 2
5.7142 -4.9514 -1.8103 0.2327 0 1
6.0533 -4.5314 -1.8104 0.2327 0 1
6.3616 -4.0883 -1.8105 0.2327 0 1
6.6375 -3.6243 -1.8107 0.2327 0 1
6.8795 -3.1418 -1.8108 0.2327 0 1
7.0865 -2.6431 -1.8109 0.2327 0 1
7.2574 -2.1310 -1.8110 0.2326 0 1
7.3913 -1.6079 -1.8111 0.2326 0 1
7.4875 -1.0765 -1.8111 0.2326 0 1
7.5456 -0.5397 -1.8112 0.2326 0 1
7.5651 0.0000 -1.8113 0.2326 0 1
7.5461 0.5397 -1.8113 0.2326 0 1
7.4885 1.0767 -1.8114 0.2326 0 1
7.3927 1.6082 -1.8114 0.2326 0 1
7.2593 2.1315 -1.8114 0.2326 0 1
7.0888 2.6440 -1.8114 0.2326 0 1
6.4894 2.9636 -1.7081 0.2326 0 2
6.2614 3.4190 -1.7081 0.2326 0 2
6.0015 3.8569 -1.7080 0.2326 0 2
5.7109 4.2751 -1.7080 0.2326 0 2
5.3913 4.6716 -1.7080 0.2326 0 2
5.1578 -5.1578 -1.8101 0.2408 0 1
5.5130 -4.7770 -1.8103 0.2407 0 1
5.8401 -4.3718 -1.8104 0.2407 0 1
6.1375 -3.9443 -1.8105 0.2407 0 1
6.4037 -3.4967 -1.8106 0.2407 0 1
6.6372 -3.0311 -1.8107 0.2407 0 1
6.8369 -2.5500 -1.8108 0.2407 0 1
7.0018 -2.0559 -1.8109 0.2407 0 1
7.1309 -1.5512 -1.8110 0.2406 0 1
7.2237 -1.0386 -1.8111 0.2406 0 1
7.2797 -0.5206 -1.8111 0.2406 0 1
7.2985 0.0000 -1.8112 0.2406 0 1
7.2801 0.5207 -1.8113 0.2406 0 1
7.2246 1.0387 -1.8113 0.2406 0 1
7.1322 1.5515 -1.8113 0.2406 0 1
7.0035 2.0564 -1.8114 0.2406 0 1
6.8390 2.5508 -1.8114 0.2406 0 1
6.2607 2.8592 -1.7080 0.2406 0 2
6.0407 3.2985 -1.7080 0.2406 0 2
5.7900 3.7210 -1.7080 0.2406 0 2
5.5097 4.1245 -1.7080 0.2406 0 2
5.2013 4.5070 -1.7079 0.2406 0 2
4.9816 -4.9816 -1.8101 0.2488 0 1
5.3246 -4.6138 -1.8102 0.2487 0 1
5.6406 -4.2225 -1.8103 0.2487 0 1
5.9278 -3.8096 -1.8105 0.2487 0 1
6.1849 -3.3772 -1.8106 0.2487 0 1
6.4104 -2.9275 -1.8107 0.2487 0 1
6.6033 -2.4629 -1.8108 0.2487 0 1
6.7625 -1.9856 -1.8109 0.2486 0 1
6.8873 -1.4982 -1.8109 0.2486 0 1
6.9769 -1.0031 -1.8110 0.2486 0 1
7.0309 -0.5029 -1.8111 0.2486 0 1
7.0491 0.0000 -1.8111 0.2486 0 1
7.0313 0.5029 -1.8112 0.2486 0 1
6.9777 1.0033 -1.8112 0.2486 0 1
6.8885 1.4985 -1.8113 0.2486 0 1
6.7641 1.9861 -1.8113 0.2486 0 1
6.6052 2.4636 -1.8113 0.2486 0 1
6.1014 2.7864 -1.7234 0.4518 0 2
5.8343 3.1858 -1.7079 0.2486 0 2
5.5921 3.5938 -1.7079 0.2486 0 2
5.3214 3.9835 -1.7079 0.2486 0 2
5.0235 4.3529 -1.7079 0.2486 0 2
4.8164 -4.8164 -1.8101 0.2567 0 1
5.1481 -4.4608 -1.8102 0.2567 0 1
5.4535 -4.0825 -1.8103 0.2567 0 1
5.7312 -3.6832 -1.8104 0.2567 0 1
5.9798 -3.2652 -1.8105 0.2567 0 1
6.1978 -2.8304 -1.8106 0.2567 0 1
6.3843 -2.3812 -1.8107 0.2566 0 1
6.5382 -1.9198 -1.8108 0.2566 0 1
6.6588 -1.4485 -1.8109 0.2566 0 1
6.7454 -0.9698 -1.8110 0.2566 0 1
6.7977 -0.4862 -1.8110 0.2566 0 1
6.8152 0.0000 -1.8111 0.2566 0 1
6.7980 0.4862 -1.8111 0.2566 0 1
6.7462 0.9700 -1.8112 0.2566 0 1
6.6599 1.4488 -1.8112 0.2566 0 1
6.5397 1.9202 -1.8112 0.2566 0 1
6.3861 2.3819 -1.8112 0.2566 0 1
6.0820 2.7776 -1.7768 0.4019 0 2
5.6407 3.0801 -1.7079 0.2566 0 2
5.4065 3.4746 -1.7079 0.2566 0 2
5.1448 3.8514 -1.7078 0.2566 0 2
4.8569 4.2085 -1.7078 0.2566 0 2
4.6612 -4.6612 -1.8101 0.2647 0 1
4.9821 -4.3170 -1.8102 0.2647 0 1
5.2777 -3.9509 -1.8103 0.2647 0 1
5.5465 -3.5645 -1.8104 0.2646 0 1
5.7870 -3.1599 -1.8105 0.2646 0 1
5.9980 -2.7392 -1.8106 0.2646 0 1
6.1784 -2.3044 -1.8107 0.2646 0 1
6.3274 -1.8579 -1.8108 0.2646 0 1
6.4440 -1.4018 -1.8108 0.2646 0 1
6.5279 -0.9386 -1.8109 0.2646 0 1
6.5784 -0.4705 -1.8110 0.2646 0 1
6.5954 0.0000 -1.8110 0.2645 0 1
6.5788 0.4705 -1.8111 0.2645 0 1
6.5286 0.9387 -1.8111 0.2645 0 1
6.4451 1.4021 -1.8111 0.2645 0 1
6.3287 1.8583 -1.8112 0.2645 0 1
6.1801 2.3051 -1.8112 0.2645 0 1
5.9999 2.7401 -1.8112 0.2645 0 1
5.4758 2.9900 -1.7131 0.5149 0 2
5.2322 3.3625 -1.7078 0.2645 0 2
4.9789 3.7271 -1.7078 0.2645 0 2
4.7002 4.0728 -1.7077 0.2645 0 2
4.5150 -4.5150 -1.8100 0.2726 0 1
4.8259 -4.1816 -1.8101 0.2726 0 1
5.1122 -3.8269 -1.8103 0.2726 0 1
5.3725 -3.4527 -1.8104 0.2726 0 1
5.6054 -3.0608 -1.8105 0.2726 0 1
5.8098 -2.6532 -1.8106 0.2726 0 1
5.9846 -2.2321 -1.8106 0.2725 0 1
6.1288 -1.7996 -1.8107 0.2725 0 1
6.2419 -1.3578 -1.8108 0.2725 0 1
6.3231 -0.9091 -1.8109 0.2725 0 1
6.3720 -0.4557 -1.8109 0.2725 0 1
6.3885 0.0000 -1.8110 0.2725 0 1
6.3724 0.4558 -1.8110 0.2725 0 1
6.3237 0.9092 -1.8111 0.2725 0 1
6.2429 1.3581 -1.8111 0.2725 0 1
6.1301 1.8000 -1.8111 0.2725 0 1
1.7091 0.6374 -0.5171 0.0144 294 14
1.4411 0.6581 -0.4491 0.1670 294 14
1.4194 0.7751 -0.4585 0.1105 294 14
1.4304 0.9192 -0.4820 0.1051 294 14
1.4229 1.0652 -0.5039 0.1006 294 14
4.5527 3.9450 -1.7077 0.2725 0 2
4.3770 -4.3771 -1.8100 0.2806 0 1
4.6784 -4.0539 -1.8101 0.2805 0 1
4.9560 -3.7100 -1.8102 0.2805 0 1
5.2083 -3.3472 -1.8103 0.2805 0 1
5.4341 -2.9672 -1.8104 0.2805 0 1
5.6323 -2.5722 -1.8105 0.2805 0 1
5.8017 -2.1639 -1.8106 0.2805 0 1
5.9415 -1.7446 -1.8107 0.2805 0 1
6.0511 -1.3163 -1.8108 0.2804 0 1
6.1298 -0.8813 -1.8108 0.2804 0 1
6.1773 -0.4418 -1.8109 0.2804 0 1
6.1932 0.0000 -1.8109 0.2804 0 1
6.1776 0.4418 -1.8110 0.2804 0 1
6.1305 0.8814 -1.8110 0.2804 0 1
1.4798 0.3219 -0.4428 0.1743 294 14
1.4552 0.4273 -0.4435 0.1741 294 14
1.4187 0.5292 -0.4428 0.1743 294 14
1.3711 0.6261 -0.4407 0.1755 294 14
1.3187 0.7201 -0.4393 0.1187 294 14
1.3240 0.8509 -0.4602 0.1133 294 14
1.3127 0.9827 -0.4795 0.1088 294 14
1.2880 1.1161 -0.4983 0.1074 294 14
4.2467 -4.2467 -1.8100 0.2885 0 1
4.5391 -3.9331 -1.8101 0.2884 0 1
4.8084 -3.5995 -1.8102 0.2884 0 1
5.0532 -3.2475 -1.8103 0.2884 0 1
5.2723 -2.8789 -1.8104 0.2884 0 1
5.4645 -2.4955 -1.8105 0.2884 0 1
5.6288 -2.0995 -1.8106 0.2884 0 1
5.7645 -1.6926 -1.8106 0.2884 0 1
5.8708 -1.2771 -1.8107 0.2883 0 1
5.9472 -0.8551 -1.8108 0.2883 0 1
1.7098 -0.1223 -0.5166 0.0271 294 14
1.5819 -0.0000 -0.4768 0.0294 294 14
1.4694 0.1051 -0.4440 0.1887 294 14
1.4364 0.2065 -0.4374 0.1916 294 14
1.4105 0.3068 -0.4350 0.1824 294 14
1.3870 0.4072 -0.4357 0.1822 294 14
1.3523 0.5044 -0.4350 0.1824 294 14
1.3073 0.5970 -0.4331 0.1836 294 14
1.2525 0.6839 -0.4301 0.1849 294 14
1.2320 0.7917 -0.4414 0.1215 294 14
1.2182 0.9119 -0.4586 0.1200 294 14
1.1939 1.0345 -0.4761 0.1156 294 14
4.1233 -4.1233 -1.8100 0.2963 0 1
4.4072 -3.8188 -1.8101 0.2963 0 1
4.6686 -3.4949 -1.8102 0.2963 0 1
4.9063 -3.1531 -1.8103 0.2963 0 1
5.1190 -2.7952 -1.8104 0.2963 0 1
5.3056 -2.4230 -1.8105 0.2963 0 1
5.4652 -2.0384 -1.8105 0.2963 0 1
5.5970 -1.6434 -1.8106 0.2962 0 1
5.7001 -1.2400 -1.8107 0.2962 0 1
1.4348 -0.2063 -0.4499 0.1918 294 14
1.4359 -0.1027 -0.4469 0.1926 294 14
1.4260 -0.0000 -0.4426 0.1945 294 14
1.4055 0.1005 -0.4374 0.1968 294 14
1.3749 0.1977 -0.4311 0.1996 294 14
1.3471 0.2930 -0.4279 0.1905 294 14
1.3246 0.3889 -0.4285 0.1903 294 14
1.2916 0.4817 -0.4279 0.1905 294 14
1.2489 0.5703 -0.4262 0.1917 294 14
1.1970 0.6536 -0.4233 0.1930 294 14
1.1516 0.7401 -0.4249 0.1296 294 14
1.1377 0.8517 -0.4411 0.1281 294 14
1.1123 0.9638 -0.4568 0.1237 294 14
4.0063 -4.0062 -1.8100 0.3042 0 1
4.2821 -3.7104 -1.8101 0.3042 0 1
4.5361 -3.3957 -1.8102 0.3042 0 1
4.7671 -3.0636 -1.8103 0.3042 0 1
4.9737 -2.7159 -1.8103 0.3041 0 1
5.1550 -2.3542 -1.8104 0.3041 0 1
5.3101 -1.9806 -1.8105 0.3041 0 1
5.4380 -1.5967 -1.8106 0.3041 0 1
1.4175 -0.3084 -0.4634 0.1721 294 14
1.3732 -0.1975 -0.4432 0.1999 294 14
1.3746 -0.0983 -0.4402 0.2007 294 14
1.3656 -0.0000 -0.4363 0.2025 294 14
1.3466 0.0963 -0.4313 0.2049 294 14
1.3180 0.1895 -0.4254 0.2077 294 14
1.2889 0.2804 -0.4214 0.1986 294 14
1.2673 0.3721 -0.4219 0.1984 294 14
1.2359 0.4609 -0.4214 0.1990 294 14
1.1952 0.5458 -0.4198 0.1998 294 14
1.1459 0.6257 -0.4171 0.2010 294 14
1.0886 0.6995 -0.4134 0.2029 294 14
1.0669 0.7987 -0.4257 0.1363 294 14
1.0463 0.9066 -0.4423 0.2235 294 14
3.8951 -3.8951 -1.8099 0.3121 0 1
4.1633 -3.6075 -1.8100 0.3120 0 1
4.4103 -3.3015 -1.8101 0.3120 0 1
4.6348 -2.9786 -1.8102 0.3120 0 1
4.8357 -2.6405 -1.8103 0.3120 0 1
5.0120 -2.2889 -1.8104 0.3120 0 1
1.4204 -0.5298 -0.4981 0.1643 294 14
1.3902 -0.4082 -0.4761 0.1719 294 14
1.3505 -0.2938 -0.4541 0.1802 294 14
1.3164 -0.1893 -0.4370 0.2079 294 14
1.3180 -0.0943 -0.4342 0.2093 294 14
1.3098 -0.0000 -0.4304 0.2106 294 14
1.2922 0.0924 -0.4257 0.2129 294 14
1.2655 0.1819 -0.4201 0.2158 294 14
1.2353 0.2687 -0.4154 0.2067 294 14
1.2145 0.3566 -0.4159 0.2064 294 14
1.1845 0.4418 -0.4154 0.2071 294 14
1.1458 0.5232 -0.4139 0.2078 294 14
1.0987 0.5999 -0.4113 0.2091 294 14
1.0497 0.6746 -0.4100 0.2875 294 14
1.0286 0.7700 -0.4222 0.2402 294 14
1.0076 0.8731 -0.4381 0.2315 294 14
3.7894 -3.7894 -1.8099 0.3199 0 1
4.0503 -3.5096 -1.8100 0.3199 0 1
4.2906 -3.2119 -1.8101 0.3198 0 1
4.5090 -2.8978 -1.8102 0.3198 0 1
4.7045 -2.5688 -1.8103 0.3198 0 1
1.3656 -0.6237 -0.5070 0.1705 294 14
1.3501 -0.5036 -0.4867 0.1723 294 14
1.3243 -0.3888 -0.4661 0.1799 294 14
1.2893 -0.2805 -0.4456 0.1882 294 14
1.2638 -0.1817 -0.4312 0.2160 294 14
1.2657 -0.0905 -0.4286 0.2173 294 14
1.2582 -0.0000 -0.4250 0.2192 294 14
1.2417 0.0888 -0.4204 0.2210 294 14
1.2167 0.1749 -0.4151 0.2238 294 14
1.1857 0.2579 -0.4098 0.2148 294 14
1.1657 0.3422 -0.4103 0.2149 294 14
1.1370 0.4241 -0.4099 0.2151 294 14
1.1000 0.5023 -0.4084 0.2159 294 14
1.0563 0.5768 -0.4065 0.2267 294 14
1.0189 0.6548 -0.4091 0.2953 294 14
0.9930 0.7433 -0.4189 0.2481 294 14
0.9715 0.8418 -0.4342 0.2394 294 14
3.6888 -3.6888 -1.8099 0.3277 0 1
3.9428 -3.4164 -1.8100 0.3277 0 1
4.1766 -3.1266 -1.8101 0.3276 0 1
4.3893 -2.8208 -1.8102 0.3276 0 1
4.5795 -2.5006 -1.8103 0.3276 0 1
1.3002 -0.5938 -0.4959 0.1786 294 14
1.2861 -0.4797 -0.4762 0.1804 294 14
1.2640 -0.3712 -0.4571 0.1880 294 14
1.2331 -0.2683 -0.4378 0.1962 294 14
1.2150 -0.1747 -0.4259 0.2240 294 14
1.2171 -0.0871 -0.4234 0.2254 294 14
1.2103 -0.0000 -0.4199 0.2272 294 14
1.1949 0.0854 -0.4156 0.2296 294 14
1.1713 0.1684 -0.4106 0.2324 294 14
1.1401 0.2480 -0.4048 0.2351 294 14
1.1204 0.3289 -0.4051 0.2229 294 14
1.0933 0.4078 -0.4048 0.2331 294 14
1.0589 0.4836 -0.4039 0.2337 294 14
1.0173 0.5555 -0.4021 0.2347 294 14
