ply
format ascii 1.0
element vertex 1427
property float32 x
property float32 y
property float32 z
property float32 CosAngle
property uint32 ObjIdx
property uint32 ObjTag
end_header
8.0955 0.0726 -1.7977 0.2173 0 1
8.0972 0.0908 -1.7981 0.2172 0 1
8.0988 0.1090 -1.7985 0.2172 0 1
8.1003 0.1271 -1.7989 0.2171 0 1
8.1018 0.1454 -1.7993 0.2171 0 1
8.1032 0.1636 -1.7997 0.2170 0 1
8.1047 0.1818 -1.8001 0.2170 0 1
8.1060 0.2000 -1.8005 0.2169 0 1
8.1074 0.2183 -1.8009 0.2169 0 1
8.1087 0.2365 -1.8013 0.2168 0 1
8.1099 0.2548 -1.8017 0.2168 0 1
8.1112 0.2730 -1.8022 0.2167 0 1
8.1123 0.2913 -1.8026 0.2167 0 1
8.1135 0.3096 -1.8030 0.2166 0 1
8.1146 0.3279 -1.8034 0.2166 0 1
8.1156 0.3461 -1.8038 0.2166 0 1
8.1167 0.3644 -1.8042 0.2165 0 1
8.1176 0.3827 -1.8046 0.2165 0 1
8.1186 0.4010 -1.8050 0.2164 0 1
8.1195 0.4193 -1.8054 0.2164 0 1
8.1203 0.4377 -1.8058 0.2163 0 1
8.1211 0.4560 -1.8062 0.2163 0 1
8.1219 0.4743 -1.8066 0.2162 0 1
8.1226 0.4927 -1.8070 0.2162 0 1
8.1233 0.5110 -1.8074 0.2161 0 1
8.1240 0.5293 -1.8078 0.2161 0 1
8.1246 0.5477 -1.8082 0.2160 0 1
8.1252 0.5661 -1.8086 0.2160 0 1
8.1257 0.5844 -1.8090 0.2159 0 1
8.1262 0.6028 -1.8094 0.2159 0 1
8.1266 0.6212 -1.8098 0.2158 0 1
8.1270 0.6395 -1.8102 0.2158 0 1
8.1274 0.6579 -1.8106 0.2157 0 1
8.1277 0.6763 -1.8110 0.2157 0 1
8.1280 0.6947 -1.8115 0.2156 0 1
8.1283 0.7131 -1.8119 0.2156 0 1
8.1285 0.7315 -1.8123 0.2155 0 1
8.1286 0.7499 -1.8127 0.2155 0 1
8.1287 0.7683 -1.8131 0.2154 0 1
8.1288 0.7867 -1.8135 0.2154 0 1
8.1289 0.8052 -1.8139 0.2153 0 1
8.1288 0.8236 -1.8143 0.2153 0 1
8.1288 0.8420 -1.8147 0.2152 0 1
8.1287 0.8605 -1.8151 0.2152 0 1
8.1286 0.8789 -1.8155 0.2151 0 1
8.1284 0.8973 -1.8159 0.2151 0 1
8.1282 0.9157 -1.8163 0.2151 0 1
8.1280 0.9341 -1.8167 0.2150 0 1
8.1277 0.9526 -1.8172 0.2150 0 1
8.1273 0.9711 -1.8176 0.2149 0 1
8.1270 0.9895 -1.8180 0.2149 0 1
8.1265 1.0080 -1.8184 0.2148 0 1
8.1261 1.0265 -1.8188 0.2148 0 1
8.1256 1.0450 -1.8192 0.2147 0 1
8.1250 1.0634 -1.8196 0.2147 0 1
8.1245 1.0819 -1.8200 0.2146 0 1
8.1238 1.1004 -1.8204 0.2146 0 1
8.1232 1.1189 -1.8208 0.2145 0 1
8.1224 1.1373 -1.8212 0.2145 0 1
8.1217 1.1558 -1.8216 0.2144 0 1
8.1209 1.1743 -1.8221 0.2144 0 1
8.1201 1.1928 -1.8225 0.2143 0 1
8.1192 1.2113 -1.8229 0.2143 0 1
8.1183 1.2298 -1.8233 0.2142 0 1
8.1173 1.2482 -1.8237 0.2142 0 1
8.1163 1.2668 -1.8241 0.2141 0 1
8.1153 1.2853 -1.8245 0.2141 0 1
8.1142 1.3037 -1.8249 0.2140 0 1
8.1131 1.3223 -1.8253 0.2140 0 1
8.1119 1.3408 -1.8257 0.2139 0 1
8.1107 1.3593 -1.8262 0.2139 0 1
8.1095 1.3778 -1.8266 0.2138 0 1
8.1082 1.3963 -1.8270 0.2138 0 1
8.1069 1.4148 -1.8274 0.2138 0 1
8.1054 1.4333 -1.8278 0.2137 0 1
8.1040 1.4518 -1.8282 0.2137 0 1
8.1026 1.4704 -1.8286 0.2136 0 1
8.1011 1.4889 -1.8290 0.2136 0 1
8.0996 1.5074 -1.8294 0.2135 0 1
8.0979 1.5258 -1.8298 0.2135 0 1
8.0963 1.5444 -1.8303 0.2134 0 1
8.0946 1.5629 -1.8307 0.2134 0 1
8.0929 1.5814 -1.8311 0.2133 0 1
8.0912 1.6000 -1.8315 0.2133 0 1
8.0894 1.6184 -1.8319 0.2132 0 1
8.0875 1.6370 -1.8323 0.2132 0 1
8.0857 1.6555 -1.8327 0.2131 0 1
8.0837 1.6739 -1.8331 0.2131 0 1
8.0817 1.6925 -1.8335 0.2130 0 1
8.0798 1.7110 -1.8339 0.2130 0 1
8.0777 1.7295 -1.8344 0.2129 0 1
8.0756 1.7480 -1.8348 0.2129 0 1
8.0735 1.7665 -1.8352 0.2128 0 1
8.0713 1.7850 -1.8356 0.2128 0 1
8.0691 1.8036 -1.8360 0.2127 0 1
8.0668 1.8221 -1.8364 0.2127 0 1
8.0645 1.8406 -1.8368 0.2127 0 1
8.0621 1.8591 -1.8372 0.2126 0 1
8.0598 1.8776 -1.8376 0.2126 0 1
8.0573 1.8961 -1.8381 0.2125 0 1
8.0549 1.9146 -1.8385 0.2125 0 1
8.0523 1.9331 -1.8389 0.2124 0 1
8.0498 1.9516 -1.8393 0.2124 0 1
8.0472 1.9702 -1.8397 0.2123 0 1
8.0445 1.9886 -1.8401 0.2123 0 1
8.0419 2.0071 -1.8405 0.2122 0 1
8.0391 2.0256 -1.8409 0.2122 0 1
8.0363 2.0441 -1.8413 0.2121 0 1
8.0335 2.0625 -1.8418 0.2121 0 1
8.0306 2.0811 -1.8422 0.2120 0 1
8.0278 2.0995 -1.8426 0.2120 0 1
8.0248 2.1180 -1.8430 0.2119 0 1
8.0218 2.1365 -1.8434 0.2119 0 1
8.0188 2.1550 -1.8438 0.2118 0 1
8.0157 2.1735 -1.8442 0.2118 0 1
8.0126 2.1920 -1.8446 0.2118 0 1
8.0095 2.2104 -1.8450 0.2117 0 1
8.0063 2.2288 -1.8454 0.2117 0 1
8.0030 2.2473 -1.8459 0.2116 0 1
7.9997 2.2657 -1.8463 0.2116 0 1
7.9964 2.2843 -1.8467 0.2115 0 1
7.9930 2.3027 -1.8471 0.2115 0 1
7.9896 2.3211 -1.8475 0.2114 0 1
7.9862 2.3395 -1.8479 0.2114 0 1
7.9827 2.3580 -1.8483 0.2113 0 1
7.9791 2.3764 -1.8487 0.2113 0 1
7.9755 2.3948 -1.8491 0.2112 0 1
7.9719 2.4133 -1.8495 0.2112 0 1
7.9683 2.4317 -1.8500 0.2111 0 1
7.9645 2.4501 -1.8504 0.2111 0 1
7.9608 2.4686 -1.8508 0.2111 0 1
7.9570 2.4870 -1.8512 0.2110 0 1
7.9531 2.5053 -1.8516 0.2110 0 1
7.9492 2.5237 -1.8520 0.2109 0 1
7.9453 2.5421 -1.8524 0.2109 0 1
7.9413 2.5605 -1.8528 0.2108 0 1
7.9374 2.5789 -1.8532 0.2108 0 1
7.9333 2.5973 -1.8536 0.2107 0 1
7.9292 2.6157 -1.8541 0.2107 0 1
7.9251 2.6341 -1.8545 0.2106 0 1
7.9209 2.6524 -1.8549 0.2106 0 1
7.9166 2.6708 -1.8553 0.2105 0 1
7.9124 2.6891 -1.8557 0.2105 0 1
7.9080 2.7074 -1.8561 0.2104 0 1
7.9037 2.7258 -1.8565 0.2104 0 1
7.8993 2.7441 -1.8569 0.2104 0 1
7.8948 2.7625 -1.8573 0.2103 0 1
7.8904 2.7807 -1.8577 0.2103 0 1
7.8858 2.7991 -1.8581 0.2102 0 1
7.8813 2.8173 -1.8585 0.2102 0 1
7.8766 2.8357 -1.8590 0.2101 0 1
7.8720 2.8540 -1.8594 0.2101 0 1
7.8673 2.8723 -1.8598 0.2100 0 1
7.8625 2.8905 -1.8602 0.2100 0 1
7.8578 2.9088 -1.8606 0.2099 0 1
7.8529 2.9270 -1.8610 0.2099 0 1
7.8481 2.9454 -1.8614 0.2098 0 1
7.8431 2.9636 -1.8618 0.2098 0 1
7.8382 2.9818 -1.8622 0.2098 0 1
7.8332 3.0001 -1.8626 0.2097 0 1
7.8281 3.0183 -1.8630 0.2097 0 1
7.8230 3.0365 -1.8634 0.2096 0 1
7.8179 3.0547 -1.8638 0.2096 0 1
7.8128 3.0730 -1.8642 0.2095 0 1
7.8076 3.0911 -1.8647 0.2095 0 1
7.8023 3.1094 -1.8651 0.2094 0 1
7.7970 3.1275 -1.8655 0.2094 0 1
7.7916 3.1457 -1.8659 0.2093 0 1
7.7862 3.1638 -1.8663 0.2093 0 1
7.7808 3.1820 -1.8667 0.2093 0 1
7.7754 3.2002 -1.8671 0.2092 0 1
7.7698 3.2183 -1.8675 0.2092 0 1
7.7643 3.2364 -1.8679 0.2091 0 1
7.7587 3.2545 -1.8683 0.2091 0 1
7.7530 3.2726 -1.8687 0.2090 0 1
7.7473 3.2907 -1.8691 0.2090 0 1
7.7416 3.3088 -1.8695 0.2089 0 1
7.7358 3.3269 -1.8699 0.2089 0 1
7.7300 3.3450 -1.8703 0.2088 0 1
7.7242 3.3631 -1.8707 0.2088 0 1
7.7183 3.3811 -1.8711 0.2088 0 1
7.7123 3.3992 -1.8715 0.2087 0 1
7.7063 3.4172 -1.8719 0.2087 0 1
7.7003 3.4352 -1.8723 0.2086 0 1
7.6942 3.4532 -1.8727 0.2086 0 1
7.6881 3.4712 -1.8731 0.2085 0 1
7.6819 3.4892 -1.8735 0.2085 0 1
7.6758 3.5072 -1.8739 0.2084 0 1
7.6695 3.5252 -1.8743 0.2084 0 1
7.6632 3.5431 -1.8748 0.2084 0 1
7.6569 3.5611 -1.8752 0.2083 0 1
7.6505 3.5790 -1.8756 0.2083 0 1
7.6441 3.5970 -1.8760 0.2082 0 1
7.6376 3.6148 -1.8764 0.2082 0 1
7.6311 3.6327 -1.8768 0.2081 0 1
7.6246 3.6507 -1.8772 0.2081 0 1
7.6180 3.6686 -1.8776 0.2080 0 1
7.6114 3.6864 -1.8780 0.2080 0 1
7.6047 3.7043 -1.8784 0.2080 0 1
7.5980 3.7221 -1.8788 0.2079 0 1
7.5912 3.7399 -1.8792 0.2079 0 1
7.5844 3.7578 -1.8796 0.2078 0 1
7.5776 3.7756 -1.8800 0.2078 0 1
7.5707 3.7934 -1.8804 0.2077 0 1
7.5637 3.8112 -1.8807 0.2077 0 1
7.5568 3.8289 -1.8811 0.2076 0 1
7.5498 3.8467 -1.8815 0.2076 0 1
7.5427 3.8645 -1.8819 0.2076 0 1
7.5356 3.8822 -1.8823 0.2075 0 1
7.5285 3.8999 -1.8827 0.2075 0 1
7.5213 3.9176 -1.8831 0.2074 0 1
7.5140 3.9354 -1.8835 0.2074 0 1
7.5068 3.9530 -1.8839 0.2073 0 1
7.4995 3.9707 -1.8843 0.2073 0 1
7.4921 3.9884 -1.8847 0.2072 0 1
7.4847 4.0060 -1.8851 0.2072 0 1
7.4772 4.0236 -1.8855 0.2072 0 1
7.4698 4.0412 -1.8859 0.2071 0 1
7.4622 4.0588 -1.8863 0.2071 0 1
7.4547 4.0764 -1.8867 0.2070 0 1
7.4471 4.0940 -1.8871 0.2070 0 1
7.4394 4.1116 -1.8875 0.2069 0 1
7.4317 4.1291 -1.8879 0.2069 0 1
7.4240 4.1466 -1.8883 0.2069 0 1
7.4162 4.1641 -1.8887 0.2068 0 1
7.4084 4.1816 -1.8891 0.2068 0 1
7.4005 4.1991 -1.8894 0.2067 0 1
7.3926 4.2166 -1.8898 0.2067 0 1
7.3847 4.2341 -1.8902 0.2066 0 1
7.3767 4.2515 -1.8906 0.2066 0 1
7.3686 4.2689 -1.8910 0.2066 0 1
7.3606 4.2863 -1.8914 0.2065 0 1
7.3524 4.3037 -1.8918 0.2065 0 1
7.3443 4.3211 -1.8922 0.2064 0 1
7.3361 4.3385 -1.8926 0.2064 0 1
7.3278 4.3558 -1.8930 0.2063 0 1
7.3196 4.3731 -1.8934 0.2063 0 1
7.3112 4.3905 -1.8937 0.2063 0 1
7.3028 4.4078 -1.8941 0.2062 0 1
7.2944 4.4250 -1.8945 0.2062 0 1
7.2860 4.4423 -1.8949 0.2061 0 1
7.2775 4.4596 -1.8953 0.2061 0 1
7.2689 4.4768 -1.8957 0.2061 0 1
7.2603 4.4940 -1.8961 0.2060 0 1
7.2517 4.5113 -1.8965 0.2060 0 1
7.2430 4.5284 -1.8968 0.2059 0 1
7.2343 4.5455 -1.8972 0.2059 0 1
7.2256 4.5627 -1.8976 0.2058 0 1
7.2168 4.5798 -1.8980 0.2058 0 1
7.2080 4.5970 -1.8984 0.2058 0 1
7.1991 4.6141 -1.8988 0.2057 0 1
7.1902 4.6311 -1.8992 0.2057 0 1
7.1812 4.6482 -1.8995 0.2056 0 1
7.1722 4.6652 -1.8999 0.2056 0 1
7.1632 4.6822 -1.9003 0.2056 0 1
7.1541 4.6993 -1.9007 0.2055 0 1
7.1450 4.7163 -1.9011 0.2055 0 1
7.1358 4.7332 -1.9015 0.2054 0 1
7.1266 4.7502 -1.9018 0.2054 0 1
7.1173 4.7672 -1.9022 0.2053 0 1
7.1080 4.7841 -1.9026 0.2053 0 1
7.0987 4.8010 -1.9030 0.2053 0 1
7.0893 4.8179 -1.9034 0.2052 0 1
7.0799 4.8347 -1.9037 0.2052 0 1
7.0704 4.8516 -1.9041 0.2051 0 1
7.0610 4.8684 -1.9045 0.2051 0 1
7.0514 4.8852 -1.9049 0.2051 0 1
7.0419 4.9020 -1.9053 0.2050 0 1
7.0322 4.9187 -1.9056 0.2050 0 1
7.0226 4.9354 -1.9060 0.2049 0 1
7.0129 4.9522 -1.9064 0.2049 0 1
7.0031 4.9689 -1.9068 0.2049 0 1
6.9933 4.9856 -1.9071 0.2048 0 1
6.9835 5.0022 -1.9075 0.2048 0 1
6.9736 5.0189 -1.9079 0.2047 0 1
6.9637 5.0355 -1.9083 0.2047 0 1
6.9537 5.0521 -1.9086 0.2047 0 1
6.9437 5.0687 -1.9090 0.2046 0 1
6.9337 5.0852 -1.9094 0.2046 0 1
6.9236 5.1018 -1.9098 0.2045 0 1
6.9135 5.1183 -1.9101 0.2045 0 1
6.9033 5.1348 -1.9105 0.2045 0 1
6.8516 5.1203 -1.8993 0.0096 0 2
6.4892 4.8722 -1.8019 0.2044 0 2
6.4795 4.8876 -1.8023 0.2043 0 2
6.4697 4.9031 -1.8026 0.2043 0 2
6.4599 4.9186 -1.8029 0.2043 0 2
6.4501 4.9340 -1.8033 0.2042 0 2
6.4403 4.9495 -1.8036 0.2042 0 2
6.4304 4.9648 -1.8040 0.2041 0 2
6.4205 4.9802 -1.8043 0.2041 0 2
6.4105 4.9955 -1.8047 0.2041 0 2
6.5396 5.1197 -1.8443 0.0730 0 2
6.3905 5.0262 -1.8054 0.2040 0 2
6.3804 5.0415 -1.8057 0.2039 0 2
6.3704 5.0568 -1.8061 0.2039 0 2
6.3601 5.0720 -1.8064 0.2039 0 2
6.3500 5.0872 -1.8068 0.2038 0 2
6.3397 5.1025 -1.8071 0.2038 0 2
6.3295 5.1176 -1.8074 0.2037 0 2
6.3192 5.1328 -1.8078 0.2037 0 2
6.3088 5.1479 -1.8081 0.2037 0 2
6.2984 5.1630 -1.8085 0.2036 0 2
6.2880 5.1781 -1.8088 0.2036 0 2
6.2776 5.1932 -1.8091 0.2036 0 2
6.2671 5.2082 -1.8095 0.2035 0 2
6.2566 5.2233 -1.8098 0.2035 0 2
6.2460 5.2383 -1.8102 0.2034 0 2
6.2354 5.2533 -1.8105 0.2034 0 2
6.2247 5.2682 -1.8108 0.2034 0 2
6.2140 5.2832 -1.8112 0.2033 0 2
6.2033 5.2981 -1.8115 0.2033 0 2
6.1926 5.3130 -1.8119 0.2033 0 2
6.1818 5.3279 -1.8122 0.2032 0 2
6.1710 5.3427 -1.8125 0.2032 0 2
6.1601 5.3576 -1.8129 0.2031 0 2
6.1492 5.3723 -1.8132 0.2031 0 2
6.1383 5.3871 -1.8135 0.2031 0 2
6.1273 5.4019 -1.8139 0.2030 0 2
6.1163 5.4166 -1.8142 0.2030 0 2
6.1052 5.4313 -1.8145 0.2030 0 2
6.0941 5.4460 -1.8149 0.2029 0 2
6.0830 5.4607 -1.8152 0.2029 0 2
6.0719 5.4753 -1.8155 0.2028 0 2
6.0606 5.4899 -1.8159 0.2028 0 2
6.0494 5.5045 -1.8162 0.2028 0 2
6.0381 5.5191 -1.8165 0.2027 0 2
6.0269 5.5336 -1.8168 0.2027 0 2
6.0155 5.5481 -1.8172 0.2027 0 2
6.0041 5.5626 -1.8175 0.2026 0 2
5.9927 5.5771 -1.8178 0.2026 0 2
5.9812 5.5915 -1.8182 0.2025 0 2
5.9697 5.6059 -1.8185 0.2025 0 2
5.9582 5.6203 -1.8188 0.2025 0 2
5.9467 5.6347 -1.8191 0.2024 0 2
5.9351 5.6490 -1.8195 0.2024 0 2
5.9234 5.6633 -1.8198 0.2024 0 2
5.9118 5.6776 -1.8201 0.2023 0 2
5.9000 5.6919 -1.8204 0.2023 0 2
5.8883 5.7061 -1.8208 0.2023 0 2
5.8765 5.7203 -1.8211 0.2022 0 2
5.8647 5.7345 -1.8214 0.2022 0 2
5.8529 5.7486 -1.8217 0.2022 0 2
5.8410 5.7628 -1.8220 0.2021 0 2
5.8290 5.7769 -1.8224 0.2021 0 2
5.8171 5.7910 -1.8227 0.2020 0 2
5.1620 -5.1621 -1.6843 0.2405 0 1
5.1743 -5.1512 -1.6846 0.2405 0 1
5.1865 -5.1403 -1.6848 0.2404 0 1
5.1988 -5.1294 -1.6850 0.2404 0 1
5.2110 -5.1184 -1.6853 0.2404 0 1
5.2232 -5.1073 -1.6855 0.2403 0 1
5.2354 -5.0964 -1.6857 0.2403 0 1
5.2475 -5.0853 -1.6860 0.2403 0 1
5.2597 -5.0742 -1.6862 0.2402 0 1
5.2718 -5.0631 -1.6864 0.2402 0 1
5.2838 -5.0520 -1.6867 0.2402 0 1
5.2959 -5.0408 -1.6869 0.2401 0 1
5.3079 -5.0296 -1.6871 0.2401 0 1
5.3200 -5.0185 -1.6874 0.2401 0 1
5.3320 -5.0072 -1.6876 0.2400 0 1
5.3439 -4.9959 -1.6879 0.2400 0 1
5.3559 -4.9846 -1.6881 0.2400 0 1
5.3679 -4.9733 -1.6883 0.2399 0 1
5.3798 -4.9620 -1.6886 0.2399 0 1
5.3917 -4.9506 -1.6888 0.2399 0 1
5.4036 -4.9392 -1.6891 0.2398 0 1
5.4154 -4.9277 -1.6893 0.2398 0 1
5.4272 -4.9163 -1.6896 0.2398 0 1
5.4390 -4.9048 -1.6898 0.2397 0 1
5.4508 -4.8933 -1.6900 0.2397 0 1
5.4626 -4.8818 -1.6903 0.2397 0 1
5.4743 -4.8702 -1.6905 0.2396 0 1
5.4861 -4.8586 -1.6908 0.2396 0 1
5.4977 -4.8470 -1.6910 0.2396 0 1
5.5094 -4.8353 -1.6913 0.2395 0 1
5.5210 -4.8237 -1.6915 0.2395 0 1
5.5327 -4.8120 -1.6918 0.2395 0 1
5.5443 -4.8003 -1.6920 0.2394 0 1
5.5559 -4.7886 -1.6923 0.2394 0 1
5.5674 -4.7768 -1.6925 0.2393 0 1
5.5789 -4.7650 -1.6928 0.2393 0 1
5.5905 -4.7531 -1.6930 0.2393 0 1
5.6019 -4.7413 -1.6933 0.2392 0 1
5.6134 -4.7294 -1.6935 0.2392 0 1
5.6249 -4.7175 -1.6938 0.2392 0 1
5.6363 -4.7056 -1.6940 0.2391 0 1
5.6477 -4.6936 -1.6943 0.2391 0 1
5.6591 -4.6816 -1.6946 0.2391 0 1
5.6704 -4.6697 -1.6948 0.2390 0 1
5.6817 -4.6576 -1.6951 0.2390 0 1
5.6930 -4.6455 -1.6953 0.2390 0 1
5.7043 -4.6335 -1.6956 0.2389 0 1
5.7156 -4.6214 -1.6958 0.2389 0 1
5.7268 -4.6093 -1.6961 0.2388 0 1
5.7380 -4.5971 -1.6964 0.2388 0 1
5.7492 -4.5849 -1.6966 0.2388 0 1
5.7604 -4.5727 -1.6969 0.2387 0 1
5.7715 -4.5605 -1.6971 0.2387 0 1
5.7826 -4.5482 -1.6974 0.2387 0 1
5.7937 -4.5359 -1.6977 0.2386 0 1
5.8047 -4.5236 -1.6979 0.2386 0 1
5.8158 -4.5113 -1.6982 0.2385 0 1
5.8268 -4.4989 -1.6985 0.2385 0 1
5.8378 -4.4865 -1.6987 0.2385 0 1
5.8488 -4.4741 -1.6990 0.2384 0 1
5.8597 -4.4617 -1.6993 0.2384 0 1
5.8706 -4.4493 -1.6995 0.2384 0 1
5.8815 -4.4368 -1.6998 0.2383 0 1
5.8924 -4.4242 -1.7001 0.2383 0 1
5.9033 -4.4117 -1.7003 0.2382 0 1
5.9140 -4.3991 -1.7006 0.2382 0 1
5.9249 -4.3866 -1.7009 0.2382 0 1
5.9356 -4.3740 -1.7011 0.2381 0 1
5.9464 -4.3613 -1.7014 0.2381 0 1
5.9571 -4.3487 -1.7017 0.2381 0 1
5.9678 -4.3360 -1.7020 0.2380 0 1
5.9785 -4.3232 -1.7022 0.2380 0 1
5.9891 -4.3105 -1.7025 0.2379 0 1
5.9997 -4.2977 -1.7028 0.2379 0 1
6.0103 -4.2850 -1.7031 0.2379 0 1
6.0209 -4.2721 -1.7033 0.2378 0 1
6.0314 -4.2593 -1.7036 0.2378 0 1
6.0420 -4.2465 -1.7039 0.2378 0 1
6.0525 -4.2336 -1.7042 0.2377 0 1
6.0629 -4.2207 -1.7044 0.2377 0 1
6.0734 -4.2077 -1.7047 0.2376 0 1
6.0838 -4.1948 -1.7050 0.2376 0 1
6.0942 -4.1818 -1.7053 0.2376 0 1
6.1046 -4.1688 -1.7055 0.2375 0 1
6.1149 -4.1557 -1.7058 0.2375 0 1
6.1252 -4.1427 -1.7061 0.2374 0 1
6.1355 -4.1297 -1.7064 0.2374 0 1
6.1458 -4.1166 -1.7067 0.2374 0 1
6.1560 -4.1035 -1.7070 0.2373 0 1
6.1662 -4.0903 -1.7072 0.2373 0 1
6.1764 -4.0771 -1.7075 0.2372 0 1
6.1866 -4.0639 -1.7078 0.2372 0 1
6.1967 -4.0507 -1.7081 0.2372 0 1
6.2068 -4.0375 -1.7084 0.2371 0 1
6.2169 -4.0242 -1.7087 0.2371 0 1
6.2270 -4.0109 -1.7089 0.2370 0 1
6.2370 -3.9976 -1.7092 0.2370 0 1
6.2470 -3.9843 -1.7095 0.2370 0 1
6.2570 -3.9709 -1.7098 0.2369 0 1
6.2669 -3.9575 -1.7101 0.2369 0 1
6.2769 -3.9441 -1.7104 0.2368 0 1
6.2867 -3.9307 -1.7107 0.2368 0 1
6.2966 -3.9172 -1.7110 0.2368 0 1
6.3064 -3.9037 -1.7112 0.2367 0 1
6.3163 -3.8902 -1.7115 0.2367 0 1
6.3261 -3.8767 -1.7118 0.2366 0 1
6.3358 -3.8632 -1.7121 0.2366 0 1
6.3456 -3.8496 -1.7124 0.2366 0 1
6.3553 -3.8360 -1.7127 0.2365 0 1
6.3650 -3.8224 -1.7130 0.2365 0 1
6.3746 -3.8087 -1.7133 0.2364 0 1
6.3842 -3.7951 -1.7136 0.2364 0 1
6.3938 -3.7814 -1.7139 0.2364 0 1
6.4034 -3.7677 -1.7142 0.2363 0 1
6.4129 -3.7540 -1.7145 0.2363 0 1
6.4225 -3.7402 -1.7148 0.2362 0 1
6.4320 -3.7264 -1.7151 0.2362 0 1
6.4414 -3.7126 -1.7154 0.2362 0 1
6.4509 -3.6988 -1.7157 0.2361 0 1
6.4603 -3.6849 -1.7160 0.2361 0 1
6.4696 -3.6711 -1.7163 0.2360 0 1
6.4790 -3.6572 -1.7166 0.2360 0 1
6.4883 -3.6433 -1.7169 0.2360 0 1
6.4976 -3.6294 -1.7172 0.2359 0 1
6.5069 -3.6154 -1.7175 0.2359 0 1
6.5161 -3.6014 -1.7178 0.2358 0 1
6.5254 -3.5874 -1.7181 0.2358 0 1
6.5345 -3.5734 -1.7184 0.2357 0 1
6.5437 -3.5594 -1.7187 0.2357 0 1
6.5528 -3.5453 -1.7190 0.2357 0 1
6.5619 -3.5312 -1.7193 0.2356 0 1
6.5710 -3.5171 -1.7196 0.2356 0 1
6.5801 -3.5030 -1.7199 0.2355 0 1
6.5890 -3.4888 -1.7202 0.2355 0 1
6.5980 -3.4746 -1.7205 0.2355 0 1
6.6070 -3.4604 -1.7208 0.2354 0 1
6.6159 -3.4462 -1.7211 0.2354 0 1
6.6248 -3.4320 -1.7214 0.2353 0 1
6.6337 -3.4177 -1.7217 0.2353 0 1
6.6425 -3.4034 -1.7220 0.2352 0 1
6.6514 -3.3891 -1.7224 0.2352 0 1
6.6602 -3.3748 -1.7227 0.2352 0 1
6.6689 -3.3605 -1.7230 0.2351 0 1
6.6776 -3.3461 -1.7233 0.2351 0 1
6.6863 -3.3317 -1.7236 0.2350 0 1
6.6950 -3.3173 -1.7239 0.2350 0 1
6.7037 -3.3029 -1.7242 0.2349 0 1
6.7123 -3.2884 -1.7245 0.2349 0 1
6.7208 -3.2739 -1.7248 0.2349 0 1
6.7294 -3.2595 -1.7252 0.2348 0 1
6.7379 -3.2449 -1.7255 0.2348 0 1
6.7464 -3.2304 -1.7258 0.2347 0 1
6.7549 -3.2158 -1.7261 0.2347 0 1
6.7633 -3.2012 -1.7264 0.2346 0 1
6.7717 -3.1866 -1.7267 0.2346 0 1
6.7801 -3.1720 -1.7271 0.2346 0 1
6.7884 -3.1574 -1.7274 0.2345 0 1
6.7967 -3.1427 -1.7277 0.2345 0 1
6.8050 -3.1280 -1.7280 0.2344 0 1
6.8133 -3.1133 -1.7283 0.2344 0 1
6.8215 -3.0986 -1.7286 0.2343 0 1
6.8297 -3.0839 -1.7290 0.2343 0 1
6.8379 -3.0691 -1.7293 0.2343 0 1
6.8460 -3.0543 -1.7296 0.2342 0 1
6.8541 -3.0395 -1.7299 0.2342 0 1
6.8622 -3.0246 -1.7302 0.2341 0 1
6.8703 -3.0098 -1.7306 0.2341 0 1
6.8783 -2.9950 -1.7309 0.2340 0 1
6.8863 -2.9800 -1.7312 0.2340 0 1
6.8942 -2.9651 -1.7315 0.2340 0 1
6.9022 -2.9502 -1.7319 0.2339 0 1
6.9101 -2.9353 -1.7322 0.2339 0 1
6.9179 -2.9203 -1.7325 0.2338 0 1
6.9258 -2.9053 -1.7328 0.2338 0 1
6.9335 -2.8903 -1.7332 0.2337 0 1
6.9413 -2.8753 -1.7335 0.2337 0 1
6.9491 -2.8602 -1.7338 0.2336 0 1
6.9568 -2.8452 -1.7341 0.2336 0 1
6.9645 -2.8301 -1.7345 0.2336 0 1
6.9721 -2.8150 -1.7348 0.2335 0 1
6.9797 -2.7998 -1.7351 0.2335 0 1
6.9873 -2.7847 -1.7355 0.2334 0 1
6.9949 -2.7696 -1.7358 0.2334 0 1
7.0024 -2.7544 -1.7361 0.2333 0 1
7.0099 -2.7392 -1.7364 0.2333 0 1
7.0174 -2.7239 -1.7368 0.2332 0 1
7.0248 -2.7088 -1.7371 0.2332 0 1
7.0322 -2.6935 -1.7374 0.2332 0 1
7.0396 -2.6782 -1.7378 0.2331 0 1
7.0469 -2.6629 -1.7381 0.2331 0 1
7.0542 -2.6476 -1.7384 0.2330 0 1
7.0615 -2.6323 -1.7388 0.2330 0 1
7.0687 -2.6169 -1.7391 0.2329 0 1
7.0760 -2.6016 -1.7394 0.2329 0 1
7.0831 -2.5861 -1.7398 0.2328 0 1
7.0903 -2.5707 -1.7401 0.2328 0 1
7.0974 -2.5553 -1.7404 0.2328 0 1
7.1045 -2.5399 -1.7408 0.2327 0 1
7.1115 -2.5244 -1.7411 0.2327 0 1
7.1186 -2.5089 -1.7414 0.2326 0 1
7.1256 -2.4934 -1.7418 0.2326 0 1
7.1325 -2.4779 -1.7421 0.2325 0 1
7.1394 -2.4624 -1.7425 0.2325 0 1
7.1463 -2.4468 -1.7428 0.2324 0 1
7.1532 -2.4313 -1.7431 0.2324 0 1
7.1600 -2.4157 -1.7435 0.2324 0 1
7.1668 -2.4001 -1.7438 0.2323 0 1
7.1736 -2.3844 -1.7442 0.2323 0 1
7.1804 -2.3688 -1.7445 0.2322 0 1
7.1871 -2.3531 -1.7448 0.2322 0 1
7.1937 -2.3375 -1.7452 0.2321 0 1
7.2004 -2.3218 -1.7455 0.2321 0 1
7.2069 -2.3061 -1.7459 0.2320 0 1
7.2135 -2.2904 -1.7462 0.2320 0 1
7.2200 -2.2746 -1.7465 0.2319 0 1
7.2266 -2.2588 -1.7469 0.2319 0 1
7.2330 -2.2431 -1.7472 0.2319 0 1
7.2395 -2.2273 -1.7476 0.2318 0 1
7.2459 -2.2114 -1.7479 0.2318 0 1
7.2522 -2.1956 -1.7483 0.2317 0 1
7.2586 -2.1798 -1.7486 0.2317 0 1
7.2649 -2.1639 -1.7490 0.2316 0 1
7.2712 -2.1480 -1.7493 0.2316 0 1
7.2774 -2.1321 -1.7496 0.2315 0 1
7.2837 -2.1162 -1.7500 0.2315 0 1
7.2898 -2.1003 -1.7503 0.2314 0 1
7.2960 -2.0843 -1.7507 0.2314 0 1
7.3021 -2.0684 -1.7510 0.2313 0 1
7.3081 -2.0523 -1.7514 0.2313 0 1
7.3142 -2.0363 -1.7517 0.2313 0 1
7.3202 -2.0204 -1.7521 0.2312 0 1
7.3262 -2.0043 -1.7524 0.2312 0 1
7.3321 -1.9882 -1.7528 0.2311 0 1
7.3380 -1.9722 -1.7531 0.2311 0 1
7.3439 -1.9561 -1.7535 0.2310 0 1
7.3497 -1.9400 -1.7538 0.2310 0 1
7.3555 -1.9239 -1.7542 0.2309 0 1
7.3613 -1.9078 -1.7545 0.2309 0 1
7.3671 -1.8916 -1.7549 0.2308 0 1
7.3728 -1.8755 -1.7552 0.2308 0 1
7.3785 -1.8593 -1.7556 0.2307 0 1
7.3841 -1.8431 -1.7560 0.2307 0 1
7.3897 -1.8269 -1.7563 0.2307 0 1
7.3953 -1.8107 -1.7567 0.2306 0 1
7.4008 -1.7945 -1.7570 0.2306 0 1
7.4063 -1.7782 -1.7574 0.2305 0 1
7.4118 -1.7620 -1.7577 0.2305 0 1
7.4172 -1.7456 -1.7581 0.2304 0 1
7.4226 -1.7293 -1.7584 0.2304 0 1
7.4280 -1.7130 -1.7588 0.2303 0 1
7.4333 -1.6967 -1.7591 0.2303 0 1
7.4386 -1.6804 -1.7595 0.2302 0 1
7.4439 -1.6640 -1.7599 0.2302 0 1
7.4491 -1.6476 -1.7602 0.2301 0 1
7.4543 -1.6312 -1.7606 0.2301 0 1
7.4595 -1.6148 -1.7609 0.2300 0 1
7.4646 -1.5984 -1.7613 0.2300 0 1
7.4697 -1.5820 -1.7617 0.2300 0 1
7.4747 -1.5655 -1.7620 0.2299 0 1
7.4798 -1.5491 -1.7624 0.2299 0 1
7.4847 -1.5326 -1.7627 0.2298 0 1
7.4897 -1.5161 -1.7631 0.2298 0 1
7.4946 -1.4996 -1.7635 0.2297 0 1
7.4995 -1.4831 -1.7638 0.2297 0 1
7.5043 -1.4666 -1.7642 0.2296 0 1
7.5092 -1.4500 -1.7645 0.2296 0 1
7.5139 -1.4334 -1.7649 0.2295 0 1
7.5187 -1.4169 -1.7653 0.2295 0 1
7.5234 -1.4003 -1.7656 0.2294 0 1
7.5280 -1.3837 -1.7660 0.2294 0 1
7.5327 -1.3671 -1.7664 0.2293 0 1
7.5373 -1.3504 -1.7667 0.2293 0 1
7.5419 -1.3338 -1.7671 0.2292 0 1
7.5463 -1.3171 -1.7674 0.2292 0 1
7.5509 -1.3005 -1.7678 0.2292 0 1
7.5553 -1.2838 -1.7682 0.2291 0 1
7.5597 -1.2671 -1.7685 0.2291 0 1
7.5641 -1.2504 -1.7689 0.2290 0 1
7.5685 -1.2337 -1.7693 0.2290 0 1
7.5728 -1.2169 -1.7696 0.2289 0 1
7.5771 -1.2002 -1.7700 0.2289 0 1
7.5813 -1.1834 -1.7704 0.2288 0 1
7.5855 -1.1666 -1.7707 0.2288 0 1
7.5897 -1.1498 -1.7711 0.2287 0 1
7.5938 -1.1330 -1.7715 0.2287 0 1
7.5980 -1.1162 -1.7718 0.2286 0 1
7.6020 -1.0995 -1.7722 0.2286 0 1
7.6061 -1.0826 -1.7726 0.2285 0 1
7.6101 -1.0657 -1.7730 0.2285 0 1
7.6140 -1.0489 -1.7733 0.2284 0 1
7.6179 -1.0320 -1.7737 0.2284 0 1
7.6218 -1.0151 -1.7741 0.2283 0 1
7.6257 -0.9982 -1.7744 0.2283 0 1
7.6295 -0.9813 -1.7748 0.2282 0 1
7.6333 -0.9644 -1.7752 0.2282 0 1
7.6370 -0.9475 -1.7755 0.2282 0 1
7.6407 -0.9305 -1.7759 0.2281 0 1
7.6444 -0.9136 -1.7763 0.2281 0 1
7.6480 -0.8966 -1.7767 0.2280 0 1
7.6516 -0.8796 -1.7770 0.2280 0 1
7.6552 -0.8627 -1.7774 0.2279 0 1
7.6587 -0.8457 -1.7778 0.2279 0 1
7.6622 -0.8286 -1.7782 0.2278 0 1
7.6656 -0.8116 -1.7785 0.2278 0 1
7.6690 -0.7946 -1.7789 0.2277 0 1
7.6724 -0.7775 -1.7793 0.2277 0 1
7.6758 -0.7604 -1.7797 0.2276 0 1
7.6790 -0.7434 -1.7800 0.2276 0 1
7.6823 -0.7263 -1.7804 0.2275 0 1
7.6855 -0.7092 -1.7808 0.2275 0 1
7.6888 -0.6921 -1.7812 0.2274 0 1
7.6919 -0.6750 -1.7815 0.2274 0 1
7.6950 -0.6579 -1.7819 0.2273 0 1
7.6981 -0.6407 -1.7823 0.2273 0 1
7.7012 -0.6236 -1.7827 0.2272 0 1
7.7042 -0.6064 -1.7830 0.2272 0 1
7.7071 -0.5893 -1.7834 0.2271 0 1
7.7101 -0.5721 -1.7838 0.2271 0 1
7.7130 -0.5549 -1.7842 0.2271 0 1
7.7158 -0.5377 -1.7845 0.2270 0 1
7.7187 -0.5205 -1.7849 0.2270 0 1
7.7214 -0.5033 -1.7853 0.2269 0 1
7.7242 -0.4861 -1.7857 0.2269 0 1
7.7269 -0.4688 -1.7861 0.2268 0 1
7.7295 -0.4516 -1.7864 0.2268 0 1
7.7322 -0.4343 -1.7868 0.2267 0 1
7.7348 -0.4170 -1.7872 0.2267 0 1
7.7373 -0.3998 -1.7876 0.2266 0 1
7.7399 -0.3825 -1.7880 0.2266 0 1
7.7424 -0.3652 -1.7883 0.2265 0 1
7.7448 -0.3479 -1.7887 0.2265 0 1
7.7472 -0.3306 -1.7891 0.2264 0 1
7.7496 -0.3133 -1.7895 0.2264 0 1
7.7519 -0.2959 -1.7899 0.2263 0 1
7.7542 -0.2786 -1.7902 0.2263 0 1
7.7565 -0.2613 -1.7906 0.2262 0 1
7.7587 -0.2439 -1.7910 0.2262 0 1
7.7609 -0.2266 -1.7914 0.2261 0 1
7.7630 -0.2091 -1.7918 0.2261 0 1
7.7651 -0.1918 -1.7921 0.2260 0 1
7.7672 -0.1744 -1.7925 0.2260 0 1
7.7692 -0.1570 -1.7929 0.2259 0 1
7.7712 -0.1396 -1.7933 0.2259 0 1
7.7731 -0.1222 -1.7937 0.2258 0 1
7.7751 -0.1048 -1.7941 0.2258 0 1
7.7769 -0.0873 -1.7944 0.2258 0 1
7.7788 -0.0699 -1.7948 0.2257 0 1
7.7806 -0.0525 -1.7952 0.2257 0 1
7.7824 -0.0350 -1.7956 0.2256 0 1
7.7841 -0.0175 -1.7960 0.2256 0 1
7.7858 -0.0001 -1.7964 0.2255 0 1
7.7874 0.0174 -1.7968 0.2255 0 1
7.7890 0.0349 -1.7971 0.2254 0 1
7.7906 0.0523 -1.7975 0.2254 0 1
7.7921 0.0699 -1.7979 0.2253 0 1
7.7936 0.0874 -1.7983 0.2253 0 1
7.7951 0.1049 -1.7987 0.2252 0 1
7.7965 0.1224 -1.7991 0.2252 0 1
7.7979 0.1399 -1.7995 0.2251 0 1
7.7992 0.1575 -1.7998 0.2251 0 1
7.8005 0.1750 -1.8002 0.2250 0 1
7.8018 0.1925 -1.8006 0.2250 0 1
7.8030 0.2101 -1.8010 0.2249 0 1
7.8042 0.2276 -1.8014 0.2249 0 1
7.8054 0.2452 -1.8018 0.2248 0 1
7.8065 0.2627 -1.8022 0.2248 0 1
7.8075 0.2803 -1.8025 0.2247 0 1
7.8086 0.2979 -1.8029 0.2247 0 1
7.8096 0.3155 -1.8033 0.2246 0 1
7.8105 0.3331 -1.8037 0.2246 0 1
7.8114 0.3507 -1.8041 0.2245 0 1
7.8123 0.3683 -1.8045 0.2245 0 1
7.8131 0.3859 -1.8049 0.2244 0 1
7.8139 0.4035 -1.8053 0.2244 0 1
7.8147 0.4212 -1.8057 0.2244 0 1
7.8154 0.4388 -1.8060 0.2243 0 1
7.8161 0.4564 -1.8064 0.2243 0 1
7.8167 0.4741 -1.8068 0.2242 0 1
7.8173 0.4917 -1.8072 0.2242 0 1
7.8179 0.5094 -1.8076 0.2241 0 1
7.8184 0.5270 -1.8080 0.2241 0 1
7.8189 0.5446 -1.8084 0.2240 0 1
7.8193 0.5623 -1.8088 0.2240 0 1
7.8197 0.5800 -1.8092 0.2239 0 1
7.8201 0.5977 -1.8095 0.2239 0 1
7.8204 0.6154 -1.8099 0.2238 0 1
7.8207 0.6331 -1.8103 0.2238 0 1
7.8209 0.6508 -1.8107 0.2237 0 1
7.8212 0.6684 -1.8111 0.2237 0 1
7.8213 0.6861 -1.8115 0.2236 0 1
7.8215 0.7039 -1.8119 0.2236 0 1
7.8215 0.7216 -1.8123 0.2235 0 1
7.8216 0.7393 -1.8127 0.2235 0 1
7.8216 0.7570 -1.8131 0.2234 0 1
7.8216 0.7747 -1.8135 0.2234 0 1
7.8215 0.7924 -1.8138 0.2233 0 1
7.8214 0.8102 -1.8142 0.2233 0 1
7.8212 0.8279 -1.8146 0.2232 0 1
7.8211 0.8456 -1.8150 0.2232 0 1
7.8208 0.8634 -1.8154 0.2231 0 1
7.8206 0.8811 -1.8158 0.2231 0 1
7.8203 0.8988 -1.8162 0.2230 0 1
7.8199 0.9166 -1.8166 0.2230 0 1
7.8195 0.9343 -1.8170 0.2230 0 1
7.8191 0.9521 -1.8174 0.2229 0 1
7.8186 0.9698 -1.8178 0.2229 0 1
7.8181 0.9876 -1.8182 0.2228 0 1
7.8176 1.0054 -1.8186 0.2228 0 1
7.8169 1.0230 -1.8190 0.2227 0 1
7.8163 1.0408 -1.8193 0.2227 0 1
7.8157 1.0586 -1.8197 0.2226 0 1
7.8150 1.0764 -1.8201 0.2226 0 1
7.8142 1.0941 -1.8205 0.2225 0 1
7.8135 1.1119 -1.8209 0.2225 0 1
7.8126 1.1297 -1.8213 0.2224 0 1
7.8117 1.1475 -1.8217 0.2224 0 1
7.8108 1.1652 -1.8221 0.2223 0 1
7.8099 1.1830 -1.8225 0.2223 0 1
7.8089 1.2008 -1.8229 0.2222 0 1
7.8079 1.2186 -1.8233 0.2222 0 1
7.8068 1.2364 -1.8237 0.2221 0 1
7.8057 1.2542 -1.8241 0.2221 0 1
7.8046 1.2720 -1.8245 0.2220 0 1
7.8033 1.2898 -1.8249 0.2220 0 1
7.8021 1.3076 -1.8252 0.2219 0 1
7.8009 1.3253 -1.8256 0.2219 0 1
7.7996 1.3431 -1.8260 0.2218 0 1
7.7982 1.3609 -1.8264 0.2218 0 1
7.7968 1.3787 -1.8268 0.2218 0 1
7.7954 1.3965 -1.8272 0.2217 0 1
7.7939 1.4143 -1.8276 0.2217 0 1
7.7924 1.4321 -1.8280 0.2216 0 1
7.7908 1.4499 -1.8284 0.2216 0 1
7.7892 1.4677 -1.8288 0.2215 0 1
7.7876 1.4855 -1.8292 0.2215 0 1
7.7859 1.5033 -1.8296 0.2214 0 1
7.7842 1.5211 -1.8300 0.2214 0 1
7.7825 1.5389 -1.8304 0.2213 0 1
7.7807 1.5567 -1.8308 0.2213 0 1
7.7788 1.5745 -1.8312 0.2212 0 1
7.7770 1.5922 -1.8316 0.2212 0 1
7.7751 1.6101 -1.8320 0.2211 0 1
7.7731 1.6279 -1.8323 0.2211 0 1
7.7711 1.6456 -1.8327 0.2210 0 1
7.7690 1.6634 -1.8331 0.2210 0 1
7.7670 1.6812 -1.8335 0.2209 0 1
7.7649 1.6990 -1.8339 0.2209 0 1
7.7627 1.7168 -1.8343 0.2208 0 1
7.7605 1.7346 -1.8347 0.2208 0 1
7.7582 1.7523 -1.8351 0.2207 0 1
7.7559 1.7701 -1.8355 0.2207 0 1
7.7536 1.7879 -1.8359 0.2207 0 1
7.7512 1.8057 -1.8363 0.2206 0 1
7.7489 1.8235 -1.8367 0.2206 0 1
7.7464 1.8413 -1.8371 0.2205 0 1
7.7439 1.8591 -1.8375 0.2205 0 1
7.7414 1.8768 -1.8379 0.2204 0 1
7.7388 1.8946 -1.8383 0.2204 0 1
7.7362 1.9124 -1.8387 0.2203 0 1
7.7336 1.9302 -1.8391 0.2203 0 1
7.7308 1.9479 -1.8395 0.2202 0 1
7.7281 1.9657 -1.8398 0.2202 0 1
7.7254 1.9834 -1.8402 0.2201 0 1
7.7225 2.0013 -1.8406 0.2201 0 1
7.7197 2.0189 -1.8410 0.2200 0 1
7.7168 2.0367 -1.8414 0.2200 0 1
7.7138 2.0545 -1.8418 0.2199 0 1
7.7109 2.0722 -1.8422 0.2199 0 1
7.7078 2.0900 -1.8426 0.2199 0 1
7.7048 2.1077 -1.8430 0.2198 0 1
7.7017 2.1255 -1.8434 0.2198 0 1
7.6985 2.1432 -1.8438 0.2197 0 1
7.6954 2.1609 -1.8442 0.2197 0 1
7.6921 2.1786 -1.8446 0.2196 0 1
7.6889 2.1964 -1.8450 0.2196 0 1
7.6856 2.2141 -1.8454 0.2195 0 1
7.6822 2.2318 -1.8458 0.2195 0 1
7.6788 2.2495 -1.8462 0.2194 0 1
7.6754 2.2672 -1.8465 0.2194 0 1
7.6719 2.2850 -1.8469 0.2193 0 1
7.6684 2.3026 -1.8473 0.2193 0 1
7.6649 2.3204 -1.8477 0.2192 0 1
7.6613 2.3380 -1.8481 0.2192 0 1
7.6577 2.3557 -1.8485 0.2191 0 1
7.6539 2.3734 -1.8489 0.2191 0 1
7.6502 2.3911 -1.8493 0.2191 0 1
7.6465 2.4087 -1.8497 0.2190 0 1
7.6427 2.4264 -1.8501 0.2190 0 1
7.6388 2.4440 -1.8505 0.2189 0 1
7.6350 2.4617 -1.8509 0.2189 0 1
7.6310 2.4794 -1.8513 0.2188 0 1
7.6271 2.4971 -1.8517 0.2188 0 1
7.6231 2.5147 -1.8521 0.2187 0 1
7.6190 2.5323 -1.8524 0.2187 0 1
7.6149 2.5500 -1.8528 0.2186 0 1
7.6108 2.5675 -1.8532 0.2186 0 1
7.6067 2.5852 -1.8536 0.2185 0 1
7.6024 2.6028 -1.8540 0.2185 0 1
7.5981 2.6204 -1.8544 0.2185 0 1
7.5939 2.6380 -1.8548 0.2184 0 1
7.5895 2.6556 -1.8552 0.2184 0 1
7.5852 2.6732 -1.8556 0.2183 0 1
7.5807 2.6908 -1.8560 0.2183 0 1
7.5763 2.7084 -1.8564 0.2182 0 1
7.5718 2.7259 -1.8568 0.2182 0 1
7.5672 2.7435 -1.8572 0.2181 0 1
7.5627 2.7610 -1.8575 0.2181 0 1
7.5581 2.7786 -1.8579 0.2180 0 1
7.5534 2.7961 -1.8583 0.2180 0 1
7.5487 2.8137 -1.8587 0.2179 0 1
7.5439 2.8312 -1.8591 0.2179 0 1
7.5391 2.8487 -1.8595 0.2179 0 1
7.5343 2.8662 -1.8599 0.2178 0 1
7.5294 2.8837 -1.8603 0.2178 0 1
7.5246 2.9012 -1.8607 0.2177 0 1
7.5196 2.9187 -1.8611 0.2177 0 1
7.5146 2.9362 -1.8615 0.2176 0 1
7.5096 2.9537 -1.8618 0.2176 0 1
7.5045 2.9712 -1.8622 0.2175 0 1
7.4994 2.9886 -1.8626 0.2175 0 1
7.4942 3.0061 -1.8630 0.2174 0 1
7.4890 3.0235 -1.8634 0.2174 0 1
7.4837 3.0410 -1.8638 0.2174 0 1
7.4785 3.0583 -1.8642 0.2173 0 1
7.4731 3.0757 -1.8646 0.2173 0 1
7.4678 3.0932 -1.8650 0.2172 0 1
7.4624 3.1105 -1.8653 0.2172 0 1
7.4569 3.1280 -1.8657 0.2171 0 1
7.4514 3.1454 -1.8661 0.2171 0 1
7.4459 3.1627 -1.8665 0.2170 0 1
7.4403 3.1801 -1.8669 0.2170 0 1
7.4347 3.1974 -1.8673 0.2169 0 1
7.4291 3.2148 -1.8677 0.2169 0 1
7.4234 3.2321 -1.8681 0.2169 0 1
7.4176 3.2495 -1.8684 0.2168 0 1
7.4119 3.2668 -1.8688 0.2168 0 1
7.4060 3.2841 -1.8692 0.2167 0 1
7.4002 3.3014 -1.8696 0.2167 0 1
7.3943 3.3186 -1.8700 0.2166 0 1
7.3883 3.3359 -1.8704 0.2166 0 1
7.3824 3.3531 -1.8708 0.2165 0 1
7.3763 3.3704 -1.8712 0.2165 0 1
7.3703 3.3877 -1.8715 0.2165 0 1
7.3642 3.4048 -1.8719 0.2164 0 1
7.3580 3.4221 -1.8723 0.2164 0 1
7.3519 3.4393 -1.8727 0.2163 0 1
7.3456 3.4565 -1.8731 0.2163 0 1
7.3394 3.4737 -1.8735 0.2162 0 1
7.3330 3.4909 -1.8738 0.2162 0 1
7.3267 3.5080 -1.8742 0.2161 0 1
7.3203 3.5252 -1.8746 0.2161 0 1
7.3139 3.5423 -1.8750 0.2161 0 1
7.3074 3.5595 -1.8754 0.2160 0 1
7.3009 3.5766 -1.8758 0.2160 0 1
7.2943 3.5937 -1.8762 0.2159 0 1
7.2877 3.6108 -1.8765 0.2159 0 1
7.2811 3.6279 -1.8769 0.2158 0 1
7.2744 3.6450 -1.8773 0.2158 0 1
7.2677 3.6620 -1.8777 0.2157 0 1
7.2610 3.6791 -1.8781 0.2157 0 1
7.2542 3.6961 -1.8784 0.2157 0 1
7.2473 3.7131 -1.8788 0.2156 0 1
7.2404 3.7301 -1.8792 0.2156 0 1
7.2335 3.7471 -1.8796 0.2155 0 1
7.2265 3.7641 -1.8800 0.2155 0 1
7.2195 3.7810 -1.8803 0.2154 0 1
7.2125 3.7980 -1.8807 0.2154 0 1
7.2054 3.8150 -1.8811 0.2154 0 1
7.1982 3.8319 -1.8815 0.2153 0 1
7.1911 3.8488 -1.8819 0.2153 0 1
7.1839 3.8657 -1.8822 0.2152 0 1
7.1766 3.8827 -1.8826 0.2152 0 1
7.1694 3.8995 -1.8830 0.2151 0 1
7.1620 3.9164 -1.8834 0.2151 0 1
7.1547 3.9332 -1.8838 0.2150 0 1
7.1472 3.9501 -1.8841 0.2150 0 1
7.1398 3.9669 -1.8845 0.2150 0 1
7.1323 3.9837 -1.8849 0.2149 0 1
7.1248 4.0005 -1.8853 0.2149 0 1
7.1172 4.0173 -1.8856 0.2148 0 1
7.1096 4.0340 -1.8860 0.2148 0 1
7.1019 4.0508 -1.8864 0.2147 0 1
7.0942 4.0676 -1.8868 0.2147 0 1
7.0865 4.0843 -1.8871 0.2147 0 1
7.0787 4.1010 -1.8875 0.2146 0 1
7.0709 4.1177 -1.8879 0.2146 0 1
7.0630 4.1343 -1.8883 0.2145 0 1
7.0551 4.1510 -1.8886 0.2145 0 1
7.0472 4.1676 -1.8890 0.2144 0 1
7.0392 4.1843 -1.8894 0.2144 0 1
7.0312 4.2009 -1.8898 0.2144 0 1
7.0231 4.2175 -1.8901 0.2143 0 1
7.0151 4.2340 -1.8905 0.2143 0 1
7.0069 4.2506 -1.8909 0.2142 0 1
6.9987 4.2672 -1.8913 0.2142 0 1
6.9905 4.2837 -1.8916 0.2142 0 1
6.9822 4.3002 -1.8920 0.2141 0 1
6.9740 4.3167 -1.8924 0.2141 0 1
6.9656 4.3332 -1.8927 0.2140 0 1
6.9572 4.3497 -1.8931 0.2140 0 1
6.9488 4.3661 -1.8935 0.2139 0 1
6.9403 4.3826 -1.8939 0.2139 0 1
6.9319 4.3990 -1.8942 0.2139 0 1
6.9233 4.4154 -1.8946 0.2138 0 1
6.9147 4.4318 -1.8950 0.2138 0 1
6.9061 4.4482 -1.8953 0.2137 0 1
6.8974 4.4645 -1.8957 0.2137 0 1
6.8887 4.4809 -1.8961 0.2137 0 1
6.8800 4.4972 -1.8964 0.2136 0 1
6.8712 4.5135 -1.8968 0.2136 0 1
6.8624 4.5298 -1.8972 0.2135 0 1
6.8536 4.5460 -1.8975 0.2135 0 1
6.8447 4.5623 -1.8979 0.2134 0 1
6.8357 4.5785 -1.8983 0.2134 0 1
6.8267 4.5947 -1.8986 0.2134 0 1
6.8177 4.6109 -1.8990 0.2133 0 1
6.8086 4.6271 -1.8994 0.2133 0 1
6.7996 4.6432 -1.8997 0.2132 0 1
6.7904 4.6594 -1.9001 0.2132 0 1
6.7812 4.6755 -1.9004 0.2132 0 1
6.7720 4.6916 -1.9008 0.2131 0 1
6.7628 4.7077 -1.9012 0.2131 0 1
6.7535 4.7238 -1.9015 0.2130 0 1
6.7441 4.7398 -1.9019 0.2130 0 1
6.7347 4.7558 -1.9023 0.2130 0 1
6.7253 4.7718 -1.9026 0.2129 0 1
6.7159 4.7878 -1.9030 0.2129 0 1
6.7064 4.8038 -1.9033 0.2128 0 1
6.6969 4.8197 -1.9037 0.2128 0 1
6.6873 4.8357 -1.9041 0.2128 0 1
6.6777 4.8516 -1.9044 0.2127 0 1
6.6680 4.8675 -1.9048 0.2127 0 1
6.6584 4.8834 -1.9051 0.2126 0 1
6.6486 4.8991 -1.9055 0.2126 0 1
6.6388 4.9150 -1.9058 0.2126 0 1
6.6290 4.9308 -1.9062 0.2125 0 1
6.5973 4.9302 -1.9003 0.0099 0 2
6.2312 4.6785 -1.7978 0.2124 0 2
6.2219 4.6934 -1.7982 0.2124 0 2
6.2125 4.7082 -1.7985 0.2124 0 2
6.2030 4.7229 -1.7988 0.2123 0 2
6.1935 4.7377 -1.7992 0.2123 0 2
6.1840 4.7525 -1.7995 0.2122 0 2
6.1745 4.7673 -1.7998 0.2122 0 2
6.1649 4.7820 -1.8002 0.2122 0 2
6.1554 4.7967 -1.8005 0.2121 0 2
6.2288 4.8765 -1.8252 0.0221 0 2
6.1700 4.8528 -1.8111 0.0771 0 2
6.1263 4.8407 -1.8015 0.2120 0 2
6.1166 4.8554 -1.8018 0.2120 0 2
6.1068 4.8699 -1.8021 0.2119 0 2
6.0969 4.8845 -1.8025 0.2119 0 2
6.0870 4.8991 -1.8028 0.2119 0 2
6.0771 4.9136 -1.8031 0.2118 0 2
6.0672 4.9282 -1.8035 0.2118 0 2
6.0572 4.9426 -1.8038 0.2117 0 2
6.0472 4.9571 -1.8041 0.2117 0 2
6.0372 4.9716 -1.8044 0.2117 0 2
6.0271 4.9860 -1.8048 0.2116 0 2
6.0169 5.0004 -1.8051 0.2116 0 2
6.0068 5.0148 -1.8054 0.2115 0 2
5.9966 5.0292 -1.8057 0.2115 0 2
5.9864 5.0435 -1.8061 0.2115 0 2
5.9762 5.0578 -1.8064 0.2114 0 2
5.9658 5.0721 -1.8067 0.2114 0 2
5.9555 5.0864 -1.8070 0.2114 0 2
5.9451 5.1007 -1.8074 0.2113 0 2
5.9347 5.1149 -1.8077 0.2113 0 2
5.9243 5.1291 -1.8080 0.2112 0 2
5.9138 5.1434 -1.8083 0.2112 0 2
5.9033 5.1575 -1.8086 0.2112 0 2
5.8928 5.1717 -1.8090 0.2111 0 2
5.8822 5.1858 -1.8093 0.2111 0 2
5.8715 5.1999 -1.8096 0.2111 0 2
5.8609 5.2140 -1.8099 0.2110 0 2
5.8502 5.2280 -1.8102 0.2110 0 2
5.8395 5.2421 -1.8106 0.2109 0 2
5.8287 5.2561 -1.8109 0.2109 0 2
5.8179 5.2700 -1.8112 0.2109 0 2
5.8071 5.2840 -1.8115 0.2108 0 2
5.7963 5.2980 -1.8118 0.2108 0 2
5.7854 5.3119 -1.8121 0.2108 0 2
5.7744 5.3258 -1.8124 0.2107 0 2
5.7635 5.3396 -1.8128 0.2107 0 2
5.7525 5.3535 -1.8131 0.2107 0 2
5.7414 5.3673 -1.8134 0.2106 0 2
5.7304 5.3811 -1.8137 0.2106 0 2
5.7193 5.3948 -1.8140 0.2105 0 2
5.7081 5.4086 -1.8143 0.2105 0 2
5.6969 5.4223 -1.8146 0.2105 0 2
5.6857 5.4361 -1.8149 0.2104 0 2
5.6745 5.4497 -1.8153 0.2104 0 2
5.6632 5.4634 -1.8156 0.2104 0 2
5.6519 5.4770 -1.8159 0.2103 0 2
5.6405 5.4906 -1.8162 0.2103 0 2
5.6292 5.5042 -1.8165 0.2103 0 2
5.6178 5.5178 -1.8168 0.2102 0 2
5.6063 5.5313 -1.8171 0.2102 0 2
5.5948 5.5448 -1.8174 0.2101 0 2
5.5833 5.5583 -1.8177 0.2101 0 2
4.9863 -4.9864 -1.6883 0.2485 0 1
4.9981 -4.9759 -1.6886 0.2485 0 1
5.0099 -4.9653 -1.6888 0.2484 0 1
5.0217 -4.9546 -1.6890 0.2484 0 1
5.0335 -4.9441 -1.6892 0.2484 0 1
5.0453 -4.9334 -1.6895 0.2483 0 1
5.0570 -4.9227 -1.6897 0.2483 0 1
5.0687 -4.9120 -1.6899 0.2483 0 1
5.0804 -4.9013 -1.6901 0.2482 0 1
5.0921 -4.8906 -1.6904 0.2482 0 1
5.1037 -4.8798 -1.6906 0.2482 0 1
5.1153 -4.8690 -1.6908 0.2481 0 1
5.1270 -4.8581 -1.6911 0.2481 0 1
5.1385 -4.8472 -1.6913 0.2481 0 1
5.1501 -4.8364 -1.6915 0.2480 0 1
5.1617 -4.8255 -1.6918 0.2480 0 1
5.1732 -4.8145 -1.6920 0.2480 0 1
5.1847 -4.8036 -1.6922 0.2479 0 1
5.1962 -4.7926 -1.6925 0.2479 0 1
5.2077 -4.7816 -1.6927 0.2479 0 1
5.2191 -4.7706 -1.6929 0.2478 0 1
5.2305 -4.7595 -1.6932 0.2478 0 1
5.2419 -4.7484 -1.6934 0.2478 0 1
5.2533 -4.7373 -1.6936 0.2477 0 1
5.2646 -4.7262 -1.6939 0.2477 0 1
5.2760 -4.7150 -1.6941 0.2477 0 1
5.2873 -4.7038 -1.6944 0.2476 0 1
5.2986 -4.6926 -1.6946 0.2476 0 1
5.3098 -4.6814 -1.6948 0.2476 0 1
5.3211 -4.6701 -1.6951 0.2475 0 1
5.3323 -4.6588 -1.6953 0.2475 0 1
5.3435 -4.6475 -1.6956 0.2474 0 1
5.3547 -4.6362 -1.6958 0.2474 0 1
5.3658 -4.6248 -1.6960 0.2474 0 1
5.3770 -4.6134 -1.6963 0.2473 0 1
5.3881 -4.6020 -1.6965 0.2473 0 1
5.3992 -4.5905 -1.6968 0.2473 0 1
5.4102 -4.5791 -1.6970 0.2472 0 1
5.4213 -4.5676 -1.6973 0.2472 0 1
5.4323 -4.5561 -1.6975 0.2472 0 1
5.4433 -4.5445 -1.6978 0.2471 0 1
5.4543 -4.5330 -1.6980 0.2471 0 1
5.4653 -4.5214 -1.6982 0.2471 0 1
5.4762 -4.5097 -1.6985 0.2470 0 1
5.4871 -4.4981 -1.6987 0.2470 0 1
5.4980 -4.4864 -1.6990 0.2469 0 1
5.5088 -4.4748 -1.6992 0.2469 0 1
5.5197 -4.4630 -1.6995 0.2469 0 1
5.5305 -4.4513 -1.6997 0.2468 0 1
5.5413 -4.4395 -1.7000 0.2468 0 1
5.5521 -4.4278 -1.7002 0.2468 0 1
5.5628 -4.4159 -1.7005 0.2467 0 1
5.5735 -4.4041 -1.7008 0.2467 0 1
5.5843 -4.3922 -1.7010 0.2467 0 1
5.5949 -4.3804 -1.7013 0.2466 0 1
5.6056 -4.3684 -1.7015 0.2466 0 1
5.6162 -4.3565 -1.7018 0.2465 0 1
5.6268 -4.3446 -1.7020 0.2465 0 1
5.6374 -4.3326 -1.7023 0.2465 0 1
5.6479 -4.3205 -1.7025 0.2464 0 1
5.6585 -4.3085 -1.7028 0.2464 0 1
5.6690 -4.2964 -1.7031 0.2464 0 1
5.6795 -4.2844 -1.7033 0.2463 0 1
5.6900 -4.2723 -1.7036 0.2463 0 1
5.7004 -4.2602 -1.7038 0.2462 0 1
5.7108 -4.2480 -1.7041 0.2462 0 1
5.7212 -4.2358 -1.7044 0.2462 0 1
5.7316 -4.2236 -1.7046 0.2461 0 1
5.7420 -4.2114 -1.7049 0.2461 0 1
5.7523 -4.1991 -1.7051 0.2461 0 1
5.7626 -4.1869 -1.7054 0.2460 0 1
5.7728 -4.1746 -1.7057 0.2460 0 1
5.7831 -4.1623 -1.7059 0.2459 0 1
5.7933 -4.1499 -1.7062 0.2459 0 1
5.8035 -4.1375 -1.7065 0.2459 0 1
5.8137 -4.1252 -1.7067 0.2458 0 1
5.8238 -4.1127 -1.7070 0.2458 0 1
5.8340 -4.1003 -1.7073 0.2458 0 1
5.8440 -4.0879 -1.7075 0.2457 0 1
5.8541 -4.0753 -1.7078 0.2457 0 1
5.8642 -4.0628 -1.7081 0.2456 0 1
5.8742 -4.0503 -1.7083 0.2456 0 1
5.8842 -4.0377 -1.7086 0.2456 0 1
5.8942 -4.0252 -1.7089 0.2455 0 1
5.9041 -4.0125 -1.7092 0.2455 0 1
5.9141 -4.0000 -1.7094 0.2454 0 1
5.9240 -3.9873 -1.7097 0.2454 0 1
5.9338 -3.9746 -1.7100 0.2454 0 1
5.9437 -3.9619 -1.7102 0.2453 0 1
5.9536 -3.9492 -1.7105 0.2453 0 1
5.9633 -3.9365 -1.7108 0.2452 0 1
5.9731 -3.9237 -1.7111 0.2452 0 1
5.9829 -3.9109 -1.7113 0.2452 0 1
5.9926 -3.8981 -1.7116 0.2451 0 1
6.0023 -3.8853 -1.7119 0.2451 0 1
6.0120 -3.8724 -1.7122 0.2450 0 1
6.0216 -3.8596 -1.7124 0.2450 0 1
6.0313 -3.8466 -1.7127 0.2450 0 1
6.0409 -3.8337 -1.7130 0.2449 0 1
6.0504 -3.8208 -1.7133 0.2449 0 1
6.0599 -3.8078 -1.7136 0.2448 0 1
6.0695 -3.7948 -1.7138 0.2448 0 1
6.0790 -3.7818 -1.7141 0.2448 0 1
6.0884 -3.7688 -1.7144 0.2447 0 1
6.0979 -3.7557 -1.7147 0.2447 0 1
6.1073 -3.7427 -1.7150 0.2446 0 1
6.1167 -3.7296 -1.7152 0.2446 0 1
6.1261 -3.7164 -1.7155 0.2446 0 1
6.1354 -3.7033 -1.7158 0.2445 0 1
6.1447 -3.6901 -1.7161 0.2445 0 1
6.1540 -3.6770 -1.7164 0.2444 0 1
6.1632 -3.6637 -1.7167 0.2444 0 1
6.1725 -3.6505 -1.7169 0.2444 0 1
6.1817 -3.6373 -1.7172 0.2443 0 1
6.1908 -3.6240 -1.7175 0.2443 0 1
6.2000 -3.6107 -1.7178 0.2442 0 1
6.2091 -3.5973 -1.7181 0.2442 0 1
6.2183 -3.5840 -1.7184 0.2442 0 1
6.2273 -3.5706 -1.7187 0.2441 0 1
6.2363 -3.5573 -1.7190 0.2441 0 1
6.2454 -3.5439 -1.7192 0.2440 0 1
6.2544 -3.5304 -1.7195 0.2440 0 1
6.2633 -3.5170 -1.7198 0.2440 0 1
6.2722 -3.5035 -1.7201 0.2439 0 1
6.2812 -3.4900 -1.7204 0.2439 0 1
6.2901 -3.4765 -1.7207 0.2438 0 1
6.2989 -3.4630 -1.7210 0.2438 0 1
6.3078 -3.4494 -1.7213 0.2437 0 1
6.3165 -3.4359 -1.7216 0.2437 0 1
6.3253 -3.4222 -1.7219 0.2437 0 1
6.3340 -3.4086 -1.7222 0.2436 0 1
6.3428 -3.3950 -1.7225 0.2436 0 1
6.3515 -3.3813 -1.7228 0.2435 0 1
6.3601 -3.3676 -1.7231 0.2435 0 1
6.3688 -3.3539 -1.7233 0.2435 0 1
6.3774 -3.3402 -1.7236 0.2434 0 1
6.3859 -3.3264 -1.7239 0.2434 0 1
6.3945 -3.3127 -1.7242 0.2433 0 1
6.4030 -3.2989 -1.7245 0.2433 0 1
6.4115 -3.2851 -1.7248 0.2432 0 1
6.4200 -3.2713 -1.7251 0.2432 0 1
6.4284 -3.2574 -1.7254 0.2432 0 1
6.4368 -3.2436 -1.7257 0.2431 0 1
6.4452 -3.2296 -1.7260 0.2431 0 1
6.4536 -3.2157 -1.7263 0.2430 0 1
6.4619 -3.2018 -1.7266 0.2430 0 1
6.4702 -3.1879 -1.7269 0.2430 0 1
6.4785 -3.1739 -1.7272 0.2429 0 1
6.4867 -3.1599 -1.7275 0.2429 0 1
6.4949 -3.1459 -1.7278 0.2428 0 1
6.5031 -3.1318 -1.7282 0.2428 0 1
6.5113 -3.1178 -1.7285 0.2427 0 1
6.5194 -3.1037 -1.7288 0.2427 0 1
6.5275 -3.0896 -1.7291 0.2427 0 1
6.5356 -3.0755 -1.7294 0.2426 0 1
6.5436 -3.0614 -1.7297 0.2426 0 1
6.5516 -3.0472 -1.7300 0.2425 0 1
6.5596 -3.0330 -1.7303 0.2425 0 1
6.5676 -3.0189 -1.7306 0.2424 0 1
6.5755 -3.0046 -1.7309 0.2424 0 1
6.5834 -2.9904 -1.7312 0.2424 0 1
6.5913 -2.9761 -1.7315 0.2423 0 1
6.5991 -2.9619 -1.7318 0.2423 0 1
6.6069 -2.9476 -1.7321 0.2422 0 1
6.6147 -2.9333 -1.7325 0.2422 0 1
6.6225 -2.9190 -1.7328 0.2421 0 1
6.6302 -2.9046 -1.7331 0.2421 0 1
6.6379 -2.8903 -1.7334 0.2420 0 1
6.6455 -2.8759 -1.7337 0.2420 0 1
6.6532 -2.8615 -1.7340 0.2420 0 1
6.6608 -2.8470 -1.7343 0.2419 0 1
6.6684 -2.8326 -1.7346 0.2419 0 1
6.6759 -2.8181 -1.7350 0.2418 0 1
6.6834 -2.8037 -1.7353 0.2418 0 1
6.6909 -2.7891 -1.7356 0.2417 0 1
6.6984 -2.7746 -1.7359 0.2417 0 1
6.7058 -2.7601 -1.7362 0.2417 0 1
6.7132 -2.7455 -1.7365 0.2416 0 1
6.7206 -2.7310 -1.7368 0.2416 0 1
6.7279 -2.7164 -1.7372 0.2415 0 1
6.7352 -2.7018 -1.7375 0.2415 0 1
6.7425 -2.6872 -1.7378 0.2414 0 1
6.7497 -2.6725 -1.7381 0.2414 0 1
6.7569 -2.6579 -1.7384 0.2413 0 1
6.7641 -2.6432 -1.7388 0.2413 0 1
6.7713 -2.6284 -1.7391 0.2413 0 1
6.7784 -2.6137 -1.7394 0.2412 0 1
6.7855 -2.5990 -1.7397 0.2412 0 1
6.7926 -2.5842 -1.7400 0.2411 0 1
6.7996 -2.5695 -1.7404 0.2411 0 1
6.8066 -2.5547 -1.7407 0.2410 0 1
6.8136 -2.5399 -1.7410 0.2410 0 1
6.8206 -2.5250 -1.7413 0.2409 0 1
6.8275 -2.5102 -1.7416 0.2409 0 1
6.8343 -2.4953 -1.7420 0.2409 0 1
6.8412 -2.4805 -1.7423 0.2408 0 1
6.8480 -2.4655 -1.7426 0.2408 0 1
6.8548 -2.4507 -1.7429 0.2407 0 1
6.8616 -2.4357 -1.7433 0.2407 0 1
6.8683 -2.4207 -1.7436 0.2406 0 1
6.8750 -2.4058 -1.7439 0.2406 0 1
6.8817 -2.3908 -1.7442 0.2405 0 1
6.8883 -2.3758 -1.7446 0.2405 0 1
6.8949 -2.3607 -1.7449 0.2405 0 1
6.9015 -2.3457 -1.7452 0.2404 0 1
6.9080 -2.3306 -1.7455 0.2404 0 1
6.9146 -2.3156 -1.7459 0.2403 0 1
6.9210 -2.3005 -1.7462 0.2403 0 1
6.9274 -2.2854 -1.7465 0.2402 0 1
6.9339 -2.2703 -1.7469 0.2402 0 1
6.9403 -2.2551 -1.7472 0.2401 0 1
6.9466 -2.2400 -1.7475 0.2401 0 1
6.9529 -2.2248 -1.7478 0.2400 0 1
6.9592 -2.2096 -1.7482 0.2400 0 1
6.9655 -2.1944 -1.7485 0.2400 0 1
6.9717 -2.1792 -1.7488 0.2399 0 1
6.9779 -2.1639 -1.7492 0.2399 0 1
6.9841 -2.1487 -1.7495 0.2398 0 1
6.9902 -2.1334 -1.7498 0.2398 0 1
6.9963 -2.1181 -1.7502 0.2397 0 1
7.0024 -2.1028 -1.7505 0.2397 0 1
7.0085 -2.0875 -1.7508 0.2396 0 1
7.0144 -2.0722 -1.7512 0.2396 0 1
7.0204 -2.0568 -1.7515 0.2395 0 1
7.0263 -2.0414 -1.7518 0.2395 0 1
7.0322 -2.0261 -1.7522 0.2395 0 1
7.0381 -2.0107 -1.7525 0.2394 0 1
7.0440 -1.9953 -1.7529 0.2394 0 1
7.0498 -1.9798 -1.7532 0.2393 0 1
7.0556 -1.9644 -1.7535 0.2393 0 1
7.0613 -1.9489 -1.7539 0.2392 0 1
7.0670 -1.9334 -1.7542 0.2392 0 1
7.0727 -1.9179 -1.7545 0.2391 0 1
7.0783 -1.9025 -1.7549 0.2391 0 1
7.0840 -1.8869 -1.7552 0.2390 0 1
7.0896 -1.8714 -1.7556 0.2390 0 1
7.0951 -1.8558 -1.7559 0.2389 0 1
7.1006 -1.8403 -1.7562 0.2389 0 1
7.1061 -1.8246 -1.7566 0.2389 0 1
7.1116 -1.8090 -1.7569 0.2388 0 1
7.1170 -1.7934 -1.7573 0.2388 0 1
7.1224 -1.7778 -1.7576 0.2387 0 1
7.1278 -1.7622 -1.7579 0.2387 0 1
7.1331 -1.7465 -1.7583 0.2386 0 1
7.1383 -1.7309 -1.7586 0.2386 0 1
7.1436 -1.7151 -1.7590 0.2385 0 1
7.1488 -1.6994 -1.7593 0.2385 0 1
7.1540 -1.6837 -1.7597 0.2384 0 1
7.1592 -1.6680 -1.7600 0.2384 0 1
7.1643 -1.6523 -1.7603 0.2383 0 1
7.1694 -1.6365 -1.7607 0.2383 0 1
7.1745 -1.6207 -1.7610 0.2382 0 1
7.1795 -1.6048 -1.7614 0.2382 0 1
7.1845 -1.5891 -1.7617 0.2382 0 1
7.1895 -1.5733 -1.7621 0.2381 0 1
7.1944 -1.5575 -1.7624 0.2381 0 1
7.1992 -1.5416 -1.7628 0.2380 0 1
7.2041 -1.5257 -1.7631 0.2380 0 1
7.2089 -1.5099 -1.7634 0.2379 0 1
7.2137 -1.4940 -1.7638 0.2379 0 1
7.2185 -1.4781 -1.7641 0.2378 0 1
7.2232 -1.4622 -1.7645 0.2378 0 1
7.2279 -1.4462 -1.7648 0.2377 0 1
7.2326 -1.4303 -1.7652 0.2377 0 1
7.2372 -1.4143 -1.7655 0.2376 0 1
7.2418 -1.3984 -1.7659 0.2376 0 1
7.2463 -1.3824 -1.7662 0.2375 0 1
7.2508 -1.3664 -1.7666 0.2375 0 1
7.2553 -1.3504 -1.7669 0.2375 0 1
7.2598 -1.3344 -1.7673 0.2374 0 1
7.2642 -1.3183 -1.7676 0.2374 0 1
7.2686 -1.3023 -1.7680 0.2373 0 1
7.2729 -1.2862 -1.7683 0.2373 0 1
7.2772 -1.2702 -1.7687 0.2372 0 1
7.2815 -1.2541 -1.7690 0.2372 0 1
7.2858 -1.2380 -1.7694 0.2371 0 1
7.2900 -1.2219 -1.7698 0.2371 0 1
7.2941 -1.2058 -1.7701 0.2370 0 1
7.2983 -1.1896 -1.7705 0.2370 0 1
7.3024 -1.1735 -1.7708 0.2369 0 1
7.3065 -1.1573 -1.7712 0.2369 0 1
7.3105 -1.1412 -1.7715 0.2368 0 1
7.3145 -1.1250 -1.7719 0.2368 0 1
7.3185 -1.1087 -1.7722 0.2367 0 1
7.3224 -1.0925 -1.7726 0.2367 0 1
7.3263 -1.0764 -1.7729 0.2366 0 1
7.3302 -1.0601 -1.7733 0.2366 0 1
7.3340 -1.0439 -1.7736 0.2366 0 1
7.3379 -1.0276 -1.7740 0.2365 0 1
7.3416 -1.0114 -1.7744 0.2365 0 1
7.3453 -0.9950 -1.7747 0.2364 0 1
7.3490 -0.9788 -1.7751 0.2364 0 1
7.3527 -0.9625 -1.7754 0.2363 0 1
7.3563 -0.9462 -1.7758 0.2363 0 1
7.3599 -0.9298 -1.7761 0.2362 0 1
7.3635 -0.9135 -1.7765 0.2362 0 1
7.3670 -0.8972 -1.7769 0.2361 0 1
7.3704 -0.8808 -1.7772 0.2361 0 1
7.3739 -0.8645 -1.7776 0.2360 0 1
7.3773 -0.8480 -1.7779 0.2360 0 1
7.3807 -0.8317 -1.7783 0.2359 0 1
7.3840 -0.8153 -1.7787 0.2359 0 1
7.3873 -0.7989 -1.7790 0.2358 0 1
7.3906 -0.7825 -1.7794 0.2358 0 1
7.3938 -0.7660 -1.7797 0.2357 0 1
7.3970 -0.7496 -1.7801 0.2357 0 1
7.4002 -0.7331 -1.7805 0.2356 0 1
7.4033 -0.7166 -1.7808 0.2356 0 1
7.4064 -0.7002 -1.7812 0.2356 0 1
7.4095 -0.6837 -1.7815 0.2355 0 1
7.4125 -0.6673 -1.7819 0.2355 0 1
7.4155 -0.6507 -1.7823 0.2354 0 1
7.4184 -0.6342 -1.7826 0.2354 0 1
7.4213 -0.6177 -1.7830 0.2353 0 1
7.4242 -0.6012 -1.7834 0.2353 0 1
7.4271 -0.5846 -1.7837 0.2352 0 1
7.4299 -0.5681 -1.7841 0.2352 0 1
7.4326 -0.5515 -1.7845 0.2351 0 1
7.4354 -0.5350 -1.7848 0.2351 0 1
7.4381 -0.5184 -1.7852 0.2350 0 1
7.4408 -0.5018 -1.7855 0.2350 0 1
7.4434 -0.4852 -1.7859 0.2349 0 1
7.4460 -0.4686 -1.7863 0.2349 0 1
7.4485 -0.4520 -1.7866 0.2348 0 1
7.4510 -0.4353 -1.7870 0.2348 0 1
7.4535 -0.4187 -1.7874 0.2347 0 1
7.4560 -0.4020 -1.7877 0.2347 0 1
7.4583 -0.3854 -1.7881 0.2346 0 1
7.4607 -0.3687 -1.7885 0.2346 0 1
7.4631 -0.3520 -1.7888 0.2345 0 1
7.4654 -0.3354 -1.7892 0.2345 0 1
7.4676 -0.3187 -1.7896 0.2344 0 1
7.4699 -0.3020 -1.7899 0.2344 0 1
7.4721 -0.2853 -1.7903 0.2344 0 1
7.4742 -0.2686 -1.7907 0.2343 0 1
7.4763 -0.2518 -1.7910 0.2343 0 1
7.4784 -0.2351 -1.7914 0.2342 0 1
7.4805 -0.2184 -1.7918 0.2342 0 1
7.4825 -0.2016 -1.7921 0.2341 0 1
7.4845 -0.1849 -1.7925 0.2341 0 1
7.4864 -0.1681 -1.7929 0.2340 0 1
7.4883 -0.1514 -1.7933 0.2340 0 1
7.4902 -0.1346 -1.7936 0.2339 0 1
7.4920 -0.1178 -1.7940 0.2339 0 1
7.4938 -0.1010 -1.7944 0.2338 0 1
7.4955 -0.0842 -1.7947 0.2338 0 1
7.4972 -0.0673 -1.7951 0.2337 0 1
7.4989 -0.0506 -1.7955 0.2337 0 1
7.5006 -0.0337 -1.7958 0.2336 0 1
7.5022 -0.0169 -1.7962 0.2336 0 1
7.5037 -0.0001 -1.7966 0.2335 0 1
7.5053 0.0168 -1.7970 0.2335 0 1
7.5067 0.0336 -1.7973 0.2334 0 1
7.5082 0.0505 -1.7977 0.2334 0 1
7.5096 0.0673 -1.7981 0.2333 0 1
7.5110 0.0842 -1.7984 0.2333 0 1
7.5124 0.1011 -1.7988 0.2332 0 1
7.5137 0.1179 -1.7992 0.2332 0 1
7.5149 0.1348 -1.7996 0.2331 0 1
7.5162 0.1518 -1.7999 0.2331 0 1
7.5173 0.1687 -1.8003 0.2331 0 1
7.5185 0.1855 -1.8007 0.2330 0 1
7.5196 0.2025 -1.8010 0.2330 0 1
7.5207 0.2194 -1.8014 0.2329 0 1
7.5218 0.2363 -1.8018 0.2329 0 1
7.5228 0.2532 -1.8022 0.2328 0 1
7.5237 0.2702 -1.8025 0.2328 0 1
7.5247 0.2871 -1.8029 0.2327 0 1
7.5256 0.3041 -1.8033 0.2327 0 1
7.5265 0.3210 -1.8037 0.2326 0 1
7.5273 0.3380 -1.8040 0.2326 0 1
7.5281 0.3549 -1.8044 0.2325 0 1
7.5288 0.3719 -1.8048 0.2325 0 1
7.5295 0.3889 -1.8052 0.2324 0 1
7.5302 0.4058 -1.8055 0.2324 0 1
7.5308 0.4228 -1.8059 0.2323 0 1
7.5314 0.4398 -1.8063 0.2323 0 1
7.5319 0.4568 -1.8067 0.2322 0 1
7.5325 0.4738 -1.8070 0.2322 0 1
7.5329 0.4908 -1.8074 0.2321 0 1
7.5334 0.5078 -1.8078 0.2321 0 1
