ply
format ascii 1.0
element vertex 597
property float32 x
property float32 y
property float32 z
property float32 CosAngle
property uint32 ObjIdx
property uint32 ObjTag
end_header
9.402128219604492 -7.567187309265137 -0.1003100574016571 0.7516744136810303 0 3
9.331425666809082 -7.579550743103027 -0.09991668164730072 0.754626452922821 0 3
9.261269569396973 -7.591835975646973 -0.0995301827788353 0.7575635313987732 0 3
9.191640853881836 -7.603984355926514 -0.09914688020944595 0.7604857087135315 0 3
9.12255859375 -7.616034984588623 -0.09876861423254013 0.7633919715881348 0 3
8.942597389221191 -7.534121036529541 -0.0971861258149147 0.7663137912750244 0 3
8.875370979309082 -7.5458984375 -0.0968223586678505 0.769189178943634 0 3
8.8086519241333 -7.557558536529541 -0.09646362066268921 0.7720494270324707 0 3
8.742441177368164 -7.569101333618164 -0.09610901027917862 0.7747798562049866 0 3
8.718183517456055 -7.616796493530273 -0.09621841460466385 0.6285850405693054 0 3
8.707968711853027 -7.677070140838623 -0.09648528695106506 0.7805054187774658 0 3
8.642401695251465 -7.688515663146973 -0.09614043682813644 0.7833032011985779 0 3
8.577363014221191 -7.699882507324219 -0.09579894691705704 0.7860850691795349 0 3
8.512773513793945 -7.711171627044678 -0.09546554088592529 0.788850724697113 0 3
8.448652267456055 -7.722362995147705 -0.0951327458024025 0.7916004657745361 0 3
8.384961128234863 -7.733495712280273 -0.09480544924736023 0.7943347692489624 0 3
8.321660041809082 -7.744550704956055 -0.09448257088661194 0.7970526218414307 0 3
8.258808135986328 -7.755527019500732 -0.09416381269693375 0.7997549772262573 0 3
8.196425437927246 -7.766464710235596 -0.09384902566671371 0.802440345287323 0 3
8.134413719177246 -7.777265548706055 -0.09353499859571457 0.8051103949546814 0 3
8.072851181030273 -7.788027286529541 -0.09323059022426605 0.8077633380889893 0 3
8.01162052154541 -7.798710823059082 -0.09292663633823395 0.8104013204574585 0 3
7.862832069396973 -7.722870826721191 -0.0915997326374054 0.8129987120628357 0 3
7.803046703338623 -7.733300685882568 -0.09130523353815079 0.815191924571991 0 3
9.359902381896973 9.3599214553833 -0.33010634779930115 0.7057538032531738 0 4
9.43544864654541 9.3511323928833 -0.3312879800796509 0.704829216003418 0 4
9.498749732971191 9.329843521118164 -0.3320373594760895 0.9995741248130798 0 4
9.580780982971191 9.326289176940918 -0.33343765139579773 0.6975675821304321 0 4
9.667167663574219 9.326250076293945 -0.33498549461364746 0.694347083568573 0 4
9.754335403442383 9.326210975646973 -0.33655333518981934 0.691112756729126 0 4
11.943320274353027 11.316835403442383 -0.41031980514526367 0.6813564896583557 0 4
32.28371047973633 30.316444396972656 -1.1044425964355469 0.6854895949363708 0 3
32.57495880126953 30.316015243530273 -1.1097412109375 0.6822171807289124 0 3
32.869022369384766 30.315526962280273 -1.1151084899902344 0.6789306998252869 0 3
11.93935489654541 10.913046836853027 -0.4033862352371216 0.6680209040641785 0 4
33.34992218017578 30.20962905883789 -1.122185468673706 0.6723156571388245 0 3
33.65171813964844 30.20911979675293 -1.1277709007263184 0.6689882874488831 0 3
33.95648193359375 30.20865249633789 -1.1334277391433716 0.6656478047370911 0 3
11.933944702148438 10.521191596984863 -0.3967597782611847 0.4948258399963379 0 4
34.57538986206055 30.20767593383789 -1.1449862718582153 0.658930778503418 0 3
10.982069969177246 9.508183479309082 -0.36226150393486023 0.8516324758529663 0 4
35.14689254760742 30.15494155883789 -1.154898762702942 0.6521512866020203 0 3
35.5964241027832 30.26433563232422 -1.1651979684829712 0.7605836391448975 0 3
11.829297065734863 9.966249465942383 -0.3857465982437134 0.08350642025470734 0 4
11.38369083404541 9.503788948059082 -0.3698214590549469 0.40640050172805786 0 4
11.467695236206055 9.486913681030273 -0.3711617887020111 0.7692078351974487 0 4
11.467557907104492 9.400429725646973 -0.3697880506515503 0.7721089720726013 0 4
11.5127534866333 9.35140609741211 -0.3698890507221222 0.9945241212844849 0 4
11.614296913146973 9.347675323486328 -0.37180036306381226 0.6280276775360107 0 4
11.721405982971191 9.34749984741211 -0.37388288974761963 0.6245303750038147 0 4
11.831347465515137 9.348612785339355 -0.3760465979576111 0.6042549014091492 0 4
11.943944931030273 9.350839614868164 -0.3782891631126404 0.6006747484207153 0 4
35.215545654296875 27.315975189208984 -1.111461877822876 0.40892383456230164 0 3
35.69669723510742 27.433475494384766 -1.1227415800094604 0.4041128158569336 0 3
36.041072845458984 27.441757202148438 -1.1296846866607666 0.9136512279510498 0 3
36.162147521972656 27.278417587280273 -1.1296355724334717 0.02552887052297592 0 3
30.03204917907715 22.44349479675293 -0.934986412525177 0.8541901111602783 0 20
30.31265640258789 22.44187355041504 -0.9405725002288818 0.5791643857955933 0 20
30.6005859375 22.44316291809082 -0.9463782906532288 0.299599826335907 0 20
30.938358306884766 22.47802734375 -0.9536852240562439 0.5822910070419312 0 20
36.079002380371094 25.966346740722656 -1.1085505485534668 0.3782471716403961 0 3
36.59726333618164 26.09079933166504 -1.1208645105361938 0.37434813380241394 0 3
31.768651962280273 22.43406105041504 -0.9698893427848816 0.5089449882507324 0 20
37.66880798339844 26.348007202148438 -1.1463901996612549 0.36518001556396484 0 3
37.96396255493164 26.301523208618164 -1.151776909828186 0.9323872923851013 0 3
38.01603317260742 26.085859298706055 -1.1497960090637207 0.9339959621429443 0 3
37.5656623840332 25.52960968017578 -1.1326909065246582 0.9934912919998169 0 3
37.07708740234375 24.955097198486328 -1.1145789623260498 0.41661596298217773 0 3
37.04121017456055 24.69011688232422 -1.1101542711257935 0.6803909540176392 0 3
36.92556381225586 24.374393463134766 -1.103398084640503 0.8755679726600647 0 3
37.074825286865234 24.234725952148438 -1.1045913696289062 0.9417784214019775 0 3
37.12427520751953 24.02992057800293 -1.1028450727462769 0.943273663520813 0 3
37.17353439331055 23.825780868530273 -1.1011196374893188 0.9447499513626099 0 3
37.117713928222656 23.55564308166504 -1.0963232517242432 0.9850212931632996 0 3
37.27179718017578 23.419490814208984 -1.0977617502212524 0.9888726472854614 0 3
37.40183639526367 23.2676944732666 -1.098502516746521 0.9882047772407532 0 3
37.49917984008789 23.095468521118164 -1.0983073711395264 0.8911073803901672 0 3
37.84502029418945 23.07484245300293 -1.105391263961792 0.8066476583480835 0 3
38.07365036010742 22.980506896972656 -1.109047532081604 0.8039894104003906 0 3
38.242244720458984 22.848711013793945 -1.1109752655029297 0.7156678438186646 0 3
38.59693145751953 22.826229095458984 -1.1182807683944702 0.43852904438972473 0 3
39.172752380371094 22.930078506469727 -1.1319650411605835 0.28839385509490967 0 3
39.77927780151367 23.0460147857666 -1.1464911699295044 0.9584580063819885 0 3
40.91382598876953 23.458690643310547 -1.1761374473571777 0.2797876000404358 0 3
41.38654327392578 23.48357391357422 -1.186707615852356 0.9609718322753906 0 3
42.09284973144531 23.63523292541504 -1.2038843631744385 0.2711595296859741 0 3
42.88191223144531 23.825780868530273 -1.2233861684799194 0.26684367656707764 0 3
43.523887634277344 23.92753791809082 -1.2386295795440674 0.2625120282173157 0 3
38.45328140258789 20.91570281982422 -1.091671347618103 0.28168922662734985 0 3
38.350154876708984 20.637088775634766 -1.0860739946365356 0.879557192325592 0 3
38.34978485107422 20.415468215942383 -1.0834555625915527 0.8816808462142944 0 3
38.34945297241211 20.1949405670166 -1.0808743238449097 0.883786141872406 0 3
38.34910202026367 19.97542953491211 -1.0783255100250244 0.8858741521835327 0 3
38.34874725341797 19.7569522857666 -1.0758106708526611 0.8879441618919373 0 3
38.3483772277832 19.539453506469727 -1.07333505153656 0.8899964094161987 0 3
38.348026275634766 19.323007583618164 -1.0708885192871094 0.8920304179191589 0 3
38.36066436767578 19.113983154296875 -1.0688353776931763 0.9484419822692871 0 3
38.57236099243164 19.003847122192383 -1.0723425149917603 0.4432333707809448 0 3
39.011600494384766 19.003164291381836 -1.082173466682434 0.4392079710960388 0 3
39.166893005371094 18.86177635192871 -1.0841232538223267 0.8999879956245422 0 3
38.22201156616211 18.195878982543945 -1.0557026863098145 0.6668418049812317 0 3
38.22380828857422 17.986738204956055 -1.0535087585449219 0.668229341506958 0 3
38.22552490234375 17.77847671508789 -1.0513465404510498 0.6696031093597412 0 3
38.412498474121094 17.656131744384766 -1.0542964935302734 0.41894569993019104 0 3
38.53290939331055 17.502479553222656 -1.0554345846176147 0.9095250964164734 0 3
38.532596588134766 17.294139862060547 -1.0532835721969604 0.9113779664039612 0 3
38.532264709472656 17.086639404296875 -1.0511680841445923 0.9132122993469238 0 3
38.53191375732422 16.879941940307617 -1.0490871667861938 0.9150285124778748 0 3
38.53160095214844 16.67411994934082 -1.0470318794250488 0.9168258309364319 0 3
38.53126907348633 16.46904182434082 -1.0450050830841064 0.9186047911643982 0 3
38.53093719482422 16.26478385925293 -1.0430086851119995 0.9203653335571289 0 3
38.53062438964844 16.061288833618164 -1.0410354137420654 0.9221073985099792 0 3
38.530311584472656 15.858553886413574 -1.0390911102294922 0.9238309264183044 0 3
38.529998779296875 15.656600952148438 -1.0371756553649902 0.9255356788635254 0 3
38.244590759277344 15.341014862060547 -1.0276310443878174 0.6850557327270508 0 3
38.24595642089844 15.142656326293945 -1.0258278846740723 0.6862571835517883 0 3
38.24734115600586 14.944999694824219 -1.0240598917007446 0.6874447464942932 0 3
38.340057373046875 14.783242225646973 -1.0247561931610107 0.36113181710243225 0 3
38.85654067993164 14.782402038574219 -1.036778450012207 0.3569401204586029 0 3
39.16025161743164 14.69710922241211 -1.043099045753479 0.9353730082511902 0 3
39.15991973876953 14.49681568145752 -1.0413607358932495 0.9369468688964844 0 3
39.159629821777344 14.297186851501465 -1.0396308898925781 0.9385005831718445 0 3
38.33927536010742 13.803007125854492 -1.0161908864974976 0.9400367140769958 0 3
38.33900451660156 13.608847618103027 -1.014561414718628 0.9415541291236877 0 3
38.33867263793945 13.415311813354492 -1.0129486322402954 0.9430520534515381 0 3
38.33837890625 13.222362518310547 -1.0113612413406372 0.9445312023162842 0 3
38.33806610107422 13.030038833618164 -1.009804129600525 0.9459912180900574 0 3
38.33775329589844 12.83828067779541 -1.0082682371139526 0.9474321007728577 0 3
38.33747863769531 12.647109031677246 -1.006757378578186 0.9488539099693298 0 3
32.903438568115234 10.690996170043945 -0.8627766370773315 0.8819136023521423 0 3
32.872676849365234 10.518105506896973 -0.8607322573661804 0.884017288684845 0 3
32.84204864501953 10.346074104309082 -0.8587063550949097 0.886103093624115 0 3
32.811561584472656 10.174823760986328 -0.8567103147506714 0.8881710767745972 0 3
32.78126907348633 10.004374504089355 -0.8547347784042358 0.890221357345581 0 3
32.75105285644531 9.834726333618164 -0.852800726890564 0.892253577709198 0 3
32.72101593017578 9.665820121765137 -0.8508682250976562 0.8942678570747375 0 3
32.69107437133789 9.497655868530273 -0.8489716649055481 0.8962641954421997 0 3
32.66128921508789 9.330253601074219 -0.8471018671989441 0.8982422947883606 0 3
32.63161849975586 9.16357421875 -0.8452606201171875 0.9002024531364441 0 3
32.60206985473633 8.9976167678833 -0.8434411287307739 0.9021444320678711 0 3
32.57269287109375 8.832402229309082 -0.8416430354118347 0.9040682315826416 0 3
32.54339599609375 8.667831420898438 -0.8398739695549011 0.9059738516807556 0 3
32.51425552368164 8.504003524780273 -0.8381291031837463 0.9078612327575684 0 3
32.48521423339844 8.340839385986328 -0.8364086747169495 0.9097301363945007 0 3
32.45624923706055 8.178300857543945 -0.8347088694572449 0.9115808606147766 0 3
32.4274787902832 8.016425132751465 -0.8330320715904236 0.9134132862091064 0 3
32.39875030517578 7.855214595794678 -0.8313844203948975 0.9152273535728455 0 3
32.37021255493164 7.694648265838623 -0.8297550678253174 0.9170228838920593 0 3
32.34173583984375 7.534707069396973 -0.8281500339508057 0.9187998175621033 0 3
32.313377380371094 7.375351428985596 -0.8265672326087952 0.920558512210846 0 3
32.28513717651367 7.216620922088623 -0.8250068426132202 0.9222985506057739 0 3
32.25697326660156 7.058476448059082 -0.8234648108482361 0.9240199327468872 0 3
32.22894287109375 6.900898456573486 -0.8219553828239441 0.9257228374481201 0 3
32.20099639892578 6.743906021118164 -0.820466160774231 0.9274072647094727 0 3
32.17314529418945 6.58751916885376 -0.8189866542816162 0.9290725588798523 0 3
32.14544677734375 6.431660175323486 -0.8175468444824219 0.930719256401062 0 3
32.11777114868164 6.2763671875 -0.8161137104034424 0.9323474168777466 0 3
32.09025192260742 6.12158203125 -0.8147099018096924 0.9339566230773926 0 3
32.06277084350586 5.967324256896973 -0.8133245706558228 0.9355469942092896 0 3
32.03544998168945 5.813612937927246 -0.8119633197784424 0.9371187686920166 0 3
32.008182525634766 5.660390377044678 -0.8106204271316528 0.9386715292930603 0 3
31.981035232543945 5.507695198059082 -0.8092978000640869 0.9402053952217102 0 3
31.95390510559082 5.35546875 -0.8079937696456909 0.9417202472686768 0 3
31.92689323425293 5.203749656677246 -0.8067126274108887 0.9432162046432495 0 3
31.899999618530273 5.052499771118164 -0.8054491877555847 0.9446930885314941 0 3
31.873144149780273 4.901738166809082 -0.8042082190513611 0.9461509585380554 0 3
31.846405029296875 4.751386642456055 -0.8029865622520447 0.9475898742675781 0 3
31.819746017456055 4.601523399353027 -0.8017886281013489 0.9490095376968384 0 3
31.79314422607422 4.452089786529541 -0.8006036281585693 0.9504103064537048 0 3
31.766639709472656 4.303124904632568 -0.7994451522827148 0.9517918825149536 0 3
31.74019432067871 4.15457010269165 -0.7983019948005676 0.9531541466712952 0 3
31.71382713317871 4.006425857543945 -0.7971746921539307 0.9544972777366638 0 3
31.687519073486328 3.8586912155151367 -0.7960732579231262 0.95582115650177 0 3
31.661327362060547 3.7113866806030273 -0.7949895858764648 0.957125723361969 0 3
31.635154724121094 3.5644726753234863 -0.7939152121543884 0.9584110975265503 0 3
31.552284240722656 3.411796808242798 -0.7914336919784546 0.5365698337554932 0 3
31.556386947631836 3.2690234184265137 -0.7911787033081055 0.9609257578849792 0 3
31.530487060546875 3.1233787536621094 -0.7901666164398193 0.962151288986206 0 3
31.504629135131836 2.978105306625366 -0.7891761660575867 0.9633592367172241 0 3
31.47882652282715 2.833183526992798 -0.7882064580917358 0.964547872543335 0 3
31.45310401916504 2.688613176345825 -0.7872514128684998 0.965717077255249 0 3
31.427440643310547 2.5444140434265137 -0.7863177061080933 0.9668667912483215 0 3
31.40183448791504 2.400507688522339 -0.7853944301605225 0.9679951071739197 0 3
31.37626838684082 2.256972551345825 -0.784505307674408 0.9691076278686523 0 3
31.369529724121094 2.115000009536743 -0.7840824723243713 0.8881127834320068 0 3
31.35185432434082 1.9724804162979126 -0.7834089398384094 0.971270740032196 0 3
31.326425552368164 1.8297851085662842 -0.7825602293014526 0.9723228216171265 0 3
20.72917938232422 1.1174999475479126 -0.5177040100097656 0.7375097274780273 0 6
20.75439453125 1.0254491567611694 -0.5182105898857117 0.3065769076347351 0 6
13.21011734008789 0.5933007597923279 -0.32977095246315 0.6025179624557495 593 13
13.196874618530273 0.5333593487739563 -0.32937881350517273 0.8439090251922607 593 13
13.229999542236328 0.47523435950279236 -0.3301470875740051 0.5526401996612549 593 13
13.18822193145752 0.41447263956069946 -0.32905516028404236 0.805185079574585 593 13
13.178690910339355 0.35498046875 -0.32877272367477417 0.8703254461288452 593 13
13.19310474395752 0.2961132824420929 -0.32909637689590454 0.7954752445220947 593 13
13.24144458770752 0.23777343332767487 -0.33027374744415283 0.5237458348274231 593 13
13.30345630645752 0.1791406273841858 -0.3317970335483551 0.7195795178413391 593 13
30.714609146118164 0.2757226526737213 -0.766006588935852 0.8604154586791992 0 3
30.634511947631836 0.13750000298023224 -0.7639846801757812 0.8626909255981445 0 3
30.55484390258789 1.9531249563442543e-05 -0.7619888186454773 0.8649491667747498 0 3
30.47556495666504 -0.13675780594348907 -0.7600195407867432 0.8671898245811462 0 3
30.396738052368164 -0.27281248569488525 -0.7580761313438416 0.8694130182266235 0 3
30.318260192871094 -0.40822264552116394 -0.7561575174331665 0.8716188073158264 0 3
30.240234375 -0.5428906083106995 -0.7542643547058105 0.8738069534301758 0 3
30.16255760192871 -0.6769335865974426 -0.7523962259292603 0.8759776949882507 0 3
30.08527183532715 -0.8103125095367432 -0.7505526542663574 0.8781306147575378 0 3
30.008378982543945 -0.9430273175239563 -0.7487332224845886 0.8802658319473267 0 3
29.931835174560547 -1.0751171112060547 -0.7469354271888733 0.8823834657669067 0 3
29.855682373046875 -1.2065625190734863 -0.7451637387275696 0.8844832181930542 0 3
29.779842376708984 -1.3373827934265137 -0.7434089779853821 0.8865652084350586 0 3
29.70439338684082 -1.4675976037979126 -0.7416815161705017 0.888629138469696 0 3
29.629276275634766 -1.597206950187683 -0.7399775385856628 0.89067542552948 0 3
29.55449104309082 -1.7262694835662842 -0.7383000254631042 0.8927038311958313 0 3
29.4800968170166 -1.8546874523162842 -0.7366384863853455 0.8947139978408813 0 3
29.405975341796875 -1.9825780391693115 -0.7349987626075745 0.8967062830924988 0 3
29.332225799560547 -2.1098828315734863 -0.7333822250366211 0.8986805081367493 0 3
29.25876808166504 -2.236621141433716 -0.7317979335784912 0.9006364345550537 0 3
29.185644149780273 -2.3628320693969727 -0.7302204966545105 0.9025744795799255 0 3
29.112812042236328 -2.4884960651397705 -0.7286666631698608 0.9044942855834961 0 3
29.040273666381836 -2.613652229309082 -0.7271397113800049 0.9063957929611206 0 3
28.96806526184082 -2.7382421493530273 -0.7256341576576233 0.9082791805267334 0 3
28.89617156982422 -2.86236310005188 -0.7241528034210205 0.9101441502571106 0 3
28.82455062866211 -2.985956907272339 -0.7226864695549011 0.9119908213615417 0 3
28.753202438354492 -3.1090428829193115 -0.7212367057800293 0.9138190746307373 0 3
28.682147979736328 -3.2316601276397705 -0.7198157906532288 0.9156290292739868 0 3
28.611406326293945 -3.3537890911102295 -0.7184070944786072 0.9174203872680664 0 3
28.540897369384766 -3.475468635559082 -0.7170231342315674 0.9191933870315552 0 3
28.47066307067871 -3.5966601371765137 -0.7156550288200378 0.9209479689598083 0 3
28.40070343017578 -3.7173826694488525 -0.7143101096153259 0.9226839542388916 0 3
28.330995559692383 -3.8376758098602295 -0.7129855155944824 0.9244012832641602 0 3
28.26156234741211 -3.9574999809265137 -0.7116793394088745 0.9260998368263245 0 3
28.1923828125 -4.076894283294678 -0.7103869318962097 0.9277799725532532 0 3
28.123397827148438 -4.195878982543945 -0.7091138958930969 0.9294413924217224 0 3
28.054725646972656 -4.314433574676514 -0.7078582644462585 0.9310837984085083 0 3
27.98630714416504 -4.432558536529541 -0.7066299319267273 0.9327079057693481 0 3
27.918046951293945 -4.55029296875 -0.7054159641265869 0.9343129396438599 0 3
27.85007667541504 -4.667617321014404 -0.7042201161384583 0.9358992576599121 0 3
27.782283782958984 -4.784550666809082 -0.7030465602874756 0.9374667406082153 0 3
27.714784622192383 -4.901073932647705 -0.7018853425979614 0.93901526927948 0 3
27.647480010986328 -5.017226219177246 -0.7007495164871216 0.940544843673706 0 3
27.58036994934082 -5.133027076721191 -0.6996269226074219 0.9420555830001831 0 3
27.486679077148438 -5.243300437927246 -0.6978323459625244 0.9435493350028992 0 3
27.42007827758789 -5.358242034912109 -0.6967445015907288 0.9450221061706543 0 3
27.35365104675293 -5.472851276397705 -0.6956793069839478 0.9464737176895142 0 3
27.287479400634766 -5.587089538574219 -0.6946250796318054 0.9479082226753235 0 3
27.221426010131836 -5.700995922088623 -0.6935893297195435 0.9493237137794495 0 3
27.155662536621094 -5.814550876617432 -0.6925680637359619 0.9507200121879578 0 3
27.090057373046875 -5.927773475646973 -0.6915668845176697 0.9520973563194275 0 3
27.024608612060547 -6.040683269500732 -0.6905842423439026 0.9534531831741333 0 3
26.959354400634766 -6.153281211853027 -0.6896122694015503 0.95479416847229 0 3
26.861600875854492 -6.25792932510376 -0.6878272891044617 0.911124587059021 0 3
26.85560417175293 -6.383749961853027 -0.6883997917175293 0.9574143886566162 0 3
26.79084014892578 -6.495507717132568 -0.6874786019325256 0.9586952924728394 0 3
26.72624969482422 -6.606992244720459 -0.6865789890289307 0.9599572420120239 0 3
26.661815643310547 -6.718183517456055 -0.6856875419616699 0.9611996412277222 0 3
26.597537994384766 -6.829082012176514 -0.6848164200782776 0.9624226689338684 0 3
26.533437728881836 -6.939687252044678 -0.6839619278907776 0.963626503944397 0 3
26.469511032104492 -7.050038814544678 -0.6831242442131042 0.9648106694221497 0 3
26.405702590942383 -7.160136699676514 -0.6823006868362427 0.9659755229949951 0 3
26.39763641357422 -7.28527307510376 -0.6829380393028259 0.7110321521759033 0 3
26.24849510192871 -7.371054649353027 -0.6799105405807495 0.7141789197921753 0 3
26.1007022857666 -7.456074237823486 -0.6769660711288452 0.7173109650611877 0 3
25.954158782958984 -7.540370941162109 -0.6740189790725708 0.7204288244247437 0 3
25.80888557434082 -7.623945236206055 -0.6711277365684509 0.72353196144104 0 3
25.66486358642578 -7.706777095794678 -0.6682798862457275 0.726620614528656 0 3
25.522050857543945 -7.788925647735596 -0.6654595732688904 0.7296944856643677 0 3
25.380409240722656 -7.870409965515137 -0.6626812815666199 0.7327538728713989 0 3
25.239980697631836 -7.951171875 -0.6599398851394653 0.7357984781265259 0 3
25.100664138793945 -8.0313081741333 -0.657231867313385 0.7388283014297485 0 3
24.9625186920166 -8.110780715942383 -0.654561460018158 0.7418432235717773 0 3
24.82548713684082 -8.18960952758789 -0.6519238352775574 0.744843065738678 0 3
24.689510345458984 -8.267831802368164 -0.6493203639984131 0.7478280067443848 0 3
24.55466651916504 -8.345390319824219 -0.6467574834823608 0.7507978081703186 0 3
24.420839309692383 -8.42236328125 -0.6442179679870605 0.7537524700164795 0 3
24.28806495666504 -8.498749732971191 -0.6417181491851807 0.7566921710968018 0 3
17.09162139892578 -6.066816329956055 -0.45229262113571167 0.4915429353713989 0 3
16.92984390258789 -6.095077991485596 -0.4487329125404358 0.49544471502304077 0 3
16.770605087280273 -6.122890472412109 -0.44523313641548157 0.49933621287345886 0 3
16.613807678222656 -6.150292873382568 -0.44179946184158325 0.5032179355621338 0 3
16.459354400634766 -6.177285194396973 -0.4384271204471588 0.5070898532867432 0 3
16.307342529296875 -6.203827857971191 -0.43511489033699036 0.5109506845474243 0 3
16.15751838684082 -6.230000019073486 -0.43185850977897644 0.5148022770881653 0 3
16.009979248046875 -6.255781173706055 -0.4286617934703827 0.5186429023742676 0 3
15.807304382324219 -6.258495807647705 -0.423980712890625 0.36846983432769775 0 3
15.644745826721191 -6.275488376617432 -0.42037275433540344 0.5262944102287292 0 3
15.504199028015137 -6.300058364868164 -0.4173538088798523 0.530103862285614 0 3
15.365663528442383 -6.324277400970459 -0.4143824577331543 0.5339018702507019 0 3
15.229101181030273 -6.348124980926514 -0.4114614725112915 0.5376898646354675 0 3
15.094413757324219 -6.371640682220459 -0.40859344601631165 0.541467010974884 0 3
14.961620330810547 -6.394843578338623 -0.405771940946579 0.5452327728271484 0 3
14.848339080810547 -6.425429344177246 -0.40347838401794434 0.6783502697944641 0 3
14.747851371765137 -6.460663795471191 -0.40153059363365173 0.6816394925117493 0 3
14.644960403442383 -6.494121074676514 -0.39952024817466736 0.556623637676239 0 3
14.5186128616333 -6.516210556030273 -0.39686644077301025 0.5603444576263428 0 3
14.393925666809082 -6.538007736206055 -0.39425551891326904 0.5640542507171631 0 3
14.270878791809082 -6.559531211853027 -0.3916868567466736 0.5677527189254761 0 3
14.183241844177246 -6.596523284912109 -0.39008986949920654 0.025448568165302277 0 3
14.154023170471191 -6.660370826721191 -0.39010605216026306 0.025450482964515686 0 3
14.124589920043945 -6.724081993103027 -0.39012235403060913 0.02544943243265152 0 3
13.862167358398438 -6.675605297088623 -0.3836967349052429 0.5816328525543213 0 3
13.74593734741211 -6.695820331573486 -0.3813105821609497 0.585276186466217 0 3
13.658475875854492 -6.729218482971191 -0.37971922755241394 0.807334303855896 0 3
13.673066139221191 -6.812851428985596 -0.38097089529037476 0.8046801686286926 0 3
13.572128295898438 -6.838749885559082 -0.3790092468261719 0.5967682600021362 0 3
13.460214614868164 -6.858300685882568 -0.3767423927783966 0.6003619432449341 0 3
13.349687576293945 -6.877616882324219 -0.3745068311691284 0.6039428114891052 0 3
13.240409851074219 -6.896679401397705 -0.3723064959049225 0.6075127124786377 0 3
12.97183609008789 -6.830956935882568 -0.3656092882156372 0.6115390062332153 0 3
12.866503715515137 -6.849433422088623 -0.36350294947624207 0.6150817275047302 0 3
12.76236343383789 -6.86767578125 -0.3614303469657898 0.6186123490333557 0 3
12.73648452758789 -6.927675724029541 -0.3615747094154358 0.7828677892684937 0 3
12.697050094604492 -6.980214595794678 -0.361338347196579 0.6251736283302307 0 3
12.595155715942383 -6.998007774353027 -0.3593282997608185 0.6286683678627014 0 3
12.494433403015137 -7.015605449676514 -0.3573509156703949 0.6321502923965454 0 3
12.258612632751465 -6.955741882324219 -0.3514941334724426 0.6349109411239624 0 3
12.16097640991211 -6.972695350646973 -0.3495903015136719 0.6383703947067261 0 3
12.064472198486328 -6.989452838897705 -0.34771406650543213 0.6418161988258362 0 3
12.00917911529541 -7.029628753662109 -0.3470268249511719 0.7629556059837341 0 3
11.9370698928833 -7.059531211853027 -0.3458541929721832 0.6493685245513916 0 3
11.843183517456055 -7.07595682144165 -0.34405121207237244 0.6527730226516724 0 3
11.75023365020752 -7.092167854309082 -0.3422698974609375 0.6561650037765503 0 3
11.658300399780273 -7.108222484588623 -0.34051910042762756 0.659542977809906 0 3
11.56722640991211 -7.12414026260376 -0.33878952264785767 0.6629079580307007 0 3
11.477148056030273 -7.139863014221191 -0.33708661794662476 0.6662593483924866 0 3
11.38792896270752 -7.155468463897705 -0.33540526032447815 0.6695978045463562 0 3
11.299570083618164 -7.170917987823486 -0.3337489366531372 0.6729222536087036 0 3
11.212109565734863 -7.186171531677246 -0.332113653421402 0.6762333512306213 0 3
11.125507354736328 -7.201308250427246 -0.33050262928009033 0.6795305609703064 0 3
11.039746284484863 -7.216289043426514 -0.32891371846199036 0.6828145980834961 0 3
10.954765319824219 -7.231132507324219 -0.3273452818393707 0.6860847473144531 0 3
10.87060546875 -7.245820045471191 -0.3257989287376404 0.6893413662910461 0 3
10.787226676940918 -7.260409832000732 -0.3242739737033844 0.6925836205482483 0 3
10.704668045043945 -7.274804592132568 -0.32277053594589233 0.6958117485046387 0 3
10.622831344604492 -7.289121150970459 -0.32128509879112244 0.6990264654159546 0 3
10.486562728881836 -7.265058517456055 -0.3181454539299011 0.7022265195846558 0 3
10.40664005279541 -7.279023170471191 -0.3167065382003784 0.7054125666618347 0 3
10.327421188354492 -7.292870998382568 -0.3152903616428375 0.7085849046707153 0 3
10.305214881896973 -7.3466796875 -0.315611869096756 0.7019814848899841 0 3
10.284375190734863 -7.401679515838623 -0.31599029898643494 0.7148854732513428 0 3
10.206405639648438 -7.415292739868164 -0.3146192729473114 0.7180144190788269 0 3
10.129042625427246 -7.42882776260376 -0.31325897574424744 0.7211292386054993 0 3
10.05240249633789 -7.442226409912109 -0.31191420555114746 0.7242287397384644 0 3
9.866581916809082 -7.373437404632568 -0.3071762025356293 0.7272469401359558 0 3
9.7919921875 -7.386445045471191 -0.30588239431381226 0.7298348546028137 0 3
9.718008041381836 -7.399296760559082 -0.30460143089294434 0.7328930497169495 0 3
9.644648551940918 -7.412070274353027 -0.30334654450416565 0.7359368205070496 0 3
9.639081954956055 -7.476796627044678 -0.30423203110694885 0.6726686954498291 0 3
9.617655754089355 -7.52957010269165 -0.3046102821826935 0.7425204515457153 0 3
9.545233726501465 -7.542226314544678 -0.30338606238365173 0.7455174326896667 0 3
9.473437309265137 -7.554765224456787 -0.30217665433883667 0.7484983801841736 0 3
9.402148246765137 -7.567226409912109 -0.3009840250015259 0.7514650821685791 0 3
9.33144474029541 -7.579570293426514 -0.29980728030204773 0.7544163465499878 0 3
9.261269569396973 -7.591816425323486 -0.2986437976360321 0.7573524713516235 0 3
9.191679954528809 -7.604023456573486 -0.29749739170074463 0.7602733373641968 0 3
9.122597694396973 -7.616054534912109 -0.29636383056640625 0.7631788849830627 0 3
8.943085670471191 -7.534570217132568 -0.2916291654109955 0.7660586833953857 0 3
8.87587833404541 -7.546328067779541 -0.29053863883018494 0.7689330577850342 0 3
8.809179306030273 -7.557949066162109 -0.28946182131767273 0.7717922925949097 0 3
8.742929458618164 -7.569550514221191 -0.28840070962905884 0.7746362090110779 0 3
8.7183198928833 -7.616913795471191 -0.28871214389801025 0.6284016966819763 0 3
8.707968711853027 -7.677089691162109 -0.2895069718360901 0.7802881598472595 0 3
8.642460823059082 -7.688554286956787 -0.2884727418422699 0.7830846905708313 0 3
8.577402114868164 -7.699921607971191 -0.287453293800354 0.7858656644821167 0 3
8.512792587280273 -7.711191177368164 -0.2864449918270111 0.78863126039505 0 3
8.448652267456055 -7.722402095794678 -0.28544920682907104 0.7913802266120911 0 3
8.384941101074219 -7.733534812927246 -0.28446653485298157 0.7941138744354248 0 3
8.32167911529541 -7.744589805603027 -0.2834993004798889 0.796830952167511 0 3
8.258867263793945 -7.755566120147705 -0.282540887594223 0.7995319366455078 0 3
8.19644546508789 -7.766445159912109 -0.2815943956375122 0.8022171258926392 0 3
8.13443374633789 -7.777304649353027 -0.2806602418422699 0.8048865795135498 0 3
8.072851181030273 -7.788066387176514 -0.27973875403404236 0.8075388669967651 0 3
8.011640548706055 -7.798749923706055 -0.27882659435272217 0.8101752996444702 0 3
7.863261699676514 -7.723300457000732 -0.2748672366142273 0.8123164176940918 0 3
7.80349588394165 -7.733691215515137 -0.2739901542663574 0.8149229288101196 0 3
9.36001968383789 9.360038757324219 -0.5503918528556824 0.7053543329238892 0 4
9.435429573059082 9.351093292236328 -0.5523548722267151 0.7044393420219421 0 4
9.499140739440918 9.330214500427246 -0.5536205768585205 0.9989823698997498 0 4
9.5810546875 9.32656192779541 -0.5559518337249756 0.6971611380577087 0 4
9.667460441589355 9.326522827148438 -0.5585300922393799 0.6939426064491272 0 4
9.754667282104492 9.32650375366211 -0.561144232749939 0.6907095313072205 0 4
11.943320274353027 11.316835403442383 -0.684118926525116 0.6809800863265991 0 4
28.43783187866211 26.70490264892578 -1.6220523118972778 0.685107946395874 0 20
29.771190643310547 27.70671844482422 -1.6909987926483154 0.04195709526538849 0 2
29.894062042236328 27.571718215942383 -1.6909278631210327 0.0419587567448616 0 2
11.93935489654541 10.913046836853027 -0.6725611686706543 0.667651891708374 0 4
30.137752532958984 27.29998016357422 -1.6907869577407837 0.041962314397096634 0 2
10.577773094177246 9.495683670043945 -0.5910353064537048 0.8653458952903748 0 4
30.379100799560547 27.026151657104492 -1.6906477212905884 0.04196576774120331 0 2
11.929804801940918 10.517558097839355 -0.661281406879425 0.920346200466156 0 4
30.617948532104492 26.75017547607422 -1.690509557723999 0.04196923226118088 0 2
10.970898628234863 9.498496055603027 -0.603375256061554 0.8562408685684204 0 4
30.854276657104492 26.472089767456055 -1.690373182296753 0.041972704231739044 0 2
30.971542358398438 26.332284927368164 -1.690305471420288 0.04197435826063156 0 2
11.83023452758789 9.967031478881836 -0.6431982517242432 0.08345386385917664 0 4
11.3760347366333 9.497421264648438 -0.616181492805481 0.8468179702758789 0 4
11.467851638793945 9.487051010131836 -0.618839681148529 0.7687733173370361 0 4
11.467714309692383 9.400566101074219 -0.6165493726730347 0.7716725468635559 0 4
11.512831687927246 9.351445198059082 -0.6167134046554565 0.9939677715301514 0 4
11.6143159866333 9.347695350646973 -0.6198956370353699 0.6276804208755493 0 4
11.721405982971191 9.347518920898438 -0.623367428779602 0.6241857409477234 0 4
11.831327438354492 9.3486328125 -0.6269757151603699 0.6039214730262756 0 4
11.943984031677246 9.350839614868164 -0.630713939666748 0.6003426313400269 0 4
32.109375 24.906641006469727 -1.6896473169326782 0.041990555822849274 0 2
32.21953201293945 24.761308670043945 -1.689583659172058 0.04199221730232239 0 2
32.329158782958984 24.61552619934082 -1.689520239830017 0.04199376702308655 0 2
32.43812561035156 24.469295501708984 -1.6894570589065552 0.04199531301856041 0 2
30.034687042236328 22.44544792175293 -1.5590176582336426 0.591745138168335 0 20
32.65400314331055 24.175350189208984 -1.6893322467803955 0.041998423635959625 0 2
32.76089859008789 24.027616500854492 -1.689270257949829 0.04200008884072304 0 2
32.86726379394531 23.87952995300293 -1.6892086267471313 0.04200151190161705 0 2
32.972869873046875 23.73091697692871 -1.6891474723815918 0.04200306162238121 0 2
33.07771301269531 23.581756591796875 -1.689086675643921 0.04200474172830582 0 2
31.789745330810547 22.448965072631836 -1.6181472539901733 0.5701220631599426 0 20
33.28580093383789 23.282323837280273 -1.688966155052185 0.04200759157538414 0 2
33.38882827758789 23.131933212280273 -1.6889065504074097 0.042009033262729645 0 2
33.49105453491211 22.980995178222656 -1.688847303390503 0.04201057180762291 0 2
33.592735290527344 22.829668045043945 -1.6887882947921753 0.04201199859380722 0 2
33.69361114501953 22.6778507232666 -1.6887297630310059 0.04201354831457138 0 2
33.79388427734375 22.525625228881836 -1.6886717081069946 0.04201498255133629 0 2
33.89357376098633 22.373046875 -1.6886138916015625 0.04201630502939224 0 2
33.99238204956055 22.21990203857422 -1.688556432723999 0.04201784357428551 0 2
34.09060287475586 22.066347122192383 -1.6884995698928833 0.04201928526163101 0 2
34.18825912475586 21.912460327148438 -1.6884429454803467 0.04202057421207428 0 2
34.285057067871094 21.758066177368164 -1.6883867979049683 0.04202200099825859 0 2
34.381309509277344 21.603300094604492 -1.6883310079574585 0.04202333092689514 0 2
34.47673797607422 21.44804573059082 -1.6882754564285278 0.042024753987789154 0 2
34.57146453857422 21.292362213134766 -1.688220500946045 0.042026180773973465 0 2
34.66562271118164 21.1363468170166 -1.6881659030914307 0.04202747717499733 0 2
34.7590217590332 20.979883193969727 -1.6881115436553955 0.042028795927762985 0 2
34.851680755615234 20.822988510131836 -1.688057780265808 0.0420302152633667 0 2
34.94376754760742 20.665781021118164 -1.6880042552947998 0.0420314222574234 0 2
35.03491973876953 20.50796890258789 -1.6879513263702393 0.04203294962644577 0 2
35.125545501708984 20.34994125366211 -1.6878985166549683 0.04203416407108307 0 2
35.21546936035156 20.191484451293945 -1.687846302986145 0.042035456746816635 0 2
35.30460739135742 20.032617568969727 -1.6877944469451904 0.04203677549958229 0 2
35.393104553222656 19.87333869934082 -1.687743067741394 0.04203807935118675 0 2
35.480918884277344 19.713729858398438 -1.6876919269561768 0.042039286345243454 0 2
35.56789016723633 19.5537109375 -1.6876413822174072 0.04204057902097702 0 2
35.654335021972656 19.393320083618164 -1.6875911951065063 0.042041756212711334 0 2
35.7399787902832 19.23257827758789 -1.6875413656234741 0.04204297065734863 0 2
35.82470703125 19.071327209472656 -1.6874920129776 0.042044397443532944 0 2
35.90900421142578 18.909862518310547 -1.6874428987503052 0.0420454703271389 0 2
35.99238204956055 18.747928619384766 -1.687394380569458 0.04204680770635605 0 2
36.075157165527344 18.585683822631836 -1.68734610080719 0.042047999799251556 0 2
36.15714645385742 18.423046112060547 -1.68729829788208 0.04204917326569557 0 2
36.23857498168945 18.260135650634766 -1.6872509717941284 0.042050231248140335 0 2
36.31914138793945 18.09681510925293 -1.6872038841247559 0.04205142334103584 0 2
36.398983001708984 17.93310546875 -1.687157392501831 0.04205261915922165 0 2
36.47804641723633 17.769062042236328 -1.6871113777160645 0.04205382242798805 0 2
36.55644607543945 17.604705810546875 -1.687065601348877 0.042054902762174606 0 2
36.634178161621094 17.440038681030273 -1.687020182609558 0.042055971920490265 0 2
36.711055755615234 17.274980545043945 -1.686975359916687 0.042057137936353683 0 2
36.78728485107422 17.109588623046875 -1.686930775642395 0.042058225721120834 0 2
36.86263656616211 16.94384765625 -1.6868869066238403 0.042059436440467834 0 2
36.937381744384766 16.777812957763672 -1.6868432760238647 0.042060475796461105 0 2
37.011348724365234 16.611425399780273 -1.6868000030517578 0.04206155613064766 0 2
37.08460998535156 16.444746017456055 -1.6867573261260986 0.042062632739543915 0 2
37.15703201293945 16.277713775634766 -1.6867148876190186 0.04206371679902077 0 2
37.22892379760742 16.110448837280273 -1.6866729259490967 0.04206465557217598 0 2
37.2998046875 15.942753791809082 -1.686631441116333 0.042065832763910294 0 2
37.370079040527344 15.774843215942383 -1.6865904331207275 0.04206681251525879 0 2
37.412811279296875 15.595332145690918 -1.6853423118591309 0.9215887784957886 0 3
37.09404373168945 15.26742172241211 -1.667876124382019 0.9233109951019287 0 3
37.093711853027344 15.072968482971191 -1.6648023128509521 0.9250149130821228 0 3
37.09339904785156 14.87923812866211 -1.6617788076400757 0.926700234413147 0 3
37.342166900634766 14.784823417663574 -1.6699270009994507 0.3692764341831207 0 3
37.79962921142578 14.770136833190918 -1.6874018907546997 0.04207255318760872 0 2
37.86457061767578 14.599960327148438 -1.687363862991333 0.04207362234592438 0 2
37.9289436340332 14.429609298706055 -1.6873259544372559 0.04207446798682213 0 2
37.99245834350586 14.258906364440918 -1.687288761138916 0.04207541048526764 0 2
38.055213928222656 14.087929725646973 -1.6872518062591553 0.04207636043429375 0 2
38.11730194091797 13.916718482971191 -1.6872155666351318 0.042077191174030304 0 2
38.17853546142578 13.745214462280273 -1.6871795654296875 0.04207814112305641 0 2
38.2390022277832 13.573456764221191 -1.6871439218521118 0.042079005390405655 0 2
38.298709869384766 13.401386260986328 -1.6871088743209839 0.04207993671298027 0 2
38.338748931884766 13.22249984741211 -1.6862417459487915 0.9439996480941772 0 3
38.33847427368164 13.030156135559082 -1.6836427450180054 0.9454587697982788 0 3
38.33816146850586 12.838418006896973 -1.681077480316162 0.9468989968299866 0 3
38.33787155151367 12.647245407104492 -1.6785632371902466 0.9483200311660767 0 3
32.90378952026367 10.691093444824219 -1.4385255575180054 0.881416916847229 0 3
32.87302780151367 10.518241882324219 -1.4351093769073486 0.883519172668457 0 3
32.30234146118164 10.176074028015137 -1.4081796407699585 0.8856056332588196 0 20
32.272361755371094 10.007636070251465 -1.4048975706100464 0.8876724243164062 0 20
32.24251937866211 9.839980125427246 -1.40166437625885 0.8897215723991394 0 20
32.21281051635742 9.673086166381836 -1.3984739780426025 0.8917527198791504 0 20
32.18328094482422 9.50699234008789 -1.3953182697296143 0.8937657475471497 0 20
32.15380859375 9.341582298278809 -1.3922147750854492 0.8957608938217163 0 20
32.166542053222656 9.188944816589355 -1.3909642696380615 0.4385143220424652 0 20
32.50644302368164 9.128437042236328 -1.403878092765808 0.43448078632354736 0 20
32.602439880371094 8.997734069824219 -1.4062644243240356 0.90163654088974 0 3
32.57304763793945 8.832499504089355 -1.403271198272705 0.9035593867301941 0 3
32.54375076293945 8.667948722839355 -1.4003210067749023 0.9054638743400574 0 3
32.51456832885742 8.504081726074219 -1.3974108695983887 0.9073500633239746 0 3
32.48554611206055 8.340898513793945 -1.3945379257202148 0.9092182517051697 0 3
32.456600189208984 8.178398132324219 -1.3917045593261719 0.9110679030418396 0 3
32.427791595458984 8.016523361206055 -1.388914704322815 0.9128993153572083 0 3
32.39910125732422 7.855292797088623 -1.3861602544784546 0.9147121906280518 0 3
31.781150817871094 7.554609298706055 -1.3582613468170166 0.916508138179779 0 20
31.753202438354492 7.39757776260376 -1.3556333780288696 0.9182842373847961 0 20
31.725370407104492 7.241132736206055 -1.3530436754226685 0.9200416803359985 0 20
31.697616577148438 7.085273265838623 -1.3504921197891235 0.9217807650566101 0 20
31.670019149780273 6.930019378662109 -1.3479763269424438 0.9235012531280518 0 20
31.642478942871094 6.775351524353027 -1.3454967737197876 0.9252031445503235 0 20
31.64497947692871 6.627480506896973 -1.3443212509155273 0.3729730248451233 0 20
32.0319709777832 6.558574199676514 -1.359499454498291 0.3688095211982727 0 20
32.14575958251953 6.431718826293945 -1.363089680671692 0.9301956295967102 0 3
32.118064880371094 6.276386737823486 -1.3607079982757568 0.9318227171897888 0 3
32.0905647277832 6.121640682220459 -1.358365774154663 0.9334310293197632 0 3
32.06306457519531 5.967363357543945 -1.3560618162155151 0.9350208044052124 0 3
32.03573989868164 5.813652038574219 -1.353778600692749 0.9365915656089783 0 3
32.00845718383789 5.66042947769165 -1.3515408039093018 0.9381434321403503 0 3
31.981307983398438 5.507753849029541 -1.3493373394012451 0.9396763443946838 0 3
31.9542179107666 5.355527400970459 -1.3471624851226807 0.9411904215812683 0 3
31.92720603942871 5.203788757324219 -1.345026969909668 0.9426855444908142 0 3
31.287635803222656 4.955507755279541 -1.317132830619812 0.9441627860069275 0 20
31.261308670043945 4.8076171875 -1.3151040077209473 0.9456198811531067 0 20
31.235057830810547 4.66015625 -1.313106656074524 0.9470579028129578 0 20
31.208885192871094 4.51318359375 -1.3111400604248047 0.9484769105911255 0 20
31.182811737060547 4.366640567779541 -1.3092111349105835 0.9498767256736755 0 20
31.156816482543945 4.220527172088623 -1.3073108196258545 0.9512574076652527 0 20
31.130859375 4.074804782867432 -1.305442214012146 0.9526190161705017 0 20
31.36539077758789 3.96240234375 -1.3145197629928589 0.29695892333984375 0 20
31.687850952148438 3.858710765838623 -1.3272922039031982 0.9552835822105408 0 3
31.66160011291504 3.7114062309265137 -1.3254797458648682 0.9565874338150024 0 3
31.635467529296875 3.5644922256469727 -1.3237031698226929 0.9578720927238464 0 3
31.552597045898438 3.411796808242798 -1.3196122646331787 0.5362673997879028 0 3
31.556697845458984 3.26904296875 -1.3191266059875488 0.9603853821754456 0 3
31.530780792236328 3.1233983039855957 -1.3174481391906738 0.9616102576255798 0 3
31.504901885986328 2.9781248569488525 -1.3157888650894165 0.9628175497055054 0 3
31.47913932800293 2.833203077316284 -1.3141729831695557 0.9640055298805237 0 3
31.453397750854492 2.688652276992798 -1.3125808238983154 0.9651739597320557 0 3
31.42771339416504 2.5444140434265137 -1.3110226392745972 0.9663231372833252 0 3
31.402128219604492 2.400507688522339 -1.309497356414795 0.9674528241157532 0 3
31.37662124633789 2.2569921016693115 -1.307989478111267 0.968562662601471 0 3
31.369842529296875 2.115039110183716 -1.3072988986968994 0.8876137733459473 0 3
31.352148056030273 1.9725390672683716 -1.3061776161193848 0.9707244634628296 0 3
31.326738357543945 1.8298242092132568 -1.3047655820846558 0.9717760682106018 0 3
20.727148056030273 1.1173632144927979 -0.8630734086036682 0.7371739149093628 0 6
20.750917434692383 1.025292992591858 -0.8638607859611511 0.6740756034851074 0 6
31.250877380371094 1.4034960269927979 -1.3006988763809204 0.9748132824897766 0 3
13.406660079956055 0.5418554544448853 -0.557896077632904 0.4506669342517853 593 13
13.173124313354492 0.4731835722923279 -0.5480825901031494 0.6043965220451355 593 13
13.124238014221191 0.41246092319488525 -0.5459657311439514 0.8649846315383911 593 13
13.10611343383789 0.35304686427116394 -0.5451391339302063 0.9591119289398193 593 13
13.10904312133789 0.29423826932907104 -0.5452004671096802 0.9383243322372437 593 13
13.134648323059082 0.23583984375 -0.5462173223495483 0.793648362159729 593 13
13.204511642456055 0.17781250178813934 -0.5490859746932983 0.41019028425216675 593 13
30.31853485107422 0.2721484303474426 -1.2606767416000366 0.15320844948291779 0 20
30.433650970458984 0.1366015523672104 -1.2654255628585815 0.38672447204589844 0 20
30.55513572692871 1.9531249563442543e-05 -1.2704631090164185 0.8644629716873169 0 3
30.475858688354492 -0.1367773413658142 -1.267179012298584 0.8667023777961731 0 3
30.397029876708984 -0.2728320360183716 -1.2639389038085938 0.8689243197441101 0 3
30.318593978881836 -0.40822264552116394 -1.260741114616394 0.8711289167404175 0 3
30.24052619934082 -0.5428906083106995 -1.2575840950012207 0.8733158707618713 0 3
30.162832260131836 -0.6769335865974426 -1.2544689178466797 0.8754852414131165 0 3
30.085546493530273 -0.8103125095367432 -1.2513936758041382 0.8776369690895081 0 3
30.008651733398438 -0.9430468678474426 -1.248359203338623 0.8797710537910461 0 3
29.93212890625 -1.075097680091858 -1.245361566543579 0.8818875551223755 0 3
29.85593605041504 -1.206581950187683 -1.2424038648605347 0.8839861750602722 0 3
29.78009605407715 -1.3374218940734863 -1.239485263824463 0.8860670924186707 0 3
29.704668045043945 -1.467617154121399 -1.2366054058074951 0.8881298899650574 0 3
29.6295108795166 -1.597265601158142 -1.2337641716003418 0.8901751041412354 0 3
29.554784774780273 -1.7262890338897705 -1.2309623956680298 0.8922022581100464 0 3
29.480350494384766 -1.8547070026397705 -1.2281969785690308 0.8942112922668457 0 3
29.40625 -1.9825780391693115 -1.225468635559082 0.8962025046348572 0 3
29.332460403442383 -2.109921932220459 -1.2227678298950195 0.8981756567955017 0 3
29.259042739868164 -2.2366600036621094 -1.2201170921325684 0.9001306891441345 0 3
29.18587875366211 -2.362851619720459 -1.2174946069717407 0.9020675420761108 0 3
29.11308479309082 -2.488535165786743 -1.2149136066436768 0.9039862155914307 0 3
29.040546417236328 -2.6136717796325684 -1.2123740911483765 0.905886709690094 0 3
28.968339920043945 -2.73828125 -1.2098466157913208 0.907768964767456 0 3
28.896425247192383 -2.862382650375366 -1.207376480102539 0.9096330404281616 0 3
28.824785232543945 -2.9859960079193115 -1.204928994178772 0.9114787578582764 0 3
28.753475189208984 -3.1091015338897705 -1.2025110721588135 0.9133058786392212 0 3
28.68242073059082 -3.231679677963257 -1.2001415491104126 0.9151148200035095 0 3
28.61166000366211 -3.353827953338623 -1.197798252105713 0.9169052839279175 0 3
28.5411319732666 -3.4755077362060547 -1.1954890489578247 0.9186774492263794 0 3
28.470916748046875 -3.5966601371765137 -1.1932100057601929 0.9204307794570923 0 3
28.400957107543945 -3.717402219772339 -1.1909669637680054 0.9221656918525696 0 3
28.33123016357422 -3.8376951217651367 -1.1887589693069458 0.9238819479942322 0 3
28.261816024780273 -3.9575390815734863 -1.1865755319595337 0.9255799055099487 0 3
28.192636489868164 -4.076952934265137 -1.1844252347946167 0.9272589087486267 0 3
28.12367057800293 -4.195918083190918 -1.1823054552078247 0.92891925573349 0 3
28.05500030517578 -4.314453125 -1.180219054222107 0.9305611252784729 0 3
27.986522674560547 -4.432578086853027 -1.1781607866287231 0.9321841597557068 0 3
27.91830062866211 -4.550332069396973 -1.176144003868103 0.9337882399559021 0 3
27.850292205810547 -4.667695045471191 -1.1741464138031006 0.9353737235069275 0 3
27.78255844116211 -4.784589767456055 -1.1721827983856201 0.9369403123855591 0 3
27.71501922607422 -4.901132583618164 -1.1702516078948975 0.9384881258010864 0 3
27.647674560546875 -5.017323970794678 -1.1683526039123535 0.9400168657302856 0 3
27.580585479736328 -5.133105278015137 -1.1664761304855347 0.9415266513824463 0 3
27.486854553222656 -5.243398189544678 -1.1634941101074219 0.9430197477340698 0 3
27.42025375366211 -5.358359336853027 -1.1616811752319336 0.9444916844367981 0 3
27.353885650634766 -5.47292947769165 -1.1598918437957764 0.9459423422813416 0 3
27.287694931030273 -5.587148189544678 -1.1581447124481201 0.947376012802124 0 3
27.2216796875 -5.701054573059082 -1.1564148664474487 0.9487908482551575 0 3
27.1558780670166 -5.814609050750732 -1.1547194719314575 0.9501864910125732 0 3
