ply
format ascii 1.0
element vertex 606
property float32 x
property float32 y
property float32 z
property float32 CosAngle
property uint32 ObjIdx
property uint32 ObjTag
end_header
16.97576141357422 -4.521425724029541 1.9054940938949585 0.44248151779174805 0 3
16.990137100219727 -4.607011795043945 1.9094113111495972 0.44157400727272034 0 3
17.004629135131836 -4.692949295043945 1.9133901596069336 0.4406559467315674 0 3
17.019277572631836 -4.779335975646973 1.917432188987732 0.43972697854042053 0 3
17.034042358398438 -4.866074085235596 1.921535611152649 0.4387877583503723 0 3
17.0489444732666 -4.953183650970459 1.9257057905197144 0.4378378093242645 0 3
17.063983917236328 -5.040702819824219 1.9299404621124268 0.43687713146209717 0 3
17.079160690307617 -5.128632545471191 1.9342412948608398 0.4359058141708374 0 3
17.094472885131836 -5.216972351074219 1.9386059045791626 0.43492409586906433 0 3
17.109922409057617 -5.305742263793945 1.9430361986160278 0.4339320659637451 0 3
17.12548828125 -5.394960880279541 1.9475399255752563 0.4329289197921753 0 3
17.14124870300293 -5.484589576721191 1.9521077871322632 0.4319157302379608 0 3
17.157129287719727 -5.574687480926514 1.9567464590072632 0.43089205026626587 0 3
17.17314338684082 -5.665194988250732 1.9614535570144653 0.42985767126083374 0 3
17.189315795898438 -5.756249904632568 1.966235637664795 0.42881280183792114 0 3
17.2056827545166 -5.847714900970459 1.9710854291915894 0.42775776982307434 0 3
17.22216796875 -5.939648151397705 1.9760057926177979 0.426692396402359 0 3
17.238788604736328 -6.032109260559082 1.9810012578964233 0.42561623454093933 0 3
17.44267463684082 -6.191464900970459 2.0076041221618652 0.8714096546173096 0 3
17.45783233642578 -6.285214900970459 2.012577772140503 0.8692562580108643 0 3
17.473085403442383 -6.379433631896973 2.0176174640655518 0.8670855164527893 0 3
17.48845672607422 -6.474140644073486 2.0227200984954834 0.8648972511291504 0 3
17.503847122192383 -6.569296836853027 2.027893304824829 0.8626914620399475 0 3
17.51933479309082 -6.664960861206055 2.0331320762634277 0.860468327999115 0 3
17.534902572631836 -6.761132717132568 2.0384390354156494 0.8582279086112976 0 3
17.550527572631836 -6.857773303985596 2.043816089630127 0.855970025062561 0 3
17.566268920898438 -6.954960823059082 2.0492634773254395 0.8536950349807739 0 3
17.582090377807617 -7.052695274353027 2.0547780990600586 0.8514029383659363 0 3
17.59798812866211 -7.150937557220459 2.0603675842285156 0.8490936756134033 0 3
17.614004135131836 -7.249687194824219 2.0660269260406494 0.8467673063278198 0 3
17.63005828857422 -7.349023342132568 2.0717618465423584 0.8444235324859619 0 3
17.646230697631836 -7.448866844177246 2.077573537826538 0.8420630097389221 0 3
17.662519454956055 -7.54931640625 2.0834500789642334 0.8396855592727661 0 3
17.67886734008789 -7.650331974029541 2.0894112586975098 0.8372911214828491 0 3
17.695293426513672 -7.751933574676514 2.0954482555389404 0.8348797559738159 0 3
17.711835861206055 -7.854081630706787 2.1015565395355225 0.8324517011642456 0 3
17.72847557067871 -7.956855297088623 2.1077487468719482 0.8300068378448486 0 3
17.7452335357666 -8.060273170471191 2.1140189170837402 0.827545166015625 0 3
17.762069702148438 -8.164297103881836 2.1203720569610596 0.825066864490509 0 3
17.779003143310547 -8.268905639648438 2.1268014907836914 0.8225720524787903 0 3
17.79603385925293 -8.37417984008789 2.133312702178955 0.8200605511665344 0 3
17.813201904296875 -8.480097770690918 2.139908790588379 0.8175325393676758 0 3
17.830469131469727 -8.586737632751465 2.1465914249420166 0.8149880766868591 0 3
17.84783172607422 -8.693964958190918 2.1533546447753906 0.8124270439147949 0 3
17.865293502807617 -8.801894187927246 2.160210132598877 0.8098498582839966 0 3
17.882871627807617 -8.910527229309082 2.167149305343628 0.8072564601898193 0 3
17.900604248046875 -9.019882202148438 2.1741816997528076 0.8046464323997498 0 3
17.91841697692871 -9.129921913146973 2.1812989711761475 0.802020251750946 0 3
17.93634796142578 -9.240663528442383 2.188507318496704 0.799377977848053 0 3
17.95439338684082 -9.352148056030273 2.195812702178955 0.7967197895050049 0 3
17.972597122192383 -9.464433670043945 2.2032058238983154 0.7940455079078674 0 3
17.99089813232422 -9.577441215515137 2.2106947898864746 0.7913549542427063 0 3
18.009315490722656 -9.691229820251465 2.2182815074920654 0.788648784160614 0 3
13.557753562927246 -7.374374866485596 1.6740249395370483 0.6093449592590332 0 3
13.446855545043945 -7.392480373382568 1.6644107103347778 0.6128643751144409 0 3
13.337186813354492 -7.410292625427246 1.6549371480941772 0.6163718700408936 0 3
13.228769302368164 -7.427988052368164 1.6456056833267212 0.6198671460151672 0 3
13.12158203125 -7.44542932510376 1.636415719985962 0.6233498454093933 0 3
13.015565872192383 -7.462734222412109 1.6273525953292847 0.6268196702003479 0 3
12.811386108398438 -7.422245979309082 1.6059744358062744 0.7692612409591675 0 3
12.760449409484863 -7.469413757324219 1.603772521018982 0.6328803300857544 0 3
12.658085823059082 -7.48595666885376 1.5951143503189087 0.6363153457641602 0 3
12.504257202148438 -7.47097635269165 1.5799388885498047 0.639737606048584 0 3
12.404472351074219 -7.487109184265137 1.5715618133544922 0.6431471705436707 0 3
12.305800437927246 -7.50304651260376 1.5633065700531006 0.6465434432029724 0 3
12.208105087280273 -7.518867015838623 1.555166244506836 0.6499268412590027 0 3
12.111425399780273 -7.534531116485596 1.5471444129943848 0.6532975435256958 0 3
12.074746131896973 -7.587050437927246 1.546789526939392 0.10966401547193527 0 3
12.014784812927246 -7.624824047088623 1.543479323387146 0.6600441932678223 0 3
11.920292854309082 -7.640117168426514 1.53573477268219 0.663375198841095 0 3
11.826757431030273 -7.6552734375 1.5280883312225342 0.6666919589042664 0 3
11.73412036895752 -7.670253753662109 1.5205538272857666 0.6699960231781006 0 3
11.642362594604492 -7.685078144073486 1.513124704360962 0.6732867360115051 0 3
11.551562309265137 -7.699804306030273 1.5057973861694336 0.6765630841255188 0 3
11.46165943145752 -7.71435546875 1.4985699653625488 0.6798261404037476 0 3
11.372538566589355 -7.72878885269165 1.4914400577545166 0.6830757260322571 0 3
11.284276962280273 -7.743066310882568 1.4844098091125488 0.6863114237785339 0 3
11.1968355178833 -7.757206916809082 1.477472186088562 0.6895332932472229 0 3
11.110234260559082 -7.771230220794678 1.4706307649612427 0.6927409768104553 0 3
11.0244140625 -7.785097599029541 1.4638824462890625 0.6959352493286133 0 3
10.93935489654541 -7.798828125 1.4572222232818604 0.6991151571273804 0 3
10.855116844177246 -7.812519550323486 1.4506521224975586 0.7022814750671387 0 3
10.771562576293945 -7.826015472412109 1.4441702365875244 0.7054337859153748 0 3
10.68880844116211 -7.839414119720459 1.4377743005752563 0.7085714340209961 0 3
10.60677719116211 -7.852694988250732 1.4314663410186768 0.7116947770118713 0 3
10.525331497192383 -7.865781307220459 1.425226092338562 0.7139865756034851 0 3
10.444608688354492 -7.878769397735596 1.4190716743469238 0.7170845866203308 0 3
10.36458969116211 -7.891640663146973 1.4129949808120728 0.7201682925224304 0 3
10.285195350646973 -7.904355525970459 1.4070016145706177 0.7232374548912048 0 3
10.206522941589355 -7.9169921875 1.4010745286941528 0.726292073726654 0 3
10.128535270690918 -7.929531097412109 1.3952364921569824 0.7293319702148438 0 3
10.05111312866211 -7.941953182220459 1.389473795890808 0.7323575615882874 0 3
8.996112823486328 -7.174140453338623 1.2480660676956177 0.7361147403717041 0 3
8.927519798278809 -7.185273170471191 1.243013858795166 0.7391071319580078 0 3
8.859492301940918 -7.196269512176514 1.2380263805389404 0.7420842051506042 0 3
8.814882278442383 -7.225898265838623 1.2363101243972778 0.9921088814735413 0 3
8.825624465942383 -7.301191329956055 1.2423999309539795 0.6546577215194702 0 3
8.838144302368164 -7.378612995147705 1.2488141059875488 0.6512947678565979 0 3
8.850820541381836 -7.456855297088623 1.2553216218948364 0.647918701171875 0 3
9.671972274780273 -8.2232027053833 1.3769994974136353 0.9908511638641357 0 3
9.63851547241211 -8.269570350646973 1.3775118589401245 0.9904865622520447 0 3
9.6050386428833 -8.3159761428833 1.3780425786972046 0.9901022911071777 0 3
9.598280906677246 -8.385781288146973 1.38246488571167 0.6342838406562805 0 3
9.61269474029541 -8.474726676940918 1.3900039196014404 0.6308434009552002 0 3
9.627245903015137 -8.564687728881836 1.3976550102233887 0.6273897290229797 0 3
9.15005874633789 -8.214042663574219 1.3337132930755615 0.10906518995761871 0 3
9.114472389221191 -8.256230354309082 1.3339108228683472 0.10904889553785324 0 3
9.078652381896973 -8.29824161529541 1.3341091871261597 0.10903270542621613 0 3
9.042675971984863 -8.340155601501465 1.3343075513839722 0.10901662707328796 0 3
9.027812004089355 -8.40175724029541 1.3376684188842773 0.60993492603302 0 3
9.04232406616211 -8.491289138793945 1.345452904701233 0.6064068675041199 0 3
9.056991577148438 -8.58193302154541 1.353352665901184 0.602866530418396 0 3
9.071855545043945 -8.673593521118164 1.3613756895065308 0.5993138551712036 0 3
9.086874961853027 -8.766366958618164 1.3695205450057983 0.5957493782043457 0 3
9.102089881896973 -8.860234260559082 1.377791404724121 0.5921727418899536 0 3
9.117499351501465 -8.955312728881836 1.386191964149475 0.5885841846466064 0 3
9.133066177368164 -9.051484107971191 1.3947231769561768 0.5849840044975281 0 3
20.45699119567871 20.456972122192383 2.652282953262329 0.18288210034370422 0 9
21.308866500854492 21.118417739868164 2.7504074573516846 0.6569216251373291 0 9
21.50794792175293 21.125213623046875 2.7638368606567383 0.6537299156188965 0 9
21.708965301513672 21.132049560546875 2.7774527072906494 0.6505253911018372 0 9
21.91191291809082 21.13896369934082 2.7912545204162598 0.6473084092140198 0 9
22.116912841796875 21.145917892456055 2.805253028869629 0.6440789699554443 0 9
32.2041015625 30.514842987060547 4.067273139953613 0.9863896369934082 0 9
33.44964599609375 31.411367416381836 4.206737041473389 0.8375688195228577 0 9
17.440643310546875 16.2310733795166 2.184199571609497 0.5995873808860779 0 9
17.59878921508789 16.231523513793945 2.1948659420013428 0.5966737270355225 0 9
17.75845718383789 16.231952667236328 2.205677032470703 0.5937498211860657 0 9
17.91976547241211 16.232324600219727 2.2166378498077393 0.5908138751983643 0 9
18.0826358795166 16.232694625854492 2.2277474403381348 0.587867021560669 0 9
18.247051239013672 16.23308563232422 2.2390127182006836 0.5849096775054932 0 9
18.24849510192871 16.08818244934082 2.230301856994629 0.6168556213378906 0 9
18.217676162719727 15.91624927520752 2.2177810668945312 0.6203377842903137 0 9
18.18716812133789 15.746288299560547 2.205446481704712 0.6238075494766235 0 9
18.15705108642578 15.578164100646973 2.193291187286377 0.627264678478241 0 9
18.127225875854492 15.411893844604492 2.1813130378723145 0.6307094097137451 0 9
18.097734451293945 15.24740219116211 2.169508934020996 0.6341413855552673 0 9
18.068613052368164 15.084687232971191 2.1578712463378906 0.6375601887702942 0 9
18.039745330810547 14.923749923706055 2.1464102268218994 0.6409656405448914 0 9
18.011211395263672 14.764452934265137 2.135103940963745 0.6443589925765991 0 9
17.982929229736328 14.606874465942383 2.123964548110962 0.6477388143539429 0 9
17.955018997192383 14.450898170471191 2.112982988357544 0.6511054039001465 0 9
17.927343368530273 14.296523094177246 2.1021547317504883 0.6544588804244995 0 9
23.36474609375 18.461795806884766 2.7300009727478027 0.8042253255844116 0 9
23.371463775634766 18.297304153442383 2.7211661338806152 0.8068376779556274 0 9
23.37806510925293 18.1339054107666 2.712432384490967 0.8094341158866882 0 9
19.865272521972656 15.266737937927246 2.296884298324585 0.7167567610740662 0 9
20.020389556884766 15.243515014648438 2.306886911392212 0.7136494517326355 0 9
20.17416000366211 15.218085289001465 2.3167190551757812 0.7581846117973328 0 9
20.320058822631836 15.185468673706055 2.3256142139434814 0.7552828788757324 0 9
20.467031478881836 15.15267562866211 2.3346290588378906 0.7523661851882935 0 9
20.615156173706055 15.119589805603027 2.3437654972076416 0.7494342923164368 0 9
20.764511108398438 15.086210250854492 2.3530189990997314 0.7464869022369385 0 9
24.927831649780273 17.94076156616211 2.815659999847412 0.3812985122203827 0 9
25.275428771972656 18.019237518310547 2.8457539081573486 0.3772661089897156 0 9
34.54640579223633 24.395721435546875 3.8772132396698 0.9684974551200867 0 9
34.64642333984375 24.23406219482422 3.8762013912200928 0.9687519073486328 0 9
21.491737365722656 14.889452934265137 2.3969552516937256 0.5041972994804382 0 9
21.396697998046875 14.681933403015137 2.3789870738983154 0.50800621509552 0 9
21.30306625366211 14.477499961853027 2.3613271713256836 0.5118050575256348 0 9
30.22037124633789 19.94837760925293 3.319701671600342 0.7934033274650574 0 9
30.378984451293945 19.85791015625 3.3273043632507324 0.7915905714035034 0 9
30.385936737060547 19.668359756469727 3.3183627128601074 0.17623533308506012 0 9
30.69837760925293 19.675662994384766 3.342801809310913 0.7879202365875244 0 9
30.85906219482422 19.583887100219727 3.350698471069336 0.7860628962516785 0 9
31.02017593383789 19.49136734008789 3.3586628437042236 0.8500643372535706 0 9
31.13896369934082 19.371601104736328 3.3620717525482178 0.8492016196250916 0 9
31.004100799560547 19.095252990722656 3.338226556777954 0.31821224093437195 0 9
30.684471130371094 18.708984375 3.2947371006011963 0.32241249084472656 0 9
31.496482849121094 19.010683059692383 3.3727340698242188 0.8465176224708557 0 9
31.616092681884766 18.889862060546875 3.376427173614502 0.8455907702445984 0 9
30.597890853881836 18.095624923706055 3.258985757827759 0.2327650487422943 0 9
31.25812339782715 18.297245025634766 3.320525646209717 0.22845099866390228 0 9
31.569120407104492 18.289569854736328 3.344806671142578 0.6252986192703247 0 9
31.762264251708984 18.2115421295166 3.3565762042999268 0.6231061220169067 0 9
30.70703125 17.423887252807617 3.2367684841156006 0.09648443013429642 0 9
31.785839080810547 17.847909927368164 3.3420028686523438 0.09344614297151566 0 9
31.792987823486328 17.66470718383789 3.3343868255615234 0.33582940697669983 0 9
31.590526580810547 17.367128372192383 3.3049440383911133 0.3388214111328125 0 9
31.391464233398438 17.074687957763672 3.2760708332061768 0.3418075442314148 0 9
32.54267501831055 17.51201057434082 3.3879737854003906 0.4440617859363556 0 9
32.33747863769531 17.214902877807617 3.3585336208343506 0.4479541778564453 0 9
32.13576126098633 16.9228515625 3.3296608924865723 0.4518386125564575 0 9
31.937440872192383 16.635780334472656 3.301349639892578 0.4557138979434967 0 9
32.49392318725586 16.740703582763672 3.3510689735412598 0.15670427680015564 0 9
32.77156066894531 16.698026657104492 3.3719379901885986 0.15846484899520874 0 9
33.29001998901367 16.7744140625 3.4175021648406982 0.8818590641021729 0 9
18.324003219604492 9.130331993103027 1.8768889904022217 0.9873973727226257 0 6
33.05396270751953 16.285137176513672 3.378129482269287 0.7675219774246216 0 9
32.96200942993164 16.056386947631836 3.3613362312316895 0.548665463924408 0 9
32.811405181884766 15.801230430603027 3.3387069702148438 0.5523829460144043 0 9
36.22454833984375 17.245058059692383 3.678100109100342 0.3194335997104645 0 9
36.784881591796875 17.30974578857422 3.7270710468292236 0.3152367174625397 0 9
36.92716598510742 17.174707412719727 3.7336409091949463 0.9878613948822021 0 9
34.42115020751953 15.821660041809082 3.4730465412139893 0.5257902145385742 0 9
37.02945327758789 16.819686889648438 3.7285640239715576 0.9892052412033081 0 9
37.08054733276367 16.642518997192383 3.726151943206787 0.9898473620414734 0 9
37.13150405883789 16.465585708618164 3.723806381225586 0.9904698729515076 0 9
37.18238067626953 16.288846969604492 3.721543788909912 0.9910725355148315 0 9
37.23320388793945 16.112363815307617 3.7193551063537598 0.9916554093360901 0 9
37.28400421142578 15.936015129089355 3.717247486114502 0.9922181963920593 0 9
40.66755676269531 -3.4762303829193115 3.741901397705078 0.9656131267547607 0 3
39.95998001098633 -3.5964841842651367 3.6782386302948 0.24655196070671082 0 3
39.25439453125 -3.710644483566284 3.6147897243499756 0.2508796453475952 0 3
38.572715759277344 -3.820937395095825 3.5535621643066406 0.25520241260528564 0 3
37.56210708618164 -3.8911521434783936 3.4620375633239746 0.9611116051673889 0 3
37.077537536621094 -4.009238243103027 3.41898775100708 0.2638324499130249 0 3
36.463924407958984 -4.108515739440918 3.364084005355835 0.26813915371894836 0 3
35.72884750366211 -4.188144207000732 3.2979609966278076 0.2724408507347107 0 3
35.15534973144531 -4.280976295471191 3.2467598915100098 0.27673688530921936 0 3
34.51673889160156 -4.360488414764404 3.1895663738250732 0.9550492763519287 0 3
34.37761688232422 -4.499745845794678 3.1785433292388916 0.2853124141693115 0 3
33.84941482543945 -4.585214614868164 3.131574869155884 0.2895914912223816 0 3
33.336544036865234 -4.668222427368164 3.0860354900360107 0.29386502504348755 0 3
32.83839797973633 -4.748769283294678 3.041862964630127 0.29813215136528015 0 3
32.35433578491211 -4.8271484375 2.9989993572235107 0.30239346623420715 0 3
31.50486183166504 -4.845038890838623 2.922276735305786 0.30664902925491333 0 3
21.194862365722656 -3.3569140434265137 1.967318058013916 0.3108988404273987 0 3
20.894472122192383 -3.405527353286743 1.9408291578292847 0.3151415288448334 0 3
20.60201072692871 -3.452871084213257 1.9150842428207397 0.3193787932395935 0 3
20.37060546875 -3.5081639289855957 1.8950189352035522 0.09425945580005646 0 3
20.356971740722656 -3.5999608039855957 1.8952349424362183 0.0942486897110939 0 3
20.34290885925293 -3.6916990280151367 1.8954519033432007 0.09423799812793732 0 3
20.328475952148438 -3.783398389816284 1.8956704139709473 0.09422715753316879 0 3
20.313690185546875 -3.8750388622283936 1.8958901166915894 0.0942159965634346 0 3
20.29849624633789 -3.9666404724121094 1.8961111307144165 0.0942050889134407 0 3
20.282772064208984 -4.058164119720459 1.8963335752487183 0.09419421851634979 0 3
20.266815185546875 -4.149648189544678 1.8965566158294678 0.09418297559022903 0 3
20.250370025634766 -4.241054534912109 1.896781325340271 0.09417185187339783 0 3
20.2335147857666 -4.332421779632568 1.8970067501068115 0.09416068345308304 0 3
20.21626853942871 -4.423710823059082 1.897233486175537 0.09414941817522049 0 3
20.198652267456055 -4.514941215515137 1.8974621295928955 0.09413804858922958 0 3
20.1806640625 -4.606132507324219 1.897691249847412 0.09412664920091629 0 3
20.162206649780273 -4.697187423706055 1.8979228734970093 0.09411527961492538 0 3
20.14335823059082 -4.788203239440918 1.898154616355896 0.09410391747951508 0 3
20.12419891357422 -4.879199028015137 1.8983876705169678 0.09409212321043015 0 3
17.242069244384766 -4.262402057647705 1.6282973289489746 0.39034566283226013 0 3
16.400819778442383 -4.132656097412109 1.550581932067871 0.39444971084594727 0 3
16.39726448059082 -4.210097789764404 1.5520226955413818 0.4222039580345154 0 3
16.416563034057617 -4.293710708618164 1.5556539297103882 0.42121827602386475 0 3
16.435976028442383 -4.377675533294678 1.5593420267105103 0.42022261023521423 0 3
16.45552635192871 -4.462050914764404 1.5630831718444824 0.4192168414592743 0 3
16.47525405883789 -4.546855449676514 1.5668779611587524 0.418201208114624 0 3
16.495136260986328 -4.632128715515137 1.5707299709320068 0.41717544198036194 0 3
16.515174865722656 -4.717812538146973 1.5746407508850098 0.4161398410797119 0 3
16.53158187866211 -4.802870750427246 1.5782451629638672 0.4522908926010132 0 3
16.54507827758789 -4.887421607971191 1.5816110372543335 0.4513286054134369 0 3
16.558691024780273 -4.972362995147705 1.5850298404693604 0.450355589389801 0 3
16.5723819732666 -5.057675838470459 1.5884941816329956 0.4493725299835205 0 3
16.586191177368164 -5.143359184265137 1.5920181274414062 0.44837841391563416 0 3
16.600175857543945 -5.229472637176514 1.5955926179885864 0.44737401604652405 0 3
16.614238739013672 -5.315976619720459 1.599220871925354 0.44635897874832153 0 3
16.62837791442871 -5.402890682220459 1.6029012203216553 0.44533348083496094 0 3
16.642675399780273 -5.490195274353027 1.6066405773162842 0.4442974030971527 0 3
16.65707015991211 -5.577988147735596 1.6104333400726318 0.4432508945465088 0 3
16.671621322631836 -5.666191101074219 1.6142809391021729 0.4421941936016083 0 3
16.68632698059082 -5.754863262176514 1.618188738822937 0.44112682342529297 0 3
16.701152801513672 -5.843984127044678 1.6221532821655273 0.4400489330291748 0 3
16.716093063354492 -5.933554649353027 1.6261706352233887 0.4389609396457672 0 3
16.73113250732422 -6.023593425750732 1.6302504539489746 0.4378627836704254 0 3
16.746307373046875 -6.114101409912109 1.6343886852264404 0.4367538094520569 0 3
17.487226486206055 -6.473671913146973 1.709513545036316 0.8663972020149231 0 3
17.502635955810547 -6.568828105926514 1.7138845920562744 0.8641877770423889 0 3
17.518104553222656 -6.664492130279541 1.718311071395874 0.8619609475135803 0 3
17.53365135192871 -6.760663986206055 1.7227941751480103 0.8597167134284973 0 3
17.549297332763672 -6.857304573059082 1.7273436784744263 0.8574552536010742 0 3
17.565038681030273 -6.954511642456055 1.7319433689117432 0.8551765084266663 0 3
17.58085823059082 -7.052167892456055 1.7366045713424683 0.8528803586959839 0 3
17.596738815307617 -7.150410175323486 1.7413302659988403 0.850567102432251 0 3
17.612733840942383 -7.249159812927246 1.7461119890213013 0.8482369184494019 0 3
17.628787994384766 -7.348456859588623 1.750962495803833 0.8458895087242126 0 3
17.644960403442383 -7.448339462280273 1.7558650970458984 0.8435249924659729 0 3
17.66126823425293 -7.548808574676514 1.7608394622802734 0.8411434888839722 0 3
17.677597045898438 -7.649785041809082 1.7658761739730835 0.8387451171875 0 3
17.69402313232422 -7.751347541809082 1.7709755897521973 0.8363297581672668 0 3
17.7105655670166 -7.853535175323486 1.77614164352417 0.8338976502418518 0 3
17.72718620300293 -7.956308364868164 1.781370759010315 0.8314487338066101 0 3
17.743925094604492 -8.059667587280273 1.7866690158843994 0.8289830088615417 0 3
17.760761260986328 -8.163710594177246 1.7920364141464233 0.8265005350112915 0 3
17.777694702148438 -8.268320083618164 1.7974740266799927 0.8240014314651489 0 3
17.79474639892578 -8.373554229736328 1.8029736280441284 0.8214858770370483 0 3
17.811874389648438 -8.479511260986328 1.8085546493530273 0.8189535737037659 0 3
17.829120635986328 -8.586073875427246 1.8141964673995972 0.8164048194885254 0 3
17.84648323059082 -8.693300247192383 1.8199142217636108 0.8138396739959717 0 3
17.864004135131836 -8.801249504089355 1.8257055282592773 0.81125807762146 0 3
17.881561279296875 -8.909843444824219 1.8315709829330444 0.8086602687835693 0 3
17.899276733398438 -9.019179344177246 1.8375118970870972 0.8060460090637207 0 3
17.917051315307617 -9.129218101501465 1.8435289859771729 0.8034153580665588 0 3
17.934980392456055 -9.239960670471191 1.8496203422546387 0.8007689118385315 0 3
17.953065872192383 -9.351484298706055 1.8557921648025513 0.7981061935424805 0 3
17.971229553222656 -9.46371078491211 1.8620415925979614 0.7954273223876953 0 3
17.989511489868164 -9.5767183303833 1.8683702945709229 0.7927327752113342 0 3
18.0079288482666 -9.690507888793945 1.8747823238372803 0.7900215983390808 0 3
13.558202743530273 -7.37462854385376 1.4149563312530518 0.610337495803833 0 3
13.447304725646973 -7.39269495010376 1.4068337678909302 0.6138632297515869 0 3
13.337656021118164 -7.410585880279541 1.398824691772461 0.6173768043518066 0 3
13.22923755645752 -7.428242206573486 1.3909399509429932 0.6208773255348206 0 3
13.122050285339355 -7.445703029632568 1.3831658363342285 0.6243656277656555 0 3
13.016035079956055 -7.462987899780273 1.3755111694335938 0.627841591835022 0 3
12.9111909866333 -7.480058193206787 1.367966890335083 0.6313045620918274 0 3
12.807499885559082 -7.496992111206055 1.3605272769927979 0.6339510679244995 0 3
12.704804420471191 -7.513574123382568 1.3531850576400757 0.6373913288116455 0 3
12.603144645690918 -7.53005838394165 1.3459481000900269 0.6408194899559021 0 3
12.50259780883789 -7.546308517456055 1.3388125896453857 0.6442345976829529 0 3
12.403104782104492 -7.562382698059082 1.331777572631836 0.6476367712020874 0 3
12.304667472839355 -7.578359127044678 1.3248451948165894 0.6510263085365295 0 3
12.207226753234863 -7.594140529632568 1.3180127143859863 0.654401957988739 0 3
12.11074161529541 -7.609706878662109 1.311269760131836 0.6577651500701904 0 3
12.01529312133789 -7.625136375427246 1.3046255111694336 0.6611146926879883 0 3
11.920820236206055 -7.640449047088623 1.2980782985687256 0.6644509434700012 0 3
11.827245712280273 -7.655585765838623 1.2916183471679688 0.6677734851837158 0 3
11.73460865020752 -7.670566082000732 1.2852529287338257 0.6710826754570007 0 3
11.642889976501465 -7.685390472412109 1.2789700031280518 0.6743783354759216 0 3
11.552050590515137 -7.700117111206055 1.272774577140808 0.6776607632637024 0 3
11.462089538574219 -7.714667797088623 1.2666653394699097 0.6809295415878296 0 3
11.373026847839355 -7.72912073135376 1.2606408596038818 0.684184193611145 0 3
11.2847261428833 -7.743339538574219 1.2546963691711426 0.6874256730079651 0 3
11.1973237991333 -7.757538795471191 1.2488329410552979 0.6906523108482361 0 3
11.11068344116211 -7.771543025970459 1.2430484294891357 0.6938660144805908 0 3
11.024882316589355 -7.78542947769165 1.237345814704895 0.6970651149749756 0 3
10.939824104309082 -7.799199104309082 1.2317153215408325 0.7002506852149963 0 3
10.8555269241333 -7.812792778015137 1.2261617183685303 0.7034218907356262 0 3
10.772011756896973 -7.826327800750732 1.220683217048645 0.7065792083740234 0 3
10.689218521118164 -7.839726448059082 1.215277075767517 0.7097225189208984 0 3
10.607187271118164 -7.853007793426514 1.2099429368972778 0.7128514647483826 0 3
10.52578067779541 -7.866113185882568 1.2046691179275513 0.7140114307403564 0 3
10.444921493530273 -7.879003524780273 1.199460744857788 0.7182561755180359 0 3
10.364882469177246 -7.891855239868164 1.1943203210830688 0.7213453650474548 0 3
10.285507202148438 -7.904609203338623 1.189250111579895 0.7244194746017456 0 3
10.206815719604492 -7.917245864868164 1.18424654006958 0.7274795770645142 0 3
10.12880802154541 -7.929784774780273 1.179317593574524 0.7305243015289307 0 3
10.051405906677246 -7.942187309265137 1.1744424104690552 0.7335554361343384 0 3
8.996347427368164 -7.174335956573486 1.0549148321151733 0.7373186945915222 0 3
8.927773475646973 -7.185468673706055 1.050642967224121 0.7403157353401184 0 3
8.859745979309082 -7.196464538574219 1.0464285612106323 0.7432984113693237 0 3
8.814628601074219 -7.22570276260376 1.0449706315994263 0.9937872886657715 0 3
8.824804306030273 -7.300507545471191 1.0499987602233887 0.6558077931404114 0 3
8.837343215942383 -7.3779296875 1.0554189682006836 0.6524389982223511 0 3
8.850019454956055 -7.45617151260376 1.0609185695648193 0.6490574479103088 0 3
9.67171859741211 -8.223007202148438 1.1638275384902954 0.9925277233123779 0 3
9.638261795043945 -8.269335746765137 1.1642556190490723 0.9921626448631287 0 3
9.604804039001465 -8.315741539001465 1.164719820022583 0.9917775392532349 0 3
9.597343444824219 -8.384961128234863 1.168367624282837 0.6353998780250549 0 3
9.611738204956055 -8.473906517028809 1.1747405529022217 0.6319534778594971 0 3
9.626327514648438 -8.563847541809082 1.1812036037445068 0.628494381904602 0 3
9.641054153442383 -8.65478515625 1.1877670288085938 0.6250225901603699 0 3
9.655937194824219 -8.746699333190918 1.1944241523742676 0.6215382218360901 0 3
9.670995712280273 -8.839706420898438 1.2011830806732178 0.6180412769317627 0 3
9.686269760131836 -8.933769226074219 1.208042860031128 0.6145318150520325 0 3
9.70166015625 -9.028886795043945 1.2150063514709473 0.6110101342201233 0 3
9.717226028442383 -9.125097274780273 1.2220748662948608 0.6074761152267456 0 3
9.732988357543945 -9.222441673278809 1.2292523384094238 0.603929877281189 0 3
9.74892520904541 -9.32095718383789 1.236535906791687 0.6003713607788086 0 3
9.765097618103027 -9.420663833618164 1.2439336776733398 0.5968009233474731 0 3
9.781425476074219 -9.521523475646973 1.25144624710083 0.5932183861732483 0 3
9.797948837280273 -9.623632431030273 1.2590752840042114 0.589623749256134 0 3
9.814725875854492 -9.727011680603027 1.2668240070343018 0.5860176086425781 0 3
21.275409698486328 21.275371551513672 2.2547757625579834 0.6559296250343323 0 9
21.47490119934082 21.282968521118164 2.265775442123413 0.6527461409568787 0 9
21.676366806030273 21.290605545043945 2.2769222259521484 0.6495495438575745 0 9
21.879745483398438 21.298358917236328 2.2882301807403564 0.6463410258293152 0 9
22.085174560546875 21.306171417236328 2.299687147140503 0.6431194543838501 0 9
22.292715072631836 21.31396484375 2.3113107681274414 0.639885663986206 0 9
20.49853515625 19.423261642456055 2.116236925125122 0.9290941953659058 0 9
20.55207061767578 19.29962921142578 2.11279559135437 0.9306065440177917 0 9
20.60542869567871 19.17640495300293 2.1094112396240234 0.9321000576019287 0 9
17.8575382232666 16.47021484375 1.8205242156982422 0.5888423919677734 0 9
18.020877838134766 16.47183609008789 1.829624891281128 0.5859135985374451 0 9
18.18587875366211 16.47343635559082 1.8388476371765137 0.582974374294281 0 9
18.24935531616211 16.382383346557617 1.8378108739852905 0.6729419231414795 0 9
18.257793426513672 16.242578506469727 1.8313000202178955 0.6149469017982483 0 9
18.226776123046875 16.06902313232422 1.8209338188171387 0.618446946144104 0 9
18.19611358642578 15.897421836853027 1.8107272386550903 0.6219336986541748 0 9
18.165740966796875 15.727753639221191 1.8006654977798462 0.625408411026001 0 9
18.135780334472656 15.559921264648438 1.7907546758651733 0.6288706660270691 0 9
18.10611343383789 15.393925666809082 1.78098726272583 0.6323195099830627 0 9
18.07679557800293 15.229745864868164 1.771360158920288 0.6357563138008118 0 9
19.596445083618164 16.360254287719727 1.9130595922470093 0.6464729309082031 0 9
19.772695541381836 16.357362747192383 1.9230740070343018 0.6431048512458801 0 9
19.95081901550293 16.35445213317871 1.9332422018051147 0.6397229433059692 0 9
20.130840301513672 16.35152244567871 1.943555235862732 0.6363285779953003 0 9
23.434432983398438 18.86097526550293 2.2543110847473145 0.797217845916748 0 9
23.440996170043945 18.69351577758789 2.2468466758728027 0.79986572265625 0 9
23.447500228881836 18.52718734741211 2.2394814491271973 0.8024976253509521 0 9
23.453964233398438 18.361875534057617 2.2322006225585938 0.8051137924194336 0 9
23.460371017456055 18.197656631469727 2.2250173091888428 0.8077139258384705 0 9
23.466699600219727 18.034530639648438 2.2179219722747803 0.8102980852127075 0 9
23.473026275634766 17.87236213684082 2.2109158039093018 0.8128660321235657 0 9
23.47929573059082 17.71125030517578 2.203993797302246 0.8154178857803345 0 9
23.48552703857422 17.55107307434082 2.1971614360809326 0.8179536461830139 0 9
23.73468780517578 17.571874618530273 2.2130770683288574 0.8789358735084534 0 9
24.079471588134766 17.660369873046875 2.2378084659576416 0.3927103281021118 0 9
24.408456802368164 17.733749389648438 2.2609639167785645 0.38868847489356995 0 9
34.024452209472656 24.48775291442871 3.1414918899536133 0.7387365698814392 0 9
34.50552749633789 24.599628448486328 3.1756844520568848 0.5875787734985352 0 9
34.74333953857422 24.5347843170166 3.187408685684204 0.9643425345420837 0 9
34.975486755371094 24.46417999267578 3.1985995769500732 0.17421017587184906 0 9
34.23310470581055 23.716815948486328 3.120936632156372 0.17854514718055725 0 9
33.525997161865234 23.004980087280273 3.0470387935638428 0.18287572264671326 0 9
35.421443939208984 24.072479248046875 3.209449052810669 0.679506242275238 0 9
30.237693786621094 20.35185432434082 2.73146390914917 0.7893101572990417 0 9
30.397518157958984 20.261756896972656 2.7376551628112793 0.7875250577926636 0 9
30.557968139648438 20.171249389648438 2.7439253330230713 0.7857248187065125 0 9
30.71919822692871 20.080272674560547 2.7502810955047607 0.7839096784591675 0 9
30.881072998046875 19.9888858795166 2.75671648979187 0.7820793986320496 0 9
31.043691635131836 19.897050857543945 2.763235092163086 0.7802342772483826 0 9
31.207088470458984 19.804725646972656 2.7698402404785156 0.7783743143081665 0 9
31.37125015258789 19.711933135986328 2.7765285968780518 0.776499330997467 0 9
31.185272216796875 19.400390625 2.7523317337036133 0.31592312455177307 0 9
30.86052703857422 19.00679588317871 2.7161147594451904 0.32013601064682007 0 9
30.544139862060547 18.623456954956055 2.6808907985687256 0.3243420720100403 0 9
31.851640701293945 19.22509765625 2.7880494594573975 0.8382384777069092 0 9
31.973007202148438 19.103084564208984 2.7911360263824463 0.8373104929924011 0 9
30.915292739868164 18.28333854675293 2.6916146278381348 0.2306945025920868 0 9
30.872148513793945 18.0712890625 2.680769205093384 0.17856982350349426 0 9
31.1895694732666 18.06966781616211 2.7012624740600586 0.1772148609161377 0 9
32.460899353027344 18.612089157104492 2.8041086196899414 0.833438515663147 0 9
32.4142951965332 18.392597198486328 2.792921304702759 0.9193458557128906 0 9
32.55804443359375 18.28154182434082 2.7982144355773926 0.9176075458526611 0 9
32.70241928100586 18.169981002807617 2.8035812377929688 0.9158506393432617 0 9
32.83872985839844 18.053281784057617 2.80829119682312 0.9396366477012634 0 9
32.48431396484375 17.66912078857422 2.7711751461029053 0.33076584339141846 0 9
32.845741271972656 17.67513656616211 2.795215606689453 0.44057363271713257 0 9
32.6359748840332 17.37384796142578 2.770697832107544 0.44447165727615356 0 9
32.42986297607422 17.077733993530273 2.7466676235198975 0.44836124777793884 0 9
32.22724533081055 16.786718368530273 2.7230942249298096 0.45224204659461975 0 9
32.02800750732422 16.50064468383789 2.6999733448028564 0.4561142325401306 0 9
33.07148361206055 16.850858688354492 2.781538248062134 0.15453588962554932 0 9
32.41220474243164 16.332128524780273 2.719895839691162 0.16080886125564575 0 9
18.321796417236328 9.129218101501465 1.5340334177017212 0.9886636734008789 0 6
37.31150436401367 18.382753372192383 3.117051601409912 0.5567774176597595 0 9
37.2175178527832 18.12935447692871 3.102375030517578 0.5594117045402527 0 9
37.12449264526367 17.878299713134766 3.087899923324585 0.5620341300964355 0 9
37.03236389160156 17.629667282104492 3.0736231803894043 0.5646443367004395 0 9
38.609764099121094 18.168476104736328 3.1977455615997314 0.6489903926849365 0 9
38.8879280090332 18.086660385131836 3.21402907371521 0.6457023620605469 0 9
46.51374816894531 17.93488311767578 3.735872507095337 0.507082462310791 0 9
46.24917984008789 17.59486198425293 3.7082436084747314 0.510860800743103 0 9
35.58650207519531 -2.7203710079193115 2.6746225357055664 0.23384104669094086 0 3
34.92449188232422 -2.8274998664855957 2.625792980194092 0.2381894290447235 0 3
34.28620910644531 -2.9307615756988525 2.578768491744995 0.24253329634666443 0 3
33.7512092590332 -3.037675619125366 2.5395309925079346 0.2514702379703522 0 3
39.25779342651367 -3.7109763622283936 2.955075263977051 0.2512057423591614 0 3
26.01722526550293 -2.577226400375366 1.9592641592025757 0.25553515553474426 0 3
25.57271385192871 -2.6491405963897705 1.926662564277649 0.2598591446876526 0 3
25.142772674560547 -2.7187108993530273 1.895172357559204 0.2641773223876953 0 3
24.909862518310547 -2.80669903755188 1.878548502922058 0.07783332467079163 0 3
24.90021514892578 -2.9188475608825684 1.8787893056869507 0.0778234452009201 0 3
24.890058517456055 -3.0309178829193115 1.879030704498291 0.07781334221363068 0 3
24.879432678222656 -3.1430273056030273 1.879274845123291 0.07780332118272781 0 3
24.86833953857422 -3.255058526992798 1.8795193433761597 0.07779306918382645 0 3
24.856698989868164 -3.3670897483825684 1.879766821861267 0.0777830258011818 0 3
24.844667434692383 -3.4791014194488525 1.8800143003463745 0.07777255028486252 0 3
24.832069396972656 -3.591015577316284 1.8802642822265625 0.07776234298944473 0 3
24.819042205810547 -3.7029101848602295 1.8805162906646729 0.07775190472602844 0 3
22.41765594482422 -3.447577953338623 1.6997252702713013 0.9485118985176086 0 3
24.79146385192871 -3.9266014099121094 1.8810237646102905 0.07773102074861526 0 3
24.776952743530273 -4.03835916519165 1.8812795877456665 0.07772043347358704 0 3
24.761972427368164 -4.150097370147705 1.8815364837646484 0.07770980149507523 0 3
24.746503829956055 -4.261757850646973 1.8817962408065796 0.07769910246133804 0 3
24.730566024780273 -4.373417854309082 1.8820565938949585 0.0776883065700531 0 3
24.714101791381836 -4.484980583190918 1.8823187351226807 0.07767757028341293 0 3
24.697168350219727 -4.596445083618164 1.8825817108154297 0.07766665518283844 0 3
24.679784774780273 -4.707929611206055 1.8828471899032593 0.07765576988458633 0 3
24.66193389892578 -4.8193359375 1.8831136226654053 0.07764469087123871 0 3
24.511152267456055 -4.904160022735596 1.8732622861862183 0.3493099808692932 0 3
24.198749542236328 -4.954707145690918 1.8510677814483643 0.3534986078739166 0 3
23.893611907958984 -5.004081726074219 1.8294274806976318 0.35768041014671326 0 3
23.59554672241211 -5.052285194396973 1.808327317237854 0.3618542551994324 0 3
23.304277420043945 -5.09939432144165 1.787736177444458 0.36602115631103516 0 3
22.737577438354492 -5.082441329956055 1.7459932565689087 0.3701806366443634 0 3
22.648456573486328 -5.169355392456055 1.7409155368804932 0.924044668674469 0 3
22.46888542175293 -5.234589576721191 1.7289049625396729 0.3784772753715515 0 3
22.202499389648438 -5.277656078338623 1.7102086544036865 0.38261404633522034 0 3
21.941776275634766 -5.319863319396973 1.6919509172439575 0.3867431581020355 0 3
17.243026733398438 -4.262675762176514 1.3310894966125488 0.39086490869522095 0 3
17.16730499267578 -4.325781345367432 1.3267276287078857 0.9154149293899536 0 3
21.191951751708984 -5.441152095794678 1.6396361589431763 0.3990837633609772 0 3
16.03105354309082 -4.19287109375 1.2417739629745483 0.40317437052726746 0 3
15.907597541809082 -4.236933708190918 1.2336721420288086 0.43478068709373474 0 3
15.925332069396973 -4.318300724029541 1.2365370988845825 0.4337735176086426 0 3
15.94320297241211 -4.400039196014404 1.2394452095031738 0.4327564239501953 0 3
15.961152076721191 -4.48220682144165 1.2423943281173706 0.43172919750213623 0 3
15.979276657104492 -4.564745903015137 1.2453842163085938 0.430692195892334 0 3
15.997519493103027 -4.64773416519165 1.2484195232391357 0.429645299911499 0 3
16.015897750854492 -4.731074333190918 1.2514986991882324 0.4285884499549866 0 3
16.034393310546875 -4.814902305603027 1.2546197175979614 0.42752161622047424 0 3
16.05306625366211 -4.899159908294678 1.2577877044677734 0.4264449179172516 0 3
16.0718936920166 -4.983867168426514 1.2610031366348267 0.42535829544067383 0 3
16.090801239013672 -5.069003582000732 1.2642595767974854 0.42426207661628723 0 3
16.109901428222656 -5.154609203338623 1.2675658464431763 0.42315563559532166 0 3
16.129119873046875 -5.240644454956055 1.2709182500839233 0.42203977704048157 0 3
16.14546775817871 -5.326250076293945 1.274072289466858 0.4586144685745239 0 3
16.15833854675293 -5.410995960235596 1.2769924402236938 0.45756667852401733 0 3
16.171268463134766 -5.496152400970459 1.2799524068832397 0.4565082788467407 0 3
16.184316635131836 -5.581737995147705 1.2829574346542358 0.45543935894966125 0 3
16.197500228881836 -5.667773246765137 1.2860027551651 0.4543602466583252 0 3
16.210800170898438 -5.75417947769165 1.2890938520431519 0.45327067375183105 0 3
16.224140167236328 -5.841034889221191 1.292230486869812 0.452170729637146 0 3
16.23763656616211 -5.928378582000732 1.2954097986221313 0.4510604739189148 0 3
16.25126838684082 -6.016132831573486 1.2986361980438232 0.44993990659713745 0 3
16.26496124267578 -6.104355335235596 1.3019073009490967 0.4488089084625244 0 3
16.278827667236328 -6.193066120147705 1.3052258491516113 0.44766777753829956 0 3
17.532421112060547 -6.760195255279541 1.4081616401672363 0.8609679937362671 0 3
17.548105239868164 -6.856855392456055 1.41187584400177 0.8587034344673157 0 3
17.56380844116211 -6.954003810882568 1.4156380891799927 0.8564214706420898 0 3
17.579627990722656 -7.051699161529541 1.4194488525390625 0.8541222214698792 0 3
17.59552764892578 -7.14990234375 1.4233111143112183 0.8518058061599731 0 3
17.61150360107422 -7.24865198135376 1.4272204637527466 0.8494722843170166 0 3
17.596073150634766 -7.334843635559082 1.428621768951416 0.525779664516449 0 3
17.584999084472656 -7.423046588897705 1.430417776107788 0.8447538018226624 0 3
17.75701141357422 -7.589706897735596 1.4471611976623535 0.8423691391944885 0 3
17.7734375 -7.691230297088623 1.4512994289398193 0.8399675488471985 0 3
17.789960861206055 -7.793378829956055 1.4554924964904785 0.8375486135482788 0 3
17.806581497192383 -7.896073818206787 1.4597365856170654 0.8351131081581116 0 3
17.823301315307617 -7.999394416809082 1.4640352725982666 0.8326607942581177 0 3
17.840116500854492 -8.103339195251465 1.4683889150619507 0.8301917314529419 0 3
17.8570499420166 -8.207948684692383 1.4728014469146729 0.8277059197425842 0 3
17.75521469116211 -8.257851600646973 1.4674420356750488 0.5595667362213135 0 3
17.73421859741211 -8.34505844116211 1.4687881469726562 0.822684109210968 0 3
17.810606002807617 -8.478886604309082 1.478247046470642 0.8201484084129333 0 3
17.827850341796875 -8.58544921875 1.4828616380691528 0.8175961375236511 0 3
17.84521484375 -8.692675590515137 1.4875359535217285 0.8150274753570557 0 3
17.862674713134766 -8.800604820251465 1.4922716617584229 0.8124420642852783 0 3
17.88021469116211 -8.909198760986328 1.497064471244812 0.809840738773346 0 3
17.89794921875 -9.018515586853027 1.5019183158874512 0.8072230815887451 0 3
17.915740966796875 -9.128554344177246 1.5068371295928955 0.8045887351036072 0 3
17.933652877807617 -9.239296913146973 1.5118173360824585 0.8019385933876038 0 3
17.951698303222656 -9.35074234008789 1.5168582201004028 0.7992721796035767 0 3
17.96986198425293 -9.462968826293945 1.5219646692276 0.7965895533561707 0 3
17.988143920898438 -9.575976371765137 1.527140736579895 0.7938909530639648 0 3
18.006582260131836 -9.689745903015137 1.5323807001113892 0.7911763191223145 0 3
13.558671951293945 -7.374863147735596 1.156667709350586 0.6111614108085632 0 3
13.447793006896973 -7.392949104309082 1.1500287055969238 0.6146920323371887 0 3
13.338144302368164 -7.410859107971191 1.1434762477874756 0.6182101964950562 0 3
13.229706764221191 -7.428534984588623 1.137027621269226 0.6217160224914551 0 3
13.122480392456055 -7.445956707000732 1.1306747198104858 0.625209391117096 0 3
13.016464233398438 -7.463222503662109 1.1244168281555176 0.6286904215812683 0 3
12.911757469177246 -7.480410099029541 1.1182599067687988 0.6334792971611023 0 3
12.80810546875 -7.497304439544678 1.1121832132339478 0.6348003149032593 0 3
12.705331802368164 -7.513925552368164 1.1061776876449585 0.6382462382316589 0 3
12.603711128234863 -7.530370712280273 1.100264549255371 0.6416787505149841 0 3
12.503144264221191 -7.54665994644165 1.0944329500198364 0.6450988054275513 0 3
12.403671264648438 -7.562753677368164 1.088678002357483 0.6485053896903992 0 3
12.305214881896973 -7.578671932220459 1.0830111503601074 0.6518992185592651 0 3
12.207734107971191 -7.594452857971191 1.0774258375167847 0.6552799940109253 0 3
12.111268997192383 -7.610038757324219 1.0719164609909058 0.6586478352546692 0 3
12.015839576721191 -7.625449180603027 1.06648588180542 0.6620016694068909 0 3
11.921308517456055 -7.640761375427246 1.0611296892166138 0.6653428673744202 0 3
11.827754020690918 -7.655917644500732 1.0558501482009888 0.6686705350875854 0 3
11.735116958618164 -7.6708984375 1.0506441593170166 0.6719838976860046 0 3
11.643359184265137 -7.685741901397705 1.0455081462860107 0.6752843856811523 0 3
11.552557945251465 -7.70046854019165 1.0404428243637085 0.6785716414451599 0 3
11.462597846984863 -7.715019226074219 1.035449504852295 0.6818444728851318 0 3
11.373496055603027 -7.729433536529541 1.0305233001708984 0.6851034760475159 0 3
11.285253524780273 -7.743710994720459 1.0256658792495728 0.6883489489555359 0 3
11.197793006896973 -7.757832050323486 1.0208730697631836 0.6915806531906128 0 3
11.111132621765137 -7.771835803985596 1.0161434412002563 0.69479900598526 0 3
11.025331497192383 -7.78576135635376 1.011480689048767 0.6980023980140686 0 3
10.940292358398438 -7.799511432647705 1.006877064704895 0.7011918425559998 0 3
10.855996131896973 -7.813163757324219 1.0023375749588013 0.7043678760528564 0 3
10.772480010986328 -7.82666015625 0.9978588819503784 0.7075300216674805 0 3
10.689648628234863 -7.840038776397705 0.9934411644935608 0.7106773257255554 0 3
10.607597351074219 -7.853339672088623 0.9890792369842529 0.7138103246688843 0 3
10.526171684265137 -7.866405963897705 0.984767735004425 0.7149724364280701 0 3
10.445292472839355 -7.879257678985596 0.9805007576942444 0.7180857062339783 0 3
10.365195274353027 -7.892109394073486 0.9763055443763733 0.7223231196403503 0 3
10.285840034484863 -7.904862880706787 0.972157895565033 0.7254021167755127 0 3
10.207128524780273 -7.917460918426514 0.9680648446083069 0.7284652590751648 0 3
10.129081726074219 -7.929980278015137 0.9640288949012756 0.7315147519111633 0 3
10.051698684692383 -7.942441463470459 0.9600430130958557 0.734549880027771 0 3
8.9966402053833 -7.174570083618164 0.8623409867286682 0.7383187413215637 0 3
8.92806625366211 -7.185702800750732 0.8588497638702393 0.7413197159767151 0 3
8.86001968383789 -7.196679592132568 0.8553909063339233 0.7443062663078308 0 3
8.814414024353027 -7.225527286529541 0.85420161485672 0.995191216468811 0 3
8.824023246765137 -7.299843788146973 0.8582180738449097 0.6567765474319458 0 3
8.836562156677246 -7.377265453338623 0.8626492023468018 0.6534030437469482 0 3
8.849218368530273 -7.455468654632568 0.8671303987503052 0.650016725063324 0 3
9.671464920043945 -8.222773551940918 0.951330840587616 0.9939299821853638 0 3
9.638007164001465 -8.2691011428833 0.9516738653182983 0.9935644865036011 0 3
9.604511260986328 -8.315526962280273 0.9520376324653625 0.9931790232658386 0 3
9.596464157104492 -8.384199142456055 0.954964280128479 0.6363404393196106 0 3
9.61083984375 -8.47314453125 0.960172712802887 0.6328892707824707 0 3
9.62539005279541 -8.563027381896973 0.9654561877250671 0.6294251680374146 0 3
9.640116691589355 -8.653925895690918 0.9708181619644165 0.6259487271308899 0 3
9.654999732971191 -8.745898246765137 0.9762612581253052 0.622459352016449 0 3
9.670058250427246 -8.8388671875 0.9817840456962585 0.6189577579498291 0 3
9.685293197631836 -8.932890892028809 0.9873879551887512 0.6154435873031616 0 3
9.70068359375 -9.028007507324219 0.9930804371833801 0.611916720867157 0 3
9.716249465942383 -9.12417984008789 0.998856782913208 0.6083780527114868 0 3
9.732030868530273 -9.221562385559082 1.0047200918197632 0.6048268675804138 0 3
9.747987747192383 -9.320077896118164 1.0106772184371948 0.6012632846832275 0 3
9.764101028442383 -9.419726371765137 1.0167217254638672 0.5976877212524414 0 3
9.78042984008789 -9.520586013793945 1.022861361503601 0.5941002368927002 0 3
9.796972274780273 -9.622655868530273 1.029097557067871 0.590501070022583 0 3
9.813730239868164 -9.726035118103027 1.0354299545288086 0.5868896842002869 0 3
21.44123077392578 21.441190719604492 1.7660824060440063 0.6515772938728333 0 9
21.643085479736328 21.449687957763672 1.7747622728347778 0.6483901739120483 0 9
21.84701156616211 21.458202362060547 1.7835665941238403 0.6451903581619263 0 9
22.05286979675293 21.466835021972656 1.792493224143982 0.6419779062271118 0 9
22.260820388793945 21.47554588317871 1.8015395402908325 0.6387527585029602 0 9
35.58347702026367 34.021366119384766 2.867337942123413 0.40957140922546387 0 9
35.79208755493164 33.91462707519531 2.871859312057495 0.7008338570594788 0 9
20.60347557067871 18.663339614868164 1.6191494464874268 0.9799078702926636 0 9
20.70488166809082 18.58673858642578 1.6205458641052246 0.9790622591972351 0 9
20.806543350219727 18.509960174560547 1.6219793558120728 0.9781967401504517 0 9
