ply
format ascii 1.0
element vertex 1372
property float32 x
property float32 y
property float32 z
property float32 CosAngle
property uint32 ObjIdx
property uint32 ObjTag
end_header
23.7237 -13.5318 -1.6912 0.4943 0 3
23.8479 -13.5318 -1.6979 0.4923 0 3
23.9731 -13.5319 -1.7046 0.4904 0 3
24.0994 -13.5319 -1.7114 0.4884 0 3
24.2267 -13.5319 -1.7183 0.4865 0 3
24.3549 -13.5320 -1.7252 0.4845 0 3
24.4842 -13.5320 -1.7322 0.4826 0 3
24.6146 -13.5321 -1.7393 0.4806 0 3
24.7460 -13.5321 -1.7464 0.4786 0 3
24.8786 -13.5321 -1.7537 0.4767 0 3
18.2374 -9.8669 -1.2840 0.1322 0 20
18.1557 -9.7700 -1.2767 0.6903 0 20
18.1510 -9.7151 -1.2748 0.9828 0 20
18.1655 -9.6704 -1.2743 0.9832 0 20
18.1957 -9.6342 -1.2749 0.8964 0 20
18.2374 -9.6039 -1.2763 0.8954 0 20
25.8379 -13.5324 -1.8061 0.4628 0 3
25.9796 -13.5324 -1.8138 0.4608 0 3
26.1226 -13.5324 -1.8217 0.4589 0 3
26.2668 -13.5325 -1.8296 0.4569 0 3
26.4123 -13.5325 -1.8377 0.4549 0 3
26.5591 -13.5326 -1.8457 0.4529 0 3
26.7071 -13.5326 -1.8539 0.4509 0 3
26.8565 -13.5326 -1.8622 0.4489 0 3
27.0072 -13.5327 -1.8705 0.4469 0 3
27.1594 -13.5327 -1.8790 0.4449 0 3
27.3128 -13.5328 -1.8875 0.4429 0 3
27.3725 -13.4860 -1.8895 0.0561 0 0
27.4058 -13.4260 -1.8897 0.0561 0 0
27.4390 -13.3660 -1.8899 0.0561 0 0
27.4719 -13.3059 -1.8901 0.0561 0 0
27.5047 -13.2456 -1.8903 0.0561 0 0
27.5374 -13.1854 -1.8905 0.0561 0 0
27.5699 -13.1249 -1.8907 0.0561 0 0
27.6024 -13.0645 -1.8910 0.0560 0 0
27.6346 -13.0039 -1.8912 0.0560 0 0
27.6667 -12.9433 -1.8914 0.0560 0 0
27.6986 -12.8825 -1.8916 0.0560 0 0
27.7305 -12.8217 -1.8918 0.0560 0 0
27.7622 -12.7608 -1.8920 0.0560 0 0
27.7937 -12.6998 -1.8922 0.0560 0 0
27.8250 -12.6388 -1.8924 0.0560 0 0
27.8562 -12.5776 -1.8926 0.0560 0 0
27.8873 -12.5164 -1.8928 0.0560 0 0
27.9183 -12.4551 -1.8930 0.0560 0 0
27.9491 -12.3937 -1.8932 0.0560 0 0
27.9797 -12.3322 -1.8934 0.0560 0 0
28.0101 -12.2706 -1.8936 0.0560 0 0
28.0404 -12.2090 -1.8937 0.0560 0 0
28.0707 -12.1473 -1.8939 0.0560 0 0
28.1007 -12.0854 -1.8941 0.0560 0 0
28.1305 -12.0236 -1.8943 0.0559 0 0
28.1603 -11.9616 -1.8945 0.0559 0 0
28.1898 -11.8996 -1.8947 0.0559 0 0
28.2192 -11.8375 -1.8949 0.0559 0 0
28.2486 -11.7753 -1.8951 0.0559 0 0
28.2776 -11.7130 -1.8953 0.0559 0 0
28.3066 -11.6507 -1.8954 0.0559 0 0
28.3355 -11.5883 -1.8956 0.0559 0 0
28.3641 -11.5257 -1.8958 0.0559 0 0
28.3926 -11.4632 -1.8960 0.0559 0 0
15.7928 -6.3349 -1.0537 0.8441 0 6
15.7930 -6.2939 -1.0527 0.9783 0 6
15.8173 -6.2625 -1.0534 0.8467 0 6
28.5051 -11.2121 -1.8967 0.0559 0 0
28.5329 -11.1491 -1.8969 0.0559 0 0
28.5604 -11.0861 -1.8971 0.0559 0 0
28.5879 -11.0230 -1.8972 0.0559 0 0
28.6152 -10.9598 -1.8974 0.0559 0 0
28.6424 -10.8966 -1.8976 0.0559 0 0
28.6694 -10.8333 -1.8978 0.0558 0 0
28.6962 -10.7698 -1.8979 0.0558 0 0
28.7229 -10.7064 -1.8981 0.0558 0 0
24.7796 -9.1733 -1.6362 0.9365 0 20
24.7796 -9.1102 -1.6348 0.9373 0 20
28.8018 -10.5155 -1.8986 0.0558 0 0
28.8279 -10.4518 -1.8988 0.0558 0 0
28.8538 -10.3880 -1.8989 0.0558 0 0
28.8796 -10.3241 -1.8991 0.0558 0 0
25.8728 -9.1839 -1.7000 0.9411 0 20
25.8729 -9.1186 -1.6987 0.9418 0 20
28.9559 -10.1321 -1.8996 0.0558 0 0
28.9810 -10.0679 -1.8997 0.0558 0 0
29.0059 -10.0037 -1.8999 0.0558 0 0
28.8063 -9.8627 -1.8854 0.0558 0 2
26.9788 -9.1694 -1.7644 0.9455 0 20
26.9960 -9.1077 -1.7641 0.3188 0 20
28.8792 -9.6709 -1.8858 0.0558 0 2
28.9031 -9.6068 -1.8860 0.0558 0 2
28.9269 -9.5427 -1.8861 0.0558 0 2
28.0847 -9.1951 -1.8299 0.9490 0 20
28.0848 -9.1253 -1.8285 0.9497 0 20
28.9974 -9.3500 -1.8866 0.0557 0 2
24.7801 -7.9288 -1.6111 0.9511 0 20
24.7801 -7.8675 -1.6099 0.9518 0 20
24.7878 -7.8088 -1.6094 0.2996 0 20
29.0892 -9.0922 -1.8872 0.0557 0 2
29.1117 -9.0276 -1.8873 0.0557 0 2
29.1341 -8.9629 -1.8875 0.0557 0 2
29.1563 -8.8981 -1.8876 0.0557 0 2
29.1784 -8.8333 -1.8877 0.0557 0 2
29.2004 -8.7685 -1.8879 0.0557 0 2
28.0850 -8.3649 -1.8146 0.9570 0 20
28.0851 -8.2963 -1.8134 0.9577 0 20
28.1878 -8.2580 -1.8188 0.9583 0 20
29.2863 -8.5085 -1.8884 0.0557 0 2
29.3074 -8.4434 -1.8886 0.0557 0 2
29.3284 -8.3781 -1.8887 0.0557 0 2
29.3492 -8.3129 -1.8888 0.0557 0 2
29.3698 -8.2476 -1.8890 0.0557 0 2
29.3903 -8.1822 -1.8891 0.0557 0 2
29.4106 -8.1168 -1.8892 0.0557 0 2
29.4307 -8.0513 -1.8894 0.0557 0 2
29.4507 -7.9858 -1.8895 0.0557 0 2
29.4705 -7.9203 -1.8896 0.0557 0 2
29.4901 -7.8546 -1.8897 0.0556 0 2
29.5096 -7.7889 -1.8899 0.0556 0 2
29.5290 -7.7232 -1.8900 0.0556 0 2
29.5481 -7.6574 -1.8901 0.0556 0 2
29.5671 -7.5915 -1.8902 0.0556 0 2
29.5859 -7.5257 -1.8903 0.0556 0 2
29.6047 -7.4598 -1.8905 0.0556 0 2
29.6232 -7.3937 -1.8906 0.0556 0 2
29.6415 -7.3277 -1.8907 0.0556 0 2
29.6597 -7.2616 -1.8908 0.0556 0 2
29.6777 -7.1955 -1.8909 0.0556 0 2
29.6956 -7.1293 -1.8910 0.0556 0 2
29.7133 -7.0631 -1.8912 0.0556 0 2
29.7308 -6.9968 -1.8913 0.0556 0 2
29.7481 -6.9304 -1.8914 0.0556 0 2
29.7654 -6.8640 -1.8915 0.0556 0 2
29.7824 -6.7976 -1.8916 0.0556 0 2
29.7993 -6.7312 -1.8917 0.0556 0 2
29.8160 -6.6646 -1.8918 0.0556 0 2
29.8325 -6.5981 -1.8919 0.0556 0 2
29.8489 -6.5315 -1.8920 0.0556 0 2
29.8651 -6.4648 -1.8921 0.0556 0 2
29.8812 -6.3982 -1.8922 0.0556 0 2
29.8970 -6.3314 -1.8923 0.0556 0 2
29.9127 -6.2646 -1.8924 0.0556 0 2
29.9283 -6.1978 -1.8925 0.0556 0 2
29.9436 -6.1310 -1.8926 0.0556 0 2
31.7768 -6.4320 -2.0076 0.0556 0 1
31.7928 -6.3610 -2.0077 0.0556 0 1
31.8086 -6.2900 -2.0078 0.0556 0 1
31.8242 -6.2189 -2.0079 0.0556 0 1
31.8396 -6.1478 -2.0080 0.0555 0 1
31.8549 -6.0767 -2.0081 0.0555 0 1
31.8700 -6.0055 -2.0082 0.0555 0 1
31.8848 -5.9342 -2.0083 0.0555 0 1
31.8996 -5.8629 -2.0083 0.0555 0 1
31.9141 -5.7916 -2.0084 0.0555 0 1
31.9285 -5.7202 -2.0085 0.0555 0 1
31.9427 -5.6488 -2.0086 0.0555 0 1
31.9567 -5.5774 -2.0087 0.0555 0 1
31.9706 -5.5059 -2.0088 0.0555 0 1
31.9842 -5.4344 -2.0089 0.0555 0 1
31.9976 -5.3628 -2.0090 0.0555 0 1
32.0110 -5.2912 -2.0091 0.0555 0 1
32.0241 -5.2196 -2.0091 0.0555 0 1
32.0371 -5.1479 -2.0092 0.0555 0 1
32.0498 -5.0762 -2.0093 0.0555 0 1
32.0624 -5.0045 -2.0094 0.0555 0 1
32.0748 -4.9327 -2.0095 0.0555 0 1
32.0870 -4.8609 -2.0095 0.0555 0 1
32.0991 -4.7891 -2.0096 0.0555 0 1
32.1110 -4.7172 -2.0097 0.0555 0 1
32.1226 -4.6453 -2.0098 0.0555 0 1
32.1342 -4.5734 -2.0098 0.0555 0 1
32.1455 -4.5014 -2.0099 0.0555 0 1
32.1566 -4.4294 -2.0100 0.0555 0 1
32.1677 -4.3574 -2.0101 0.0555 0 1
32.1784 -4.2854 -2.0101 0.0555 0 1
32.1890 -4.2133 -2.0102 0.0555 0 1
32.1995 -4.1412 -2.0103 0.0555 0 1
32.2098 -4.0690 -2.0103 0.0555 0 1
32.2198 -3.9969 -2.0104 0.0555 0 1
32.2297 -3.9247 -2.0105 0.0555 0 1
32.2394 -3.8525 -2.0105 0.0555 0 1
32.2489 -3.7802 -2.0106 0.0555 0 1
32.2583 -3.7080 -2.0106 0.0555 0 1
32.2675 -3.6357 -2.0107 0.0555 0 1
32.2766 -3.5634 -2.0107 0.0555 0 1
32.2853 -3.4910 -2.0108 0.0555 0 1
32.2940 -3.4187 -2.0109 0.0555 0 1
32.3024 -3.3463 -2.0109 0.0555 0 1
32.3107 -3.2739 -2.0110 0.0555 0 1
32.3188 -3.2014 -2.0110 0.0555 0 1
32.3267 -3.1290 -2.0111 0.0555 0 1
32.3345 -3.0565 -2.0111 0.0555 0 1
32.3419 -2.9840 -2.0112 0.0555 0 1
32.3494 -2.9115 -2.0112 0.0555 0 1
32.3565 -2.8389 -2.0113 0.0555 0 1
32.3635 -2.7664 -2.0113 0.0555 0 1
32.3704 -2.6938 -2.0113 0.0555 0 1
32.3770 -2.6212 -2.0114 0.0555 0 1
32.3835 -2.5486 -2.0114 0.0555 0 1
32.3898 -2.4760 -2.0115 0.0555 0 1
32.3958 -2.4033 -2.0115 0.0555 0 1
32.4017 -2.3307 -2.0115 0.0555 0 1
32.4075 -2.2581 -2.0116 0.0555 0 1
32.4130 -2.1854 -2.0116 0.0554 0 1
32.4183 -2.1127 -2.0116 0.0554 0 1
32.4236 -2.0400 -2.0117 0.0554 0 1
32.4286 -1.9672 -2.0117 0.0554 0 1
32.4334 -1.8945 -2.0117 0.0554 0 1
32.4381 -1.8217 -2.0118 0.0554 0 1
32.4426 -1.7490 -2.0118 0.0554 0 1
32.4468 -1.6762 -2.0118 0.0554 0 1
32.4509 -1.6034 -2.0119 0.0554 0 1
32.4548 -1.5306 -2.0119 0.0554 0 1
32.4586 -1.4578 -2.0119 0.0554 0 1
32.4620 -1.3849 -2.0119 0.0554 0 1
32.4654 -1.3121 -2.0119 0.0554 0 1
32.4686 -1.2392 -2.0120 0.0554 0 1
32.4716 -1.1664 -2.0120 0.0554 0 1
32.4745 -1.0935 -2.0120 0.0554 0 1
32.4771 -1.0206 -2.0120 0.0554 0 1
32.4796 -0.9478 -2.0120 0.0554 0 1
32.4819 -0.8749 -2.0121 0.0554 0 1
28.1185 -0.6942 -1.7417 0.9865 426 14
27.3234 -0.6133 -1.6923 0.4953 426 14
27.2546 -0.5505 -1.6880 0.9320 426 14
27.2344 -0.4890 -1.6867 0.9515 426 14
27.2172 -0.4276 -1.6855 0.9521 426 14
27.2002 -0.3662 -1.6844 0.9541 426 14
27.1892 -0.3051 -1.6837 0.9696 426 14
27.1788 -0.2440 -1.6830 0.9726 426 14
27.1692 -0.1829 -1.6824 0.9730 426 14
27.1612 -0.1219 -1.6819 0.9728 426 14
27.1534 -0.0609 -1.6814 0.9731 426 14
27.1455 0.0000 -1.6809 0.9734 426 14
27.1413 0.0609 -1.6806 0.9798 426 14
16.6064 0.0745 -1.0283 0.1596 412 18
15.8618 0.1068 -0.9822 0.3862 412 13
15.8114 0.1419 -0.9791 0.6601 412 13
15.7845 0.1771 -0.9775 0.7782 412 13
15.7696 0.2123 -0.9766 0.8427 412 13
15.7639 0.2477 -0.9762 0.8657 412 13
15.7668 0.2831 -0.9765 0.8506 412 13
15.7786 0.3187 -0.9772 0.7953 412 13
15.8017 0.3546 -0.9787 0.6900 412 13
15.8436 0.3912 -0.9814 0.4665 412 13
27.1758 0.7320 -1.6834 0.9688 426 14
27.1860 0.7933 -1.6841 0.9654 426 14
27.1968 0.8547 -1.6849 0.9650 426 14
27.2113 0.9163 -1.6859 0.9471 426 14
27.2289 0.9781 -1.6871 0.9450 426 14
27.2472 1.0400 -1.6884 0.9240 426 14
27.2903 1.1030 -1.6912 0.6739 426 14
27.3880 1.1685 -1.6974 0.4744 426 14
32.4584 1.4577 -2.0119 0.0554 0 1
32.4547 1.5305 -2.0119 0.0554 0 1
32.4508 1.6033 -2.0118 0.0554 0 1
32.4466 1.6761 -2.0118 0.0554 0 1
32.4424 1.7489 -2.0118 0.0554 0 1
32.4379 1.8216 -2.0118 0.0554 0 1
32.4332 1.8944 -2.0117 0.0554 0 1
32.4284 1.9671 -2.0117 0.0554 0 1
32.4233 2.0399 -2.0117 0.0554 0 1
32.4183 2.1126 -2.0116 0.0554 0 1
32.4128 2.1853 -2.0116 0.0554 0 1
31.7279 2.2106 -1.9694 0.0696 0 2
30.7948 2.2151 -1.9118 0.0912 0 2
30.5452 2.2660 -1.8966 0.0555 0 2
30.5395 2.3345 -1.8966 0.0555 0 2
30.7224 2.4179 -1.9083 0.0968 0 2
30.5274 2.4714 -1.8965 0.0555 0 2
30.5211 2.5399 -1.8964 0.0555 0 2
30.5147 2.6084 -1.8964 0.0555 0 2
30.5081 2.6768 -1.8964 0.0555 0 2
30.5013 2.7452 -1.8963 0.0555 0 2
30.4943 2.8135 -1.8963 0.0555 0 2
30.4872 2.8819 -1.8962 0.0555 0 2
30.4799 2.9502 -1.8962 0.0555 0 2
30.4724 3.0185 -1.8961 0.0555 0 2
30.4648 3.0868 -1.8961 0.0555 0 2
30.4570 3.1551 -1.8960 0.0555 0 2
24.2076 2.5626 -1.5073 0.7766 306 6
24.1917 2.6159 -1.5067 0.9526 306 6
30.4326 3.3598 -1.8959 0.0555 0 2
30.4241 3.4280 -1.8958 0.0555 0 2
30.4154 3.4962 -1.8958 0.0555 0 2
30.4066 3.5643 -1.8957 0.0555 0 2
30.3976 3.6324 -1.8957 0.0555 0 2
30.3884 3.7005 -1.8956 0.0555 0 2
30.3790 3.7685 -1.8955 0.0555 0 2
30.3696 3.8366 -1.8955 0.0555 0 2
30.3599 3.9046 -1.8954 0.0555 0 2
30.3501 3.9726 -1.8953 0.0555 0 2
30.3401 4.0405 -1.8953 0.0555 0 2
30.3298 4.1085 -1.8952 0.0555 0 2
30.3195 4.1764 -1.8952 0.0555 0 2
30.3090 4.2442 -1.8951 0.0555 0 2
30.2983 4.3121 -1.8950 0.0555 0 2
30.2874 4.3799 -1.8949 0.0555 0 2
30.2763 4.4477 -1.8949 0.0555 0 2
30.2652 4.5155 -1.8948 0.0555 0 2
30.2538 4.5832 -1.8947 0.0555 0 2
30.2422 4.6509 -1.8947 0.0555 0 2
30.2305 4.7186 -1.8946 0.0555 0 2
30.2187 4.7862 -1.8945 0.0555 0 2
30.2067 4.8538 -1.8944 0.0555 0 2
30.1945 4.9214 -1.8944 0.0555 0 2
30.1821 4.9889 -1.8943 0.0555 0 2
30.1695 5.0564 -1.8942 0.0555 0 2
30.1568 5.1239 -1.8941 0.0555 0 2
30.1439 5.1912 -1.8940 0.0555 0 2
30.1308 5.2587 -1.8939 0.0555 0 2
30.1177 5.3260 -1.8939 0.0555 0 2
30.1043 5.3934 -1.8938 0.0555 0 2
30.0907 5.4606 -1.8937 0.0555 0 2
30.0770 5.5279 -1.8936 0.0555 0 2
30.0630 5.5951 -1.8935 0.0555 0 2
30.0490 5.6623 -1.8934 0.0555 0 2
30.0348 5.7294 -1.8933 0.0555 0 2
30.0204 5.7965 -1.8932 0.0556 0 2
30.0059 5.8636 -1.8931 0.0556 0 2
29.9911 5.9306 -1.8931 0.0556 0 2
29.9763 5.9976 -1.8930 0.0556 0 2
29.9612 6.0645 -1.8929 0.0556 0 2
29.9460 6.1314 -1.8928 0.0556 0 2
29.9306 6.1983 -1.8927 0.0556 0 2
30.3210 6.3501 -1.9182 0.0556 0 0
30.3050 6.4178 -1.9181 0.0556 0 0
30.2889 6.4855 -1.9180 0.0556 0 0
30.2726 6.5531 -1.9179 0.0556 0 0
30.2562 6.6206 -1.9178 0.0556 0 0
30.2396 6.6881 -1.9177 0.0556 0 0
30.2228 6.7556 -1.9176 0.0556 0 0
30.2059 6.8230 -1.9175 0.0556 0 0
30.1888 6.8904 -1.9174 0.0556 0 0
30.1715 6.9577 -1.9173 0.0556 0 0
30.1540 7.0250 -1.9172 0.0556 0 0
30.1364 7.0922 -1.9171 0.0556 0 0
30.1186 7.1594 -1.9170 0.0556 0 0
30.1007 7.2265 -1.9168 0.0556 0 0
30.0826 7.2937 -1.9167 0.0556 0 0
30.0643 7.3607 -1.9166 0.0556 0 0
30.0459 7.4277 -1.9165 0.0556 0 0
30.0272 7.4946 -1.9164 0.0556 0 0
30.0085 7.5615 -1.9162 0.0556 0 0
29.9895 7.6283 -1.9161 0.0556 0 0
29.9705 7.6951 -1.9160 0.0556 0 0
29.9512 7.7619 -1.9159 0.0556 0 0
29.9318 7.8286 -1.9158 0.0556 0 0
29.9122 7.8952 -1.9156 0.0556 0 0
29.8924 7.9617 -1.9155 0.0557 0 0
29.8725 8.0283 -1.9154 0.0557 0 0
29.8524 8.0947 -1.9153 0.0557 0 0
29.8321 8.1612 -1.9151 0.0557 0 0
29.8117 8.2275 -1.9150 0.0557 0 0
29.7912 8.2938 -1.9149 0.0557 0 0
29.7703 8.3601 -1.9147 0.0557 0 0
29.7494 8.4263 -1.9146 0.0557 0 0
29.7284 8.4925 -1.9145 0.0557 0 0
29.7071 8.5585 -1.9143 0.0557 0 0
29.6858 8.6246 -1.9142 0.0557 0 0
29.6642 8.6905 -1.9140 0.0557 0 0
29.6424 8.7564 -1.9139 0.0557 0 0
29.6206 8.8223 -1.9138 0.0557 0 0
29.5985 8.8881 -1.9136 0.0557 0 0
29.5763 8.9537 -1.9135 0.0557 0 0
29.5539 9.0194 -1.9133 0.0557 0 0
29.5314 9.0850 -1.9132 0.0557 0 0
29.5087 9.1506 -1.9131 0.0557 0 0
29.4858 9.2161 -1.9129 0.0557 0 0
29.4628 9.2815 -1.9128 0.0557 0 0
29.4396 9.3468 -1.9126 0.0557 0 0
29.4163 9.4122 -1.9125 0.0557 0 0
29.3927 9.4774 -1.9123 0.0557 0 0
29.3691 9.5426 -1.9122 0.0557 0 0
29.3453 9.6077 -1.9120 0.0558 0 0
29.3213 9.6728 -1.9119 0.0558 0 0
29.2972 9.7378 -1.9117 0.0558 0 0
29.2729 9.8027 -1.9116 0.0558 0 0
27.9550 9.4311 -1.8269 0.3174 0 3
27.7481 9.4307 -1.8147 0.3195 0 3
27.5440 9.4304 -1.8028 0.3216 0 3
27.3426 9.4300 -1.7910 0.3237 0 3
27.1437 9.4297 -1.7793 0.3258 0 3
26.9476 9.4293 -1.7678 0.3280 0 3
26.7538 9.4289 -1.7565 0.3301 0 3
26.5625 9.4286 -1.7453 0.3322 0 3
26.3737 9.4283 -1.7343 0.3343 0 3
26.1872 9.4279 -1.7234 0.3364 0 3
26.0031 9.4276 -1.7127 0.3385 0 3
25.8212 9.4273 -1.7021 0.3406 0 3
25.6416 9.4270 -1.6917 0.3427 0 3
25.4641 9.4266 -1.6813 0.3448 0 3
25.2888 9.4263 -1.6712 0.3469 0 3
25.1156 9.4260 -1.6611 0.3490 0 3
24.9445 9.4257 -1.6512 0.3511 0 3
24.7754 9.4254 -1.6414 0.3532 0 3
24.6083 9.4251 -1.6317 0.3553 0 3
24.4432 9.4248 -1.6222 0.3574 0 3
24.2800 9.4245 -1.6127 0.3595 0 3
24.1187 9.4242 -1.6034 0.3616 0 3
23.9592 9.4239 -1.5942 0.3637 0 3
23.8015 9.4237 -1.5851 0.3658 0 3
23.6457 9.4234 -1.5762 0.3678 0 3
23.4915 9.4231 -1.5673 0.3699 0 3
23.3391 9.4228 -1.5585 0.3720 0 3
23.1884 9.4225 -1.5499 0.3741 0 3
23.0394 9.4223 -1.5413 0.3762 0 3
19.5867 8.0616 -1.3115 0.3801 0 3
19.4625 8.0616 -1.3044 0.3822 0 3
19.3845 8.0803 -1.3005 0.9233 0 3
19.3791 8.1292 -1.3013 0.9207 0 3
19.3792 8.1804 -1.3025 0.9198 0 3
19.3792 8.2317 -1.3038 0.9189 0 3
19.3792 8.2830 -1.3050 0.9180 0 3
19.3138 8.3064 -1.3019 0.3946 0 3
19.1951 8.3064 -1.2951 0.3966 0 3
19.0776 8.3065 -1.2884 0.3987 0 3
18.9613 8.3065 -1.2818 0.4007 0 3
18.8462 8.3065 -1.2753 0.4028 0 3
18.7323 8.3066 -1.2689 0.4048 0 3
18.6195 8.3066 -1.2625 0.4069 0 3
18.5078 8.3066 -1.2562 0.4089 0 3
18.3973 8.3067 -1.2499 0.4110 0 3
18.2878 8.3067 -1.2437 0.4130 0 3
18.1794 8.3067 -1.2376 0.4151 0 3
18.0721 8.3068 -1.2316 0.4171 0 3
17.9658 8.3068 -1.2256 0.4191 0 3
17.8605 8.3068 -1.2197 0.4212 0 3
17.7563 8.3069 -1.2139 0.4232 0 3
17.6530 8.3069 -1.2081 0.4252 0 3
17.5508 8.3069 -1.2024 0.4272 0 3
17.4495 8.3069 -1.1967 0.4293 0 3
17.3491 8.3070 -1.1911 0.4313 0 3
10.1907 4.9076 -0.7004 0.7450 0 6
10.1594 4.9206 -0.6990 0.7464 0 6
10.1281 4.9336 -0.6976 0.7479 0 6
10.1088 4.9523 -0.6970 0.9969 0 6
10.0991 4.9757 -0.6971 0.9967 0 6
10.0895 4.9991 -0.6972 0.9966 0 6
10.0854 5.0253 -0.6977 0.6555 0 6
10.1002 5.0610 -0.6996 0.6539 0 6
16.4863 8.3072 -1.1431 0.4494 0 3
16.3947 8.3072 -1.1381 0.4514 0 3
16.3039 8.3073 -1.1331 0.4534 0 3
16.2139 8.3073 -1.1281 0.4554 0 3
16.1247 8.3073 -1.1232 0.4574 0 3
16.0362 8.3073 -1.1183 0.4593 0 3
15.9486 8.3074 -1.1135 0.4613 0 3
15.8616 8.3074 -1.1087 0.4633 0 3
15.7755 8.3074 -1.1040 0.4653 0 3
15.6900 8.3074 -1.0993 0.4673 0 3
15.6053 8.3075 -1.0947 0.4693 0 3
15.5212 8.3075 -1.0901 0.4712 0 3
15.4379 8.3075 -1.0856 0.4732 0 3
15.3553 8.3075 -1.0811 0.4752 0 3
15.2733 8.3075 -1.0766 0.4771 0 3
15.1921 8.3076 -1.0722 0.4791 0 3
15.1114 8.3076 -1.0678 0.4811 0 3
14.5889 8.0630 -1.0322 0.4830 0 3
14.5119 8.0630 -1.0280 0.4850 0 3
14.4355 8.0630 -1.0239 0.4870 0 3
14.3598 8.0630 -1.0198 0.4889 0 3
14.3508 8.1004 -1.0204 0.8694 0 3
14.3508 8.1429 -1.0217 0.8683 0 3
14.3508 8.1855 -1.0230 0.8672 0 3
14.3508 8.2283 -1.0243 0.8661 0 3
14.3508 8.2711 -1.0256 0.8650 0 3
14.3508 8.3141 -1.0270 0.8639 0 3
14.3508 8.3572 -1.0283 0.8627 0 3
14.3508 8.4004 -1.0297 0.8616 0 3
14.3508 8.4437 -1.0310 0.8605 0 3
14.3508 8.4871 -1.0324 0.8593 0 3
14.3508 8.5306 -1.0338 0.8582 0 3
14.3508 8.5742 -1.0351 0.8570 0 3
14.3508 8.6180 -1.0365 0.8559 0 3
14.3508 8.6619 -1.0379 0.8547 0 3
14.3508 8.7059 -1.0394 0.8536 0 3
14.3508 8.7500 -1.0408 0.8524 0 3
14.3022 8.7645 -1.0387 0.5201 0 3
14.2302 8.7643 -1.0349 0.5220 0 3
14.1588 8.7642 -1.0311 0.5239 0 3
14.0879 8.7641 -1.0274 0.5258 0 3
14.0175 8.7640 -1.0237 0.5277 0 3
13.9475 8.7639 -1.0200 0.5296 0 3
13.8781 8.7638 -1.0164 0.5315 0 3
13.8092 8.7636 -1.0127 0.5334 0 3
13.7408 8.7635 -1.0092 0.5353 0 3
13.6728 8.7634 -1.0056 0.5372 0 3
13.6054 8.7633 -1.0021 0.5391 0 3
13.5384 8.7632 -0.9986 0.5410 0 3
13.4718 8.7631 -0.9951 0.5428 0 3
13.4057 8.7630 -0.9917 0.5447 0 3
13.3401 8.7629 -0.9883 0.5466 0 3
13.2749 8.7628 -0.9849 0.5485 0 3
13.2102 8.7626 -0.9816 0.5503 0 3
13.1459 8.7625 -0.9783 0.5522 0 3
13.0821 8.7624 -0.9750 0.5541 0 3
13.0186 8.7623 -0.9717 0.5559 0 3
12.9556 8.7622 -0.9685 0.5578 0 3
12.8930 8.7621 -0.9653 0.5596 0 3
12.8308 8.7620 -0.9621 0.5615 0 3
12.7691 8.7619 -0.9589 0.5634 0 3
12.7077 8.7618 -0.9558 0.5652 0 3
12.6467 8.7617 -0.9527 0.5670 0 3
12.5862 8.7616 -0.9496 0.5689 0 3
12.5260 8.7615 -0.9465 0.5707 0 3
12.4662 8.7614 -0.9435 0.5726 0 3
12.4068 8.7613 -0.9405 0.5744 0 3
12.3477 8.7612 -0.9375 0.5762 0 3
12.2928 8.7638 -0.9348 0.9845 0 3
12.2795 8.7959 -0.9353 0.8126 0 3
12.2795 8.8377 -0.9368 0.8113 0 3
12.2794 8.8795 -0.9383 0.8100 0 3
12.2793 8.9215 -0.9398 0.8087 0 3
12.2792 8.9635 -0.9414 0.8074 0 3
12.2792 9.0058 -0.9429 0.8061 0 3
12.2791 9.0482 -0.9445 0.8048 0 3
12.2790 9.0907 -0.9460 0.8034 0 3
12.2789 9.1334 -0.9476 0.8021 0 3
12.2789 9.1762 -0.9492 0.8008 0 3
12.2788 9.2191 -0.9508 0.7994 0 3
12.2787 9.2622 -0.9524 0.7981 0 3
12.2787 9.3055 -0.9540 0.7967 0 3
12.2786 9.3489 -0.9556 0.7954 0 3
12.2295 9.3550 -0.9534 0.6033 0 3
12.1725 9.3548 -0.9506 0.6051 0 3
12.1159 9.3546 -0.9478 0.6069 0 3
12.0596 9.3543 -0.9451 0.6087 0 3
12.0036 9.3541 -0.9423 0.6105 0 3
11.9479 9.3539 -0.9396 0.6122 0 3
11.8926 9.3537 -0.9369 0.6140 0 3
11.8375 9.3535 -0.9342 0.6158 0 3
11.7828 9.3532 -0.9315 0.6175 0 3
11.7284 9.3530 -0.9289 0.6193 0 3
10.9337 8.7595 -0.8675 0.6247 0 3
10.8835 8.7596 -0.8651 0.6264 0 3
10.8337 8.7596 -0.8627 0.6282 0 3
10.7842 8.7596 -0.8603 0.6299 0 3
10.7349 8.7597 -0.8579 0.6316 0 3
10.6859 8.7597 -0.8556 0.6334 0 3
10.6372 8.7598 -0.8533 0.6351 0 3
10.5887 8.7598 -0.8510 0.6368 0 3
10.5405 8.7598 -0.8487 0.6385 0 3
10.4926 8.7599 -0.8464 0.6403 0 3
10.4449 8.7599 -0.8441 0.6420 0 3
10.3975 8.7600 -0.8419 0.6437 0 3
10.3503 8.7600 -0.8396 0.6454 0 3
10.3034 8.7600 -0.8374 0.6471 0 3
10.2567 8.7601 -0.8352 0.6488 0 3
10.2102 8.7601 -0.8330 0.6505 0 3
10.1640 8.7601 -0.8309 0.6522 0 3
10.1181 8.7602 -0.8287 0.6539 0 3
10.0724 8.7602 -0.8266 0.6556 0 3
10.0269 8.7603 -0.8245 0.6573 0 3
9.9816 8.7603 -0.8224 0.6590 0 3
9.9366 8.7603 -0.8203 0.6606 0 3
9.8918 8.7604 -0.8182 0.6623 0 3
9.8472 8.7604 -0.8161 0.6640 0 3
9.8029 8.7604 -0.8141 0.6657 0 3
9.7587 8.7605 -0.8120 0.6673 0 3
9.7148 8.7605 -0.8100 0.6690 0 3
9.6712 8.7605 -0.8080 0.6707 0 3
9.6277 8.7606 -0.8060 0.6723 0 3
9.5844 8.7606 -0.8040 0.6740 0 3
9.5414 8.7606 -0.8021 0.6756 0 3
9.4985 8.7607 -0.8001 0.6773 0 3
9.4559 8.7607 -0.7982 0.6789 0 3
9.4135 8.7607 -0.7963 0.6806 0 3
9.3713 8.7608 -0.7944 0.6822 0 3
9.3293 8.7608 -0.7925 0.6838 0 3
9.2875 8.7608 -0.7906 0.6855 0 3
9.2458 8.7609 -0.7887 0.6871 0 3
9.2044 8.7609 -0.7869 0.6887 0 3
9.1632 8.7609 -0.7850 0.6903 0 3
9.1222 8.7610 -0.7832 0.6919 0 3
9.0813 8.7610 -0.7814 0.6936 0 3
9.0407 8.7611 -0.7795 0.6952 0 3
9.0264 8.7866 -0.7800 0.7154 0 3
9.0264 8.8261 -0.7817 0.7138 0 3
9.0264 8.8658 -0.7834 0.7122 0 3
9.0264 8.9057 -0.7852 0.7107 0 3
9.0264 8.9457 -0.7869 0.7091 0 3
9.0264 8.9859 -0.7887 0.7075 0 3
12.6951 -12.6951 -1.2604 0.7060 0 3
12.6951 -12.6383 -1.2576 0.7076 0 3
12.6952 -12.5817 -1.2548 0.7092 0 3
12.6952 -12.5254 -1.2520 0.7107 0 3
12.6952 -12.4693 -1.2492 0.7123 0 3
12.6953 -12.4135 -1.2465 0.7139 0 3
12.6953 -12.3579 -1.2438 0.7154 0 3
12.6953 -12.3026 -1.2411 0.7170 0 3
12.6954 -12.2475 -1.2384 0.7185 0 3
12.6954 -12.1927 -1.2357 0.7201 0 3
12.6954 -12.1381 -1.2331 0.7216 0 3
12.6954 -12.0837 -1.2304 0.7232 0 3
12.6955 -12.0295 -1.2278 0.7247 0 3
12.6955 -11.9756 -1.2252 0.7263 0 3
12.6955 -11.9219 -1.2226 0.7278 0 3
12.6956 -11.8684 -1.2201 0.7293 0 3
12.6956 -11.8152 -1.2175 0.7309 0 3
12.6956 -11.7622 -1.2150 0.7324 0 3
12.6957 -11.7094 -1.2125 0.7339 0 3
12.6957 -11.6568 -1.2100 0.7354 0 3
12.6957 -11.6044 -1.2075 0.7369 0 3
12.6958 -11.5523 -1.2050 0.7384 0 3
12.6958 -11.5003 -1.2026 0.7399 0 3
12.6958 -11.4486 -1.2002 0.7414 0 3
12.6958 -11.3971 -1.1977 0.7429 0 3
12.6959 -11.3457 -1.1953 0.7444 0 3
12.6959 -11.2946 -1.1929 0.7459 0 3
12.6959 -11.2437 -1.1906 0.7474 0 3
12.6960 -11.1930 -1.1882 0.7489 0 3
12.6960 -11.1425 -1.1859 0.7504 0 3
12.6960 -11.0922 -1.1836 0.7518 0 3
12.6960 -11.0421 -1.1812 0.7533 0 3
12.6961 -10.9921 -1.1789 0.7548 0 3
12.6961 -10.9424 -1.1767 0.7562 0 3
12.6961 -10.8929 -1.1744 0.7577 0 3
12.7520 -10.8912 -1.1773 0.6476 0 3
12.8101 -10.8912 -1.1804 0.6459 0 3
12.8685 -10.8912 -1.1835 0.6442 0 3
12.9272 -10.8913 -1.1867 0.6425 0 3
12.9863 -10.8913 -1.1899 0.6408 0 3
13.0457 -10.8913 -1.1931 0.6391 0 3
13.1053 -10.8913 -1.1963 0.6374 0 3
13.1653 -10.8913 -1.1995 0.6356 0 3
13.2257 -10.8913 -1.2028 0.6339 0 3
13.2863 -10.8914 -1.2061 0.6322 0 3
13.3473 -10.8914 -1.2094 0.6305 0 3
13.4087 -10.8914 -1.2127 0.6287 0 3
13.4703 -10.8914 -1.2161 0.6270 0 3
13.5324 -10.8914 -1.2195 0.6252 0 3
13.5947 -10.8914 -1.2229 0.6235 0 3
13.6575 -10.8915 -1.2263 0.6217 0 3
13.7205 -10.8915 -1.2298 0.6200 0 3
13.7839 -10.8915 -1.2333 0.6182 0 3
13.8477 -10.8915 -1.2368 0.6165 0 3
13.9119 -10.8915 -1.2404 0.6147 0 3
13.9764 -10.8915 -1.2439 0.6130 0 3
14.0413 -10.8916 -1.2475 0.6112 0 3
14.1066 -10.8916 -1.2512 0.6094 0 3
14.1722 -10.8916 -1.2548 0.6076 0 3
14.2383 -10.8916 -1.2585 0.6059 0 3
14.3047 -10.8916 -1.2622 0.6041 0 3
14.3715 -10.8917 -1.2659 0.6023 0 3
14.4387 -10.8917 -1.2697 0.6005 0 3
14.5063 -10.8917 -1.2735 0.5987 0 3
14.5744 -10.8917 -1.2773 0.5969 0 3
14.6428 -10.8917 -1.2812 0.5951 0 3
14.7117 -10.8918 -1.2850 0.5933 0 3
14.7809 -10.8918 -1.2890 0.5915 0 3
14.8506 -10.8918 -1.2929 0.5897 0 3
14.9207 -10.8918 -1.2969 0.5879 0 3
14.9913 -10.8918 -1.3009 0.5861 0 3
15.0623 -10.8919 -1.3049 0.5843 0 3
15.1337 -10.8919 -1.3090 0.5825 0 3
15.2056 -10.8919 -1.3131 0.5807 0 3
15.2779 -10.8919 -1.3172 0.5789 0 3
15.3507 -10.8919 -1.3214 0.5770 0 3
15.4239 -10.8920 -1.3256 0.5752 0 3
15.4595 -10.8651 -1.3265 0.0648 0 3
15.4858 -10.8318 -1.3267 0.0648 0 3
15.5120 -10.7983 -1.3269 0.0648 0 3
15.5382 -10.7648 -1.3270 0.0648 0 3
15.5642 -10.7313 -1.3272 0.0648 0 3
15.5902 -10.6977 -1.3274 0.0648 0 3
15.6161 -10.6640 -1.3275 0.0648 0 3
15.6419 -10.6302 -1.3277 0.0648 0 3
15.6677 -10.5964 -1.3279 0.0648 0 3
15.7290 -10.5865 -1.3310 0.5568 0 3
15.8055 -10.5866 -1.3355 0.5549 0 3
15.8825 -10.5866 -1.3400 0.5530 0 3
15.9600 -10.5866 -1.3445 0.5512 0 3
16.0381 -10.5866 -1.3491 0.5493 0 3
16.1166 -10.5866 -1.3537 0.5474 0 3
16.1958 -10.5867 -1.3584 0.5456 0 3
16.2754 -10.5867 -1.3630 0.5437 0 3
16.3556 -10.5867 -1.3678 0.5418 0 3
16.4364 -10.5867 -1.3725 0.5399 0 3
16.5178 -10.5868 -1.3773 0.5381 0 3
16.5997 -10.5868 -1.3822 0.5362 0 3
16.6821 -10.5868 -1.3871 0.5343 0 3
16.7652 -10.5868 -1.3920 0.5324 0 3
16.8489 -10.5869 -1.3970 0.5305 0 3
16.9331 -10.5869 -1.4020 0.5286 0 3
17.0180 -10.5869 -1.4070 0.5267 0 3
22.3613 -13.8414 -1.8462 0.8488 0 3
22.3613 -13.7721 -1.8437 0.8499 0 3
22.3614 -13.7030 -1.8411 0.8511 0 3
22.3614 -13.6342 -1.8386 0.8523 0 3
22.3614 -13.5655 -1.8361 0.8534 0 3
22.4186 -13.5314 -1.8383 0.5152 0 3
22.5328 -13.5315 -1.8452 0.5133 0 3
22.6478 -13.5315 -1.8521 0.5114 0 3
22.7637 -13.5315 -1.8591 0.5095 0 3
22.8098 -13.4897 -1.8604 0.0646 0 0
22.8425 -13.4400 -1.8606 0.0645 0 0
22.8752 -13.3902 -1.8608 0.0645 0 0
22.9078 -13.3404 -1.8610 0.0645 0 0
22.9402 -13.2904 -1.8612 0.0645 0 0
22.9725 -13.2404 -1.8614 0.0645 0 0
23.0047 -13.1902 -1.8616 0.0645 0 0
23.0368 -13.1400 -1.8618 0.0645 0 0
23.0687 -13.0897 -1.8620 0.0645 0 0
23.1006 -13.0393 -1.8622 0.0645 0 0
23.1323 -12.9889 -1.8624 0.0645 0 0
23.1638 -12.9383 -1.8626 0.0645 0 0
23.1953 -12.8877 -1.8628 0.0645 0 0
23.2267 -12.8370 -1.8630 0.0645 0 0
23.2579 -12.7862 -1.8632 0.0645 0 0
23.2891 -12.7353 -1.8634 0.0644 0 0
23.3200 -12.6844 -1.8636 0.0644 0 0
18.0413 -9.7608 -1.4400 0.8781 0 20
18.0414 -9.7085 -1.4383 0.8792 0 20
18.0979 -9.6866 -1.4411 0.1231 0 20
18.1646 -9.6699 -1.4446 0.9827 0 20
18.1951 -9.6338 -1.4453 0.8960 0 20
18.2367 -9.6036 -1.4469 0.8950 0 20
23.5335 -12.3255 -1.8650 0.0644 0 0
23.5635 -12.2739 -1.8652 0.0644 0 0
23.5934 -12.2222 -1.8654 0.0644 0 0
23.6232 -12.1705 -1.8656 0.0644 0 0
23.6529 -12.1187 -1.8658 0.0644 0 0
23.6824 -12.0668 -1.8659 0.0644 0 0
23.7118 -12.0148 -1.8661 0.0644 0 0
23.7410 -11.9628 -1.8663 0.0643 0 0
23.7702 -11.9107 -1.8665 0.0643 0 0
23.7993 -11.8585 -1.8667 0.0643 0 0
23.8281 -11.8062 -1.8669 0.0643 0 0
23.8569 -11.7538 -1.8671 0.0643 0 0
23.8856 -11.7015 -1.8672 0.0643 0 0
23.9141 -11.6489 -1.8674 0.0643 0 0
23.9426 -11.5964 -1.8676 0.0643 0 0
23.9708 -11.5438 -1.8678 0.0643 0 0
23.9989 -11.4910 -1.8680 0.0643 0 0
24.0270 -11.4382 -1.8681 0.0643 0 0
24.0549 -11.3854 -1.8683 0.0643 0 0
24.0826 -11.3324 -1.8685 0.0643 0 0
24.1102 -11.2794 -1.8687 0.0643 0 0
24.1378 -11.2264 -1.8688 0.0643 0 0
24.1652 -11.1732 -1.8690 0.0643 0 0
24.1925 -11.1200 -1.8692 0.0642 0 0
24.2195 -11.0667 -1.8694 0.0642 0 0
24.2465 -11.0133 -1.8695 0.0642 0 0
24.2735 -10.9599 -1.8697 0.0642 0 0
24.3002 -10.9064 -1.8699 0.0642 0 0
24.3268 -10.8528 -1.8701 0.0642 0 0
24.3533 -10.7991 -1.8702 0.0642 0 0
24.3797 -10.7454 -1.8704 0.0642 0 0
24.4059 -10.6916 -1.8706 0.0642 0 0
24.4320 -10.6378 -1.8707 0.0642 0 0
24.4580 -10.5839 -1.8709 0.0642 0 0
24.4838 -10.5299 -1.8711 0.0642 0 0
24.5095 -10.4759 -1.8712 0.0642 0 0
24.5351 -10.4217 -1.8714 0.0642 0 0
24.5606 -10.3676 -1.8715 0.0642 0 0
24.5859 -10.3133 -1.8717 0.0642 0 0
24.6111 -10.2590 -1.8719 0.0642 0 0
24.6361 -10.2046 -1.8720 0.0641 0 0
24.6611 -10.1502 -1.8722 0.0641 0 0
15.7216 -6.4295 -1.1924 0.5546 0 6
15.7150 -6.3857 -1.1908 0.9827 0 6
15.7290 -6.3504 -1.1908 0.9272 0 6
15.7291 -6.3094 -1.1898 0.9280 0 6
15.7244 -6.2665 -1.1883 0.6243 0 6
15.7146 -6.2218 -1.1865 0.9740 0 6
15.7351 -6.1891 -1.1870 0.8092 0 6
15.8492 -6.1930 -1.1946 0.3674 0 6
15.9239 -6.1810 -1.1992 0.5700 0 6
24.7106 -9.5280 -1.8592 0.0641 0 2
24.7339 -9.4733 -1.8594 0.0641 0 2
24.7570 -9.4185 -1.8595 0.0641 0 2
24.7801 -9.3637 -1.8597 0.0641 0 2
24.8029 -9.3088 -1.8598 0.0641 0 2
24.8257 -9.2538 -1.8600 0.0641 0 2
24.7782 -9.1728 -1.8549 0.9360 0 20
24.7782 -9.1096 -1.8533 0.9368 0 20
24.8932 -9.0886 -1.8604 0.0641 0 2
24.9154 -9.0334 -1.8606 0.0640 0 2
24.9376 -8.9781 -1.8607 0.0640 0 2
24.9595 -8.9228 -1.8608 0.0640 0 2
24.9813 -8.8674 -1.8610 0.0640 0 2
25.0030 -8.8120 -1.8611 0.0640 0 2
25.0246 -8.7565 -1.8612 0.0640 0 2
25.0460 -8.7010 -1.8614 0.0640 0 2
25.0673 -8.6454 -1.8615 0.0640 0 2
25.0884 -8.5897 -1.8617 0.0640 0 2
25.1094 -8.5340 -1.8618 0.0640 0 2
25.1304 -8.4782 -1.8619 0.0640 0 2
25.1511 -8.4224 -1.8621 0.0640 0 2
25.1717 -8.3666 -1.8622 0.0640 0 2
25.1921 -8.3106 -1.8623 0.0640 0 2
25.2125 -8.2546 -1.8624 0.0640 0 2
25.2327 -8.1986 -1.8626 0.0640 0 2
25.2528 -8.1425 -1.8627 0.0640 0 2
24.7787 -7.9283 -1.8264 0.9506 0 20
24.7788 -7.8671 -1.8251 0.9513 0 20
24.7878 -7.8088 -1.8243 0.2995 0 20
25.3317 -7.9177 -1.8632 0.0640 0 2
25.3511 -7.8613 -1.8633 0.0640 0 2
25.3703 -7.8049 -1.8635 0.0639 0 2
25.3894 -7.7485 -1.8636 0.0639 0 2
25.4084 -7.6920 -1.8637 0.0639 0 2
25.4272 -7.6355 -1.8638 0.0639 0 2
25.4459 -7.5789 -1.8639 0.0639 0 2
25.4645 -7.5222 -1.8641 0.0639 0 2
25.4829 -7.4655 -1.8642 0.0639 0 2
25.5012 -7.4088 -1.8643 0.0639 0 2
25.5193 -7.3520 -1.8644 0.0639 0 2
25.5373 -7.2952 -1.8645 0.0639 0 2
25.5552 -7.2383 -1.8646 0.0639 0 2
25.5730 -7.1814 -1.8647 0.0639 0 2
25.5905 -7.1244 -1.8649 0.0639 0 2
25.6080 -7.0674 -1.8650 0.0639 0 2
25.6253 -7.0103 -1.8651 0.0639 0 2
25.6425 -6.9531 -1.8652 0.0639 0 2
25.6595 -6.8960 -1.8653 0.0639 0 2
25.6764 -6.8388 -1.8654 0.0639 0 2
25.6931 -6.7815 -1.8655 0.0639 0 2
25.7098 -6.7243 -1.8656 0.0639 0 2
25.7262 -6.6669 -1.8657 0.0639 0 2
25.7426 -6.6096 -1.8658 0.0639 0 2
25.7587 -6.5521 -1.8659 0.0639 0 2
25.7748 -6.4946 -1.8660 0.0639 0 2
25.7907 -6.4371 -1.8661 0.0639 0 2
25.8065 -6.3796 -1.8662 0.0639 0 2
25.8221 -6.3220 -1.8663 0.0638 0 2
25.8375 -6.2644 -1.8664 0.0638 0 2
25.8529 -6.2067 -1.8665 0.0638 0 2
25.8681 -6.1490 -1.8666 0.0638 0 2
25.8832 -6.0913 -1.8667 0.0638 0 2
25.8981 -6.0336 -1.8668 0.0638 0 2
25.9129 -5.9757 -1.8669 0.0638 0 2
25.9275 -5.9178 -1.8670 0.0638 0 2
25.9420 -5.8599 -1.8671 0.0638 0 2
26.0415 -5.8210 -1.8733 0.2162 0 2
26.2787 -5.8121 -1.8894 0.2141 0 2
26.5633 -5.8126 -1.9089 0.1983 0 2
26.8737 -5.8173 -1.9303 0.1961 0 2
27.1910 -5.8222 -1.9522 0.1939 0 2
27.5156 -5.8272 -1.9745 0.1917 0 2
27.6196 -5.7845 -1.9810 0.0638 0 1
27.6338 -5.7227 -1.9811 0.0638 0 1
27.6478 -5.6610 -1.9812 0.0638 0 1
27.6616 -5.5991 -1.9813 0.0638 0 1
27.6754 -5.5373 -1.9814 0.0638 0 1
27.6890 -5.4754 -1.9815 0.0638 0 1
27.7024 -5.4135 -1.9816 0.0638 0 1
27.7156 -5.3516 -1.9817 0.0638 0 1
27.7287 -5.2896 -1.9817 0.0638 0 1
27.7416 -5.2276 -1.9818 0.0638 0 1
27.7545 -5.1655 -1.9819 0.0638 0 1
27.7671 -5.1034 -1.9820 0.0638 0 1
27.7796 -5.0413 -1.9821 0.0638 0 1
27.7920 -4.9791 -1.9821 0.0638 0 1
27.8042 -4.9169 -1.9822 0.0638 0 1
27.8162 -4.8547 -1.9823 0.0638 0 1
27.8281 -4.7925 -1.9824 0.0638 0 1
27.8399 -4.7302 -1.9824 0.0638 0 1
27.8514 -4.6679 -1.9825 0.0638 0 1
27.8628 -4.6055 -1.9826 0.0638 0 1
27.8741 -4.5432 -1.9827 0.0637 0 1
27.8852 -4.4808 -1.9827 0.0637 0 1
27.8962 -4.4183 -1.9828 0.0637 0 1
27.9070 -4.3559 -1.9829 0.0637 0 1
27.9177 -4.2934 -1.9829 0.0637 0 1
27.9281 -4.2309 -1.9830 0.0637 0 1
27.9385 -4.1683 -1.9831 0.0637 0 1
27.9487 -4.1058 -1.9831 0.0637 0 1
27.9587 -4.0432 -1.9832 0.0637 0 1
27.9687 -3.9805 -1.9833 0.0637 0 1
27.9783 -3.9179 -1.9833 0.0637 0 1
27.9880 -3.8552 -1.9834 0.0637 0 1
27.9974 -3.7925 -1.9835 0.0637 0 1
28.0067 -3.7298 -1.9835 0.0637 0 1
28.0158 -3.6670 -1.9836 0.0637 0 1
28.0247 -3.6043 -1.9836 0.0637 0 1
28.0335 -3.5415 -1.9837 0.0637 0 1
28.0422 -3.4787 -1.9837 0.0637 0 1
28.0507 -3.4158 -1.9838 0.0637 0 1
28.0590 -3.3529 -1.9838 0.0637 0 1
28.0672 -3.2900 -1.9839 0.0637 0 1
28.0753 -3.2271 -1.9839 0.0637 0 1
28.0832 -3.1642 -1.9840 0.0637 0 1
28.0908 -3.1012 -1.9840 0.0637 0 1
28.0985 -3.0383 -1.9841 0.0637 0 1
28.1059 -2.9753 -1.9841 0.0637 0 1
28.1131 -2.9123 -1.9842 0.0637 0 1
28.1203 -2.8492 -1.9842 0.0637 0 1
28.1272 -2.7862 -1.9843 0.0637 0 1
28.1340 -2.7231 -1.9843 0.0637 0 1
28.1407 -2.6600 -1.9844 0.0637 0 1
28.1471 -2.5969 -1.9844 0.0637 0 1
28.1535 -2.5338 -1.9844 0.0637 0 1
28.1595 -2.4707 -1.9845 0.0637 0 1
28.1656 -2.4075 -1.9845 0.0637 0 1
28.1715 -2.3445 -1.9846 0.0637 0 1
28.1771 -2.2813 -1.9846 0.0637 0 1
28.1827 -2.2181 -1.9846 0.0637 0 1
28.1881 -2.1549 -1.9847 0.0637 0 1
28.1934 -2.0916 -1.9847 0.0637 0 1
28.1985 -2.0284 -1.9847 0.0637 0 1
28.2033 -1.9651 -1.9848 0.0637 0 1
28.2081 -1.9019 -1.9848 0.0637 0 1
28.2127 -1.8386 -1.9848 0.0637 0 1
28.2172 -1.7753 -1.9848 0.0637 0 1
28.2214 -1.7120 -1.9849 0.0637 0 1
28.2256 -1.6487 -1.9849 0.0637 0 1
28.2296 -1.5854 -1.9849 0.0637 0 1
28.2334 -1.5221 -1.9850 0.0637 0 1
28.2371 -1.4587 -1.9850 0.0637 0 1
28.2406 -1.3954 -1.9850 0.0637 0 1
28.2440 -1.3320 -1.9850 0.0637 0 1
28.2472 -1.2686 -1.9850 0.0637 0 1
28.2503 -1.2052 -1.9851 0.0637 0 1
28.2532 -1.1418 -1.9851 0.0637 0 1
28.2559 -1.0784 -1.9851 0.0637 0 1
28.2585 -1.0150 -1.9851 0.0637 0 1
28.2610 -0.9516 -1.9851 0.0637 0 1
28.2632 -0.8882 -1.9851 0.0637 0 1
28.2653 -0.8248 -1.9852 0.0637 0 1
28.2673 -0.7614 -1.9852 0.0637 0 1
28.2690 -0.6979 -1.9852 0.0637 0 1
27.5896 -0.6192 -1.9374 0.5029 426 14
27.5898 -0.5573 -1.9373 0.5030 426 14
27.5897 -0.4953 -1.9372 0.4984 426 14
28.2746 -0.4442 -1.9852 0.0637 0 1
28.2757 -0.3807 -1.9852 0.0637 0 1
28.2765 -0.3173 -1.9852 0.0637 0 1
28.2772 -0.2538 -1.9852 0.0637 0 1
28.2778 -0.1904 -1.9852 0.0637 0 1
28.2782 -0.1269 -1.9852 0.0637 0 1
28.2784 -0.0635 -1.9852 0.0637 0 1
16.1188 0.0000 -1.1316 0.1946 412 13
15.9553 0.0358 -1.1201 0.2310 412 13
15.8695 0.0712 -1.1141 0.7193 412 13
15.5440 0.1046 -1.0913 0.8443 412 18
15.5440 0.1395 -1.0913 0.8443 412 18
15.5440 0.1744 -1.0913 0.8442 412 18
15.5440 0.2093 -1.0913 0.8442 412 18
15.5439 0.2442 -1.0914 0.8442 412 18
15.5439 0.2791 -1.0914 0.8442 412 18
15.5439 0.3140 -1.0914 0.8441 412 18
15.5438 0.3489 -1.0915 0.8441 412 18
15.5438 0.3838 -1.0916 0.8441 412 18
15.8949 0.4281 -1.1163 0.7071 412 13
16.0155 0.4673 -1.1248 0.1258 412 13
28.2631 0.8882 -1.9851 0.0637 0 1
28.2608 0.9517 -1.9851 0.0637 0 1
27.5945 0.9912 -1.9385 0.4980 426 14
27.5950 1.0532 -1.9387 0.5026 426 14
27.5952 1.1153 -1.9389 0.5026 426 14
27.5955 1.1773 -1.9390 0.5025 426 14
28.2471 1.2686 -1.9850 0.0637 0 1
28.2439 1.3320 -1.9850 0.0637 0 1
28.2405 1.3953 -1.9850 0.0637 0 1
28.2371 1.4586 -1.9850 0.0637 0 1
28.2333 1.5220 -1.9849 0.0637 0 1
28.2295 1.5853 -1.9849 0.0637 0 1
28.2255 1.6486 -1.9849 0.0637 0 1
28.2214 1.7119 -1.9849 0.0637 0 1
28.2171 1.7752 -1.9848 0.0637 0 1
28.2126 1.8385 -1.9848 0.0637 0 1
28.2080 1.9018 -1.9848 0.0637 0 1
28.2032 1.9651 -1.9847 0.0637 0 1
28.1983 2.0283 -1.9847 0.0637 0 1
28.1932 2.0915 -1.9847 0.0637 0 1
28.1880 2.1548 -1.9847 0.0637 0 1
28.1140 2.2126 -1.9798 0.0774 0 2
27.3215 2.2119 -1.9243 0.0797 0 2
26.6720 2.2196 -1.8789 0.1034 0 2
26.5566 2.2700 -1.8712 0.0637 0 2
26.5509 2.3295 -1.8711 0.0637 0 2
26.5451 2.3891 -1.8711 0.0637 0 2
26.5391 2.4486 -1.8710 0.0637 0 2
26.5331 2.5081 -1.8710 0.0637 0 2
26.5267 2.5675 -1.8710 0.0637 0 2
26.5203 2.6271 -1.8709 0.0637 0 2
26.5138 2.6865 -1.8709 0.0637 0 2
26.5071 2.7459 -1.8708 0.0637 0 2
24.2064 2.5625 -1.7089 0.7762 306 6
24.1904 2.6157 -1.7081 0.9521 306 6
26.4861 2.9241 -1.8707 0.0637 0 2
26.4788 2.9835 -1.8707 0.0637 0 2
26.4714 3.0428 -1.8706 0.0637 0 2
26.4638 3.1021 -1.8706 0.0637 0 2
26.4561 3.1614 -1.8705 0.0637 0 2
26.4482 3.2207 -1.8705 0.0637 0 2
26.4402 3.2799 -1.8704 0.0637 0 2
26.4320 3.3391 -1.8704 0.0637 0 2
26.4237 3.3984 -1.8703 0.0637 0 2
26.4152 3.4575 -1.8702 0.0637 0 2
26.4066 3.5167 -1.8702 0.0637 0 2
26.3979 3.5758 -1.8701 0.0637 0 2
26.3890 3.6350 -1.8701 0.0637 0 2
26.3800 3.6941 -1.8700 0.0637 0 2
26.3708 3.7531 -1.8700 0.0637 0 2
26.3615 3.8122 -1.8699 0.0637 0 2
26.3519 3.8712 -1.8698 0.0637 0 2
26.3424 3.9302 -1.8698 0.0637 0 2
26.3325 3.9892 -1.8697 0.0637 0 2
26.3226 4.0481 -1.8697 0.0637 0 2
26.3127 4.1070 -1.8696 0.0637 0 2
26.3024 4.1659 -1.8695 0.0637 0 2
26.2921 4.2248 -1.8695 0.0637 0 2
26.2816 4.2836 -1.8694 0.0637 0 2
26.2710 4.3424 -1.8693 0.0638 0 2
26.2601 4.4012 -1.8693 0.0638 0 2
26.2493 4.4599 -1.8692 0.0638 0 2
26.2382 4.5187 -1.8691 0.0638 0 2
26.2270 4.5774 -1.8690 0.0638 0 2
26.2157 4.6361 -1.8690 0.0638 0 2
26.2041 4.6947 -1.8689 0.0638 0 2
26.1925 4.7533 -1.8688 0.0638 0 2
26.1807 4.8119 -1.8687 0.0638 0 2
26.1688 4.8704 -1.8687 0.0638 0 2
26.1567 4.9289 -1.8686 0.0638 0 2
26.1445 4.9874 -1.8685 0.0638 0 2
26.1321 5.0458 -1.8684 0.0638 0 2
26.1196 5.1042 -1.8684 0.0638 0 2
26.1069 5.1625 -1.8683 0.0638 0 2
26.0942 5.2209 -1.8682 0.0638 0 2
26.0812 5.2792 -1.8681 0.0638 0 2
26.0681 5.3375 -1.8680 0.0638 0 2
26.0549 5.3957 -1.8679 0.0638 0 2
26.0415 5.4539 -1.8679 0.0638 0 2
26.0281 5.5121 -1.8678 0.0638 0 2
26.0144 5.5702 -1.8677 0.0638 0 2
26.0006 5.6283 -1.8676 0.0638 0 2
25.9866 5.6863 -1.8675 0.0638 0 2
25.9726 5.7444 -1.8674 0.0638 0 2
25.9583 5.8023 -1.8673 0.0638 0 2
25.9440 5.8603 -1.8672 0.0638 0 2
25.9295 5.9182 -1.8671 0.0638 0 2
25.9148 5.9761 -1.8670 0.0638 0 2
25.9000 6.0339 -1.8670 0.0638 0 2
25.8852 6.0917 -1.8669 0.0638 0 2
25.8701 6.1495 -1.8668 0.0638 0 2
25.8549 6.2072 -1.8667 0.0638 0 2
26.1901 6.3498 -1.8919 0.0638 0 0
26.1744 6.4083 -1.8918 0.0638 0 0
26.1586 6.4667 -1.8917 0.0639 0 0
26.1426 6.5250 -1.8916 0.0639 0 0
26.1265 6.5833 -1.8915 0.0639 0 0
26.1102 6.6415 -1.8914 0.0639 0 0
26.0938 6.6998 -1.8913 0.0639 0 0
26.0772 6.7579 -1.8912 0.0639 0 0
26.0605 6.8160 -1.8911 0.0639 0 0
26.0437 6.8741 -1.8910 0.0639 0 0
26.0267 6.9321 -1.8909 0.0639 0 0
26.0095 6.9901 -1.8907 0.0639 0 0
25.9923 7.0480 -1.8906 0.0639 0 0
25.9749 7.1059 -1.8905 0.0639 0 0
25.9573 7.1638 -1.8904 0.0639 0 0
25.9396 7.2216 -1.8903 0.0639 0 0
25.9042 7.2744 -1.8889 0.2700 0 20
25.6829 7.2744 -1.8739 0.2721 0 20
25.4650 7.2745 -1.8592 0.2743 0 20
25.2505 7.2746 -1.8448 0.2764 0 20
25.0393 7.2746 -1.8305 0.2786 0 20
24.8314 7.2747 -1.8165 0.2807 0 20
24.6394 7.2785 -1.8036 0.2143 0 20
24.5253 7.3047 -1.7965 0.0639 0 20
24.5072 7.3592 -1.7964 0.0639 0 20
25.7190 7.7860 -1.8865 0.0639 0 20
25.6998 7.8432 -1.8864 0.0639 0 20
25.5531 7.8612 -1.8769 0.2204 0 20
25.3531 7.8620 -1.8635 0.2957 0 20
25.1536 7.8620 -1.8501 0.2979 0 20
24.9570 7.8621 -1.8369 0.3000 0 20
24.7631 7.8621 -1.8240 0.3021 0 20
24.5720 7.8622 -1.8112 0.3043 0 20
24.4035 7.8687 -1.8001 0.2263 0 20
24.3197 7.9020 -1.7952 0.0640 0 20
24.3002 7.9560 -1.7951 0.0640 0 20
25.5358 8.4240 -1.8877 0.0640 0 0
25.5150 8.4807 -1.8876 0.0640 0 0
25.4941 8.5373 -1.8874 0.0640 0 0
25.4731 8.5939 -1.8873 0.0640 0 0
25.4519 8.6504 -1.8872 0.0640 0 0
25.4305 8.7069 -1.8870 0.0640 0 0
25.4092 8.7633 -1.8869 0.0640 0 0
25.3876 8.8196 -1.8868 0.0640 0 0
25.3658 8.8759 -1.8866 0.0640 0 0
25.3440 8.9321 -1.8865 0.0640 0 0
25.3220 8.9883 -1.8863 0.0640 0 0
25.2998 9.0444 -1.8862 0.0640 0 0
25.2776 9.1005 -1.8861 0.0640 0 0
25.2553 9.1565 -1.8859 0.0640 0 0
25.2327 9.2124 -1.8858 0.0641 0 0
25.2100 9.2683 -1.8856 0.0641 0 0
25.1872 9.3241 -1.8855 0.0641 0 0
25.1642 9.3799 -1.8853 0.0641 0 0
25.1156 9.4260 -1.8833 0.3488 0 3
24.9445 9.4257 -1.8720 0.3509 0 3
24.7754 9.4254 -1.8609 0.3530 0 3
24.6083 9.4251 -1.8500 0.3551 0 3
24.4432 9.4248 -1.8391 0.3572 0 3
24.2800 9.4245 -1.8284 0.3593 0 3
24.1187 9.4242 -1.8179 0.3614 0 3
23.9592 9.4239 -1.8074 0.3635 0 3
23.8015 9.4237 -1.7971 0.3656 0 3
23.6456 9.4234 -1.7870 0.3676 0 3
23.4916 9.4231 -1.7769 0.3697 0 3
23.3392 9.4228 -1.7670 0.3718 0 3
23.1885 9.4225 -1.7572 0.3739 0 3
23.0394 9.4223 -1.7475 0.3759 0 3
19.5867 8.0616 -1.4870 0.3799 0 3
19.4625 8.0616 -1.4789 0.3820 0 3
19.3837 8.0800 -1.4742 0.9229 0 3
19.3780 8.1287 -1.4752 0.9202 0 3
19.3780 8.1799 -1.4766 0.9193 0 3
19.3780 8.2312 -1.4780 0.9185 0 3
19.3780 8.2826 -1.4795 0.9176 0 3
19.3138 8.3064 -1.4760 0.3944 0 3
19.1951 8.3064 -1.4683 0.3964 0 3
19.0776 8.3065 -1.4608 0.3985 0 3
18.9613 8.3065 -1.4533 0.4005 0 3
18.8462 8.3065 -1.4459 0.4026 0 3
18.7323 8.3066 -1.4386 0.4046 0 3
18.6195 8.3066 -1.4313 0.4067 0 3
18.5078 8.3066 -1.4242 0.4087 0 3
18.3973 8.3067 -1.4171 0.4108 0 3
18.2878 8.3067 -1.4101 0.4128 0 3
18.1794 8.3067 -1.4032 0.4148 0 3
18.0721 8.3068 -1.3963 0.4169 0 3
17.9658 8.3068 -1.3895 0.4189 0 3
17.8605 8.3068 -1.3828 0.4209 0 3
17.7563 8.3069 -1.3762 0.4230 0 3
17.6531 8.3069 -1.3697 0.4250 0 3
17.5508 8.3069 -1.3632 0.4270 0 3
17.4495 8.3069 -1.3567 0.4290 0 3
17.3491 8.3070 -1.3504 0.4310 0 3
10.1896 4.9071 -0.7940 0.7446 0 6
10.1582 4.9201 -0.7924 0.7461 0 6
10.1270 4.9331 -0.7908 0.7476 0 6
10.1077 4.9517 -0.7902 0.9964 0 6
10.0980 4.9751 -0.7903 0.9963 0 6
10.0883 4.9985 -0.7904 0.9961 0 6
10.0837 5.0245 -0.7909 0.6553 0 6
10.0985 5.0601 -0.7930 0.6536 0 6
16.4863 8.3072 -1.2960 0.4491 0 3
16.3947 8.3072 -1.2903 0.4511 0 3
16.3039 8.3073 -1.2846 0.4531 0 3
16.2139 8.3073 -1.2790 0.4551 0 3
16.1247 8.3073 -1.2734 0.4571 0 3
16.0362 8.3073 -1.2679 0.4591 0 3
15.9486 8.3074 -1.2624 0.4611 0 3
15.8617 8.3074 -1.2570 0.4631 0 3
15.7755 8.3074 -1.2517 0.4650 0 3
15.6900 8.3074 -1.2464 0.4670 0 3
15.6053 8.3075 -1.2411 0.4690 0 3
15.5212 8.3075 -1.2359 0.4710 0 3
15.4379 8.3075 -1.2307 0.4729 0 3
15.3553 8.3075 -1.2256 0.4749 0 3
15.2733 8.3075 -1.2206 0.4769 0 3
15.1920 8.3076 -1.2156 0.4788 0 3
15.1114 8.3076 -1.2106 0.4808 0 3
14.5889 8.0630 -1.1702 0.4828 0 3
14.5119 8.0630 -1.1655 0.4847 0 3
14.4355 8.0630 -1.1608 0.4867 0 3
14.3598 8.0630 -1.1561 0.4886 0 3
14.3499 8.0999 -1.1568 0.8690 0 3
14.3499 8.1424 -1.1583 0.8679 0 3
14.3499 8.1850 -1.1598 0.8668 0 3
14.3499 8.2278 -1.1613 0.8657 0 3
14.3499 8.2706 -1.1628 0.8646 0 3
14.3499 8.3136 -1.1643 0.8634 0 3
14.3499 8.3567 -1.1658 0.8623 0 3
14.3499 8.3999 -1.1673 0.8612 0 3
14.3499 8.4431 -1.1688 0.8601 0 3
14.3499 8.4866 -1.1704 0.8589 0 3
14.3499 8.5301 -1.1720 0.8578 0 3
14.3499 8.5737 -1.1735 0.8566 0 3
14.3499 8.6175 -1.1751 0.8555 0 3
14.3499 8.6613 -1.1767 0.8543 0 3
14.3499 8.7054 -1.1783 0.8532 0 3
14.3499 8.7495 -1.1799 0.8520 0 3
14.3022 8.7645 -1.1776 0.5198 0 3
14.2302 8.7643 -1.1733 0.5217 0 3
14.1588 8.7642 -1.1690 0.5236 0 3
14.0878 8.7641 -1.1648 0.5255 0 3
14.0175 8.7640 -1.1606 0.5274 0 3
13.9475 8.7639 -1.1564 0.5293 0 3
13.8781 8.7638 -1.1523 0.5312 0 3
13.8092 8.7636 -1.1482 0.5331 0 3
13.7408 8.7635 -1.1441 0.5350 0 3
13.6728 8.7634 -1.1401 0.5369 0 3
13.6054 8.7633 -1.1361 0.5388 0 3
13.5384 8.7632 -1.1322 0.5407 0 3
13.4718 8.7631 -1.1282 0.5425 0 3
13.4057 8.7630 -1.1244 0.5444 0 3
13.3401 8.7629 -1.1205 0.5463 0 3
13.2749 8.7628 -1.1167 0.5482 0 3
13.2102 8.7626 -1.1129 0.5500 0 3
13.1459 8.7625 -1.1091 0.5519 0 3
13.0821 8.7624 -1.1054 0.5538 0 3
13.0186 8.7623 -1.1017 0.5556 0 3
12.9556 8.7622 -1.0980 0.5575 0 3
12.8930 8.7621 -1.0944 0.5593 0 3
12.8308 8.7620 -1.0908 0.5612 0 3
12.7691 8.7619 -1.0872 0.5630 0 3
12.7077 8.7618 -1.0836 0.5649 0 3
12.6467 8.7617 -1.0801 0.5667 0 3
12.5862 8.7616 -1.0766 0.5686 0 3
12.5260 8.7615 -1.0731 0.5704 0 3
12.4662 8.7614 -1.0697 0.5722 0 3
12.4068 8.7613 -1.0663 0.5741 0 3
12.3477 8.7612 -1.0629 0.5759 0 3
12.2923 8.7634 -1.0598 0.9840 0 3
12.2787 8.7953 -1.0603 0.8123 0 3
12.2786 8.8370 -1.0620 0.8110 0 3
12.2785 8.8789 -1.0637 0.8097 0 3
12.2784 8.9209 -1.0655 0.8083 0 3
12.2784 8.9629 -1.0672 0.8070 0 3
12.2783 9.0051 -1.0690 0.8057 0 3
12.2782 9.0475 -1.0707 0.8044 0 3
12.2781 9.0901 -1.0725 0.8031 0 3
12.2781 9.1327 -1.0743 0.8017 0 3
12.2780 9.1755 -1.0761 0.8004 0 3
12.2779 9.2185 -1.0779 0.7991 0 3
12.2779 9.2616 -1.0797 0.7977 0 3
12.2778 9.3048 -1.0815 0.7964 0 3
12.2777 9.3482 -1.0833 0.7950 0 3
12.2295 9.3550 -1.0809 0.6030 0 3
12.1725 9.3548 -1.0778 0.6048 0 3
12.1159 9.3546 -1.0746 0.6066 0 3
12.0596 9.3543 -1.0715 0.6084 0 3
12.0036 9.3541 -1.0683 0.6101 0 3
11.9479 9.3539 -1.0653 0.6119 0 3
11.8926 9.3537 -1.0622 0.6137 0 3
11.8375 9.3535 -1.0591 0.6154 0 3
11.7828 9.3532 -1.0561 0.6172 0 3
11.7284 9.3530 -1.0531 0.6189 0 3
10.9336 8.7595 -0.9835 0.6243 0 3
10.8836 8.7596 -0.9808 0.6261 0 3
10.8337 8.7596 -0.9781 0.6278 0 3
10.7842 8.7596 -0.9754 0.6296 0 3
10.7349 8.7597 -0.9727 0.6313 0 3
10.6859 8.7597 -0.9700 0.6330 0 3
10.6372 8.7598 -0.9674 0.6347 0 3
10.5887 8.7598 -0.9648 0.6365 0 3
10.5405 8.7598 -0.9622 0.6382 0 3
10.4926 8.7599 -0.9596 0.6399 0 3
10.4449 8.7599 -0.9570 0.6416 0 3
10.3975 8.7600 -0.9545 0.6433 0 3
10.3503 8.7600 -0.9519 0.6450 0 3
10.3033 8.7600 -0.9494 0.6468 0 3
10.2567 8.7601 -0.9469 0.6485 0 3
10.2102 8.7601 -0.9445 0.6502 0 3
10.1640 8.7601 -0.9420 0.6519 0 3
10.1181 8.7602 -0.9396 0.6535 0 3
10.0724 8.7602 -0.9371 0.6552 0 3
10.0269 8.7603 -0.9347 0.6569 0 3
9.9816 8.7603 -0.9323 0.6586 0 3
9.9366 8.7603 -0.9300 0.6603 0 3
9.8918 8.7604 -0.9276 0.6620 0 3
9.8472 8.7604 -0.9253 0.6636 0 3
9.8029 8.7604 -0.9230 0.6653 0 3
9.7587 8.7605 -0.9206 0.6670 0 3
9.7148 8.7605 -0.9184 0.6686 0 3
9.6712 8.7605 -0.9161 0.6703 0 3
9.6277 8.7606 -0.9138 0.6719 0 3
9.5844 8.7606 -0.9116 0.6736 0 3
9.5414 8.7606 -0.9094 0.6753 0 3
9.4985 8.7607 -0.9071 0.6769 0 3
9.4559 8.7607 -0.9049 0.6785 0 3
9.4135 8.7607 -0.9028 0.6802 0 3
9.3713 8.7608 -0.9006 0.6818 0 3
9.3293 8.7608 -0.8985 0.6835 0 3
9.2875 8.7608 -0.8963 0.6851 0 3
9.2458 8.7609 -0.8942 0.6867 0 3
9.2044 8.7609 -0.8921 0.6883 0 3
9.1632 8.7609 -0.8900 0.6899 0 3
9.1222 8.7610 -0.8879 0.6916 0 3
9.0813 8.7610 -0.8859 0.6932 0 3
9.0407 8.7611 -0.8838 0.6948 0 3
9.0257 8.7859 -0.8843 0.7150 0 3
9.0257 8.8255 -0.8862 0.7135 0 3
9.0257 8.8652 -0.8882 0.7119 0 3
9.0257 8.9051 -0.8901 0.7103 0 3
9.0257 8.9450 -0.8921 0.7088 0 3
9.0257 8.9853 -0.8941 0.7072 0 3
12.6941 -12.6941 -1.4091 0.7056 0 3
12.6942 -12.6373 -1.4060 0.7072 0 3
12.6942 -12.5808 -1.4029 0.7088 0 3
12.6942 -12.5245 -1.3998 0.7103 0 3
12.6943 -12.4684 -1.3967 0.7119 0 3
12.6943 -12.4126 -1.3936 0.7135 0 3
12.6944 -12.3570 -1.3906 0.7150 0 3
12.6944 -12.3017 -1.3876 0.7166 0 3
12.6944 -12.2466 -1.3845 0.7182 0 3
12.6945 -12.1918 -1.3816 0.7197 0 3
12.6945 -12.1372 -1.3786 0.7213 0 3
12.6945 -12.0828 -1.3757 0.7228 0 3
12.6946 -12.0287 -1.3727 0.7243 0 3
12.6946 -11.9747 -1.3698 0.7259 0 3
12.6946 -11.9211 -1.3669 0.7274 0 3
12.6947 -11.8676 -1.3641 0.7289 0 3
12.6947 -11.8143 -1.3612 0.7305 0 3
12.6947 -11.7613 -1.3584 0.7320 0 3
12.6948 -11.7085 -1.3556 0.7335 0 3
12.6948 -11.6560 -1.3528 0.7350 0 3
12.6948 -11.6036 -1.3500 0.7365 0 3
12.6949 -11.5514 -1.3473 0.7380 0 3
12.6949 -11.4995 -1.3445 0.7395 0 3
12.6949 -11.4478 -1.3418 0.7410 0 3
12.6949 -11.3962 -1.3391 0.7425 0 3
12.6950 -11.3449 -1.3364 0.7440 0 3
12.6950 -11.2938 -1.3337 0.7455 0 3
12.6950 -11.2429 -1.3311 0.7470 0 3
12.6951 -11.1922 -1.3285 0.7485 0 3
12.6951 -11.1417 -1.3258 0.7500 0 3
12.6951 -11.0914 -1.3232 0.7514 0 3
12.6952 -11.0413 -1.3207 0.7529 0 3
12.6952 -10.9914 -1.3181 0.7544 0 3
12.6952 -10.9417 -1.3155 0.7558 0 3
12.6952 -10.8921 -1.3130 0.7573 0 3
12.6953 -10.8428 -1.3105 0.7587 0 3
12.7047 -10.8016 -1.3090 0.0734 0 3
12.7305 -10.7744 -1.3091 0.0734 0 3
12.7562 -10.7472 -1.3093 0.0734 0 3
12.7819 -10.7198 -1.3095 0.0734 0 3
12.8075 -10.6925 -1.3096 0.0734 0 3
12.8331 -10.6650 -1.3098 0.0734 0 3
12.8586 -10.6375 -1.3099 0.0734 0 3
12.8840 -10.6099 -1.3101 0.0733 0 3
12.9136 -10.5858 -1.3107 0.6318 0 3
12.9729 -10.5858 -1.3143 0.6301 0 3
13.0325 -10.5858 -1.3179 0.6283 0 3
13.0924 -10.5858 -1.3216 0.6266 0 3
13.1527 -10.5858 -1.3253 0.6249 0 3
13.2133 -10.5858 -1.3290 0.6231 0 3
13.2743 -10.5859 -1.3327 0.6214 0 3
13.3356 -10.5859 -1.3365 0.6196 0 3
13.3972 -10.5859 -1.3403 0.6179 0 3
13.4592 -10.5859 -1.3441 0.6161 0 3
13.5216 -10.5859 -1.3479 0.6143 0 3
13.5843 -10.5859 -1.3518 0.6126 0 3
13.6474 -10.5860 -1.3557 0.6108 0 3
13.7108 -10.5860 -1.3597 0.6090 0 3
13.7746 -10.5860 -1.3636 0.6073 0 3
13.8388 -10.5860 -1.3676 0.6055 0 3
13.9034 -10.5860 -1.3717 0.6037 0 3
13.9683 -10.5860 -1.3757 0.6019 0 3
14.0337 -10.5861 -1.3798 0.6001 0 3
14.0994 -10.5861 -1.3839 0.5984 0 3
14.1655 -10.5861 -1.3881 0.5966 0 3
14.2320 -10.5861 -1.3923 0.5948 0 3
14.2989 -10.5861 -1.3965 0.5930 0 3
14.3663 -10.5862 -1.4008 0.5912 0 3
14.4340 -10.5862 -1.4050 0.5894 0 3
14.5021 -10.5862 -1.4094 0.5876 0 3
14.5707 -10.5862 -1.4137 0.5858 0 3
14.6397 -10.5862 -1.4181 0.5839 0 3
14.7091 -10.5863 -1.4225 0.5821 0 3
14.7790 -10.5863 -1.4270 0.5803 0 3
14.8493 -10.5863 -1.4315 0.5785 0 3
14.9201 -10.5863 -1.4360 0.5767 0 3
14.9912 -10.5863 -1.4406 0.5748 0 3
15.0629 -10.5864 -1.4452 0.5730 0 3
15.1350 -10.5864 -1.4498 0.5712 0 3
15.2076 -10.5864 -1.4545 0.5694 0 3
15.2806 -10.5864 -1.4592 0.5675 0 3
15.3541 -10.5864 -1.4639 0.5657 0 3
15.4281 -10.5865 -1.4687 0.5638 0 3
15.5026 -10.5865 -1.4735 0.5620 0 3
15.5776 -10.5865 -1.4784 0.5601 0 3
15.6531 -10.5865 -1.4833 0.5583 0 3
15.7290 -10.5865 -1.4882 0.5564 0 3
15.8055 -10.5866 -1.4932 0.5546 0 3
15.8825 -10.5866 -1.4983 0.5527 0 3
15.9600 -10.5866 -1.5033 0.5508 0 3
16.0381 -10.5866 -1.5084 0.5490 0 3
