ply
format ascii 1.0
element vertex 1396
property float32 x
property float32 y
property float32 z
property float32 CosAngle
property uint32 ObjIdx
property uint32 ObjTag
end_header
7.7503 5.8018 5.4836 0.4929 0 3
7.3166 6.3399 5.4835 0.4929 0 3
10.2064 -10.2065 8.0191 0.4503 0 9
11.4439 -9.9163 8.4127 0.7145 0 9
12.5122 -9.3666 8.6833 0.7966 0 9
8.3373 -5.3580 5.5060 0.8743 0 6
7.9015 5.9150 5.4836 0.4857 0 3
7.4593 6.4636 5.4835 0.4857 0 3
10.2759 -10.2760 7.9176 0.4493 0 9
11.5692 -10.0249 8.3403 0.9825 0 9
12.4987 -9.3565 8.5063 0.8011 0 9
8.6257 5.5434 5.5863 0.4680 0 3
8.0573 6.0316 5.4836 0.4785 0 3
7.6064 6.5910 5.4835 0.4785 0 3
10.3458 -10.3458 7.8156 0.4483 0 9
11.6104 -10.0605 8.2064 0.9834 0 9
12.4854 -9.3465 8.3312 0.8055 0 9
8.6359 5.5500 5.4836 0.4712 0 3
8.2178 6.1518 5.4835 0.4712 0 3
7.7579 6.7223 5.4835 0.4713 0 3
10.5903 -10.5904 7.8423 0.6375 0 9
11.6514 -10.0961 8.0728 0.9842 0 9
12.4722 -9.3366 8.1580 0.8099 0 9
8.8099 5.6618 5.4836 0.4640 0 3
8.3834 6.2757 5.4835 0.4640 0 3
7.9143 6.8577 5.4834 0.4640 0 3
10.5711 -10.5712 7.6717 0.6414 0 9
11.6923 -10.1316 7.9393 0.9850 0 9
8.3446 -6.2466 5.3490 0.8436 0 6
8.9895 5.7772 5.4836 0.4566 0 3
8.5543 6.4037 5.4835 0.4566 0 3
8.0756 6.9975 5.4834 0.4566 0 3
10.5521 -10.5522 7.5031 0.6452 0 9
11.7333 -10.1670 7.8060 0.9857 0 9
13.1691 -9.8584 8.2711 0.9649 0 9
9.1749 5.8963 5.4836 0.4493 0 3
8.7307 6.5358 5.4835 0.4493 0 3
8.0944 7.0138 5.3851 0.5789 0 3
11.0562 -11.0563 7.7007 0.7978 0 9
11.7741 -10.2024 7.6729 0.9863 0 9
13.1950 -9.8777 8.1177 0.9670 0 9
9.3665 6.0195 5.4835 0.4419 0 3
8.9131 6.6722 5.4835 0.4419 0 3
8.0944 7.0138 5.2749 0.5813 0 3
11.0399 -11.0400 7.5300 0.8022 0 9
11.9870 -10.3868 7.6498 0.6120 0 9
13.2206 -9.8969 7.9650 0.9690 0 9
9.5646 6.1468 5.4835 0.4345 0 3
9.1016 6.8134 5.4834 0.4345 0 3
8.0943 7.0138 5.1656 0.5836 0 3
11.0238 -11.0238 7.3612 0.8066 0 9
11.9646 -10.3675 7.4753 0.6156 0 9
13.1976 -9.8796 7.7842 0.6597 0 9
9.7697 6.2786 5.4835 0.4270 0 3
9.2968 6.9595 5.4834 0.4271 0 3
8.0943 7.0138 5.0572 0.5859 0 3
11.0078 -11.0079 7.1942 0.8108 0 9
11.9726 -10.3744 7.3211 0.8162 0 9
8.3467 -6.2482 4.8183 0.8758 0 6
9.9820 6.4151 5.4835 0.4196 0 3
9.3850 7.0255 5.4177 0.5373 0 3
8.0943 7.0137 4.9496 0.5882 0 3
10.9920 -10.9921 7.0289 0.8151 0 9
11.9604 -10.3638 7.1559 0.8201 0 9
13.2971 -9.9542 7.5105 0.9746 0 9
9.3850 7.0255 5.3008 0.5394 0 3
8.0943 7.0138 4.8428 0.5904 0 3
10.9764 -10.9765 6.8653 0.8192 0 9
12.6582 -10.9685 7.4076 0.9701 0 9
9.3849 7.0255 5.1848 0.5414 0 3
8.0943 7.0137 4.7368 0.5926 0 3
10.9609 -10.9610 6.7034 0.8234 0 9
12.6824 -10.9894 7.2569 0.9718 0 9
9.3849 7.0254 5.0696 0.5433 0 3
8.0943 7.0137 4.6316 0.5947 0 3
10.9456 -10.9457 6.5430 0.8274 0 9
12.7064 -11.0102 7.1067 0.9733 0 9
9.3849 7.0254 4.9553 0.5452 0 3
8.1711 7.0803 4.5701 0.3894 0 3
10.9304 -10.9305 6.3842 0.8314 0 9
12.7303 -11.0310 6.9569 0.9749 0 9
9.3849 7.0254 4.8417 0.5471 0 3
8.2319 7.1329 4.4986 0.5989 0 3
10.9154 -10.9155 6.2270 0.8354 0 9
13.3553 -11.5725 7.1285 0.5974 0 9
9.3848 7.0254 4.7289 0.5490 0 3
8.2318 7.1329 4.3938 0.6009 0 3
13.2091 -13.2092 7.3569 0.7688 0 9
13.3419 -11.5609 6.9526 0.5999 0 9
9.3848 7.0254 4.6169 0.5508 0 3
8.2318 7.1329 4.2897 0.6029 0 3
13.1844 -13.1845 7.1662 0.7727 0 9
13.3286 -11.5494 6.7783 0.6025 0 9
9.5190 7.1259 4.5701 0.3588 0 3
8.2318 7.1329 4.1863 0.6048 0 3
13.1599 -13.1600 6.9773 0.7766 0 9
13.3154 -11.5380 6.6054 0.6049 0 9
9.5444 7.1448 4.4697 0.5543 0 3
8.2318 7.1329 4.0835 0.6067 0 3
13.0730 -13.0731 6.7579 0.1884 0 9
13.3023 -11.5266 6.4338 0.6074 0 9
9.5443 7.1448 4.3579 0.5560 0 3
8.2318 7.1329 3.9814 0.6086 0 3
12.9006 -12.9007 6.4987 0.1915 0 9
13.2894 -11.5154 6.2637 0.6098 0 9
16.0581 -12.0210 7.1452 0.6254 0 9
9.5443 7.1448 4.2468 0.5576 0 3
8.2318 7.1329 3.8799 0.6104 0 3
12.7338 -12.7339 6.2479 0.1946 0 9
13.2765 -11.5042 6.0949 0.6122 0 9
15.9424 -11.9344 6.9092 0.6317 0 9
9.5443 7.1448 4.1364 0.5593 0 3
8.2317 7.1328 3.7790 0.6122 0 3
12.5721 -12.5722 6.0048 0.1976 0 9
13.2637 -11.4932 5.9273 0.6145 0 9
9.5443 7.1447 4.0265 0.5608 0 3
8.2317 7.1328 3.6786 0.6139 0 3
11.9995 -11.9996 5.5758 0.8358 0 9
13.2511 -11.4822 5.7610 0.6168 0 9
9.5443 7.1447 3.9173 0.5624 0 3
6.4072 5.5519 2.7856 0.6156 0 3
11.9760 -11.9760 5.4105 0.8397 0 9
12.8769 -11.1580 5.4431 0.8511 0 9
9.5442 7.1447 3.8087 0.5639 0 3
6.4072 5.5519 2.7084 0.6172 0 3
11.9527 -11.9527 5.2468 0.8436 0 9
12.9723 -11.2407 5.3279 0.8470 0 9
9.5442 7.1447 3.7006 0.5654 0 3
6.4338 5.5749 2.6424 0.6829 0 3
11.9296 -11.9296 5.0845 0.8473 0 9
13.0687 -11.3242 5.2115 0.8429 0 9
7.4288 5.5611 2.7967 0.5668 0 3
8.2317 7.1328 3.2826 0.6204 0 3
11.9066 -11.9067 4.9237 0.8510 0 9
13.1660 -11.4085 5.0940 0.8387 0 9
7.4288 5.5611 2.7134 0.5682 0 3
8.2317 7.1328 3.1849 0.6219 0 3
11.5013 -11.5014 4.6108 0.3288 0 9
13.2485 -11.4800 4.9694 0.4692 0 9
14.0628 -10.5274 4.9797 0.8518 0 9
7.4603 5.5847 2.6417 0.6284 0 3
8.2316 7.1328 3.0876 0.6234 0 3
11.6553 -11.6554 4.5261 0.3252 0 9
13.3636 -11.5797 4.8554 0.8302 0 9
14.0665 -10.5301 4.8248 0.8536 0 9
9.5441 7.1446 3.2737 0.5708 0 3
8.0940 7.0135 2.9408 0.6248 0 3
11.2304 -11.2305 4.2206 0.5286 0 9
13.4639 -11.6666 4.7343 0.8258 0 9
14.0701 -10.5328 4.6706 0.8553 0 9
8.6707 5.5723 2.7390 0.5151 0 3
9.5441 7.1446 3.1682 0.5721 0 3
8.0940 7.0135 2.8460 0.6262 0 3
11.3942 -11.3942 4.1401 0.5221 0 9
13.5654 -11.7545 4.6118 0.8214 0 9
14.0737 -10.5355 4.5169 0.8569 0 9
22.9289 0.0000 5.8912 0.3604 0 6
8.6943 5.5875 2.6554 0.5705 0 3
9.5441 7.1446 3.0632 0.5734 0 3
8.0940 7.0135 2.7517 0.6276 0 3
11.5620 -11.5621 4.0577 0.5156 0 9
13.2980 -11.5229 4.3666 0.2951 0 9
14.0773 -10.5382 4.3638 0.8584 0 9
9.3845 7.0252 2.9091 0.5745 0 3
8.0939 7.0134 2.6578 0.6289 0 3
11.7341 -11.7342 3.9731 0.5091 0 9
13.6024 -11.7866 4.3093 0.2890 0 9
14.0809 -10.5409 4.2113 0.8600 0 9
9.3845 7.0251 2.8067 0.5757 0 3
8.0939 7.0134 2.5642 0.6302 0 3
11.7516 -11.7517 3.8345 0.8754 0 9
13.8662 -12.0152 4.2332 0.8260 0 9
14.0845 -10.5436 4.0593 0.8614 0 9
9.3845 7.0251 2.7047 0.5768 0 3
8.0939 7.0134 2.4710 0.6314 0 3
11.7301 -11.7302 3.6836 0.8786 0 9
13.7103 -11.8801 4.0284 0.0448 0 9
14.0881 -10.5463 3.9078 0.8628 0 9
9.3845 7.0251 2.6031 0.5779 0 3
6.4068 5.5515 1.8824 0.6326 0 3
11.7088 -11.7089 3.5339 0.8818 0 9
13.8735 -12.0216 3.9178 0.8286 0 9
14.0916 -10.5489 3.7567 0.8641 0 9
9.3844 7.0251 2.5018 0.5789 0 3
6.4067 5.5514 1.8092 0.6337 0 3
11.6876 -11.6877 3.3853 0.8849 0 9
12.7410 -11.0402 3.4529 0.5048 0 9
14.0952 -10.5516 3.6061 0.8654 0 9
7.4282 5.5607 1.9005 0.5799 0 3
6.4067 5.5514 1.7363 0.6348 0 3
11.6666 -11.6667 3.2377 0.8880 0 9
13.8808 -12.0279 3.6042 0.8310 0 9
14.0987 -10.5543 3.4560 0.8666 0 9
7.4282 5.5607 1.8209 0.5809 0 3
6.4067 5.5514 1.6635 0.6358 0 3
11.6458 -11.6459 3.0911 0.8910 0 9
14.4191 -12.4943 3.5809 0.7842 0 9
14.1022 -10.5569 3.3062 0.8678 0 9
8.7116 5.5986 1.9436 0.3522 0 3
7.4282 5.5607 1.7415 0.5818 0 3
6.4067 5.5514 1.5911 0.6369 0 3
11.6251 -11.6251 2.9455 0.8939 0 9
14.4365 -12.5094 3.4224 0.9301 0 9
14.1058 -10.5595 3.1569 0.8689 0 9
8.6701 5.5720 1.8465 0.5246 0 3
7.4282 5.5607 1.6624 0.5827 0 3
6.4067 5.5514 1.5188 0.6378 0 3
11.6045 -11.6045 2.8008 0.8968 0 9
14.4419 -12.5141 3.2613 0.9311 0 9
8.6701 5.5719 1.7589 0.5254 0 3
7.4282 5.5607 1.5836 0.5835 0 3
6.4067 5.5514 1.4468 0.6387 0 3
11.5840 -11.5841 2.6570 0.8996 0 9
14.4473 -12.5187 3.1005 0.9320 0 9
8.6701 5.5719 1.6716 0.5261 0 3
7.4282 5.5607 1.5050 0.5844 0 3
6.4067 5.5514 1.3749 0.6396 0 3
11.5636 -11.5637 2.5142 0.9024 0 9
14.4527 -12.5234 2.9400 0.9329 0 9
8.6700 5.5719 1.5844 0.5268 0 3
7.4282 5.5606 1.4265 0.5851 0 3
6.4067 5.5514 1.3033 0.6405 0 3
14.8631 -14.8632 3.0543 0.8383 0 9
40.1109 14.9606 6.2207 0.4106 0 3
40.4222 18.4602 6.4572 0.3948 0 3
8.6701 5.5719 1.4976 0.5274 0 3
7.4282 5.5606 1.3483 0.5858 0 3
6.4066 5.5514 1.2318 0.6412 0 3
14.8083 -14.8084 2.8670 0.8424 0 9
39.4530 14.7152 5.7645 0.4179 0 3
39.7328 18.1453 5.9798 0.4022 0 3
40.0977 21.8950 6.2544 0.3845 0 3
8.6700 5.5719 1.4109 0.5281 0 3
7.4281 5.5606 1.2703 0.5865 0 3
6.4066 5.5514 1.1605 0.6420 0 3
14.7540 -14.7541 2.6814 0.8465 0 9
38.8177 14.4783 5.3241 0.4252 0 3
39.0691 17.8422 5.5195 0.4102 0 3
39.3965 21.5121 5.7683 0.3918 0 3
8.6700 5.5719 1.3244 0.5286 0 3
7.4281 5.5606 1.1924 0.5872 0 3
6.4066 5.5514 1.0894 0.6427 0 3
14.7003 -14.7004 2.4975 0.8504 0 9
38.2039 14.2493 4.8985 0.4325 0 3
38.4290 17.5499 5.0753 0.4174 0 3
38.7209 21.1432 5.3000 0.3990 0 3
8.6700 5.5719 1.2381 0.5292 0 3
7.4281 5.5606 1.1147 0.5878 0 3
6.4066 5.5513 1.0184 0.6434 0 3
14.6470 -14.6471 2.3154 0.8543 0 9
40.1195 11.7802 4.6738 0.9560 0 3
37.6103 14.0279 4.4869 0.4398 0 3
37.8107 17.2675 4.6463 0.4247 0 3
38.0706 20.7881 4.8485 0.4070 0 3
8.6700 5.5718 1.1520 0.5297 0 3
7.4318 5.5634 1.0377 0.5949 0 3
6.4066 5.5513 0.9476 0.6440 0 3
40.1195 11.7801 4.3250 0.9569 0 3
37.0360 13.8137 4.0887 0.4470 0 3
37.2131 16.9946 4.2316 0.4319 0 3
36.3015 19.8221 4.2782 0.2858 0 3
8.6699 5.5718 1.0660 0.5302 0 3
7.4389 5.5687 0.9612 0.5949 0 3
6.4066 5.5513 0.8768 0.6445 0 3
39.1125 11.4845 3.8770 0.1211 0 3
36.4798 13.6062 3.7031 0.4542 0 3
36.6351 16.7306 3.8305 0.4390 0 3
35.6233 19.4518 3.8603 0.2915 0 3
8.6699 5.5718 0.9802 0.5306 0 3
7.5306 5.6373 0.8947 0.5893 0 3
6.4066 5.5513 0.8063 0.6451 0 3
43.0097 -9.3562 3.8204 0.0500 0 3
37.2872 10.9485 3.3730 0.1271 0 3
35.9409 13.4053 3.3295 0.4613 0 3
36.0755 16.4751 3.4423 0.4462 0 3
34.9711 19.0956 3.4584 0.2972 0 3
8.6699 5.5718 0.8945 0.5310 0 3
7.5306 5.6373 0.8165 0.5898 0 3
6.4066 5.5513 0.7358 0.6456 0 3
37.0794 -10.8875 3.0334 0.6076 0 3
37.9977 -8.2659 3.0524 0.0562 0 3
35.6268 10.4610 2.9146 0.1331 0 3
35.4185 13.2104 2.9672 0.4684 0 3
35.5336 16.2276 3.0663 0.4533 0 3
34.3432 18.7528 3.0714 0.3028 0 3
8.6699 5.5718 0.8090 0.5314 0 3
7.5306 5.6373 0.7384 0.5902 0 3
6.4065 5.5513 0.6654 0.6460 0 3
36.7194 -10.7818 2.6866 0.6139 0 3
36.6660 -7.9762 2.6343 0.6251 0 3
34.8413 10.2303 2.5492 0.4880 0 3
34.9117 13.0214 2.6158 0.4755 0 3
35.0085 15.9878 2.7019 0.4604 0 3
33.7382 18.4224 2.6986 0.3084 0 3
8.6699 5.5718 0.7235 0.5317 0 3
7.5306 5.6373 0.6604 0.5905 0 3
6.4065 5.5513 0.5951 0.6464 0 3
36.3667 -10.6782 2.3469 0.6202 0 3
36.3201 -7.9010 2.3016 0.6314 0 3
34.3627 10.0898 2.2176 0.4950 0 3
34.4197 12.8379 2.2747 0.4826 0 3
34.4991 15.7552 2.3485 0.4674 0 3
33.1547 18.1038 2.3391 0.3140 0 3
8.6698 5.5718 0.6382 0.5320 0 3
7.5306 5.6373 0.5825 0.5909 0 3
6.4065 5.5513 0.5249 0.6467 0 3
36.0211 -10.5767 2.0140 0.6264 0 3
35.9809 -7.8272 1.9755 0.6376 0 3
33.8975 9.9532 1.8953 0.5021 0 3
33.9419 12.6597 1.9435 0.4896 0 3
34.0050 15.5296 2.0055 0.4745 0 3
15.3018 8.3554 0.9353 0.3707 0 20
8.6698 5.5718 0.5529 0.5322 0 3
7.5306 5.6373 0.5047 0.5912 0 3
6.4065 5.5513 0.4548 0.6471 0 3
35.6823 -10.4773 1.6877 0.6326 0 3
35.6484 -7.7548 1.6556 0.6439 0 3
47.6616 -6.8527 2.1852 0.0458 0 3
44.4550 9.6706 2.0646 0.1104 0 3
33.4451 9.8204 1.5819 0.5090 0 3
33.4776 12.4864 1.6215 0.4966 0 3
33.5251 15.3104 1.6726 0.4814 0 3
15.6360 8.5379 0.8085 0.8811 0 20
8.6698 5.5718 0.4677 0.5325 0 3
7.5305 5.6373 0.4269 0.5914 0 3
6.4065 5.5513 0.3847 0.6473 0 3
35.3745 -13.1940 1.4016 0.6234 0 3
35.3501 -10.3797 1.3677 0.6388 0 3
35.3222 -7.6839 1.3419 0.6500 0 3
41.4855 -5.9647 1.5559 0.0522 0 3
42.1957 9.1791 1.6030 0.1163 0 3
33.0050 9.6912 1.2769 0.5160 0 3
33.0261 12.3181 1.3085 0.5036 0 3
33.0590 15.0975 1.3491 0.4884 0 3
15.7571 8.6040 0.6665 0.4710 0 20
8.6698 5.5717 0.3826 0.5326 0 3
7.5305 5.6373 0.3492 0.5916 0 3
6.4065 5.5513 0.3147 0.6475 0 3
35.2203 -13.1364 1.0851 0.9380 0 3
35.2271 -10.3436 1.0599 0.9594 0 3
35.2220 -7.6621 1.0406 0.9746 0 3
38.4270 -5.5250 1.1207 0.1504 0 3
40.1961 8.7441 1.1875 0.1800 0 3
32.9154 9.6648 0.9903 0.9620 0 3
32.8911 12.2677 1.0134 0.9401 0 3
32.8653 15.0091 1.0430 0.9134 0 3
31.4716 17.1848 1.0351 0.4705 0 3
8.6698 5.5717 0.2975 0.5328 0 3
7.5305 5.6372 0.2716 0.5918 0 3
6.4065 5.5512 0.2447 0.6477 0 3
35.2719 -13.1557 0.7761 0.9370 0 3
35.2773 -10.3583 0.7580 0.9599 0 3
35.2831 -7.6754 0.7444 0.9774 0 3
38.6482 -5.5568 0.8050 0.1512 0 3
40.5592 8.8231 0.8558 0.2045 0 3
32.9637 9.6790 0.7083 0.9624 0 3
32.9348 12.2840 0.7247 0.9406 0 3
32.9043 15.0269 0.7458 0.9140 0 3
31.6848 17.3012 0.7443 0.4502 0 3
8.6698 5.5717 0.2125 0.5329 0 3
7.5305 5.6372 0.1939 0.5919 0 3
6.4065 5.5512 0.1748 0.6479 0 3
35.2719 -13.1557 0.4656 0.9371 0 3
35.2773 -10.3584 0.4548 0.9600 0 3
35.2831 -7.6754 0.4466 0.9775 0 3
38.6485 -5.5568 0.4830 0.1513 0 3
41.2547 8.9744 0.5222 0.2037 0 3
32.9637 9.6790 0.4249 0.9625 0 3
32.9347 12.2840 0.4348 0.9407 0 3
33.2948 15.2052 0.4527 0.9141 0 3
31.6798 17.2985 0.4465 0.4756 0 3
8.6697 5.5717 0.1275 0.5330 0 3
7.5305 5.6372 0.1164 0.5920 0 3
6.4065 5.5512 0.1049 0.6479 0 3
11.2449 -9.7438 0.0613 0.9959 0 4
13.3759 -10.0130 0.0689 0.7950 0 4
35.2719 -13.1557 0.1552 0.9372 0 3
35.2773 -10.3583 0.1516 0.9601 0 3
35.2831 -7.6754 0.1489 0.9776 0 3
39.9996 -5.7511 0.1666 0.9885 0 3
40.8241 2.9198 0.1687 0.1354 0 21
43.9577 9.5624 0.1855 0.2037 0 3
32.9637 9.6790 0.1416 0.9626 0 3
32.9347 12.2840 0.1449 0.9408 0 3
33.2947 15.2052 0.1509 0.9142 0 3
31.6797 17.2984 0.1488 0.4756 0 3
8.6697 5.5717 0.0425 0.5330 0 3
7.5305 5.6372 0.0388 0.5920 0 3
6.4064 5.5512 0.0349 0.6480 0 3
11.2832 -9.7770 -0.0616 0.9959 0 4
13.7514 -10.2941 -0.0708 0.3609 0 4
35.2719 -13.1557 -0.1552 0.9372 0 3
35.2773 -10.3583 -0.1516 0.9601 0 3
35.2831 -7.6754 -0.1489 0.9776 0 3
39.9996 -5.7511 -0.1666 0.9885 0 3
42.4260 0.0000 -0.1749 0.9273 0 21
39.9741 2.8590 -0.1652 0.9459 0 21
43.9575 9.5624 -0.1855 0.2037 0 3
32.9637 9.6790 -0.1416 0.9626 0 3
32.9347 12.2840 -0.1449 0.9408 0 3
33.2947 15.2052 -0.1509 0.9142 0 3
31.6796 17.2984 -0.1488 0.4756 0 3
8.6697 5.5717 -0.0425 0.5330 0 3
7.5305 5.6372 -0.0388 0.5920 0 3
6.4064 5.5512 -0.0349 0.6480 0 3
11.2831 -9.7769 -0.1847 0.9958 0 4
13.7614 -10.3016 -0.2126 0.7950 0 4
35.2719 -13.1557 -0.4656 0.9371 0 3
35.2773 -10.3584 -0.4548 0.9600 0 3
35.2831 -7.6754 -0.4466 0.9775 0 3
39.9996 -5.7511 -0.4998 0.9884 0 3
43.9572 9.5623 -0.5564 0.2037 0 3
32.9637 9.6790 -0.4249 0.9625 0 3
32.9347 12.2840 -0.4348 0.9407 0 3
33.2947 15.2052 -0.4527 0.9141 0 3
31.6795 17.2983 -0.4465 0.4756 0 3
8.6697 5.5717 -0.1275 0.5330 0 3
7.5304 5.6372 -0.1164 0.5920 0 3
6.4064 5.5512 -0.1049 0.6479 0 3
11.2830 -9.7768 -0.3078 0.9957 0 4
13.7614 -10.3016 -0.3544 0.7949 0 4
35.2719 -13.1557 -0.7761 0.9370 0 3
35.2773 -10.3583 -0.7580 0.9599 0 3
35.2831 -7.6754 -0.7444 0.9774 0 3
38.6496 -5.5570 -0.8050 0.1512 0 3
34.9134 -2.4971 -0.7216 0.9726 0 5
34.5430 4.9665 -0.7195 0.1494 0 5
43.9570 9.5623 -0.9275 0.2037 0 3
32.9637 9.6790 -0.7083 0.9624 0 3
32.9347 12.2840 -0.7247 0.9406 0 3
32.9042 15.0268 -0.7458 0.9140 0 3
31.6795 17.2983 -0.7442 0.4755 0 3
8.6697 5.5717 -0.2125 0.5329 0 3
7.5304 5.6372 -0.1939 0.5919 0 3
6.4064 5.5512 -0.1748 0.6479 0 3
11.2829 -9.7767 -0.4310 0.9955 0 4
13.7614 -10.3017 -0.4962 0.7948 0 4
35.2719 -13.1557 -1.0867 0.9368 0 3
35.2773 -10.3584 -1.0614 0.9597 0 3
35.2831 -7.6754 -1.0424 0.9772 0 3
35.3849 -5.0876 -1.0320 0.9534 0 5
34.9133 -2.4971 -1.0104 0.9724 0 5
44.0709 0.0000 -1.2722 0.0288 0 21
34.5535 2.4713 -1.0000 0.9963 0 5
34.5110 4.9619 -1.0065 0.9879 0 5
34.4984 7.5046 -1.0193 0.2222 0 5
32.9636 9.6790 -0.9918 0.9622 0 3
32.9347 12.2840 -1.0147 0.9404 0 3
32.9042 15.0268 -1.0442 0.9138 0 3
31.6794 17.2982 -1.0420 0.4755 0 3
8.6696 5.5716 -0.2975 0.5328 0 3
7.5304 5.6372 -0.2715 0.5918 0 3
6.4064 5.5512 -0.2447 0.6477 0 3
32.7611 -32.7612 -1.7199 0.0372 0 0
11.2828 -9.7766 -0.5542 0.9952 0 4
13.7614 -10.3017 -0.6381 0.7945 0 4
39.0016 -25.0648 -1.7210 0.0372 0 0
40.4652 -22.0956 -1.7115 0.9685 0 20
41.3057 -18.8636 -1.6857 0.0371 0 2
35.2719 -13.1557 -1.3975 0.9365 0 3
35.2773 -10.3584 -1.3649 0.9594 0 3
35.2831 -7.6754 -1.3404 0.9769 0 3
35.3849 -5.0876 -1.3271 0.9531 0 5
34.9133 -2.4971 -1.2994 0.9721 0 5
46.4548 0.0000 -1.7245 0.0371 0 0
46.3484 3.3149 -1.7250 0.0371 0 0
34.5110 4.9619 -1.2943 0.9877 0 5
34.4982 7.5046 -1.3106 0.2222 0 5
32.9636 9.6790 -1.2754 0.9619 0 3
32.9347 12.2840 -1.3049 0.9401 0 3
32.9042 15.0268 -1.3428 0.9136 0 3
31.6793 17.2982 -1.3399 0.4753 0 3
8.6696 5.5716 -0.3826 0.5326 0 3
7.5304 5.6372 -0.3492 0.5916 0 3
6.4064 5.5512 -0.3147 0.6476 0 3
26.4482 -26.4482 -1.6974 0.0454 0 2
11.2827 -9.7765 -0.6775 0.9949 0 4
13.7614 -10.3016 -0.7801 0.7943 0 4
31.9129 -20.5092 -1.7216 0.0454 0 0
32.6019 -17.8019 -1.6858 0.0454 0 2
33.7957 -15.4339 -1.6861 0.0454 0 2
35.2719 -13.1557 -1.7084 0.9362 0 3
35.2773 -10.3583 -1.6685 0.9591 0 3
35.2831 -7.6754 -1.6387 0.9766 0 3
35.3849 -5.0876 -1.6224 0.9528 0 5
34.9133 -2.4971 -1.5885 0.9718 0 5
26.2670 0.0000 -1.1921 0.8236 0 6
37.9090 2.7113 -1.7248 0.0453 0 0
34.5110 4.9619 -1.5823 0.9873 0 5
34.4980 7.5046 -1.6023 0.2221 0 5
32.9636 9.6790 -1.5591 0.9616 0 3
32.9347 12.2840 -1.5952 0.9398 0 3
32.9042 15.0268 -1.6416 0.9133 0 3
31.6782 17.2976 -1.6380 0.4784 0 3
8.6696 5.5716 -0.4677 0.5325 0 3
7.5304 5.6372 -0.4269 0.5914 0 3
6.4064 5.5512 -0.3847 0.6473 0 3
13.8246 -13.8246 -1.0489 0.7058 0 4
11.2826 -9.7764 -0.8009 0.9945 0 4
13.7614 -10.3016 -0.9222 0.7939 0 4
26.6400 -17.1205 -1.6989 0.0536 0 2
27.7980 -15.1788 -1.6991 0.0536 0 2
28.8149 -13.1593 -1.6994 0.0536 0 2
29.6853 -11.0720 -1.6997 0.0536 0 2
30.8177 -9.0489 -1.7231 0.0536 0 0
31.3904 -6.8286 -1.7234 0.0536 0 0
30.6325 -4.4043 -1.6603 0.9871 0 20
30.6146 -2.1896 -1.6466 0.6114 0 20
26.2327 0.0000 -1.4073 0.9756 0 6
30.5600 2.1857 -1.6437 0.6098 0 20
30.5329 4.3900 -1.6549 0.9896 0 20
31.4240 6.8359 -1.7253 0.0535 0 0
30.8616 9.0618 -1.7256 0.0535 0 0
29.7377 11.0916 -1.7027 0.0535 0 2
28.8753 13.1869 -1.7030 0.0535 0 2
27.8653 15.2156 -1.7033 0.0535 0 2
8.6696 5.5716 -0.5529 0.5322 0 3
7.5304 5.6371 -0.5046 0.5912 0 3
6.4064 5.5511 -0.4548 0.6471 0 3
13.8248 -13.8248 -1.2106 0.7054 0 4
11.2824 -9.7763 -0.9244 0.9940 0 4
13.7614 -10.3016 -1.0644 0.7936 0 4
24.4834 -15.7345 -1.8021 0.0619 0 1
25.5471 -13.9497 -1.8024 0.0619 0 1
25.9411 -11.8469 -1.7659 0.9046 0 2
25.9250 -9.6695 -1.7133 0.8141 0 2
26.3443 -7.7354 -1.7001 0.0618 0 2
26.8331 -5.8372 -1.7004 0.0618 0 2
27.1855 -3.9087 -1.7007 0.0618 0 2
27.3993 -1.9596 -1.7009 0.0618 0 2
26.2046 0.0000 -1.6226 0.9723 0 6
27.4078 1.9603 -1.7015 0.0618 0 2
27.2023 3.9111 -1.7017 0.0618 0 2
26.8581 5.8426 -1.7020 0.0618 0 2
26.3768 7.7449 -1.7022 0.0618 0 2
25.7607 9.6082 -1.7025 0.0617 0 2
25.7242 11.7478 -1.7511 0.9121 0 2
25.6007 13.9790 -1.8062 0.0617 0 1
8.6696 5.5716 -0.6381 0.5320 0 3
7.5303 5.6371 -0.5825 0.5909 0 3
6.4064 5.5512 -0.5249 0.6468 0 3
13.8250 -13.8250 -1.3726 0.7050 0 4
11.2786 -9.7729 -1.0477 0.6593 0 4
13.0251 -9.7504 -1.1422 0.6050 0 4
21.5977 -13.8800 -1.8023 0.0701 0 1
22.5357 -12.3054 -1.8026 0.0701 0 1
23.3591 -10.6678 -1.8028 0.0701 0 1
24.0639 -8.9754 -1.8030 0.0701 0 1
24.6461 -7.2367 -1.8033 0.0701 0 1
25.1030 -5.4608 -1.8035 0.0700 0 1
25.4321 -3.6566 -1.8038 0.0700 0 1
25.6318 -1.8332 -1.8040 0.0700 0 1
25.7007 0.0000 -1.8043 0.0700 0 1
25.6387 1.8337 -1.8045 0.0700 0 1
25.4461 3.6586 -1.8048 0.0700 0 1
25.1236 5.4653 -1.8050 0.0700 0 1
24.6729 7.2446 -1.8052 0.0700 0 1
24.0963 8.9874 -1.8055 0.0700 0 1
23.3966 10.6849 -1.8057 0.0700 0 1
22.5774 12.3282 -1.8059 0.0700 0 1
8.6696 5.5716 -0.7235 0.5317 0 3
7.5110 5.6227 -0.6587 0.0670 0 3
6.4064 5.5512 -0.5951 0.6464 0 3
9.7848 -9.7848 -1.0862 0.7106 0 4
11.2784 -9.7728 -1.1714 0.6589 0 4
13.0251 -9.7504 -1.2771 0.6046 0 4
19.3182 -12.4151 -1.8025 0.0783 0 1
20.1570 -11.0065 -1.8027 0.0783 0 1
20.8932 -9.5416 -1.8029 0.0783 0 1
21.5232 -8.0277 -1.8031 0.0783 0 1
22.0437 -6.4726 -1.8033 0.0783 0 1
22.4519 -4.8841 -1.8036 0.0783 0 1
22.7461 -3.2704 -1.8038 0.0783 0 1
22.9242 -1.6396 -1.8040 0.0783 0 1
22.9856 0.0000 -1.8042 0.0782 0 1
22.9298 1.6400 -1.8045 0.0782 0 1
22.7572 3.2720 -1.8047 0.0782 0 1
22.4684 4.8877 -1.8049 0.0782 0 1
22.0651 6.4789 -1.8051 0.0782 0 1
21.5491 8.0374 -1.8053 0.0782 0 1
20.9231 9.5553 -1.8055 0.0782 0 1
20.1903 11.0247 -1.8057 0.0782 0 1
8.6696 5.5716 -0.8089 0.5314 0 3
7.4330 5.5643 -0.7288 0.5940 0 3
6.4063 5.5511 -0.6654 0.6460 0 3
9.7847 -9.7847 -1.2011 0.7101 0 4
11.2783 -9.7727 -1.2953 0.6585 0 4
13.0251 -9.7505 -1.4122 0.6042 0 4
16.4730 -10.5865 -1.6996 0.0865 0 2
17.1884 -9.3855 -1.6998 0.0865 0 2
18.8958 -8.6294 -1.8030 0.0865 0 1
19.4654 -7.2602 -1.8032 0.0865 0 1
19.9359 -5.8537 -1.8034 0.0865 0 1
20.3049 -4.4171 -1.8036 0.0865 0 1
20.5706 -2.9576 -1.8038 0.0865 0 1
20.7314 -1.4827 -1.8040 0.0865 0 1
20.7867 0.0000 -1.8042 0.0865 0 1
20.7361 1.4831 -1.8044 0.0864 0 1
20.5797 2.9589 -1.8046 0.0864 0 1
20.3184 4.4200 -1.8048 0.0864 0 1
19.9534 5.8588 -1.8050 0.0864 0 1
19.4866 7.2681 -1.8052 0.0864 0 1
18.9203 8.6406 -1.8054 0.0864 0 1
17.2124 9.3987 -1.7022 0.0864 0 2
8.6695 5.5716 -0.8945 0.5310 0 3
7.4278 5.5604 -0.8053 0.5898 0 3
6.4063 5.5511 -0.7358 0.6456 0 3
9.7846 -9.7846 -1.3161 0.7096 0 4
11.2782 -9.7726 -1.4193 0.6580 0 4
13.0252 -9.7505 -1.5475 0.6038 0 4
15.0334 -9.6614 -1.6996 0.0947 0 2
15.6855 -8.5649 -1.6998 0.0947 0 2
17.2448 -7.8754 -1.8031 0.0947 0 1
17.7645 -6.6258 -1.8033 0.0947 0 1
18.1937 -5.3422 -1.8035 0.0947 0 1
18.5303 -4.0310 -1.8036 0.0947 0 1
18.7726 -2.6991 -1.8038 0.0947 0 1
18.9192 -1.3531 -1.8040 0.0947 0 1
18.9695 0.0000 -1.8042 0.0947 0 1
18.9231 1.3534 -1.8044 0.0947 0 1
18.7802 2.7002 -1.8046 0.0947 0 1
18.5415 4.0335 -1.8047 0.0946 0 1
18.2083 5.3464 -1.8049 0.0946 0 1
16.7644 6.2528 -1.7018 0.0946 0 2
16.2770 7.4335 -1.7019 0.0946 0 2
15.7067 8.5765 -1.7021 0.0946 0 2
8.6695 5.5716 -0.9802 0.5306 0 3
7.4277 5.5603 -0.8825 0.5894 0 3
6.4063 5.5511 -0.8062 0.6451 0 3
9.7845 -9.7845 -1.4313 0.7090 0 4
11.2780 -9.7725 -1.5436 0.6575 0 4
13.0252 -9.7505 -1.6830 0.6033 0 4
13.8237 -8.8839 -1.6997 0.1030 0 2
14.4239 -7.8760 -1.6999 0.1030 0 2
14.9508 -6.8278 -1.7001 0.1030 0 2
16.3349 -6.0926 -1.8033 0.1029 0 1
16.7294 -4.9122 -1.8035 0.1029 0 1
17.0388 -3.7066 -1.8037 0.1029 0 1
17.2614 -2.4818 -1.8038 0.1029 0 1
17.3961 -1.2442 -1.8040 0.1029 0 1
17.4422 0.0000 -1.8042 0.1029 0 1
17.3994 1.2444 -1.8043 0.1029 0 1
17.2679 2.4828 -1.8045 0.1029 0 1
17.0483 3.7086 -1.8047 0.1028 0 1
15.7835 4.6345 -1.7015 0.1028 0 2
15.4140 5.7491 -1.7017 0.1028 0 2
14.9658 6.8347 -1.7018 0.1028 0 2
14.4413 7.8855 -1.7020 0.1028 0 2
8.6695 5.5715 -1.0660 0.5302 0 3
7.4277 5.5603 -0.9597 0.5889 0 3
6.4063 5.5511 -0.8768 0.6446 0 3
9.7844 -9.7844 -1.5467 0.7084 0 4
11.2779 -9.7724 -1.6680 0.6569 0 4
12.1727 -9.1123 -1.6997 0.1112 0 2
12.7930 -8.2216 -1.6998 0.1112 0 2
13.3484 -7.2887 -1.7000 0.1111 0 2
13.8358 -6.3186 -1.7002 0.1111 0 2
15.1163 -5.6381 -1.8034 0.1111 0 1
15.4813 -4.5457 -1.8035 0.1111 0 1
15.7675 -3.4300 -1.8037 0.1111 0 1
15.9734 -2.2966 -1.8038 0.1111 0 1
16.0980 -1.1513 -1.8040 0.1111 0 1
16.1405 0.0000 -1.8042 0.1111 0 1
16.1007 1.1516 -1.8043 0.1111 0 1
15.9789 2.2974 -1.8045 0.1111 0 1
15.7756 3.4318 -1.8046 0.1110 0 1
14.6052 4.2885 -1.7015 0.1110 0 2
14.2632 5.3199 -1.7016 0.1110 0 2
13.8484 6.3244 -1.7017 0.1110 0 2
13.4671 7.3536 -1.7151 0.1110 0 0
8.6695 5.5715 -1.1519 0.5297 0 3
7.4277 5.5603 -1.0371 0.5884 0 3
6.4063 5.5511 -0.9475 0.6440 0 3
9.7843 -9.7843 -1.6623 0.7078 0 4
10.6920 -9.2646 -1.6996 0.1194 0 2
11.3266 -8.4790 -1.6998 0.1194 0 2
11.9038 -7.6501 -1.6999 0.1194 0 2
12.4204 -6.7820 -1.7001 0.1193 0 2
12.8738 -5.8792 -1.7002 0.1193 0 2
14.0652 -5.2460 -1.8034 0.1193 0 1
14.4047 -4.2296 -1.8036 0.1193 0 1
14.6709 -3.1915 -1.8037 0.1193 0 1
14.8624 -2.1369 -1.8039 0.1193 0 1
14.9782 -1.0712 -1.8040 0.1193 0 1
15.0177 0.0000 -1.8041 0.1193 0 1
14.9806 1.0714 -1.8043 0.1193 0 1
14.8671 2.1376 -1.8044 0.1192 0 1
13.8378 3.0102 -1.7013 0.1192 0 2
13.5889 3.9901 -1.7014 0.1192 0 2
13.2706 4.9497 -1.7015 0.1192 0 2
12.8846 5.8842 -1.7017 0.1192 0 2
12.5297 6.8417 -1.7150 0.1192 0 0
8.6695 5.5715 -1.2380 0.5292 0 3
7.4277 5.5603 -1.1147 0.5878 0 3
6.4063 5.5511 -1.0183 0.6434 0 3
9.3518 -9.3518 -1.6996 0.1276 0 2
9.9959 -8.6615 -1.6997 0.1276 0 2
10.5892 -7.9269 -1.6998 0.1276 0 2
11.1287 -7.1519 -1.7000 0.1275 0 2
11.6116 -6.3404 -1.7001 0.1275 0 2
12.7540 -5.8245 -1.8018 0.2925 0 2
13.1490 -4.9043 -1.8035 0.1275 0 1
13.4663 -3.9541 -1.8036 0.1275 0 1
13.7151 -2.9836 -1.8037 0.1275 0 1
13.8941 -1.9977 -1.8039 0.1275 0 1
14.0022 -1.0014 -1.8040 0.1275 0 1
14.0391 0.0000 -1.8041 0.1274 0 1
14.0044 1.0016 -1.8043 0.1274 0 1
13.8982 1.9983 -1.8044 0.1274 0 1
12.9359 2.8141 -1.7012 0.1274 0 2
12.7031 3.7300 -1.7014 0.1274 0 2
12.4055 4.6270 -1.7015 0.1274 0 2
12.0446 5.5006 -1.7016 0.1274 0 2
11.6223 6.3463 -1.7017 0.1274 0 2
8.6695 5.5715 -1.3243 0.5287 0 3
7.4277 5.5603 -1.1923 0.5872 0 3
6.4063 5.5511 -1.0893 0.6427 0 3
8.7791 -8.7791 -1.6997 0.1358 0 2
9.3837 -8.1310 -1.6998 0.1357 0 2
9.9406 -7.4414 -1.6999 0.1357 0 2
10.4470 -6.7138 -1.7001 0.1357 0 2
10.9002 -5.9520 -1.7002 0.1357 0 2
11.9826 -5.4722 -1.8034 0.1357 0 1
12.3432 -4.6038 -1.8035 0.1357 0 1
12.6411 -3.7118 -1.8036 0.1357 0 1
12.8746 -2.8007 -1.8037 0.1357 0 1
13.0425 -1.8752 -1.8039 0.1356 0 1
13.1440 -0.9401 -1.8040 0.1356 0 1
13.1785 0.0000 -1.8041 0.1356 0 1
13.1458 0.9402 -1.8042 0.1356 0 1
13.0462 1.8758 -1.8044 0.1356 0 1
12.1428 2.6415 -1.7012 0.1356 0 2
11.9242 3.5013 -1.7013 0.1356 0 2
11.6448 4.3433 -1.7014 0.1356 0 2
11.3060 5.1633 -1.7015 0.1356 0 2
10.9095 5.9571 -1.7016 0.1356 0 2
8.6694 5.5715 -1.4108 0.5281 0 3
7.4277 5.5603 -1.2702 0.5866 0 3
6.4062 5.5511 -1.1604 0.6420 0 3
8.2714 -8.2714 -1.6998 0.1439 0 2
8.8410 -7.6608 -1.6999 0.1439 0 2
8.5290 -6.3847 -1.5481 0.0644 0 6
9.8427 -6.3255 -1.7001 0.1439 0 2
10.5036 -5.7354 -1.7390 0.4859 0 2
11.2893 -5.1556 -1.8034 0.1438 0 1
11.6291 -4.3374 -1.8035 0.1438 0 1
11.9096 -3.4970 -1.8036 0.1438 0 1
12.1296 -2.6386 -1.8038 0.1438 0 1
12.2877 -1.7667 -1.8039 0.1438 0 1
12.3832 -0.8857 -1.8040 0.1438 0 1
12.4157 0.0000 -1.8041 0.1438 0 1
12.3849 0.8858 -1.8042 0.1438 0 1
12.2909 1.7672 -1.8043 0.1438 0 1
11.4398 2.4886 -1.7012 0.1438 0 2
11.2339 3.2986 -1.7013 0.1437 0 2
10.9706 4.0918 -1.7014 0.1437 0 2
10.6514 4.8643 -1.7015 0.1437 0 2
10.2778 5.6121 -1.7016 0.1437 0 2
8.6694 5.5715 -1.4975 0.5275 0 3
7.4277 5.5603 -1.3482 0.5859 0 3
6.4062 5.5510 -1.2317 0.6413 0 3
7.8182 -7.8182 -1.6998 0.1521 0 2
8.3566 -7.2410 -1.6999 0.1521 0 2
8.5038 -6.3658 -1.6331 0.7709 0 6
9.3033 -5.9789 -1.7002 0.1520 0 2
10.2950 -5.6215 -1.8033 0.1520 0 1
10.6704 -4.8730 -1.8034 0.1520 0 1
10.9915 -4.0996 -1.8035 0.1520 0 1
11.2567 -3.3053 -1.8037 0.1520 0 1
11.4645 -2.4939 -1.8038 0.1520 0 1
11.6139 -1.6698 -1.8039 0.1520 0 1
11.7042 -0.8371 -1.8040 0.1520 0 1
11.7349 0.0000 -1.8041 0.1519 0 1
11.7057 0.8372 -1.8042 0.1519 0 1
11.6169 1.6703 -1.8043 0.1519 0 1
10.8463 2.3595 -1.7065 0.2192 0 2
10.6177 3.1176 -1.7013 0.1519 0 2
10.3688 3.8674 -1.7014 0.1519 0 2
10.0671 4.5975 -1.7015 0.1519 0 2
9.7140 5.3042 -1.7015 0.1519 0 2
8.6694 5.5715 -1.5843 0.5268 0 3
7.4276 5.5603 -1.4264 0.5852 0 3
6.4062 5.5510 -1.3032 0.6405 0 3
7.4111 -7.4111 -1.6999 0.1602 0 2
7.9214 -6.8639 -1.7000 0.1602 0 2
8.3915 -6.2817 -1.7001 0.1602 0 2
8.9346 -5.7419 -1.7225 0.5624 0 2
9.7587 -5.3287 -1.8034 0.1602 0 1
10.1146 -4.6192 -1.8035 0.1601 0 1
10.4189 -3.8860 -1.8036 0.1601 0 1
10.6702 -3.1330 -1.8037 0.1601 0 1
10.8672 -2.3640 -1.8038 0.1601 0 1
11.0088 -1.5828 -1.8039 0.1601 0 1
11.0943 -0.7935 -1.8040 0.1601 0 1
11.1233 0.0000 -1.8041 0.1601 0 1
11.0957 0.7936 -1.8042 0.1601 0 1
11.0114 1.5832 -1.8043 0.1601 0 1
10.7309 2.3344 -1.7812 0.2025 0 2
10.0642 2.9551 -1.7012 0.1600 0 2
9.8283 3.6658 -1.7013 0.1600 0 2
9.5423 4.3578 -1.7014 0.1600 0 2
9.2075 5.0277 -1.7015 0.1600 0 2
8.6694 5.5714 -1.6714 0.5262 0 3
7.4276 5.5603 -1.5048 0.5844 0 3
6.4062 5.5510 -1.3748 0.6397 0 3
7.0434 -7.0434 -1.7000 0.1683 0 2
7.5284 -6.5233 -1.7001 0.1683 0 2
7.9750 -5.9700 -1.7002 0.1683 0 2
8.8890 -5.7126 -1.8033 0.1683 0 1
9.2744 -5.0642 -1.8034 0.1683 0 1
9.6125 -4.3899 -1.8035 0.1683 0 1
9.9017 -3.6931 -1.8036 0.1683 0 1
10.1405 -2.9775 -1.8037 0.1683 0 1
10.3277 -2.2466 -1.8038 0.1682 0 1
10.4622 -1.5042 -1.8039 0.1682 0 1
10.5434 -0.7541 -1.8040 0.1682 0 1
10.5710 0.0000 -1.8041 0.1682 0 1
10.5446 0.7542 -1.8042 0.1682 0 1
10.4646 1.5046 -1.8043 0.1682 0 1
10.3311 2.2474 -1.8044 0.1682 0 1
9.5644 2.8084 -1.7012 0.1682 0 2
9.3402 3.4837 -1.7013 0.1682 0 2
9.0683 4.1413 -1.7014 0.1682 0 2
8.7502 4.7779 -1.7015 0.1682 0 2
8.3874 5.3903 -1.7015 0.1682 0 2
7.4276 5.5602 -1.5835 0.5836 0 3
6.4062 5.5510 -1.4467 0.6388 0 3
6.7095 -6.7095 -1.7000 0.1765 0 2
7.1715 -6.2141 -1.7001 0.1765 0 2
7.6844 -5.7524 -1.7198 0.6205 0 2
8.4675 -5.4417 -1.8033 0.1764 0 1
8.8346 -4.8240 -1.8034 0.1764 0 1
9.1567 -4.1817 -1.8035 0.1764 0 1
9.4321 -3.5180 -1.8036 0.1764 0 1
9.6596 -2.8363 -1.8037 0.1764 0 1
9.8379 -2.1401 -1.8038 0.1764 0 1
9.9660 -1.4329 -1.8039 0.1764 0 1
10.0434 -0.7183 -1.8040 0.1764 0 1
10.0696 -0.0000 -1.8041 0.1763 0 1
10.0445 0.7184 -1.8042 0.1763 0 1
9.9681 1.4332 -1.8043 0.1763 0 1
9.8410 2.1408 -1.8044 0.1763 0 1
9.1106 2.6751 -1.7012 0.1763 0 2
8.8970 3.3184 -1.7013 0.1763 0 2
8.6380 3.9448 -1.7013 0.1763 0 2
8.3350 4.5512 -1.7014 0.1763 0 2
7.9894 5.1345 -1.7015 0.1763 0 2
7.4276 5.5602 -1.6623 0.5828 0 3
6.4062 5.5510 -1.5187 0.6379 0 3
6.4050 -6.4050 -1.7001 0.1846 0 2
6.8598 -5.9440 -1.7036 0.6746 0 2
7.6734 -5.7442 -1.7990 0.5997 0 2
8.0831 -5.1947 -1.8034 0.1845 0 1
8.4335 -4.6050 -1.8034 0.1845 0 1
8.7409 -3.9918 -1.8035 0.1845 0 1
9.0039 -3.3583 -1.8036 0.1845 0 1
9.2210 -2.7075 -1.8037 0.1845 0 1
9.3912 -2.0429 -1.8038 0.1845 0 1
9.5134 -1.3678 -1.8039 0.1845 0 1
9.5873 -0.6857 -1.8040 0.1845 0 1
9.6123 0.0000 -1.8041 0.1845 0 1
9.5883 0.6858 -1.8042 0.1844 0 1
9.5154 1.3681 -1.8043 0.1844 0 1
9.3940 2.0436 -1.8044 0.1844 0 1
8.6968 2.5536 -1.7012 0.1844 0 2
8.4928 3.1677 -1.7012 0.1844 0 2
8.2456 3.7656 -1.7013 0.1844 0 2
7.9563 4.3445 -1.7014 0.1844 0 2
7.6264 4.9012 -1.7015 0.1844 0 2
7.2576 5.4330 -1.7015 0.1844 0 2
6.4062 5.5510 -1.5909 0.6369 0 3
6.1261 -6.1261 -1.7001 0.1927 0 2
6.6465 -5.7592 -1.7258 0.6752 0 2
7.3566 -5.5071 -1.8033 0.1926 0 1
7.7311 -4.9684 -1.8034 0.1926 0 1
8.0662 -4.4045 -1.8035 0.1926 0 1
8.3602 -3.8180 -1.8035 0.1926 0 1
8.6117 -3.2120 -1.8036 0.1926 0 1
8.8193 -2.5896 -1.8037 0.1926 0 1
8.9820 -1.9539 -1.8038 0.1926 0 1
9.0990 -1.3082 -1.8039 0.1926 0 1
9.1696 -0.6558 -1.8040 0.1926 0 1
9.1935 0.0000 -1.8041 0.1926 0 1
9.1705 0.6559 -1.8042 0.1925 0 1
9.1007 1.3085 -1.8042 0.1925 0 1
8.9846 1.9545 -1.8043 0.1925 0 1
8.3178 2.4423 -1.7011 0.1925 0 2
8.1227 3.0296 -1.7012 0.1925 0 2
7.8863 3.6015 -1.7013 0.1925 0 2
7.6095 4.1551 -1.7014 0.1925 0 2
7.2940 4.6876 -1.7014 0.1925 0 2
6.9413 5.1962 -1.7015 0.1925 0 2
6.4062 5.5510 -1.6634 0.6359 0 3
5.8697 -5.8697 -1.7002 0.2007 0 2
6.6387 -5.7524 -1.7991 0.6523 0 2
7.0486 -5.2765 -1.8033 0.2007 0 1
7.4074 -4.7604 -1.8034 0.2007 0 1
7.7285 -4.2200 -1.8035 0.2007 0 1
8.0102 -3.6581 -1.8036 0.2007 0 1
8.2511 -3.0775 -1.8036 0.2007 0 1
8.4500 -2.4812 -1.8037 0.2007 0 1
8.6059 -1.8721 -1.8038 0.2007 0 1
8.7179 -1.2534 -1.8039 0.2007 0 1
8.7856 -0.6284 -1.8040 0.2006 0 1
8.8084 -0.0000 -1.8041 0.2006 0 1
8.7864 0.6284 -1.8042 0.2006 0 1
8.7196 1.2537 -1.8042 0.2006 0 1
8.6083 1.8726 -1.8043 0.2006 0 1
7.9694 2.3400 -1.7011 0.2006 0 2
7.7825 2.9027 -1.7012 0.2006 0 2
7.5559 3.4506 -1.7013 0.2006 0 2
7.2907 3.9810 -1.7013 0.2006 0 2
6.9884 4.4912 -1.7014 0.2006 0 2
6.6505 4.9785 -1.7015 0.2006 0 2
6.2786 5.4404 -1.7015 0.2006 0 2
5.7631 -5.7631 -1.7394 0.7261 0 2
6.3858 -5.5333 -1.8033 0.2088 0 1
6.7645 -5.0638 -1.8034 0.2088 0 1
7.1088 -4.5685 -1.8034 0.2088 0 1
7.4169 -4.0499 -1.8035 0.2088 0 1
7.6872 -3.5106 -1.8036 0.2088 0 1
7.9184 -2.9534 -1.8037 0.2088 0 1
8.1093 -2.3811 -1.8037 0.2087 0 1
8.2589 -1.7966 -1.8038 0.2087 0 1
8.3664 -1.2029 -1.8039 0.2087 0 1
8.4313 -0.6030 -1.8040 0.2087 0 1
8.4532 0.0000 -1.8041 0.2087 0 1
8.4320 0.6031 -1.8041 0.2087 0 1
8.3679 1.2031 -1.8042 0.2087 0 1
8.2611 1.7971 -1.8043 0.2087 0 1
7.8540 2.3061 -1.7470 0.3105 0 2
7.4686 2.7856 -1.7012 0.2087 0 2
7.2511 3.3114 -1.7012 0.2087 0 2
6.9966 3.8204 -1.7013 0.2086 0 2
6.7065 4.3100 -1.7014 0.2086 0 2
6.3822 4.7776 -1.7014 0.2086 0 2
6.0253 5.2209 -1.7015 0.2086 0 2
5.7423 -5.7422 -1.8033 0.2169 0 1
6.1375 -5.3181 -1.8033 0.2169 0 1
6.5015 -4.8669 -1.8034 0.2168 0 1
6.8324 -4.3909 -1.8035 0.2168 0 1
7.1285 -3.8924 -1.8035 0.2168 0 1
7.3883 -3.3741 -1.8036 0.2168 0 1
7.6105 -2.8386 -1.8037 0.2168 0 1
7.7939 -2.2885 -1.8037 0.2168 0 1
7.9377 -1.7267 -1.8038 0.2168 0 1
8.0410 -1.1561 -1.8039 0.2168 0 1
8.1034 -0.5796 -1.8040 0.2168 0 1
8.1244 0.0000 -1.8041 0.2168 0 1
8.1041 0.5796 -1.8041 0.2168 0 1
8.0424 1.1563 -1.8042 0.2167 0 1
7.9398 1.7272 -1.8043 0.2167 0 1
7.7966 2.2893 -1.8044 0.2167 0 1
7.1780 2.6772 -1.7012 0.2167 0 2
6.9690 3.1826 -1.7012 0.2167 0 2
6.7244 3.6718 -1.7013 0.2167 0 2
6.4455 4.1423 -1.7014 0.2167 0 2
6.1338 4.5917 -1.7014 0.2167 0 2
5.7908 5.0178 -1.7015 0.2167 0 2
5.5266 -5.5266 -1.8033 0.2249 0 1
5.9070 -5.1184 -1.8033 0.2249 0 1
6.2573 -4.6841 -1.8034 0.2249 0 1
6.5758 -4.2260 -1.8035 0.2249 0 1
6.8607 -3.7462 -1.8035 0.2249 0 1
7.1108 -3.2474 -1.8036 0.2249 0 1
7.3246 -2.7319 -1.8037 0.2249 0 1
7.5011 -2.2025 -1.8038 0.2248 0 1
7.6395 -1.6619 -1.8038 0.2248 0 1
7.7389 -1.1127 -1.8039 0.2248 0 1
7.7989 -0.5578 -1.8040 0.2248 0 1
7.8191 0.0000 -1.8041 0.2248 0 1
7.7996 0.5579 -1.8041 0.2248 0 1
7.7402 1.1129 -1.8042 0.2248 0 1
7.6414 1.6623 -1.8043 0.2248 0 1
7.5036 2.2033 -1.8044 0.2248 0 1
6.9082 2.5766 -1.7011 0.2248 0 2
6.7071 3.0630 -1.7012 0.2248 0 2
6.4717 3.5338 -1.7013 0.2247 0 2
6.2033 3.9866 -1.7013 0.2247 0 2
5.9033 4.4192 -1.7014 0.2247 0 2
5.5732 4.8292 -1.7014 0.2247 0 2
5.3258 -5.3258 -1.8033 0.2329 0 1
5.6924 -4.9325 -1.8034 0.2329 0 1
6.0300 -4.5139 -1.8034 0.2329 0 1
6.3368 -4.0724 -1.8035 0.2329 0 1
6.6114 -3.6101 -1.8036 0.2329 0 1
6.8524 -3.1294 -1.8036 0.2329 0 1
7.0585 -2.6327 -1.8037 0.2329 0 1
7.2286 -2.1225 -1.8038 0.2329 0 1
7.3619 -1.6015 -1.8038 0.2329 0 1
7.4577 -1.0722 -1.8039 0.2329 0 1
7.5155 -0.5375 -1.8040 0.2328 0 1
7.5350 0.0000 -1.8041 0.2328 0 1
7.5161 0.5376 -1.8041 0.2328 0 1
7.4588 1.0724 -1.8042 0.2328 0 1
7.3636 1.6019 -1.8043 0.2328 0 1
7.2309 2.1232 -1.8043 0.2328 0 1
6.7148 2.5045 -1.7159 0.3802 0 2
6.4632 2.9517 -1.7012 0.2328 0 2
6.2364 3.4053 -1.7012 0.2328 0 2
5.9778 3.8417 -1.7013 0.2328 0 2
5.6887 4.2585 -1.7014 0.2328 0 2
5.3705 4.6536 -1.7014 0.2327 0 2
5.1384 -5.1384 -1.8033 0.2409 0 1
5.4921 -4.7589 -1.8034 0.2409 0 1
5.8177 -4.3551 -1.8034 0.2409 0 1
6.1138 -3.9291 -1.8035 0.2409 0 1
6.3788 -3.4830 -1.8036 0.2409 0 1
6.6112 -3.0192 -1.8036 0.2409 0 1
6.8100 -2.5400 -1.8037 0.2409 0 1
6.9741 -2.0478 -1.8038 0.2409 0 1
7.1027 -1.5451 -1.8038 0.2409 0 1
7.1952 -1.0345 -1.8039 0.2409 0 1
7.2509 -0.5186 -1.8040 0.2409 0 1
7.2697 0.0000 -1.8041 0.2408 0 1
7.2514 0.5186 -1.8041 0.2408 0 1
7.1962 1.0347 -1.8042 0.2408 0 1
7.1044 1.5455 -1.8043 0.2408 0 1
6.9763 2.0484 -1.8043 0.2408 0 1
6.4227 2.3955 -1.7011 0.2408 0 2
6.2357 2.8477 -1.7012 0.2408 0 2
6.0168 3.2854 -1.7012 0.2408 0 2
5.7673 3.7064 -1.7013 0.2408 0 2
5.4884 4.1085 -1.7013 0.2408 0 2
5.1814 4.4897 -1.7014 0.2408 0 2
4.9630 -4.9630 -1.8034 0.2489 0 1
5.3046 -4.5964 -1.8034 0.2489 0 1
5.6192 -4.2064 -1.8035 0.2489 0 1
5.9052 -3.7950 -1.8035 0.2489 0 1
6.1611 -3.3642 -1.8036 0.2489 0 1
6.3856 -2.9162 -1.8036 0.2489 0 1
6.5776 -2.4533 -1.8037 0.2489 0 1
6.7361 -1.9779 -1.8038 0.2489 0 1
6.8603 -1.4924 -1.8038 0.2489 0 1
6.9495 -0.9992 -1.8039 0.2489 0 1
7.0034 -0.5009 -1.8040 0.2488 0 1
7.0215 0.0000 -1.8040 0.2488 0 1
7.0039 0.5009 -1.8041 0.2488 0 1
6.9505 0.9994 -1.8042 0.2488 0 1
6.8618 1.4927 -1.8042 0.2488 0 1
6.7381 1.9785 -1.8043 0.2488 0 1
6.2034 2.3137 -1.7011 0.2488 0 2
6.0227 2.7505 -1.7012 0.2488 0 2
5.8113 3.1732 -1.7012 0.2488 0 2
5.5704 3.5798 -1.7013 0.2488 0 2
5.3009 3.9682 -1.7013 0.2488 0 2
5.0045 4.3364 -1.7014 0.2488 0 2
4.7986 -4.7986 -1.8034 0.2569 0 1
5.1288 -4.4441 -1.8034 0.2569 0 1
5.4330 -4.0671 -1.8035 0.2569 0 1
5.7095 -3.6692 -1.8035 0.2569 0 1
5.9569 -3.2527 -1.8036 0.2569 0 1
6.1739 -2.8195 -1.8037 0.2569 0 1
6.3596 -2.3720 -1.8037 0.2569 0 1
6.5128 -1.9123 -1.8038 0.2569 0 1
6.6329 -1.4429 -1.8038 0.2568 0 1
6.7191 -0.9661 -1.8039 0.2568 0 1
6.7712 -0.4843 -1.8040 0.2568 0 1
6.7887 0.0000 -1.8040 0.2568 0 1
6.7717 0.4843 -1.8041 0.2568 0 1
6.7201 0.9662 -1.8042 0.2568 0 1
6.6343 1.4432 -1.8042 0.2568 0 1
6.5146 1.9129 -1.8043 0.2568 0 1
6.1445 2.2918 -1.7427 0.3830 0 2
5.8230 2.6593 -1.7011 0.2568 0 2
5.6187 3.0680 -1.7012 0.2568 0 2
5.3856 3.4611 -1.7012 0.2567 0 2
5.1252 3.8366 -1.7013 0.2567 0 2
4.8385 4.1926 -1.7013 0.2567 0 2
4.6440 -4.6440 -1.8034 0.2649 0 1
4.9636 -4.3010 -1.8034 0.2649 0 1
5.2580 -3.9360 -1.8035 0.2649 0 1
5.5255 -3.5510 -1.8035 0.2648 0 1
5.7650 -3.1479 -1.8036 0.2648 0 1
5.9750 -2.7287 -1.8037 0.2648 0 1
6.1547 -2.2956 -1.8037 0.2648 0 1
6.3030 -1.8507 -1.8038 0.2648 0 1
6.4192 -1.3964 -1.8039 0.2648 0 1
6.5027 -0.9349 -1.8039 0.2648 0 1
6.5530 -0.4687 -1.8040 0.2648 0 1
6.5700 0.0000 -1.8040 0.2648 0 1
6.5535 0.4687 -1.8041 0.2648 0 1
6.5036 0.9351 -1.8042 0.2648 0 1
6.4205 1.3967 -1.8042 0.2647 0 1
6.3047 1.8512 -1.8043 0.2647 0 1
6.1339 2.2878 -1.7976 0.3383 0 2
5.6354 2.5736 -1.7011 0.2647 0 2
5.4376 2.9691 -1.7012 0.2647 0 2
5.2121 3.3496 -1.7012 0.2647 0 2
4.9599 3.7129 -1.7013 0.2647 0 2
4.6825 4.0575 -1.7013 0.2647 0 2
4.4985 -4.4984 -1.8034 0.2728 0 1
4.8080 -4.1662 -1.8035 0.2728 0 1
5.0932 -3.8127 -1.8035 0.2728 0 1
5.3523 -3.4397 -1.8036 0.2728 0 1
5.5842 -3.0492 -1.8036 0.2728 0 1
5.7877 -2.6432 -1.8037 0.2728 0 1
5.9618 -2.2236 -1.8037 0.2728 0 1
6.1054 -1.7927 -1.8038 0.2728 0 1
6.2179 -1.3526 -1.8039 0.2727 0 1
6.2988 -0.9056 -1.8039 0.2727 0 1
6.3476 -0.4540 -1.8040 0.2727 0 1
6.3640 0.0000 -1.8040 0.2727 0 1
6.3480 0.4540 -1.8041 0.2727 0 1
6.2996 0.9057 -1.8042 0.2727 0 1
6.2192 1.3529 -1.8042 0.2727 0 1
6.1070 1.7932 -1.8043 0.2727 0 1
1.7091 0.6375 -0.5171 0.0144 294 14
1.4411 0.6581 -0.4491 0.1670 294 14
1.4195 0.7751 -0.4585 0.1105 294 14
1.4304 0.9192 -0.4820 0.1051 294 14
1.4230 1.0652 -0.5039 0.1006 294 14
4.5357 3.9302 -1.7013 0.2726 0 2
4.3611 -4.3611 -1.8034 0.2807 0 1
4.6613 -4.0390 -1.8035 0.2807 0 1
4.9377 -3.6963 -1.8035 0.2807 0 1
5.1889 -3.3347 -1.8036 0.2807 0 1
5.4137 -2.9561 -1.8036 0.2807 0 1
5.6110 -2.5625 -1.8037 0.2807 0 1
5.7797 -2.1557 -1.8037 0.2807 0 1
5.9190 -1.7380 -1.8038 0.2807 0 1
6.0281 -1.3113 -1.8039 0.2807 0 1
6.1065 -0.8780 -1.8039 0.2807 0 1
6.1537 -0.4401 -1.8040 0.2807 0 1
6.1696 0.0000 -1.8040 0.2806 0 1
6.1541 0.4402 -1.8041 0.2806 0 1
6.1073 0.8781 -1.8042 0.2806 0 1
1.4798 0.3219 -0.4428 0.1743 294 14
1.4552 0.4273 -0.4435 0.1741 294 14
1.4188 0.5292 -0.4428 0.1743 294 14
1.3711 0.6262 -0.4407 0.1755 294 14
1.3187 0.7201 -0.4393 0.1187 294 14
1.3241 0.8509 -0.4602 0.1133 294 14
1.3128 0.9827 -0.4795 0.1088 294 14
1.2880 1.1161 -0.4983 0.1074 294 14
4.2313 -4.2313 -1.8034 0.2886 0 1
4.5225 -3.9188 -1.8035 0.2886 0 1
4.7907 -3.5862 -1.8035 0.2886 0 1
5.0345 -3.2354 -1.8036 0.2886 0 1
5.2526 -2.8681 -1.8036 0.2886 0 1
5.4440 -2.4862 -1.8037 0.2886 0 1
5.6077 -2.0915 -1.8037 0.2886 0 1
5.7428 -1.6862 -1.8038 0.2886 0 1
5.8486 -1.2723 -1.8039 0.2886 0 1
5.9246 -0.8518 -1.8039 0.2886 0 1
1.7099 -0.1223 -0.5166 0.0271 294 14
1.5820 0.0000 -0.4768 0.0294 294 14
1.4694 0.1051 -0.4440 0.1887 294 14
1.4365 0.2065 -0.4374 0.1916 294 14
1.4105 0.3068 -0.4350 0.1824 294 14
1.3870 0.4073 -0.4357 0.1822 294 14
1.3524 0.5044 -0.4350 0.1824 294 14
1.3073 0.5970 -0.4331 0.1836 294 14
1.2526 0.6840 -0.4301 0.1849 294 14
1.2320 0.7918 -0.4414 0.1215 294 14
1.2182 0.9119 -0.4586 0.1200 294 14
1.1940 1.0346 -0.4761 0.1156 294 14
4.1085 -4.1084 -1.8035 0.2965 0 1
4.3912 -3.8050 -1.8035 0.2965 0 1
4.6516 -3.4821 -1.8035 0.2965 0 1
4.8882 -3.1415 -1.8036 0.2965 0 1
5.1000 -2.7848 -1.8036 0.2965 0 1
5.2859 -2.4140 -1.8037 0.2965 0 1
5.4448 -2.0308 -1.8038 0.2965 0 1
5.5760 -1.6372 -1.8038 0.2965 0 1
5.6787 -1.2353 -1.8039 0.2965 0 1
1.4348 -0.2063 -0.4499 0.1918 294 14
1.4360 -0.1027 -0.4469 0.1926 294 14
1.4261 -0.0000 -0.4426 0.1945 294 14
1.4055 0.1005 -0.4374 0.1968 294 14
1.3749 0.1977 -0.4311 0.1996 294 14
1.3472 0.2931 -0.4279 0.1905 294 14
1.3246 0.3889 -0.4285 0.1903 294 14
1.2916 0.4818 -0.4279 0.1905 294 14
1.2489 0.5704 -0.4262 0.1917 294 14
1.1970 0.6536 -0.4233 0.1930 294 14
1.1516 0.7401 -0.4249 0.1296 294 14
1.1377 0.8517 -0.4411 0.1282 294 14
1.1123 0.9638 -0.4568 0.1237 294 14
3.9919 -3.9919 -1.8035 0.3044 0 1
4.2666 -3.6970 -1.8035 0.3044 0 1
4.5196 -3.3833 -1.8036 0.3044 0 1
4.7496 -3.0524 -1.8036 0.3044 0 1
4.9554 -2.7058 -1.8037 0.3044 0 1
5.1359 -2.3455 -1.8037 0.3044 0 1
5.2903 -1.9732 -1.8038 0.3043 0 1
5.4178 -1.5908 -1.8038 0.3043 0 1
1.4175 -0.3084 -0.4634 0.1721 294 14
1.3732 -0.1974 -0.4432 0.1999 294 14
1.3746 -0.0983 -0.4402 0.2007 294 14
1.3656 -0.0000 -0.4363 0.2025 294 14
1.3466 0.0963 -0.4313 0.2049 294 14
1.3181 0.1895 -0.4254 0.2077 294 14
1.2890 0.2804 -0.4214 0.1986 294 14
1.2673 0.3721 -0.4219 0.1984 294 14
1.2359 0.4610 -0.4214 0.1990 294 14
1.1953 0.5459 -0.4198 0.1998 294 14
1.1459 0.6257 -0.4171 0.2010 294 14
1.0886 0.6996 -0.4134 0.2029 294 14
1.0669 0.7987 -0.4257 0.1363 294 14
1.0463 0.9066 -0.4423 0.2235 294 14
3.8812 -3.8812 -1.8035 0.3122 0 1
4.1483 -3.5946 -1.8035 0.3122 0 1
4.3943 -3.2895 -1.8036 0.3122 0 1
4.6179 -2.9677 -1.8036 0.3122 0 1
4.8180 -2.6308 -1.8037 0.3122 0 1
4.9935 -2.2804 -1.8037 0.3122 0 1
1.4204 -0.5298 -0.4981 0.1643 294 14
1.3902 -0.4082 -0.4761 0.1719 294 14
1.3506 -0.2938 -0.4541 0.1802 294 14
1.3164 -0.1893 -0.4370 0.2079 294 14
1.3180 -0.0943 -0.4342 0.2093 294 14
1.3098 0.0000 -0.4304 0.2106 294 14
1.2922 0.0924 -0.4257 0.2129 294 14
1.2655 0.1820 -0.4201 0.2158 294 14
1.2353 0.2687 -0.4154 0.2067 294 14
1.2145 0.3566 -0.4159 0.2064 294 14
1.1846 0.4418 -0.4154 0.2071 294 14
1.1458 0.5233 -0.4139 0.2078 294 14
1.0988 0.6000 -0.4113 0.2091 294 14
1.0497 0.6746 -0.4100 0.2875 294 14
1.0286 0.7700 -0.4222 0.2402 294 14
1.0077 0.8731 -0.4381 0.2315 294 14
3.7760 -3.7760 -1.8035 0.3201 0 1
4.0359 -3.4971 -1.8035 0.3201 0 1
4.2751 -3.2003 -1.8036 0.3200 0 1
4.4927 -2.8872 -1.8036 0.3200 0 1
4.6873 -2.5595 -1.8037 0.3200 0 1
1.3656 -0.6237 -0.5070 0.1705 294 14
1.3501 -0.5035 -0.4867 0.1723 294 14
1.3243 -0.3888 -0.4661 0.1799 294 14
1.2894 -0.2805 -0.4456 0.1882 294 14
1.2638 -0.1817 -0.4312 0.2160 294 14
1.2657 -0.0905 -0.4286 0.2173 294 14
1.2583 0.0000 -0.4250 0.2192 294 14
1.2418 0.0888 -0.4204 0.2210 294 14
1.2168 0.1749 -0.4151 0.2238 294 14
1.1857 0.2579 -0.4098 0.2148 294 14
1.1657 0.3423 -0.4103 0.2149 294 14
1.1370 0.4241 -0.4099 0.2151 294 14
1.1000 0.5024 -0.4084 0.2159 294 14
1.0564 0.5768 -0.4065 0.2267 294 14
1.0190 0.6548 -0.4091 0.2953 294 14
0.9930 0.7434 -0.4189 0.2481 294 14
0.9716 0.8418 -0.4342 0.2394 294 14
3.6758 -3.6757 -1.8035 0.3279 0 1
3.9287 -3.4042 -1.8036 0.3279 0 1
4.1616 -3.1154 -1.8036 0.3278 0 1
4.3734 -2.8106 -1.8036 0.3278 0 1
4.5629 -2.4915 -1.8037 0.3278 0 1
1.3002 -0.5938 -0.4959 0.1786 294 14
1.2861 -0.4797 -0.4762 0.1804 294 14
1.2640 -0.3712 -0.4571 0.1880 294 14
1.2331 -0.2683 -0.4378 0.1962 294 14
1.2150 -0.1747 -0.4259 0.2240 294 14
1.2172 -0.0871 -0.4234 0.2254 294 14
1.2104 0.0000 -0.4199 0.2272 294 14
1.1949 0.0855 -0.4156 0.2296 294 14
1.1713 0.1684 -0.4106 0.2324 294 14
1.1402 0.2480 -0.4048 0.2351 294 14
1.1204 0.3290 -0.4051 0.2229 294 14
1.0933 0.4078 -0.4048 0.2331 294 14
1.0589 0.4836 -0.4039 0.2337 294 14
1.0174 0.5555 -0.4022 0.2347 294 14
0.9898 0.6361 -0.4082 0.3032 294 14
0.9597 0.7184 -0.4159 0.2561 294 14
0.9378 0.8126 -0.4305 0.2474 294 14
3.5802 -3.5802 -1.8035 0.3356 0 1
3.8266 -3.3157 -1.8036 0.3356 0 1
4.0534 -3.0343 -1.8036 0.3356 0 1
4.2597 -2.7375 -1.8036 0.3356 0 1
4.4442 -2.4267 -1.8037 0.3356 0 1
1.2405 -0.5665 -0.4858 0.1867 294 14
1.2287 -0.4583 -0.4671 0.1941 294 14
1.2087 -0.3549 -0.4487 0.1960 294 14
1.1814 -0.2570 -0.4306 0.2042 294 14
1.1696 -0.1681 -0.4209 0.2321 294 14
1.1719 -0.0838 -0.4185 0.2334 294 14
1.1657 0.0000 -0.4152 0.2352 294 14
1.1513 0.0824 -0.4111 0.2376 294 14
1.1290 0.1623 -0.4063 0.2404 294 14
1.1001 0.2393 -0.4010 0.2536 294 14
1.0796 0.3170 -0.4008 0.2411 294 14
1.0539 0.3931 -0.4007 0.2412 294 14
1.0209 0.4663 -0.3998 0.2417 294 14
0.9871 0.5390 -0.4006 0.3163 294 14
0.9621 0.6183 -0.4074 0.3110 294 14
0.9310 0.6969 -0.4142 0.3058 294 14
0.9061 0.7851 -0.4270 0.2553 294 14
3.4889 -3.4889 -1.8035 0.3434 0 1
3.7290 -3.2312 -1.8036 0.3434 0 1
3.9501 -2.9570 -1.8036 0.3434 0 1
4.1511 -2.6677 -1.8037 0.3434 0 1
1.1848 -0.6469 -0.4934 0.1880 294 14
1.1857 -0.5415 -0.4764 0.1947 294 14
1.1764 -0.4388 -0.4589 0.2021 294 14
1.1582 -0.3401 -0.4412 0.2103 294 14
1.1335 -0.2466 -0.4240 0.2122 294 14
1.1272 -0.1621 -0.4163 0.2401 294 14
1.1297 -0.0808 -0.4140 0.2414 294 14
1.1240 0.0000 -0.4109 0.2432 294 14
1.1105 0.0795 -0.4070 0.2456 294 14
1.0902 0.1567 -0.4026 0.2584 294 14
1.0634 0.2313 -0.3978 0.2615 294 14
1.0418 0.3059 -0.3969 0.2491 294 14
1.0171 0.3794 -0.3968 0.2491 294 14
0.9853 0.4500 -0.3959 0.2497 294 14
0.9605 0.5245 -0.4000 0.3240 294 14
0.9358 0.6014 -0.4066 0.3188 294 14
0.9051 0.6775 -0.4132 0.3137 294 14
0.8762 0.7593 -0.4238 0.2632 294 14
3.4017 -3.4017 -1.8035 0.3511 0 1
3.6358 -3.1504 -1.8036 0.3511 0 1
3.8513 -2.8831 -1.8036 0.3511 0 1
4.0473 -2.6010 -1.8037 0.3511 0 1
1.1326 -0.6185 -0.4838 0.1961 294 14
1.1352 -0.5184 -0.4679 0.2027 294 14
1.1281 -0.4207 -0.4514 0.2101 294 14
1.1124 -0.3266 -0.4346 0.2182 294 14
1.0893 -0.2369 -0.4179 0.2270 294 14
1.0876 -0.1563 -0.4119 0.2481 294 14
1.0901 -0.0780 -0.4097 0.2494 294 14
1.0853 0.0000 -0.4069 0.2615 294 14
1.0734 0.0768 -0.4034 0.2637 294 14
1.0544 0.1516 -0.3994 0.2664 294 14
1.0290 0.2238 -0.3948 0.2695 294 14
1.0064 0.2955 -0.3932 0.2571 294 14
0.9825 0.3665 -0.3931 0.2571 294 14
0.9539 0.4356 -0.3931 0.3371 294 14
0.9352 0.5106 -0.3994 0.3318 294 14
0.9107 0.5853 -0.4058 0.3266 294 14
0.8804 0.6591 -0.4123 0.3214 294 14
0.8482 0.7350 -0.4208 0.2711 294 14
3.3182 -3.3182 -1.8036 0.3588 0 1
3.5466 -3.0731 -1.8036 0.3588 0 1
3.7568 -2.8123 -1.8036 0.3588 0 1
3.9479 -2.5372 -1.8037 0.3588 0 1
1.0846 -0.5922 -0.4750 0.2041 294 14
1.0886 -0.4971 -0.4599 0.2108 294 14
1.0833 -0.4041 -0.4444 0.2181 294 14
1.0698 -0.3141 -0.4285 0.2262 294 14
1.0565 -0.2298 -0.4156 0.3445 294 14
1.0515 -0.1512 -0.4083 0.2663 294 14
1.0543 -0.0754 -0.4062 0.2676 294 14
1.0500 0.0000 -0.4035 0.2694 294 14
1.0387 0.0743 -0.4002 0.2716 294 14
1.0207 0.1468 -0.3963 0.2743 294 14
0.9964 0.2168 -0.3919 0.2774 294 14
0.9731 0.2857 -0.3898 0.2650 294 14
0.9500 0.3543 -0.3897 0.2651 294 14
0.9296 0.4245 -0.3928 0.3449 294 14
0.9110 0.4974 -0.3989 0.3395 294 14
0.8868 0.5699 -0.4051 0.3343 294 14
0.8570 0.6415 -0.4114 0.3292 294 14
0.8217 0.7120 -0.4179 0.2789 294 14
3.2383 -3.2382 -1.8036 0.3665 0 1
3.4611 -2.9990 -1.8036 0.3665 0 1
3.6663 -2.7445 -1.8036 0.3665 0 1
1.0268 -0.6599 -0.4807 0.3042 294 14
1.0402 -0.5680 -0.4668 0.2121 294 14
1.0462 -0.4778 -0.4530 0.3228 294 14
1.0464 -0.3903 -0.4398 0.3324 294 14
1.0410 -0.3056 -0.4273 0.3422 294 14
1.0303 -0.2241 -0.4153 0.3521 294 14
1.0263 -0.1475 -0.4083 0.3741 294 14
1.0207 -0.0730 -0.4030 0.2756 294 14
1.0167 0.0000 -0.4004 0.2773 294 14
1.0061 0.0720 -0.3972 0.2796 294 14
0.9889 0.1422 -0.3935 0.2822 294 14
0.9657 0.2101 -0.3892 0.2853 294 14
0.9418 0.2765 -0.3866 0.2730 294 14
0.9196 0.3430 -0.3865 0.3579 294 14
0.9064 0.4139 -0.3924 0.3526 294 14
0.8879 0.4848 -0.3984 0.3473 294 14
0.8640 0.5553 -0.4045 0.3421 294 14
0.8346 0.6247 -0.4106 0.3370 294 14
0.7996 0.6929 -0.4167 0.3320 294 14
3.1616 -3.1615 -1.8036 0.3742 0 1
3.3791 -2.9280 -1.8036 0.3742 0 1
3.5794 -2.6795 -1.8036 0.3742 0 1
0.9945 -0.6391 -0.4769 0.2614 294 14
1.0114 -0.5523 -0.4649 0.3211 294 14
1.0185 -0.4651 -0.4516 0.3305 294 14
1.0194 -0.3803 -0.4389 0.3401 294 14
1.0149 -0.2980 -0.4267 0.3499 294 14
1.0052 -0.2187 -0.4150 0.3597 294 14
1.0026 -0.1441 -0.4086 0.3817 294 14
0.9964 -0.0712 -0.4029 0.3870 294 14
0.9855 0.0000 -0.3975 0.3923 294 14
0.9752 0.0698 -0.3944 0.2875 294 14
0.9589 0.1379 -0.3908 0.2901 294 14
0.9367 0.2038 -0.3867 0.2932 294 14
0.9122 0.2679 -0.3835 0.2809 294 14
0.8974 0.3347 -0.3863 0.3656 294 14
0.8842 0.4038 -0.3921 0.3602 294 14
0.8658 0.4728 -0.3979 0.3550 294 14
