ply
format ascii 1.0
element vertex 614
property float32 x
property float32 y
property float32 z
property float32 CosAngle
property uint32 ObjIdx
property uint32 ObjTag
end_header
24.04361343383789 12.387089729309082 11.137408256530762 0.7589877843856812 0 9
24.996150970458984 12.73617172241211 11.552041053771973 0.6500722169876099 0 9
25.001230239868164 12.597773551940918 11.528155326843262 0.6514191627502441 0 9
25.006072998046875 12.459784507751465 11.504481315612793 0.652759850025177 0 9
25.010623931884766 12.322226524353027 11.481011390686035 0.6540939807891846 0 9
25.014883041381836 12.185136795043945 11.457755088806152 0.6554219126701355 0 9
25.01888656616211 12.048457145690918 11.434698104858398 0.6567431688308716 0 9
25.0225772857666 11.912226676940918 11.411853790283203 0.6580582857131958 0 9
25.02601432800293 11.7763671875 11.38921070098877 0.65936678647995 0 9
28.358261108398438 13.18929672241211 12.878615379333496 0.9483945369720459 0 9
28.454042434692383 13.078827857971191 12.895322799682617 0.9471660256385803 0 9
29.364511489868164 13.338027000427246 13.280695915222168 0.36344364285469055 0 9
28.59908103942871 11.323203086853027 12.666034698486328 0.868391752243042 0 9
11.341504096984863 -8.009062767028809 5.717288494110107 0.5411191582679749 0 3
11.235644340515137 -8.010136604309082 5.682010173797607 0.544479250907898 0 3
11.13119125366211 -8.011210441589355 5.647276401519775 0.5478270053863525 0 3
11.0278902053833 -8.0122652053833 5.613081932067871 0.5511658787727356 0 3
10.9258394241333 -8.013300895690918 5.579408645629883 0.5544918179512024 0 3
10.82509708404541 -8.014374732971191 5.5462446212768555 0.5578073859214783 0 3
10.739980697631836 -8.026229858398438 5.521042346954346 0.3735898435115814 0 3
10.704297065734863 -8.074647903442383 5.52126407623291 0.373574823141098 0 3
10.66835880279541 -8.122909545898438 5.521484375 0.373559832572937 0 3
10.632011413574219 -8.170917510986328 5.52161979675293 0.37455448508262634 0 3
10.561171531677246 -8.192109107971191 5.503836631774902 0.5742132067680359 0 3
10.465116500854492 -8.193085670471191 5.472888469696045 0.5774601101875305 0 3
10.370156288146973 -8.194062232971191 5.4423956871032715 0.580695390701294 0 3
10.27621078491211 -8.195019721984863 5.412347793579102 0.5839194655418396 0 3
10.183320045471191 -8.195976257324219 5.3827409744262695 0.5871310830116272 0 3
10.091425895690918 -8.196913719177246 5.353564262390137 0.5903312563896179 0 3
10.000527381896973 -8.197851181030273 5.324803829193115 0.5935194492340088 0 3
9.910605430603027 -8.1987886428833 5.29646110534668 0.5966955423355103 0 3
9.821600914001465 -8.199687004089355 5.268522262573242 0.5998600721359253 0 3
9.733573913574219 -8.200605392456055 5.2409820556640625 0.6030123233795166 0 3
9.646425247192383 -8.201483726501465 5.213833332061768 0.6061524152755737 0 3
9.560194969177246 -8.202363014221191 5.1870646476745605 0.6092802882194519 0 3
9.474863052368164 -8.203261375427246 5.160675048828125 0.6123958826065063 0 3
9.390371322631836 -8.204120635986328 5.134657382965088 0.6154987812042236 0 3
9.3066987991333 -8.20497989654541 5.109004020690918 0.6185893416404724 0 3
9.223886489868164 -8.205840110778809 5.083704948425293 0.6216679215431213 0 3
9.141855239868164 -8.206660270690918 5.058755874633789 0.6247338652610779 0 3
9.060683250427246 -8.20751953125 5.034152030944824 0.6277871131896973 0 3
8.980234146118164 -8.208319664001465 5.009891033172607 0.6308271884918213 0 3
8.82568359375 -8.140058517456055 4.943994522094727 0.6338552236557007 0 3
8.747480392456055 -8.140878677368164 4.920587062835693 0.6368701457977295 0 3
8.669960975646973 -8.1416597366333 4.897502899169922 0.6398719549179077 0 3
8.593183517456055 -8.14242172241211 4.874729633331299 0.642861545085907 0 3
8.5171480178833 -8.143241882324219 4.852262496948242 0.6458379626274109 0 3
8.475526809692383 -8.176562309265137 4.849404811859131 0.3686927258968353 0 3
8.4375 -8.213319778442383 4.848704814910889 0.36874595284461975 0 3
8.399354934692383 -8.249940872192383 4.848001003265381 0.3687995672225952 0 3
8.3511323928833 -8.276503562927246 4.841569900512695 0.6576135754585266 0 3
9.191386222839355 9.191268920898438 5.1015472412109375 0.48187220096588135 0 9
9.287304878234863 9.2041597366333 5.131788730621338 0.4790326952934265 0 9
9.384199142456055 9.217108726501465 5.162436485290527 0.4761890769004822 0 9
9.482187271118164 9.230116844177246 5.1934990882873535 0.47334063053131104 0 9
9.581269264221191 9.243183135986328 5.22498893737793 0.47048741579055786 0 9
8.931757926940918 8.539511680603027 4.849834442138672 0.13721409440040588 0 9
9.230897903442383 8.746542930603027 4.9908881187438965 0.1333358734846115 0 9
9.548027038574219 8.966073989868164 5.140559673309326 0.12945395708084106 0 9
9.884941101074219 9.19937515258789 5.299686908721924 0.1255672723054886 0 9
9.976640701293945 9.20150375366211 5.326647758483887 0.793593168258667 0 9
7.241250038146973 6.61876916885376 3.8501505851745605 0.7922420501708984 0 6
7.264707088470459 6.580625057220459 3.84710431098938 0.9104936718940735 0 6
10.042948722839355 9.015429496765137 5.296746253967285 0.7980731725692749 0 9
10.064706802368164 8.953749656677246 5.286993503570557 0.799545168876648 0 9
10.086405754089355 8.892207145690918 5.277347087860107 0.8010069131851196 0 9
10.107890129089355 8.83089828491211 5.2678046226501465 0.802457869052887 0 9
10.12923812866211 8.769706726074219 5.25836706161499 0.8038980960845947 0 9
10.1504487991333 8.708632469177246 5.249032020568848 0.8053275346755981 0 9
10.171504020690918 8.64779281616211 5.239801406860352 0.8067463636398315 0 9
10.192421913146973 8.587050437927246 5.2306718826293945 0.8081545829772949 0 9
10.21322250366211 8.526464462280273 5.221644401550293 0.8095517158508301 0 9
10.233847618103027 8.466073989868164 5.212716102600098 0.8109380006790161 0 9
10.254335403442383 8.405800819396973 5.203888893127441 0.8123135566711426 0 9
10.274706840515137 8.345643997192383 5.195159912109375 0.8136783838272095 0 9
10.294921875 8.285683631896973 5.186534404754639 0.8150321245193481 0 9
10.315038681030273 8.225839614868164 5.178001403808594 0.8163748979568481 0 9
10.3349609375 8.166152000427246 5.1695685386657715 0.8177069425582886 0 9
10.354804039001465 8.106581687927246 5.161231517791748 0.8190279006958008 0 9
10.374452590942383 8.047167778015137 5.152987480163574 0.8203377723693848 0 9
10.394003868103027 7.98790979385376 5.144843101501465 0.821636438369751 0 9
10.413456916809082 7.928730487823486 5.136790752410889 0.8229243159294128 0 9
10.432734489440918 7.869706630706787 5.128833293914795 0.8242011070251465 0 9
12.369824409484863 9.244023323059082 6.0606536865234375 0.8532085418701172 0 9
12.410605430603027 9.188007354736328 6.060374736785889 0.8532474040985107 0 9
12.451308250427246 9.131933212280273 6.0601806640625 0.8532751202583313 0 9
13.200546264648438 9.590604782104492 6.403824329376221 0.8643772602081299 0 9
13.231386184692383 9.522597312927246 6.397993087768555 0.8651653528213501 0 9
13.84706974029541 9.871660232543945 6.674210548400879 0.7323700189590454 0 9
13.944023132324219 9.846718788146973 6.699577331542969 0.7295972108840942 0 9
14.041621208190918 9.821542739868164 6.725244045257568 0.7268131375312805 0 9
14.079394340515137 9.754159927368164 6.722301483154297 0.7259179353713989 0 9
14.070096969604492 9.654511451721191 6.697091102600098 0.7286504507064819 0 9
14.060761451721191 9.555604934692383 6.672176361083984 0.7313715219497681 0 9
14.051445007324219 9.457324028015137 6.647547245025635 0.7340812683105469 0 9
14.042128562927246 9.359804153442383 6.623199939727783 0.7367794513702393 0 9
23.76058578491211 15.684237480163574 11.173781394958496 0.6972348093986511 0 9
23.7701358795166 15.53783130645752 11.145374298095703 0.6990124583244324 0 9
21.620098114013672 13.99437427520752 10.107719421386719 0.802433967590332 0 9
21.721426010131836 13.922011375427246 10.125768661499023 0.8010035157203674 0 9
21.823123931884766 13.849413871765137 10.1441011428833 0.7995561361312866 0 9
21.925233840942383 13.776561737060547 10.162720680236816 0.7980911135673523 0 9
22.027772903442383 13.70345687866211 10.181635856628418 0.7966088056564331 0 9
22.13068389892578 13.63011646270752 10.200840950012207 0.7951093316078186 0 9
22.23404312133789 13.55654239654541 10.220327377319336 0.7935926914215088 0 9
22.337831497192383 13.482675552368164 10.240121841430664 0.7920589447021484 0 9
22.442089080810547 13.408514976501465 10.260208129882812 0.7905078530311584 0 9
22.546737670898438 13.33414077758789 10.280606269836426 0.7889398336410522 0 9
22.651893615722656 13.259452819824219 10.30130672454834 0.7873545289039612 0 9
22.75745964050293 13.184492111206055 10.322310447692871 0.7857523560523987 0 9
22.863534927368164 13.109237670898438 10.3436279296875 0.7841329574584961 0 9
22.97003936767578 13.033710479736328 10.36526107788086 0.7824966907501221 0 9
22.93519401550293 12.878202438354492 10.323339462280273 0.48624956607818604 0 9
22.82341766357422 12.681035041809082 10.247309684753418 0.4898577034473419 0 9
22.71318244934082 12.486679077148438 10.172533988952637 0.4934583008289337 0 9
23.401151657104492 12.728476524353027 10.454974174499512 0.7757821679115295 0 9
23.707244873046875 12.757441520690918 10.566043853759766 0.8151721954345703 0 9
23.82568359375 12.683632850646973 10.593365669250488 0.8130705952644348 0 9
23.944746017456055 12.609414100646973 10.621025085449219 0.8109526038169861 0 9
24.064393997192383 12.53482437133789 10.649051666259766 0.8088187575340271 0 9
24.18472671508789 12.45980453491211 10.677435874938965 0.806668221950531 0 9
24.66537094116211 12.567675590515137 10.864624977111816 0.17179211974143982 0 9
27.823436737060547 14.019843101501465 12.227853775024414 0.9584115743637085 0 9
27.918535232543945 13.91103458404541 12.24208927154541 0.9572963118553162 0 9
28.01384735107422 13.801894187927246 12.256596565246582 0.956163763999939 0 9
28.109296798706055 13.692500114440918 12.271347045898438 0.9550138711929321 0 9
28.204978942871094 13.582792282104492 12.28637409210205 0.9538463950157166 0 9
28.30078125 13.472831726074219 12.30164623260498 0.9526616334915161 0 9
28.39679718017578 13.36253833770752 12.31718921661377 0.9514596462249756 0 9
28.493026733398438 13.251933097839355 12.333000183105469 0.9502401947975159 0 9
28.34290885925293 13.02773380279541 12.242592811584473 0.37829241156578064 0 9
28.83818244934082 12.021093368530273 12.262125968933105 0.8947163820266724 0 9
28.847362518310547 11.87320327758789 12.243234634399414 0.8960967063903809 0 9
28.856327056884766 11.725761413574219 12.224589347839355 0.8974632620811462 0 9
28.865175247192383 11.5786714553833 12.206183433532715 0.8988161087036133 0 9
28.87382698059082 11.43197250366211 12.188023567199707 0.9001556038856506 0 9
28.88228416442871 11.28564453125 12.170101165771484 0.9014811515808105 0 9
28.89060401916504 11.1397066116333 12.152420043945312 0.9027932286262512 0 9
28.89126968383789 10.991289138793945 12.131834030151367 0.8699085712432861 0 9
35.58107376098633 13.353788375854492 14.915633201599121 0.565378725528717 0 9
35.69636535644531 13.214609146118164 14.93896770477295 0.5644959211349487 0 9
35.81230545043945 13.075057983398438 14.962770462036133 0.5635976791381836 0 9
33.99880599975586 12.240351676940918 14.181994438171387 0.320215106010437 0 9
34.39369201660156 12.208417892456055 14.323708534240723 0.3170469403266907 0 9
35.38330078125 12.381132125854492 14.712554931640625 0.7490229606628418 0 9
35.554805755615234 12.262304306030273 14.760826110839844 0.746573269367218 0 9
35.72720718383789 12.142656326293945 14.809632301330566 0.7441126108169556 0 9
35.900604248046875 12.022109031677246 14.858976364135742 0.7416414022445679 0 9
36.074920654296875 11.90072250366211 14.908880233764648 0.739159107208252 0 9
36.25025177001953 11.7783784866333 14.959328651428223 0.7366662621498108 0 9
36.42652130126953 11.655234336853027 15.01033878326416 0.7341626286506653 0 9
36.78269577026367 11.587499618530273 15.135542869567871 0.6104122996330261 0 9
36.76148223876953 11.399667739868164 15.105591773986816 0.6116227507591248 0 9
36.74052810668945 11.212656021118164 15.076152801513672 0.6128169894218445 0 9
36.961814880371094 11.09912109375 15.146363258361816 0.3868207037448883 0 9
36.651817321777344 10.826972007751465 14.999285697937012 0.39061394333839417 0 9
36.62464904785156 10.640448570251465 14.968466758728027 0.5286988019943237 0 9
12.120956420898438 -8.0010347366333 5.700081825256348 0.5207706689834595 0 3
12.005292892456055 -8.002226829528809 5.662486553192139 0.5242268443107605 0 3
11.890995979309082 -8.003378868103027 5.625496864318848 0.5276749134063721 0 3
11.778300285339355 -8.00455093383789 5.589101314544678 0.5311107635498047 0 3
11.6669921875 -8.005682945251465 5.55328369140625 0.5345360040664673 0 3
11.570292472839355 -8.015936851501465 5.524309158325195 0.3582465946674347 0 3
11.534687042236328 -8.068144798278809 5.524559020996094 0.3582305908203125 0 3
11.498886108398438 -8.120195388793945 5.524808406829834 0.3582143187522888 0 3
11.462675094604492 -8.171953201293945 5.524974346160889 0.36234918236732483 0 3
11.370917320251465 -8.18375015258789 5.498398303985596 0.5515008568763733 0 3
11.26546859741211 -8.184863090515137 5.4650983810424805 0.5548612475395203 0 3
11.161250114440918 -8.18593692779541 5.432314395904541 0.5582098960876465 0 3
11.058241844177246 -8.186972618103027 5.400024890899658 0.5615476369857788 0 3
10.956522941589355 -8.188007354736328 5.368232250213623 0.5648735761642456 0 3
10.855996131896973 -8.189082145690918 5.3369140625 0.5681881904602051 0 3
10.756582260131836 -8.19009780883789 5.306063175201416 0.5714918375015259 0 3
10.658300399780273 -8.191113471984863 5.275672912597656 0.5747842192649841 0 3
10.561152458190918 -8.192090034484863 5.245736122131348 0.5780640244483948 0 3
10.465136528015137 -8.193105697631836 5.216239929199219 0.5813328623771667 0 3
10.370136260986328 -8.194043159484863 5.18717622756958 0.5845900177955627 0 3
10.27621078491211 -8.195019721984863 5.158538818359375 0.5878353118896484 0 3
10.183300971984863 -8.195976257324219 5.130319118499756 0.5910691618919373 0 3
10.091405868530273 -8.196913719177246 5.1025071144104 0.5942904353141785 0 3
10.000507354736328 -8.197871208190918 5.075097560882568 0.5975001454353333 0 3
9.910624504089355 -8.1987886428833 5.048087120056152 0.6006969809532166 0 3
9.82162094116211 -8.19970703125 5.021453857421875 0.6038830280303955 0 3
9.733573913574219 -8.20058536529541 4.995204925537109 0.6070566177368164 0 3
9.646445274353027 -8.201483726501465 4.969330787658691 0.6102171540260315 0 3
9.560194969177246 -8.202363014221191 4.943819046020508 0.6133661270141602 0 3
9.474823951721191 -8.203242301940918 4.918670654296875 0.6165028214454651 0 3
9.390351295471191 -8.204120635986328 4.893874168395996 0.6196265816688538 0 3
9.306679725646973 -8.204960823059082 4.869418144226074 0.6227381825447083 0 3
9.223886489868164 -8.205820083618164 4.845304489135742 0.6258369088172913 0 3
9.141894340515137 -8.206679344177246 4.821534156799316 0.6289233565330505 0 3
8.984375 -8.138398170471191 4.757692813873291 0.6319972276687622 0 3
8.913105010986328 -8.146952629089355 4.739233493804932 0.6820430159568787 0 3
8.913808822631836 -8.221288681030273 4.759186744689941 0.679185688495636 0 3
8.887343406677246 -8.271015167236328 4.764822483062744 0.6411417126655579 0 3
8.808554649353027 -8.27181625366211 4.742467403411865 0.6441634893417358 0 3
8.730605125427246 -8.272656440734863 4.720417499542236 0.647172749042511 0 3
8.653300285339355 -8.273398399353027 4.698661804199219 0.6501689553260803 0 3
8.576738357543945 -8.274237632751465 4.677200794219971 0.6531528830528259 0 3
8.500839233398438 -8.274980545043945 4.65602970123291 0.6561227440834045 0 3
8.425643920898438 -8.27578067779541 4.63513708114624 0.6590801477432251 0 3
8.351113319396973 -8.276542663574219 4.614526271820068 0.6620237827301025 0 3
9.431562423706055 9.431425094604492 4.980615139007568 0.4726009964942932 0 9
9.531425476074219 9.446112632751465 5.01091194152832 0.46974313259124756 0 9
9.632363319396973 9.460917472839355 5.041627883911133 0.46688112616539 0 9
9.734511375427246 9.47574234008789 5.072770118713379 0.4640151858329773 0 9
9.837812423706055 9.490702629089355 5.104353904724121 0.4611441493034363 0 9
9.942323684692383 9.50570297241211 5.136382102966309 0.4582687318325043 0 9
8.907031059265137 8.439648628234863 4.581909656524658 0.1390664279460907 0 9
9.203300476074219 8.642401695251465 4.714333534240723 0.13516020774841309 0 9
9.517518997192383 8.857343673706055 4.854859352111816 0.13124768435955048 0 9
9.851054191589355 9.085663795471191 5.0041680335998535 0.1273321807384491 0 9
7.241523265838623 6.619023323059082 3.663501739501953 0.7972667813301086 0 6
7.264726161956787 6.580585956573486 3.660411834716797 0.9163024425506592 0 6
10.212265014648438 9.167402267456055 5.1244683265686035 0.7898539304733276 0 9
10.234082221984863 9.104413986206055 5.114874362945557 0.7913354635238647 0 9
10.255800247192383 9.041582107543945 5.105386257171631 0.7928062677383423 0 9
10.27734375 8.97890567779541 5.096002101898193 0.7942665815353394 0 9
10.298710823059082 8.916464805603027 5.086716651916504 0.7957159876823425 0 9
10.31998062133789 8.854140281677246 5.077539443969727 0.7971545457839966 0 9
10.341132164001465 8.791953086853027 5.068459987640381 0.7985826134681702 0 9
10.362070083618164 8.72998046875 5.059479236602783 0.7999995946884155 0 9
10.382929801940918 8.668144226074219 5.050602912902832 0.8014057278633118 0 9
10.403573989868164 8.606484413146973 5.041827201843262 0.8028009533882141 0 9
10.424120903015137 8.544960975646973 5.033144474029541 0.8041853904724121 0 9
10.444531440734863 8.483613014221191 5.024566650390625 0.8055586814880371 0 9
10.464823722839355 8.422402381896973 5.016080856323242 0.806921124458313 0 9
10.484960556030273 8.361347198486328 5.007696628570557 0.8082727193832397 0 9
10.5049409866333 8.30044937133789 4.999403476715088 0.8096132278442383 0 9
10.524785041809082 8.239686965942383 4.991207599639893 0.8109422922134399 0 9
10.544530868530273 8.179061889648438 4.983108997344971 0.8122607469558716 0 9
10.56412124633789 8.118632316589355 4.975102424621582 0.8135677576065063 0 9
10.583613395690918 8.05826187133789 4.96718692779541 0.8148638010025024 0 9
12.536738395690918 9.456796646118164 5.863868236541748 0.8443732261657715 0 9
12.578300476074219 9.399863243103027 5.863516807556152 0.844423770904541 0 9
12.619765281677246 9.342890739440918 5.863246917724609 0.8444629311561584 0 9
12.661171913146973 9.285840034484863 5.863052845001221 0.8444907665252686 0 9
12.702441215515137 9.228769302368164 5.86293888092041 0.8445069789886475 0 9
12.743671417236328 9.171601295471191 5.862902641296387 0.8445119857788086 0 9
12.784765243530273 9.114394187927246 5.862949848175049 0.8445054292678833 0 9
12.82583999633789 9.057108879089355 5.863071918487549 0.8444874286651611 0 9
13.291776657104492 9.29703140258789 6.0569305419921875 0.8750521540641785 0 9
14.2392578125 9.864921569824219 6.468465328216553 0.72235107421875 0 9
14.229257583618164 9.7637300491333 6.443933010101318 0.7251008749008179 0 9
14.21923828125 9.663261413574219 6.419687747955322 0.7278395295143127 0 9
20.991483688354492 14.128515243530273 9.448531150817871 0.7951041460037231 0 9
21.098241806030273 14.063241958618164 9.468087196350098 0.7934615015983582 0 9
21.20552635192871 13.997694969177246 9.487943649291992 0.7918014526367188 0 9
21.08984375 13.785839080810547 9.408411979675293 0.46710270643234253 0 9
21.084081649780273 13.647382736206055 9.378419876098633 0.33814215660095215 0 9
21.39302635192871 13.711523056030273 9.488369941711426 0.3342236876487732 0 9
24.07503890991211 15.278514862060547 10.647390365600586 0.8007063269615173 0 9
24.16632843017578 15.184725761413574 10.657506942749023 0.7999462485313416 0 9
24.16876983642578 15.035409927368164 10.628727912902832 0.47937196493148804 0 9
23.800994873046875 14.658885955810547 10.437955856323242 0.8335236310958862 0 9
24.4415225982666 14.902461051940918 10.689420700073242 0.797558069229126 0 9
24.533769607543945 14.808066368103027 10.700580596923828 0.7967261075973511 0 9
23.910390853881836 14.285839080810547 10.400640487670898 0.46212857961654663 0 9
23.785058975219727 14.066484451293945 10.318559646606445 0.4658047556877136 0 9
23.66160011291504 13.850546836853027 10.237924575805664 0.4694734811782837 0 9
23.539941787719727 13.637831687927246 10.158699989318848 0.4731347858905792 0 9
23.42005729675293 13.428319931030273 10.08084487915039 0.4767891466617584 0 9
23.30189323425293 13.221972465515137 10.004337310791016 0.48043549060821533 0 9
23.18537139892578 13.018651962280273 9.92913818359375 0.4840744435787201 0 9
23.07048797607422 12.818320274353027 9.855202674865723 0.48770585656166077 0 9
26.84619140625 14.758867263793945 11.439695358276367 0.4453893303871155 0 9
27.089080810546875 14.7344331741333 11.51488971710205 0.44248077273368835 0 9
27.477245330810547 14.627519607543945 11.623615264892578 0.9653940796852112 0 9
27.572187423706055 14.519609451293945 11.636082649230957 0.9643598794937134 0 9
27.667226791381836 14.411444664001465 11.648787498474121 0.9633080363273621 0 9
27.76249885559082 14.302988052368164 11.661730766296387 0.9622386693954468 0 9
27.85787010192871 14.194276809692383 11.674921989440918 0.9611514806747437 0 9
27.95341682434082 14.085311889648438 11.688356399536133 0.9600468277931213 0 9
28.04914093017578 13.976054191589355 11.702038764953613 0.9589245915412903 0 9
28.14501953125 13.866483688354492 11.715965270996094 0.9577847719192505 0 9
28.241111755371094 13.756659507751465 11.730134010314941 0.9566275477409363 0 9
28.33738136291504 13.6465425491333 11.744556427001953 0.9554526805877686 0 9
28.433807373046875 13.5361328125 11.759233474731445 0.9542602896690369 0 9
28.224822998046875 12.667851448059082 11.552330017089844 0.3592960238456726 0 9
28.467166900634766 12.623417854309082 11.628206253051758 0.3569514751434326 0 9
26.530370712280273 11.622382164001465 10.815661430358887 0.17530573904514313 0 9
28.96253776550293 12.533222198486328 11.784125328063965 0.3522287607192993 0 9
29.170429229736328 12.468027114868164 11.845820426940918 0.8868080377578735 0 9
29.17949104309082 12.317362785339355 11.82693862915039 0.888224184513092 0 9
29.188417434692383 12.167031288146973 11.8082857131958 0.8896269798278809 0 9
29.19710922241211 12.017168045043945 11.789881706237793 0.8910160064697266 0 9
29.205663681030273 11.86767578125 11.771706581115723 0.8923914432525635 0 9
29.21402359008789 11.718612670898438 11.753779411315918 0.8937530517578125 0 9
29.2222843170166 11.569921493530273 11.736079216003418 0.895101010799408 0 9
29.230350494384766 11.421640396118164 11.718607902526855 0.896435022354126 0 9
29.22576141357422 11.26894474029541 11.696385383605957 0.8639574646949768 0 9
29.21468734741211 11.114336013793945 11.67187213897705 0.8657718896865845 0 9
29.203535079956055 10.960272789001465 11.647645950317383 0.8675729632377625 0 9
29.192304611206055 10.806836128234863 11.623701095581055 0.8693599700927734 0 9
29.18095588684082 10.654004096984863 11.60003662109375 0.8711336851119995 0 9
29.1695499420166 10.501699447631836 11.576639175415039 0.8728936314582825 0 9
29.282264709472656 10.394082069396973 11.602749824523926 0.9053863883018494 0 9
35.56070327758789 12.443242073059082 14.068230628967285 0.5739650726318359 0 9
35.676170349121094 12.304218292236328 14.091933250427246 0.5729997158050537 0 9
35.79230499267578 12.164765357971191 14.11608600616455 0.5720193982124329 0 9
35.90904235839844 12.0249605178833 14.140694618225098 0.5710236430168152 0 9
35.34404373168945 11.659589767456055 13.897461891174316 0.23437821865081787 0 9
35.96804428100586 11.686738014221191 14.122065544128418 0.23065054416656494 0 9
36.30771255493164 11.617226600646973 14.234798431396484 0.5812022686004639 0 9
35.87486267089844 11.301445007324219 14.04507064819336 0.1269242912530899 0 9
36.269920349121094 11.247265815734863 14.179838180541992 0.5834552049636841 0 9
36.25148391723633 11.063417434692383 14.153067588806152 0.5845589637756348 0 9
36.23331832885742 10.88037109375 14.126775741577148 0.5856470465660095 0 9
36.21542739868164 10.698026657104492 14.100940704345703 0.5867197513580322 0 9
36.197303771972656 10.516288757324219 14.07536506652832 0.6285002827644348 0 9
36.178611755371094 10.3350191116333 14.049906730651855 0.6296389102935791 0 9
36.70818328857422 10.308340072631836 14.237468719482422 0.5322266221046448 0 9
38.135704040527344 10.524765014648438 14.772666931152344 0.6656100749969482 0 9
38.17642593383789 10.351835250854492 14.770291328430176 0.6657171249389648 0 9
38.21728515625 10.17904281616211 14.768290519714355 0.6658073663711548 0 9
13.105839729309082 -7.990898132324219 5.731797218322754 0.49588435888290405 0 3
12.9766206741333 -7.992246150970459 5.690911769866943 0.4994465112686157 0 3
12.84927749633789 -7.993554592132568 5.650726795196533 0.5029977560043335 0 3
12.7236909866333 -7.994823932647705 5.611213207244873 0.5065397024154663 0 3
12.599784851074219 -7.99609375 5.572361469268799 0.5100721716880798 0 3
12.477617263793945 -7.997363090515137 5.534156322479248 0.5135933756828308 0 3
12.427734375 -8.04427719116211 5.527974605560303 0.34279751777648926 0 3
12.392108917236328 -8.100390434265137 5.528253555297852 0.3427801728248596 0 3
12.356171607971191 -8.156289100646973 5.528496742248535 0.3436858057975769 0 3
12.263847351074219 -8.174590110778809 5.503543376922607 0.5275745391845703 0 3
12.14720630645752 -8.175800323486328 5.467595100402832 0.5310431122779846 0 3
12.032031059265137 -8.176992416381836 5.432220458984375 0.5345013737678528 0 3
11.918339729309082 -8.178163528442383 5.397407054901123 0.5379492044448853 0 3
11.80605411529541 -8.179296493530273 5.363140106201172 0.5413858294487 0 3
11.69521427154541 -8.180410385131836 5.329418659210205 0.5448118448257446 0 3
11.585820198059082 -8.181581497192383 5.296224117279053 0.5482261776924133 0 3
11.477675437927246 -8.182656288146973 5.263548851013184 0.5516300201416016 0 3
11.370917320251465 -8.18375015258789 5.231375217437744 0.5550223588943481 0 3
11.265448570251465 -8.184863090515137 5.1996941566467285 0.5584038496017456 0 3
11.161250114440918 -8.18593692779541 5.168496608734131 0.5617745518684387 0 3
11.058280944824219 -8.186991691589355 5.1377787590026855 0.565133273601532 0 3
10.956522941589355 -8.188027381896973 5.107526779174805 0.5684807300567627 0 3
10.855976104736328 -8.189062118530273 5.077731132507324 0.571816623210907 0 3
10.756562232971191 -8.19009780883789 5.048376560211182 0.5751416087150574 0 3
10.540995597839355 -8.100956916809082 4.964224338531494 0.5784541368484497 0 3
10.444941520690918 -8.10195255279541 4.936052322387695 0.581755518913269 0 3
10.34994125366211 -8.102910041809082 4.908297538757324 0.5850448608398438 0 3
10.255995750427246 -8.10390567779541 4.880953311920166 0.5883232951164246 0 3
10.20497989654541 -8.138222694396973 4.874013423919678 0.34718671441078186 0 3
10.168086051940918 -8.183730125427246 4.87387752532959 0.34719645977020264 0 3
9.980331420898438 -8.106698989868164 4.801258563995361 0.5980855226516724 0 3
9.890448570251465 -8.107617378234863 4.775490760803223 0.6013157367706299 0 3
9.888495445251465 -8.180487632751465 4.79221773147583 0.7170321941375732 0 3
9.82162094116211 -8.19970703125 4.777590751647949 0.6077393293380737 0 3
9.733573913574219 -8.200605392456055 4.752615928649902 0.6109328269958496 0 3
9.646425247192383 -8.201464653015137 4.727997303009033 0.6141138076782227 0 3
9.560194969177246 -8.202363014221191 4.703729629516602 0.6172829866409302 0 3
9.474863052368164 -8.203261375427246 4.6797990798950195 0.6204392313957214 0 3
9.390371322631836 -8.204120635986328 4.6562018394470215 0.623583197593689 0 3
9.306679725646973 -8.204960823059082 4.632937908172607 0.6267147660255432 0 3
9.223886489868164 -8.205820083618164 4.609999179840088 0.6298334002494812 0 3
9.141875267028809 -8.206660270690918 4.587376594543457 0.6329392194747925 0 3
8.984394073486328 -8.138418197631836 4.52664041519165 0.6360329985618591 0 3
8.914023399353027 -8.147811889648438 4.509547710418701 0.6863275170326233 0 3
8.91470718383789 -8.22216796875 4.528520584106445 0.6834522485733032 0 3
8.887285232543945 -8.271015167236328 4.533423900604248 0.6452357769012451 0 3
8.80859375 -8.271855354309082 4.512155532836914 0.6482769846916199 0 3
8.730566024780273 -8.272656440734863 4.491174221038818 0.651305615901947 0 3
8.653281211853027 -8.273398399353027 4.470473766326904 0.6543211340904236 0 3
8.5767183303833 -8.274199485778809 4.450057506561279 0.6573235392570496 0 3
8.50082015991211 -8.274980545043945 4.42991304397583 0.6603125929832458 0 3
8.425663948059082 -8.275761604309082 4.410035133361816 0.6632882952690125 0 3
8.3511323928833 -8.27652359008789 4.390430927276611 0.6662508249282837 0 3
9.681406021118164 9.681230545043945 4.854804039001465 0.4631989598274231 0 9
9.785449028015137 9.69791030883789 4.885122776031494 0.4603247046470642 0 9
9.890742301940918 9.714667320251465 4.915872097015381 0.45744508504867554 0 9
9.997265815734863 9.7315034866333 4.94705867767334 0.4545617699623108 0 9
10.105058670043945 9.748515129089355 4.978696823120117 0.4516724646091461 0 9
10.214139938354492 9.765565872192383 5.010786533355713 0.44877976179122925 0 9
10.25064468383789 9.712831497192383 5.007263660430908 0.7722491025924683 0 9
8.886465072631836 8.344823837280273 4.322547435760498 0.1408291757106781 0 9
9.180390357971191 8.543632507324219 4.446823596954346 0.13689345121383667 0 9
9.491835594177246 8.754355430603027 4.578615665435791 0.1329527497291565 0 9
7.24181604385376 6.619237899780273 3.4788732528686523 0.8020783066749573 0 6
7.264745712280273 6.580605506896973 3.4758126735687256 0.9218647480010986 0 6
10.385136604309082 9.32265567779541 4.948521614074707 0.7814164161682129 0 9
10.40707015991211 9.258280754089355 4.939098834991455 0.7829067707061768 0 9
10.4287691116333 9.194121360778809 4.929781436920166 0.7843868136405945 0 9
10.450370788574219 9.130117416381836 4.920566082000732 0.7858558893203735 0 9
10.471816062927246 9.066268920898438 4.911451816558838 0.7873141169548035 0 9
10.493085861206055 9.002676010131836 4.902438163757324 0.7887614965438843 0 9
10.514238357543945 8.939179420471191 4.893527507781982 0.7901978492736816 0 9
10.53499984741211 8.875624656677246 4.884577751159668 0.6162318587303162 0 9
10.556132316589355 8.812773704528809 4.876001358032227 0.7930383086204529 0 9
10.576874732971191 8.749804496765137 4.86738395690918 0.7944421768188477 0 9
10.597440719604492 8.687030792236328 4.85886812210083 0.7958348393440247 0 9
10.617871284484863 8.62441349029541 4.8504462242126465 0.7972164154052734 0 9
10.638163566589355 8.561933517456055 4.842119216918945 0.7985873222351074 0 9
10.65835952758789 8.499648094177246 4.833890914916992 0.7999469637870789 0 9
10.678398132324219 8.4375 4.825751781463623 0.801295280456543 0 9
10.6983003616333 8.375527381896973 4.817714214324951 0.8026328086853027 0 9
10.718066215515137 8.313672065734863 4.809764385223389 0.8039591908454895 0 9
10.737714767456055 8.251972198486328 4.801912784576416 0.805274248123169 0 9
12.706660270690918 9.674745559692383 5.6629462242126465 0.835291862487793 0 9
12.749003410339355 9.616874694824219 5.6625261306762695 0.8353541493415833 0 9
12.79124927520752 9.559003829956055 5.662180423736572 0.8354049921035767 0 9
12.833417892456055 9.501054763793945 5.66191291809082 0.835444450378418 0 9
12.875468254089355 9.443066596984863 5.6617255210876465 0.835472583770752 0 9
13.137617111206055 9.5449800491333 5.758115291595459 0.8793637156486511 0 9
13.168417930603027 9.477304458618164 5.752895832061768 0.8801614046096802 0 9
13.19912052154541 9.409765243530273 5.747809410095215 0.8809406161308289 0 9
13.22982406616211 9.342363357543945 5.742847919464111 0.8817012310028076 0 9
13.260448455810547 9.275077819824219 5.738016605377197 0.8824434280395508 0 9
13.291015625 9.207929611206055 5.733316421508789 0.8831670880317688 0 9
13.321600914001465 9.140878677368164 5.72874641418457 0.883871853351593 0 9
13.352128982543945 9.073965072631836 5.7242960929870605 0.8845584988594055 0 9
20.69804573059082 13.93105411529541 8.8468017578125 0.28865498304367065 0 9
23.490331649780273 15.657636642456055 10.010125160217285 0.8136531710624695 0 9
20.826171875 13.747284889221191 8.848448753356934 0.4744863212108612 0 9
20.771484375 13.577714920043945 8.799220085144043 0.3443077802658081 0 9
21.072988510131836 13.640233993530273 8.900944709777832 0.34037309885025024 0 9
21.38163948059082 13.704237937927246 9.005239486694336 0.3364308476448059 0 9
21.697616577148438 13.769725799560547 9.112191200256348 0.33248215913772583 0 9
21.968496322631836 13.8037109375 9.199836730957031 0.4563632011413574 0 9
24.12173843383789 15.006171226501465 10.073277473449707 0.8085519075393677 0 9
24.044784545898438 14.809062004089355 10.01327896118164 0.7191051840782166 0 9
24.30419921875 14.818730354309082 10.093498229980469 0.8069323301315308 0 9
24.395742416381836 14.724764823913574 10.103971481323242 0.8060953617095947 0 9
24.487539291381836 14.630663871765137 10.11469554901123 0.8052406907081604 0 9
24.579608917236328 14.53636646270752 10.125675201416016 0.8043677806854248 0 9
24.671913146972656 14.44189453125 10.136898040771484 0.8034771084785461 0 9
26.156190872192383 15.153534889221191 10.718690872192383 0.8583226799964905 0 9
27.33931541442871 15.67552661895752 11.17458438873291 0.22961269319057465 0 9
23.557538986206055 13.367070198059082 9.604223251342773 0.47810468077659607 0 9
23.437870025634766 13.16038990020752 9.531248092651367 0.4817653298377991 0 9
23.319843292236328 12.956835746765137 9.459518432617188 0.48541897535324097 0 9
37.98501968383789 20.221269607543945 15.25859260559082 0.9732866883277893 0 9
38.05671691894531 20.040781021118164 15.251120567321777 0.9737639427185059 0 9
37.74003982543945 19.658124923706055 15.0886869430542 0.5241179466247559 0 9
37.68832015991211 19.416698455810547 15.033031463623047 0.11607170104980469 0 9
36.86933517456055 18.785858154296875 14.672586441040039 0.1252974271774292 0 9
38.34157943725586 19.319705963134766 15.223800659179688 0.9755109548568726 0 9
38.41224670410156 19.139667510986328 15.217610359191895 0.9759074449539185 0 9
28.275760650634766 13.930936813354492 11.177002906799316 0.959141194820404 0 9
37.96433639526367 18.49300765991211 14.973791122436523 0.4033694267272949 0 9
26.153514862060547 12.594902038574219 10.29301643371582 0.6435921788215637 0 9
26.15361213684082 12.450644493103027 10.270953178405762 0.6449744701385498 0 9
26.15345573425293 12.306913375854492 10.249101638793945 0.6463496685028076 0 9
26.153104782104492 12.163652420043945 10.22745418548584 0.6477175354957581 0 9
26.15247917175293 12.020917892456055 10.206021308898926 0.649078369140625 0 9
26.151620864868164 11.87865161895752 10.184781074523926 0.650431752204895 0 9
26.15054702758789 11.7368745803833 10.163742065429688 0.651777982711792 0 9
26.14925765991211 11.59554672241211 10.142905235290527 0.6531170010566711 0 9
26.037322998046875 11.406386375427246 10.079533576965332 0.1797090619802475 0 9
26.14595603942871 11.314374923706055 10.101827621459961 0.6557728052139282 0 9
26.143983840942383 11.17447280883789 10.081583976745605 0.6570898294448853 0 9
26.14177703857422 11.035038948059082 10.061530113220215 0.658399224281311 0 9
26.13931655883789 10.8960542678833 10.041671752929688 0.6597012877464294 0 9
26.136640548706055 10.757558822631836 10.022003173828125 0.6609960794448853 0 9
26.133808135986328 10.619452476501465 10.002523422241211 0.6622831225395203 0 9
28.40023422241211 11.392187118530273 10.850319862365723 0.3152756690979004 0 9
28.146484375 11.14404296875 10.734158515930176 0.3186873495578766 0 9
27.89779281616211 10.900996208190918 10.620548248291016 0.3220963776111603 0 9
26.950918197631836 10.391777038574219 10.242209434509277 0.5194696187973022 0 9
27.177947998046875 10.339472770690918 10.310748100280762 0.5160164833068848 0 9
27.40785026550293 10.286367416381836 10.38035774230957 0.5125558376312256 0 9
29.517284393310547 10.927128791809082 11.160588264465332 0.8650060892105103 0 9
29.505136489868164 10.77236270904541 11.137614250183105 0.8667904138565063 0 9
29.49298667907715 10.618124961853027 11.114912033081055 0.868560791015625 0 9
29.48064422607422 10.46451187133789 11.092474937438965 0.8703176379203796 0 9
34.80156326293945 12.177557945251465 13.07381534576416 0.439014196395874 0 9
34.77197265625 11.992383003234863 13.042362213134766 0.33264562487602234 0 9
35.128318786621094 11.939062118530273 13.155773162841797 0.48516494035720825 0 9
35.31529235839844 11.826112747192383 13.205780029296875 0.4346272945404053 0 9
35.43867111206055 11.69081974029541 13.232177734375 0.582983136177063 0 9
35.55378723144531 11.55208969116211 13.25564956665039 0.5819506049156189 0 9
35.669471740722656 11.41298770904541 13.27956771850586 0.5809025764465332 0 9
35.73109436035156 11.256152153015137 13.283557891845703 0.5950133800506592 0 9
35.71363067626953 11.0747652053833 13.25848388671875 0.5961388349533081 0 9
37.18537139892578 11.348456382751465 13.785801887512207 0.9881137013435364 0 9
37.21275329589844 11.17447280883789 13.777205467224121 0.9887301921844482 0 9
37.23999786376953 11.000683784484863 13.76887035369873 0.9893286228179932 0 9
37.267127990722656 10.827089309692383 13.760790824890137 0.9899092316627502 0 9
37.29412078857422 10.653691291809082 13.75298023223877 0.9904717206954956 0 9
37.3210334777832 10.480448722839355 13.745418548583984 0.9910162687301636 0 9
37.34785079956055 10.307363510131836 13.73812484741211 0.9915426969528198 0 9
37.374549865722656 10.134452819824219 13.731088638305664 0.9920512437820435 0 9
37.40119171142578 9.961660385131836 13.724299430847168 0.9925417900085449 0 9
37.79212951660156 9.884355545043945 13.851326942443848 0.6781870722770691 0 9
13.922128677368164 -7.982499599456787 5.690473556518555 0.477182000875473 0 3
13.780879020690918 -7.983945369720459 5.647356986999512 0.4808257818222046 0 3
13.641894340515137 -7.985390663146973 5.6050028800964355 0.48445841670036316 0 3
13.504921913146973 -7.986777305603027 5.563394069671631 0.4880817234516144 0 3
13.391796112060547 -8.001269340515137 5.531530857086182 0.3272807002067566 0 3
13.3565034866333 -8.061718940734863 5.531845569610596 0.3272620439529419 0 3
13.320898056030273 -8.122031211853027 5.5321574211120605 0.3272438645362854 0 3
13.25619125366211 -8.16439437866211 5.520425796508789 0.5024765729904175 0 3
13.1260347366333 -8.165741920471191 5.481443881988525 0.5060504078865051 0 3
12.997734069824219 -8.1670503616333 5.443111419677734 0.5096136927604675 0 3
12.871191024780273 -8.168339729309082 5.405426979064941 0.5131668448448181 0 3
12.74642562866211 -8.169629096984863 5.3683624267578125 0.5167096853256226 0 3
12.623319625854492 -8.1708984375 5.331912517547607 0.5202422142028809 0 3
12.501914024353027 -8.172148704528809 5.29605770111084 0.5237641930580139 0 3
12.382089614868164 -8.173378944396973 5.260791301727295 0.5272751450538635 0 3
12.263867378234863 -8.174609184265137 5.226091384887695 0.5307761430740356 0 3
12.147168159484863 -8.175800323486328 5.19195556640625 0.5342664122581482 0 3
12.032011032104492 -8.176992416381836 5.158362865447998 0.5377453565597534 0 3
11.91830062866211 -8.17812442779541 5.125305652618408 0.5412138104438782 0 3
11.806074142456055 -8.179296493530273 5.092771530151367 0.5446714162826538 0 3
11.69521427154541 -8.180429458618164 5.060748100280762 0.5481178164482117 0 3
11.58578109741211 -8.181562423706055 5.029224872589111 0.5515536665916443 0 3
11.477714538574219 -8.1826753616333 4.998193264007568 0.554977297782898 0 3
11.370917320251465 -8.183769226074219 4.967641353607178 0.5583910346031189 0 3
11.265448570251465 -8.184863090515137 4.937557220458984 0.5617931485176086 0 3
11.161230087280273 -8.185897827148438 4.907937526702881 0.5651833415031433 0 3
11.058280944824219 -8.186991691589355 4.878767013549805 0.5685626268386841 0 3
10.835956573486328 -8.097929954528809 4.796667575836182 0.5719301700592041 0 3
10.789140701293945 -8.138651847839355 4.7920660972595215 0.7478750348091125 0 3
10.789843559265137 -8.215429306030273 4.808692455291748 0.745286226272583 0 3
10.712929725646973 -8.233085632324219 4.790853023529053 0.5819644927978516 0 3
10.6152925491333 -8.234082221984863 4.763668060302734 0.5852858424186707 0 3
10.518769264221191 -8.235097885131836 4.736880302429199 0.5885957479476929 0 3
10.423319816589355 -8.236093521118164 4.710486888885498 0.5918933153152466 0 3
10.328886032104492 -8.237030982971191 4.684481620788574 0.5951791405677795 0 3
10.235527038574219 -8.238027572631836 4.6588544845581055 0.5984529256820679 0 3
9.980390548706055 -8.106719017028809 4.559211254119873 0.601715087890625 0 3
9.890448570251465 -8.107636451721191 4.534743785858154 0.6049644351005554 0 3
9.889432907104492 -8.181269645690918 4.551069259643555 0.7213134169578552 0 3
9.821581840515137 -8.199687004089355 4.536741256713867 0.6114276051521301 0 3
9.733573913574219 -8.20058536529541 4.513028621673584 0.614639937877655 0 3
9.646406173706055 -8.201483726501465 4.48964786529541 0.6178410649299622 0 3
9.560175895690918 -8.202343940734863 4.466596603393555 0.6210290789604187 0 3
9.474843978881836 -8.20328140258789 4.443873882293701 0.6242046356201172 0 3
9.390332221984863 -8.2041015625 4.4214653968811035 0.6273678541183472 0 3
9.3066987991333 -8.20497989654541 4.399377346038818 0.630517840385437 0 3
9.223847389221191 -8.205820083618164 4.377595901489258 0.6336556077003479 0 3
9.141875267028809 -8.206660270690918 4.356109619140625 0.6367804408073425 0 3
8.984414100646973 -8.138418197631836 4.298436641693115 0.6398926973342896 0 3
8.914921760559082 -8.148612976074219 4.282651901245117 0.690421998500824 0 3
8.915624618530273 -8.223027229309082 4.300668716430664 0.687529444694519 0 3
8.887285232543945 -8.270976066589355 4.304878234863281 0.6491513252258301 0 3
8.808612823486328 -8.271835327148438 4.284682750701904 0.6522111892700195 0 3
8.730566024780273 -8.27261734008789 4.2647576332092285 0.655258297920227 0 3
8.653300285339355 -8.273398399353027 4.245102405548096 0.6582922339439392 0 3
8.576777458190918 -8.274218559265137 4.225715637207031 0.6613123416900635 0 3
8.50087833404541 -8.274999618530273 4.2065839767456055 0.6643196940422058 0 3
8.42568302154541 -8.27578067779541 4.187709808349609 0.6673135757446289 0 3
8.351152420043945 -8.27652359008789 4.169090270996094 0.6702942848205566 0 3
9.941640853881836 9.941503524780273 4.723743915557861 0.45366984605789185 0 9
10.05019474029541 9.960253715515137 4.7540435791015625 0.4507788419723511 0 9
10.160097122192383 9.97916030883789 4.784781455993652 0.4478822946548462 0 9
10.271268844604492 9.998222351074219 4.815971374511719 0.44498223066329956 0 9
10.381034851074219 10.014745712280273 4.846314430236816 0.7603846192359924 0 9
10.404218673706055 9.947304725646973 4.836237907409668 0.7619689702987671 0 9
10.427206993103027 9.880097389221191 4.826266765594482 0.7635427713394165 0 9
10.450057983398438 9.813105583190918 4.816405296325684 0.7651063203811646 0 9
10.4727144241333 9.746347427368164 4.8066511154174805 0.7666589617729187 0 9
9.161640167236328 8.4497652053833 4.187449932098389 0.13853766024112701 0 9
7.242011547088623 6.619492053985596 3.2964181900024414 0.8066672086715698 0 6
7.264745712280273 6.580625057220459 3.2934515476226807 0.9271699786186218 0 6
10.147323608398438 9.109160423278809 4.581512928009033 0.1266224980354309 0 9
10.518808364868164 9.357675552368164 4.730208396911621 0.1226414367556572 0 9
10.605586051940918 9.349960327148438 4.75031852722168 0.7757503986358643 0 9
10.608320236206055 9.2681245803833 4.732873439788818 0.6060839295387268 0 9
10.592108726501465 9.1704683303833 4.707240104675293 0.6093841791152954 0 9
10.576151847839355 9.073866844177246 4.681979179382324 0.6126725077629089 0 9
10.560293197631836 8.978301048278809 4.657078742980957 0.6159481406211853 0 9
10.544629096984863 8.883769035339355 4.632535934448242 0.6192116737365723 0 9
10.529081344604492 8.79019546508789 4.608336925506592 0.6224629282951355 0 9
10.753847122192383 8.896230697631836 4.689187049865723 0.7858636975288391 0 9
10.7744722366333 8.832148551940918 4.680841445922852 0.7872644662857056 0 9
10.794940948486328 8.76822280883789 4.672593116760254 0.788654088973999 0 9
10.815253257751465 8.70449161529541 4.664439678192139 0.7900328636169434 0 9
10.835488319396973 8.640878677368164 4.656381130218506 0.7914003133773804 0 9
10.855546951293945 8.577460289001465 4.648414134979248 0.7927565574645996 0 9
10.875449180603027 8.514238357543945 4.64054012298584 0.7941014766693115 0 9
10.895273208618164 8.451112747192383 4.632758617401123 0.7954354286193848 0 9
10.91494083404541 8.388202667236328 4.62506628036499 0.7967579960823059 0 9
12.952714920043945 9.862070083618164 5.469742774963379 0.8822031021118164 0 9
12.983652114868164 9.793925285339355 5.464199542999268 0.8830981850624084 0 9
13.014589309692383 9.725897789001465 5.458779811859131 0.8839749097824097 0 9
13.04541015625 9.658026695251465 5.4534831047058105 0.8848331570625305 0 9
13.0762300491333 9.590312004089355 5.448312759399414 0.8856726884841919 0 9
13.107011795043945 9.522675514221191 5.443272113800049 0.8864933252334595 0 9
13.137714385986328 9.455175399780273 5.438345909118652 0.8872958421707153 0 9
13.168378829956055 9.38785171508789 5.433550834655762 0.8880794644355774 0 9
13.199023246765137 9.32064437866211 5.428872108459473 0.8888446688652039 0 9
13.229589462280273 9.253535270690918 5.424315452575684 0.8895907998085022 0 9
13.260136604309082 9.186562538146973 5.419881343841553 0.8903186321258545 0 9
13.290644645690918 9.1196870803833 5.41556978225708 0.8910276293754578 0 9
13.321151733398438 9.052948951721191 5.411376953125 0.8917182087898254 0 9
13.3515625 8.986308097839355 5.4073028564453125 0.8923895955085754 0 9
13.38199234008789 8.919726371765137 5.403348445892334 0.8930426836013794 0 9
20.466327667236328 13.509784698486328 8.239338874816895 0.35041749477386475 0 9
20.760799407958984 13.570761680603027 8.33327865600586 0.34646710753440857 0 9
21.062049865722656 13.633163452148438 8.429563522338867 0.34250974655151367 0 9
21.37044906616211 13.697031021118164 8.528288841247559 0.338544636964798 0 9
21.686054229736328 13.762460708618164 8.6295166015625 0.3345734179019928 0 9
21.92365264892578 13.775585174560547 8.699365615844727 0.4599283039569855 0 9
22.162303924560547 13.787206649780273 8.769423484802246 0.4562537372112274 0 9
22.404882431030273 13.799042701721191 8.840819358825684 0.45256945490837097 0 9
22.651464462280273 13.81103515625 8.913559913635254 0.44887611269950867 0 9
22.965253829956055 13.861367225646973 9.012469291687012 0.7224944233894348 0 9
22.996620178222656 13.739863395690918 9.000486373901367 0.7234562039375305 0 9
25.88865089416504 15.310546875 10.10538387298584 0.8676135540008545 0 9
27.51335906982422 16.105194091796875 10.711264610290527 0.9307041764259338 0 9
27.631874084472656 16.00843620300293 10.729299545288086 0.9291394948959351 0 9
27.75062370300293 15.911347389221191 10.74759292602539 0.9275580644607544 0 9
27.86976432800293 15.813925743103027 10.766136169433594 0.925960123538971 0 9
27.621347427368164 15.509452819824219 10.643163681030273 0.2297435700893402 0 9
27.251893997192383 15.141542434692383 10.474514961242676 0.23344284296035767 0 9
26.8935546875 14.784882545471191 10.311178207397461 0.23714056611061096 0 9
28.350019454956055 15.42025375366211 10.842949867248535 0.9194003343582153 0 9
28.47099494934082 15.320918083190918 10.862823486328125 0.9177185893058777 0 9
28.5924015045166 15.221171379089355 10.882960319519043 0.916020393371582 0 9
24.78890609741211 13.053964614868164 9.412867546081543 0.8155332207679749 0 9
24.911972045898438 12.976268768310547 9.437384605407715 0.8134145736694336 0 9
25.03564453125 12.89818286895752 9.462224960327148 0.8112793564796448 0 9
25.160018920898438 12.819706916809082 9.487387657165527 0.8091273903846741 0 9
