ply
format ascii 1.0
element vertex 592
property float32 x
property float32 y
property float32 z
property float32 CosAngle
property uint32 ObjIdx
property uint32 ObjTag
end_header
14.442480087280273 -2.3402929306030273 -1.7202554941177368 0.18876734375953674 0 2
14.321991920471191 -2.3864452838897705 -1.7071560621261597 0.1163436770439148 0 2
14.3113374710083 -2.4503514766693115 -1.7071715593338013 0.11634255945682526 0 2
14.30038070678711 -2.514218807220459 -1.7071871757507324 0.11634163558483124 0 2
14.289159774780273 -2.5780467987060547 -1.707202672958374 0.11634046584367752 0 2
14.277636528015137 -2.641796827316284 -1.7072179317474365 0.11633944511413574 0 2
14.265819549560547 -2.705507755279541 -1.707233190536499 0.11633849889039993 0 2
14.253729820251465 -2.769179582595825 -1.7072482109069824 0.11633742600679398 0 2
14.24136734008789 -2.832773447036743 -1.7072631120681763 0.11633637547492981 0 2
14.228691101074219 -2.8963279724121094 -1.7072781324386597 0.11633545160293579 0 2
14.215770721435547 -2.9598240852355957 -1.7072927951812744 0.11633429676294327 0 2
14.202528953552246 -3.023261547088623 -1.70730721950531 0.11633338034152985 0 2
14.189013481140137 -3.0866405963897705 -1.7073217630386353 0.11633245646953583 0 2
14.175224304199219 -3.14996075630188 -1.7073359489440918 0.11633134633302689 0 2
14.1611328125 -3.2132225036621094 -1.7073501348495483 0.11633049696683884 0 2
14.146777153015137 -3.2764062881469727 -1.7073642015457153 0.11632950603961945 0 2
14.132128715515137 -3.339531183242798 -1.7073780298233032 0.11632850766181946 0 2
14.117206573486328 -3.402597665786743 -1.7073919773101807 0.11632751673460007 0 2
14.101991653442383 -3.465585947036743 -1.7074055671691895 0.11632663011550903 0 2
14.086474418640137 -3.528496026992798 -1.7074190378189087 0.11632588505744934 0 2
14.07071304321289 -3.59136700630188 -1.707432508468628 0.11632485687732697 0 2
14.054657936096191 -3.6541404724121094 -1.7074456214904785 0.11632392555475235 0 2
14.03831958770752 -3.716874837875366 -1.707458734512329 0.11632299423217773 0 2
14.021698951721191 -3.7795116901397705 -1.7074718475341797 0.11632217466831207 0 2
14.00479507446289 -3.8420896530151367 -1.7074847221374512 0.11632128059864044 0 2
13.987616539001465 -3.9045703411102295 -1.7074973583221436 0.11632037907838821 0 2
13.970155715942383 -3.9668943881988525 -1.707509994506836 0.11631955951452255 0 2
13.952421188354492 -4.029238224029541 -1.7075225114822388 0.11631862819194794 0 2
13.934393882751465 -4.091484069824219 -1.7075347900390625 0.11631786823272705 0 2
13.91610336303711 -4.153671741485596 -1.7075469493865967 0.11631700396537781 0 2
13.8975191116333 -4.215761661529541 -1.7075591087341309 0.11631616950035095 0 2
13.878662109375 -4.277773380279541 -1.707571029663086 0.11631538718938828 0 2
13.85953140258789 -4.339687347412109 -1.7075828313827515 0.116314597427845 0 2
13.840116500854492 -4.401504039764404 -1.7075945138931274 0.11631384491920471 0 2
13.820429801940918 -4.463281154632568 -1.7076061964035034 0.11631301045417786 0 2
13.800458908081055 -4.524941444396973 -1.7076174020767212 0.11631231009960175 0 2
13.780253410339355 -4.586523532867432 -1.7076287269592285 0.11631128937005997 0 2
13.759716033935547 -4.647988319396973 -1.7076399326324463 0.11631070822477341 0 2
13.73891544342041 -4.709374904632568 -1.707650899887085 0.11631007492542267 0 2
13.717851638793945 -4.770663738250732 -1.707661747932434 0.11630930006504059 0 2
13.696513175964355 -4.831874847412109 -1.707672357559204 0.11630856245756149 0 2
13.67495059967041 -4.892988204956055 -1.7076830863952637 0.11630769819021225 0 2
13.653046607971191 -4.953984260559082 -1.7076934576034546 0.11630712449550629 0 2
13.630908012390137 -5.014902114868164 -1.7077038288116455 0.11630626022815704 0 2
13.6084566116333 -5.075722694396973 -1.7077140808105469 0.11630565673112869 0 2
13.5857515335083 -5.136425495147705 -1.7077240943908691 0.11630496382713318 0 2
13.562763214111328 -5.197031021118164 -1.7077339887619019 0.11630436033010483 0 2
13.53954029083252 -5.257538795471191 -1.707743763923645 0.11630354076623917 0 2
13.516005516052246 -5.317929744720459 -1.7077534198760986 0.11630294471979141 0 2
13.492197036743164 -5.378222465515137 -1.7077628374099731 0.11630242317914963 0 2
13.468153953552246 -5.438398361206055 -1.707772135734558 0.11630168557167053 0 2
13.443818092346191 -5.498496055603027 -1.707781434059143 0.11630110442638397 0 2
13.419228553771973 -5.558456897735596 -1.707790493965149 0.11630043387413025 0 2
13.394354820251465 -5.618319988250732 -1.7077994346618652 0.11629977077245712 0 2
13.369218826293945 -5.677988052368164 -1.7078083753585815 0.11629918217658997 0 2
13.3438081741333 -5.737636566162109 -1.7078170776367188 0.11629866808652878 0 2
13.318154335021973 -5.79714822769165 -1.7078255414962769 0.11629793792963028 0 2
13.292197227478027 -5.856543064117432 -1.7078337669372559 0.11629754304885864 0 2
13.26601505279541 -5.915839672088623 -1.707842230796814 0.11629679799079895 0 2
13.239521026611328 -5.975019454956055 -1.7078503370285034 0.11629641056060791 0 2
13.21279239654541 -6.034062385559082 -1.7078582048416138 0.11629586666822433 0 2
13.185791015625 -6.093007564544678 -1.7078661918640137 0.11629532277584076 0 2
13.158525466918945 -6.151816368103027 -1.707873821258545 0.11629484593868256 0 2
13.13101577758789 -6.210488319396973 -1.7078814506530762 0.11629421263933182 0 2
13.103212356567383 -6.269062519073486 -1.7078887224197388 0.11629378795623779 0 2
13.075165748596191 -6.327499866485596 -1.707896113395691 0.11629321426153183 0 2
13.223994255065918 -6.472499847412109 -1.731088399887085 0.11629270017147064 0 0
13.195038795471191 -6.531464576721191 -1.731095552444458 0.11629221588373184 0 0
13.165800094604492 -6.590312480926514 -1.7311022281646729 0.11629178375005722 0 0
13.13631820678711 -6.64904260635376 -1.7311092615127563 0.11629124730825424 0 0
13.106552124023438 -6.707616806030273 -1.731115698814392 0.11629091203212738 0 0
13.076542854309082 -6.766054630279541 -1.731122374534607 0.11629050970077515 0 0
13.046269416809082 -6.824394226074219 -1.7311288118362427 0.11628997325897217 0 0
13.015742301940918 -6.882558345794678 -1.7311348915100098 0.11628954112529755 0 0
12.9849214553833 -6.940585613250732 -1.7311409711837769 0.11628928780555725 0 0
12.953876495361328 -6.998515605926514 -1.7311471700668335 0.11628870666027069 0 0
12.922577857971191 -7.056288719177246 -1.731152892112732 0.11628817766904831 0 0
12.890986442565918 -7.113905906677246 -1.7311586141586304 0.11628793179988861 0 0
12.859149932861328 -7.171367168426514 -1.7311640977859497 0.11628758907318115 0 0
12.82706069946289 -7.228710651397705 -1.73116934299469 0.11628732830286026 0 0
12.794755935668945 -7.285898208618164 -1.7311745882034302 0.11628683656454086 0 0
12.762138366699219 -7.342870712280273 -1.73117995262146 0.11628654599189758 0 0
12.729267120361328 -7.399765491485596 -1.7311848402023315 0.11628631502389908 0 0
12.696171760559082 -7.456523418426514 -1.731189250946045 0.11628584563732147 0 0
12.662793159484863 -7.513124942779541 -1.7311941385269165 0.11628562211990356 0 0
12.629179000854492 -7.569589614868164 -1.7311986684799194 0.11628522723913193 0 0
12.595312118530273 -7.625898361206055 -1.7312030792236328 0.11628495156764984 0 0
12.56118106842041 -7.682050704956055 -1.731207251548767 0.11628462374210358 0 0
12.526786804199219 -7.738027095794678 -1.7312111854553223 0.11628453433513641 0 0
12.492148399353027 -7.793886661529541 -1.7312151193618774 0.11628428101539612 0 0
12.457284927368164 -7.849589824676514 -1.731218934059143 0.1162838563323021 0 0
12.422147750854492 -7.905117034912109 -1.7312227487564087 0.11628368496894836 0 0
12.3867769241333 -7.960488319396973 -1.7312263250350952 0.11628349870443344 0 0
12.351152420043945 -8.0156831741333 -1.731229543685913 0.11628326028585434 0 0
12.315263748168945 -8.070741653442383 -1.731232762336731 0.1162831261754036 0 0
12.279159545898438 -8.125663757324219 -1.7312357425689697 0.11628276854753494 0 0
12.242793083190918 -8.180371284484863 -1.7312387228012085 0.11628267168998718 0 0
12.206171989440918 -8.234941482543945 -1.7312415838241577 0.11628253757953644 0 0
12.16934585571289 -8.289355278015137 -1.7312442064285278 0.11628212034702301 0 0
12.13223648071289 -8.343573570251465 -1.7312465906143188 0.11628209054470062 0 0
12.094902038574219 -8.397656440734863 -1.7312488555908203 0.11628188192844391 0 0
12.057324409484863 -8.45156192779541 -1.7312508821487427 0.11628174036741257 0 0
12.019501686096191 -8.505311965942383 -1.7312531471252441 0.11628152430057526 0 0
11.98143482208252 -8.558847427368164 -1.731255054473877 0.11628148704767227 0 0
11.943163871765137 -8.612245559692383 -1.7312569618225098 0.11628144979476929 0 0
11.90462875366211 -8.665468215942383 -1.731258511543274 0.11628130078315735 0 0
11.865849494934082 -8.718515396118164 -1.731260061264038 0.1162811666727066 0 0
11.826835632324219 -8.77138614654541 -1.7312616109848022 0.11628109961748123 0 0
11.78758716583252 -8.824081420898438 -1.731262445449829 0.11628100275993347 0 0
11.7481050491333 -8.87662124633789 -1.731263518333435 0.11628083139657974 0 0
11.708378791809082 -8.928964614868164 -1.7312644720077515 0.11628080159425735 0 0
11.668417930603027 -8.981035232543945 -1.7312649488449097 0.11628073453903198 0 0
11.6282320022583 -9.033026695251465 -1.7312655448913574 0.11628072708845139 0 0
11.58780288696289 -9.084823608398438 -1.7312661409378052 0.116280697286129 0 0
11.547138214111328 -9.136445045471191 -1.7312664985656738 0.11628071963787079 0 0
11.50624942779541 -9.187910079956055 -1.731266736984253 0.1162806898355484 0 0
11.465126991271973 -9.23915958404541 -1.7312664985656738 0.11628072708845139 0 0
11.423789024353027 -9.290214538574219 -1.7312664985656738 0.11628073453903198 0 0
11.382216453552246 -9.341113090515137 -1.7312662601470947 0.11628067493438721 0 0
11.34041976928711 -9.391816139221191 -1.7312657833099365 0.1162806898355484 0 0
11.298388481140137 -9.442343711853027 -1.7312651872634888 0.1162807047367096 0 0
11.256122589111328 -9.492655754089355 -1.731264591217041 0.11628081649541855 0 0
11.213651657104492 -9.542773246765137 -1.7312633991241455 0.11628083139657974 0 0
11.170947074890137 -9.592734336853027 -1.7312623262405396 0.11628089845180511 0 0
11.12801742553711 -9.64247989654541 -1.7312612533569336 0.11628101766109467 0 0
11.084892272949219 -9.692030906677246 -1.731259822845459 0.1162811741232872 0 0
11.041513442993164 -9.741406440734863 -1.731258511543274 0.11628126353025436 0 0
10.997939109802246 -9.790566444396973 -1.7312570810317993 0.11628128588199615 0 0
10.954120635986328 -9.839550971984863 -1.7312554121017456 0.11628138273954391 0 0
10.910087585449219 -9.888319969177246 -1.731253743171692 0.11628162115812302 0 0
10.865839958190918 -9.936894416809082 -1.7312514781951904 0.11628171056509018 0 0
10.82137680053711 -9.985292434692383 -1.7312493324279785 0.11628180742263794 0 0
10.776689529418945 -10.033456802368164 -1.7312469482421875 0.11628202348947525 0 0
10.731786727905273 -10.08144474029541 -1.731244444847107 0.11628212779760361 0 0
10.68667984008789 -10.129218101501465 -1.7312418222427368 0.11628230661153793 0 0
10.641347885131836 -10.176796913146973 -1.731238842010498 0.11628249287605286 0 0
10.595820426940918 -10.224160194396973 -1.7312359809875488 0.11628268659114838 0 0
10.550058364868164 -10.271307945251465 -1.7312331199645996 0.11628296971321106 0 0
10.504091262817383 -10.318281173706055 -1.7312300205230713 0.11628315597772598 0 0
10.45792007446289 -10.365038871765137 -1.7312263250350952 0.11628341674804688 0 0
9.9014253616333 9.9014253616333 -1.7047293186187744 0.1207965761423111 0 25
9.945683479309082 9.857304573059082 -1.7047600746154785 0.12079453468322754 0 25
9.989774703979492 9.813007354736328 -1.7047909498214722 0.12079217284917831 0 25
10.0154390335083 9.750781059265137 -1.7017301321029663 0.12079013884067535 0 2
10.059022903442383 9.706151962280273 -1.7017607688903809 0.12078803032636642 0 2
10.102421760559082 9.661347389221191 -1.701791524887085 0.12078583985567093 0 2
10.145625114440918 9.616328239440918 -1.7018221616744995 0.12078369408845901 0 2
10.18862247467041 9.57113265991211 -1.7018526792526245 0.12078153342008591 0 2
10.231415748596191 9.525839805603027 -1.701883316040039 0.12077923864126205 0 2
10.27401351928711 9.480253219604492 -1.701913833618164 0.12077707797288895 0 2
10.316386222839355 9.43447208404541 -1.7019445896148682 0.12077505141496658 0 2
10.358593940734863 9.38851547241211 -1.7019751071929932 0.12077274918556213 0 2
10.400566101074219 9.342363357543945 -1.7020056247711182 0.12077062577009201 0 2
10.442343711853027 9.296015739440918 -1.7020361423492432 0.12076840549707413 0 2
10.483877182006836 9.249472618103027 -1.7020666599273682 0.1207662895321846 0 2
10.525224685668945 9.202773094177246 -1.702096939086914 0.12076416611671448 0 2
10.566396713256836 9.155879020690918 -1.7021273374557495 0.12076184153556824 0 2
10.60732364654541 9.10878849029541 -1.7021578550338745 0.12075986713171005 0 2
10.648066520690918 9.0615234375 -1.70218825340271 0.12075769156217575 0 2
10.688583374023438 9.01406192779541 -1.7022185325622559 0.12075550109148026 0 2
10.728896141052246 8.966425895690918 -1.7022488117218018 0.12075341492891312 0 2
10.768994331359863 8.918632507324219 -1.7022792100906372 0.1207512691617012 0 2
10.808886528015137 8.870644569396973 -1.702309489250183 0.1207491084933281 0 2
10.848573684692383 8.822461128234863 -1.702339768409729 0.120746910572052 0 2
10.888017654418945 8.774121284484863 -1.7023699283599854 0.1207447350025177 0 2
10.92724609375 8.725605010986328 -1.7024002075195312 0.12074271589517593 0 2
10.966288566589355 8.676894187927246 -1.7024303674697876 0.12074050307273865 0 2
11.005078315734863 8.628026962280273 -1.7024604082107544 0.12073847651481628 0 2
11.043691635131836 8.57900333404541 -1.7024904489517212 0.12073606997728348 0 2
11.082050323486328 8.529765129089355 -1.702520728111267 0.12073413282632828 0 2
11.12020492553711 8.48037052154541 -1.7025506496429443 0.12073200941085815 0 2
11.158134460449219 8.430800437927246 -1.7025806903839111 0.12072989344596863 0 2
11.195849418640137 8.381073951721191 -1.702610731124878 0.12072771042585373 0 2
11.233329772949219 8.331171989440918 -1.7026406526565552 0.1207256019115448 0 2
11.27059555053711 8.281112670898438 -1.7026705741882324 0.12072348594665527 0 2
11.307597160339355 8.230878829956055 -1.7027004957199097 0.12072132527828217 0 2
11.344423294067383 8.180487632751465 -1.7027301788330078 0.12071914970874786 0 2
11.38101577758789 8.129901885986328 -1.7027599811553955 0.12071719020605087 0 2
11.417372703552246 8.079179763793945 -1.7027899026870728 0.12071510404348373 0 2
11.45351505279541 8.028300285339355 -1.7028194665908813 0.12071289122104645 0 2
11.488348960876465 7.976484298706055 -1.7026879787445068 0.12071074545383453 0 2
11.524032592773438 7.92529296875 -1.7027175426483154 0.12070862203836441 0 2
11.55947208404541 7.873906135559082 -1.702747106552124 0.12070662528276443 0 2
11.594706535339355 7.822441101074219 -1.7027767896652222 0.1207045167684555 0 2
11.629706382751465 7.770761489868164 -1.7028063535690308 0.12070243060588837 0 2
11.664472579956055 7.718925476074219 -1.7028359174728394 0.12070030719041824 0 2
11.699003219604492 7.666933536529541 -1.7028652429580688 0.12069810926914215 0 2
11.733290672302246 7.614765644073486 -1.7028948068618774 0.12069620192050934 0 2
11.767373085021973 7.562460899353027 -1.702924132347107 0.12069402635097504 0 2
11.801191329956055 7.509999752044678 -1.7029534578323364 0.12069207429885864 0 2
11.834814071655273 7.457402229309082 -1.702982783317566 0.12068980187177658 0 2
11.868173599243164 7.404628753662109 -1.7030119895935059 0.12068783491849899 0 2
11.901288986206055 7.351718425750732 -1.7030411958694458 0.12068580836057663 0 2
11.934188842773438 7.298652172088623 -1.7030702829360962 0.12068375945091248 0 2
11.966845512390137 7.245468616485596 -1.7030994892120361 0.12068162113428116 0 2
11.999286651611328 7.192089557647705 -1.703128457069397 0.12067946046590805 0 2
12.031455039978027 7.138593673706055 -1.7031574249267578 0.12067752331495285 0 2
12.06338882446289 7.084941387176514 -1.7031865119934082 0.12067551910877228 0 2
12.09511661529541 7.031191349029541 -1.70321524143219 0.12067324668169022 0 2
12.1265230178833 6.977245807647705 -1.7032443284988403 0.1206713616847992 0 2
12.157743453979492 6.923163890838623 -1.7032729387283325 0.12066934257745743 0 2
12.188749313354492 6.868964672088623 -1.7033017873764038 0.12066712230443954 0 2
12.21947193145752 6.814609050750732 -1.7033305168151855 0.12066520750522614 0 2
12.249970436096191 6.760117053985596 -1.7033591270446777 0.12066322565078735 0 2
12.280224800109863 6.705507755279541 -1.7033878564834595 0.12066109478473663 0 2
12.310224533081055 6.650742053985596 -1.703416347503662 0.12065921723842621 0 2
12.33998966217041 6.595839500427246 -1.7034449577331543 0.12065719813108444 0 2
12.369502067565918 6.540820121765137 -1.703473448753357 0.12065517902374268 0 2
12.398788452148438 6.485683441162109 -1.70350182056427 0.12065302580595016 0 2
12.427802085876465 6.430370807647705 -1.703530192375183 0.12065117806196213 0 2
12.456591606140137 6.374960899353027 -1.7035584449768066 0.12064912170171738 0 2
12.485146522521973 6.319414138793945 -1.7035866975784302 0.12064692378044128 0 2
12.513407707214355 6.263730525970459 -1.7036147117614746 0.12064509838819504 0 2
12.541435241699219 6.207910060882568 -1.7036429643630981 0.12064320594072342 0 2
12.569228172302246 6.151991844177246 -1.7036710977554321 0.12064117938280106 0 2
12.596776962280273 6.096015453338623 -1.703698992729187 0.12063907831907272 0 2
12.624052047729492 6.039843559265137 -1.703727126121521 0.1206372082233429 0 2
12.651083946228027 5.983534812927246 -1.7037549018859863 0.12063527852296829 0 2
12.677870750427246 5.927128791809082 -1.7037827968597412 0.12063328176736832 0 2
12.704423904418945 5.870585918426514 -1.7038103342056274 0.12063106149435043 0 2
12.730683326721191 5.813925743103027 -1.7038381099700928 0.12062930315732956 0 2
12.756709098815918 5.757148265838623 -1.703865885734558 0.12062732130289078 0 2
12.793622970581055 5.705214500427246 -1.7053786516189575 0.41230109333992004 0 2
12.925155639648438 5.694902420043945 -1.7195086479187012 0.40891435742378235 0 2
13.073486328125 5.690722465515137 -1.7358458042144775 0.40487435460090637 0 2
13.23104476928711 5.689218521118164 -1.7533787488937378 0.4008259177207947 0 2
13.391855239868164 5.687675476074219 -1.7713046073913574 0.3967691957950592 0 2
13.555986404418945 5.686093807220459 -1.7896381616592407 0.39270469546318054 0 2
13.716845512390137 5.681718826293945 -1.8075109720230103 0.12061376124620438 0 1
13.74227523803711 5.620527267456055 -1.8075398206710815 0.12061191350221634 0 1
13.767440795898438 5.559237957000732 -1.8075684309005737 0.12060994654893875 0 1
13.792304039001465 5.49783182144165 -1.8075971603393555 0.12060799449682236 0 1
13.816923141479492 5.43630838394165 -1.807625651359558 0.12060604989528656 0 1
13.841259002685547 5.374687194824219 -1.8076542615890503 0.12060414254665375 0 1
13.865312576293945 5.312949180603027 -1.807682752609253 0.12060237675905228 0 1
13.889091491699219 5.251093864440918 -1.807711124420166 0.12060055881738663 0 1
13.912616729736328 5.189140319824219 -1.8077392578125 0.12059853971004486 0 1
13.935858726501465 5.127070426940918 -1.807767629623413 0.12059669196605682 0 1
13.958818435668945 5.064921855926514 -1.8077956438064575 0.1205948069691658 0 1
13.981484413146973 5.002636432647705 -1.8078237771987915 0.12059307098388672 0 1
14.003886222839355 4.940273284912109 -1.8078516721725464 0.12059121578931808 0 1
14.026015281677246 4.877812385559082 -1.8078795671463013 0.1205892488360405 0 1
14.047880172729492 4.815253734588623 -1.8079073429107666 0.12058723717927933 0 1
14.069442749023438 4.752577781677246 -1.807935118675232 0.12058545649051666 0 1
14.09072208404541 4.689824104309082 -1.8079628944396973 0.12058357894420624 0 1
14.111708641052246 4.626972675323486 -1.807990550994873 0.12058186531066895 0 1
14.132451057434082 4.564003944396973 -1.8080179691314697 0.12057995051145554 0 1
14.152899742126465 4.5009765625 -1.808045506477356 0.12057802826166153 0 1
14.173056602478027 4.437910079956055 -1.808072805404663 0.12057624757289886 0 1
14.192938804626465 4.374667644500732 -1.8081001043319702 0.12057438492774963 0 1
14.212529182434082 4.311367034912109 -1.8081272840499878 0.12057261914014816 0 1
14.231825828552246 4.247949123382568 -1.8081544637680054 0.12057097256183624 0 1
14.250859260559082 4.184453010559082 -1.8081814050674438 0.1205691397190094 0 1
14.269609451293945 4.120898246765137 -1.8082082271575928 0.1205672174692154 0 1
14.288065910339355 4.057226657867432 -1.8082351684570312 0.1205654889345169 0 1
14.30624008178711 3.993476390838623 -1.8082619905471802 0.12056369334459305 0 1
14.324140548706055 3.9296679496765137 -1.8082886934280396 0.12056185305118561 0 1
14.341728210449219 3.8657615184783936 -1.808315396308899 0.1205601841211319 0 1
14.359052658081055 3.8017578125 -1.8083417415618896 0.12055840343236923 0 1
14.376103401184082 3.7376952171325684 -1.80836820602417 0.12055646628141403 0 1
14.392841339111328 3.673574209213257 -1.8083945512771606 0.12055482715368271 0 1
14.409306526184082 3.6093358993530273 -1.8084207773208618 0.12055306881666183 0 1
14.425458908081055 3.545058488845825 -1.8084471225738525 0.12055139243602753 0 1
14.441356658935547 3.4806835651397705 -1.8084731101989746 0.12054958939552307 0 1
14.456953048706055 3.416269540786743 -1.8084990978240967 0.12054786086082458 0 1
14.47225570678711 3.351757764816284 -1.8085250854492188 0.12054620683193207 0 1
14.487275123596191 3.2872068881988525 -1.8085508346557617 0.12054443359375 0 1
14.5020112991333 3.2225584983825684 -1.8085765838623047 0.12054271250963211 0 1
14.516464233398438 3.157851457595825 -1.808602213859558 0.12054097652435303 0 1
14.53060531616211 3.093066453933716 -1.808627724647522 0.1205393522977829 0 1
14.544462203979492 3.0282421112060547 -1.8086532354354858 0.1205376610159874 0 1
14.558066368103027 2.9633398056030273 -1.8086785078048706 0.12053580582141876 0 1
14.571328163146973 2.898378849029541 -1.808703899383545 0.1205342561006546 0 1
14.58431625366211 2.833378791809082 -1.8087290525436401 0.12053260207176208 0 1
14.597021102905273 2.768300771713257 -1.8087540864944458 0.12053088843822479 0 1
14.609394073486328 2.703261613845825 -1.808779001235962 0.12052919715642929 0 1
14.621513366699219 2.638066291809082 -1.8088040351867676 0.12052755802869797 0 1
14.633339881896973 2.572812557220459 -1.8088287115097046 0.12052591145038605 0 1
14.644892692565918 2.507519483566284 -1.8088533878326416 0.12052413821220398 0 1
14.656123161315918 2.442187547683716 -1.8088781833648682 0.12052261084318161 0 1
14.66707992553711 2.376777172088623 -1.8089025020599365 0.12052096426486969 0 1
14.677734375 2.311328172683716 -1.8089269399642944 0.12051937729120255 0 1
14.688095092773438 2.245839834213257 -1.8089512586593628 0.12051775306463242 0 1
14.698173522949219 2.180292844772339 -1.8089754581451416 0.12051612138748169 0 1
14.707968711853027 2.1147265434265137 -1.8089995384216309 0.120514415204525 0 1
14.717440605163574 2.049082040786743 -1.8090234994888306 0.12051288783550262 0 1
14.726630210876465 1.9833984375 -1.8090474605560303 0.12051136791706085 0 1
14.735527038574219 1.9176757335662842 -1.8090713024139404 0.12050975859165192 0 1
14.744120597839355 1.8519335985183716 -1.8090949058532715 0.12050823867321014 0 1
14.75244140625 1.7861328125 -1.809118628501892 0.12050662934780121 0 1
14.760468482971191 1.720312476158142 -1.8091421127319336 0.1205049455165863 0 1
14.768183708190918 1.6544336080551147 -1.8091654777526855 0.12050341814756393 0 1
14.775605201721191 1.5885350704193115 -1.8091888427734375 0.12050195783376694 0 1
14.782743453979492 1.5225976705551147 -1.8092119693756104 0.1205003410577774 0 1
14.789569854736328 1.4566210508346558 -1.8092352151870728 0.12049887329339981 0 1
14.796113014221191 1.3906445503234863 -1.8092581033706665 0.12049730867147446 0 1
14.802343368530273 1.3245898485183716 -1.8092809915542603 0.12049590796232224 0 1
14.808320045471191 1.2585546970367432 -1.8093037605285645 0.12049423903226852 0 1
14.813974380493164 1.1924608945846558 -1.809326410293579 0.12049274146556854 0 1
14.8193359375 1.1263476610183716 -1.8093490600585938 0.12049121409654617 0 1
14.824384689331055 1.0602929592132568 -1.8093713521957397 0.12048984318971634 0 1
14.829169273376465 0.9941601157188416 -1.8093937635421753 0.12048819661140442 0 1
14.83364200592041 0.9279687404632568 -1.8094160556793213 0.12048671394586563 0 1
14.837801933288574 0.8617773056030273 -1.8094381093978882 0.12048535794019699 0 1
14.841679573059082 0.7955663800239563 -1.809460163116455 0.12048383802175522 0 1
14.845263481140137 0.7293164134025574 -1.8094820976257324 0.12048236280679703 0 1
10.839696884155273 0.4840624928474426 -1.3209667205810547 0.22084608674049377 2899 14
10.710009574890137 0.43037107586860657 -1.3049182891845703 0.9410553574562073 2899 14
10.701425552368164 0.3822070360183716 -1.3036518096923828 0.9419704079627991 2899 14
10.692851066589355 0.33412107825279236 -1.3024120330810547 0.9428665637969971 2899 14
10.684296607971191 0.2861328125 -1.3012036085128784 0.9437433481216431 2899 14
10.675761222839355 0.23824217915534973 -1.3000218868255615 0.9446008801460266 2899 14
10.667255401611328 0.1904296875 -1.2988674640655518 0.9454394578933716 2899 14
10.658759117126465 0.14269530773162842 -1.297743797302246 0.9462589025497437 2899 14
10.652128219604492 0.09505859017372131 -1.296869158744812 0.9436275959014893 2899 14
10.652060508728027 0.04751953110098839 -1.2968233823776245 0.9436614513397217 2899 14
10.65200138092041 -0.0 -1.2968015670776367 0.943676233291626 2899 14
10.651952743530273 -0.047539062798023224 -1.2968086004257202 0.943671464920044 2899 14
10.651894569396973 -0.09507812559604645 -1.296840786933899 0.9436475038528442 2899 14
10.65185546875 -0.1426367163658142 -1.2969008684158325 0.9436041712760925 2899 14
10.651825904846191 -0.19017577171325684 -1.2969861030578613 0.9435417056083679 2899 14
10.651796340942383 -0.2377343624830246 -1.297099232673645 0.9434597492218018 2899 14
10.65176773071289 -0.28529295325279236 -1.2972385883331299 0.9433585405349731 2899 14
10.651630401611328 -0.3328515589237213 -1.2973906993865967 0.9455368518829346 2899 14
10.651318550109863 -0.38044920563697815 -1.2975454330444336 0.9433066248893738 2899 14
10.650976181030273 -0.42802733182907104 -1.2977235317230225 0.9431774020195007 2899 14
10.650614738464355 -0.4756445288658142 -1.297926664352417 0.9430288076400757 2899 14
10.650282859802246 -0.5232617259025574 -1.2981575727462769 0.9428609609603882 2899 14
10.649950981140137 -0.5708202719688416 -1.2984163761138916 0.9426736831665039 2899 14
10.649628639221191 -0.6184765696525574 -1.2987008094787598 0.9424671530723572 2899 14
10.64932632446289 -0.6661523580551147 -1.299011468887329 0.9422414302825928 2899 14
10.64901351928711 -0.7138476371765137 -1.2993505001068115 0.9419963359832764 2899 14
10.65121078491211 -0.7617577910423279 -1.3000189065933228 0.9362180829048157 2899 14
10.659403800964355 -0.8101757764816284 -1.3014494180679321 0.9351898431777954 2899 14
10.66763687133789 -0.8587109446525574 -1.3029093742370605 0.9341421127319336 2899 14
10.675888061523438 -0.9073241949081421 -1.3043975830078125 0.9330760836601257 2899 14
10.684160232543945 -0.9560741782188416 -1.3059170246124268 0.9319905638694763 2899 14
10.692461013793945 -1.0049413442611694 -1.307464838027954 0.9308863878250122 2899 14
10.700780868530273 -1.0539257526397705 -1.3090450763702393 0.9297628998756409 2899 14
10.774540901184082 -1.109765648841858 -1.3186614513397217 0.1736624538898468 2899 14
14.78369140625 -1.5894140005111694 -1.810176968574524 0.12043608725070953 0 1
14.776591300964355 -1.6553906202316284 -1.8101946115493774 0.12043493241071701 0 1
14.769208908081055 -1.7213475704193115 -1.8102123737335205 0.12043368816375732 0 1
14.761513710021973 -1.7872461080551147 -1.810229778289795 0.12043259292840958 0 1
14.753544807434082 -1.8531445264816284 -1.8102471828460693 0.1204313114285469 0 1
14.74526309967041 -1.9189647436141968 -1.8102643489837646 0.12043020874261856 0 1
14.736669540405273 -1.9847655296325684 -1.81028151512146 0.12042923271656036 0 1
14.727811813354492 -2.050546884536743 -1.8102984428405762 0.12042807787656784 0 1
14.71865177154541 -2.116269588470459 -1.8103152513504028 0.12042694538831711 0 1
14.709198951721191 -2.181933641433716 -1.81033194065094 0.12042579054832458 0 1
14.699462890625 -2.2475976943969727 -1.8103485107421875 0.12042463570833206 0 1
14.689403533935547 -2.313105344772339 -1.8103649616241455 0.12042363733053207 0 1
14.414228439331055 -2.3357226848602295 -1.777713418006897 0.14940546452999115 0 2
13.993613243103027 -2.331679582595825 -1.7271076440811157 0.15378321707248688 0 2
13.819902420043945 -2.3662109375 -1.7069557905197144 0.12042037397623062 0 2
13.809306144714355 -2.427870988845825 -1.7069708108901978 0.1204194724559784 0 2
13.798466682434082 -2.489511728286743 -1.7069857120513916 0.12041827291250229 0 2
13.78734302520752 -2.551093578338623 -1.707000494003296 0.12041715532541275 0 2
13.775946617126465 -2.612597703933716 -1.7070151567459106 0.12041612714529037 0 2
13.764238357543945 -2.674082040786743 -1.7070297002792358 0.12041530758142471 0 2
13.752304077148438 -2.735488176345825 -1.7070441246032715 0.12041416764259338 0 2
13.740068435668945 -2.796875 -1.7070584297180176 0.1204131692647934 0 2
13.727558135986328 -2.8581836223602295 -1.7070727348327637 0.12041225284337997 0 2
13.714814186096191 -2.9194531440734863 -1.7070868015289307 0.1204109862446785 0 2
13.701766967773438 -2.980644464492798 -1.7071006298065186 0.12041023373603821 0 2
13.688446998596191 -3.0417773723602295 -1.707114338874817 0.12040920555591583 0 2
13.674853324890137 -3.1028709411621094 -1.7071280479431152 0.12040819972753525 0 2
13.66097640991211 -3.163886547088623 -1.707141637802124 0.12040728330612183 0 2
13.646835327148438 -3.224843740463257 -1.7071551084518433 0.12040627747774124 0 2
13.632402420043945 -3.2857420444488525 -1.7071683406829834 0.12040543556213379 0 2
13.617714881896973 -3.346562385559082 -1.707181692123413 0.12040446698665619 0 2
13.602744102478027 -3.4073240756988525 -1.7071946859359741 0.12040357291698456 0 2
13.587509155273438 -3.468027353286743 -1.7072075605392456 0.12040261924266815 0 2
13.572001457214355 -3.5286717414855957 -1.707220435142517 0.12040166556835175 0 2
13.556220054626465 -3.5892186164855957 -1.7072330713272095 0.12040074169635773 0 2
13.540165901184082 -3.6496875286102295 -1.7072455883026123 0.12039995193481445 0 2
13.52383804321289 -3.710136651992798 -1.7072579860687256 0.12039902806282043 0 2
13.50723648071289 -3.7704687118530273 -1.7072702646255493 0.12039828300476074 0 2
13.490370750427246 -3.830742120742798 -1.7072824239730835 0.12039737403392792 0 2
13.473251342773438 -3.890937328338623 -1.7072945833206177 0.1203964352607727 0 2
13.455839157104492 -3.9509570598602295 -1.7073065042495728 0.12039568275213242 0 2
13.438173294067383 -4.01101541519165 -1.7073181867599487 0.12039469927549362 0 2
13.4202241897583 -4.070956707000732 -1.7073298692703247 0.12039396166801453 0 2
13.40200138092041 -4.130839824676514 -1.7073414325714111 0.12039327621459961 0 2
13.383544921875 -4.190624713897705 -1.707352876663208 0.12039230763912201 0 2
13.364785194396973 -4.250351428985596 -1.7073642015457153 0.12039157748222351 0 2
13.345770835876465 -4.309960842132568 -1.707375168800354 0.12039089947938919 0 2
13.326494216918945 -4.369511604309082 -1.7073861360549927 0.12039005756378174 0 2
13.3069429397583 -4.428964614868164 -1.7073971033096313 0.12038926780223846 0 2
13.287128448486328 -4.488339900970459 -1.707407832145691 0.12038856744766235 0 2
13.267060279846191 -4.547616958618164 -1.707418441772461 0.12038767337799072 0 2
13.246699333190918 -4.606816291809082 -1.7074288129806519 0.12038710713386536 0 2
13.226102828979492 -4.665917873382568 -1.7074391841888428 0.12038619816303253 0 2
13.205214500427246 -4.724921703338623 -1.7074495553970337 0.12038559466600418 0 2
13.184091567993164 -4.783827781677246 -1.7074596881866455 0.12038479000329971 0 2
13.162675857543945 -4.842636585235596 -1.7074695825576782 0.12038417905569077 0 2
13.14101505279541 -4.9013671875 -1.707479476928711 0.12038341909646988 0 2
13.119071960449219 -4.959980487823486 -1.7074891328811646 0.1203828901052475 0 2
13.096884727478027 -5.018496036529541 -1.7074987888336182 0.12038217484951019 0 2
13.074442863464355 -5.07693338394165 -1.7075082063674927 0.12038140743970871 0 2
13.051728248596191 -5.13525390625 -1.707517385482788 0.12038072198629379 0 2
13.028759002685547 -5.193476676940918 -1.707526683807373 0.12038003653287888 0 2
13.005507469177246 -5.251601219177246 -1.7075356245040894 0.12037946283817291 0 2
12.982011795043945 -5.309609413146973 -1.7075445652008057 0.12037888169288635 0 2
12.958271026611328 -5.367519378662109 -1.7075533866882324 0.12037809938192368 0 2
12.93423843383789 -5.425332069396973 -1.70756196975708 0.12037762254476547 0 2
12.909960746765137 -5.483007907867432 -1.7075704336166382 0.1203770786523819 0 2
12.885438919067383 -5.540605545043945 -1.7075788974761963 0.12037632614374161 0 2
12.860644340515137 -5.598105430603027 -1.7075871229171753 0.12037573009729385 0 2
12.835624694824219 -5.655351638793945 -1.7075952291488647 0.12037535011768341 0 2
12.810321807861328 -5.712616920471191 -1.707603096961975 0.12037469446659088 0 2
12.78475570678711 -5.769745826721191 -1.707611083984375 0.12037424743175507 0 2
12.75893497467041 -5.82677698135376 -1.7076187133789062 0.1203736737370491 0 2
12.732871055603027 -5.883691310882568 -1.7076263427734375 0.12037301808595657 0 2
12.70653247833252 -5.940468788146973 -1.7076336145401 0.12037260085344315 0 2
12.679950714111328 -5.997148513793945 -1.7076410055160522 0.12037210911512375 0 2
12.653115272521973 -6.0537109375 -1.7076482772827148 0.12037154287099838 0 2
12.626025199890137 -6.11013650894165 -1.7076553106307983 0.12037105113267899 0 2
12.598671913146973 -6.166425704956055 -1.7076621055603027 0.12037072330713272 0 2
12.571084022521973 -6.222636699676514 -1.7076689004898071 0.12037009000778198 0 2
12.543241500854492 -6.278691291809082 -1.7076754570007324 0.12036968022584915 0 2
12.515146255493164 -6.334628582000732 -1.7076820135116577 0.12036919593811035 0 2
12.65633773803711 -6.477187156677246 -1.7308706045150757 0.12036866694688797 0 0
12.62735366821289 -6.533613204956055 -1.7308769226074219 0.12036826461553574 0 0
12.598114967346191 -6.589941024780273 -1.7308828830718994 0.12036772817373276 0 0
12.568622589111328 -6.64611291885376 -1.7308889627456665 0.12036740779876709 0 0
12.538886070251465 -6.702167987823486 -1.730894923210144 0.12036691606044769 0 0
12.508886337280273 -6.758066177368164 -1.7309008836746216 0.12036661803722382 0 0
12.478632926940918 -6.813847541809082 -1.730906367301941 0.12036626785993576 0 0
12.448163986206055 -6.869511604309082 -1.7309117317199707 0.12036566436290741 0 0
12.417411804199219 -6.925019264221191 -1.730916976928711 0.12036533653736115 0 0
12.386415481567383 -6.980370998382568 -1.7309222221374512 0.12036506086587906 0 0
12.355185508728027 -7.035605430603027 -1.7309273481369019 0.12036468088626862 0 0
12.323700904846191 -7.090703010559082 -1.7309322357177734 0.12036427110433578 0 0
12.291972160339355 -7.14562463760376 -1.730936884880066 0.12036396563053131 0 0
12.259980201721191 -7.200448989868164 -1.7309414148330688 0.12036369740962982 0 0
12.227763175964355 -7.255097389221191 -1.7309461832046509 0.12036336958408356 0 0
12.195292472839355 -7.309531211853027 -1.7309505939483643 0.12036306411027908 0 0
12.16258716583252 -7.363905906677246 -1.730954885482788 0.1203627660870552 0 0
12.129618644714355 -7.418124675750732 -1.7309588193893433 0.1203625351190567 0 0
12.096435546875 -7.472207069396973 -1.7309626340866089 0.12036216259002686 0 0
12.062997817993164 -7.526113033294678 -1.7309664487838745 0.12036190927028656 0 0
12.029306411743164 -7.579902172088623 -1.7309702634811401 0.12036164849996567 0 0
11.995380401611328 -7.633534908294678 -1.7309739589691162 0.12036143243312836 0 0
11.961249351501465 -7.686992168426514 -1.730977177619934 0.12036124616861343 0 0
11.926855087280273 -7.740293025970459 -1.7309801578521729 0.12036106735467911 0 0
11.892216682434082 -7.793476581573486 -1.7309832572937012 0.12036078423261642 0 0
11.857343673706055 -7.846484184265137 -1.73098623752594 0.12036056816577911 0 0
11.822226524353027 -7.899335861206055 -1.7309892177581787 0.12036033719778061 0 0
11.78685474395752 -7.952031135559082 -1.730992078781128 0.12036030739545822 0 0
11.7512788772583 -8.00455093383789 -1.7309945821762085 0.12036003172397614 0 0
11.715458869934082 -8.056933403015137 -1.7309969663619995 0.12035983800888062 0 0
11.679413795471191 -8.109160423278809 -1.7309991121292114 0.12035961449146271 0 0
11.643115043640137 -8.1611909866333 -1.7310009002685547 0.12035953253507614 0 0
11.60659122467041 -8.213066101074219 -1.7310032844543457 0.12035946547985077 0 0
11.569833755493164 -8.264784812927246 -1.731005072593689 0.1203593835234642 0 0
11.532841682434082 -8.316347122192383 -1.7310068607330322 0.12035928666591644 0 0
11.495624542236328 -8.3677339553833 -1.7310080528259277 0.12035917490720749 0 0
11.458183288574219 -8.418964385986328 -1.7310094833374023 0.12035900354385376 0 0
11.42049789428711 -8.470038414001465 -1.7310110330581665 0.1203588917851448 0 0
11.382587432861328 -8.520917892456055 -1.731012225151062 0.12035895138978958 0 0
11.344482421875 -8.571640014648438 -1.7310131788253784 0.12035863846540451 0 0
11.306113243103027 -8.622187614440918 -1.7310140132904053 0.12035860121250153 0 0
11.267539024353027 -8.672558784484863 -1.7310147285461426 0.12035855650901794 0 0
11.228720664978027 -8.722773551940918 -1.7310153245925903 0.12035845220088959 0 0
11.189677238464355 -8.772772789001465 -1.731015920639038 0.12035857886075974 0 0
11.150419235229492 -8.822636604309082 -1.7310161590576172 0.12035851180553436 0 0
11.11098575592041 -8.872323989868164 -1.7310161590576172 0.12035839259624481 0 0
11.071279525756836 -8.921815872192383 -1.7310161590576172 0.12035834789276123 0 0
11.031347274780273 -8.971054077148438 -1.731015682220459 0.120358407497406 0 0
10.991201400756836 -9.02017593383789 -1.7310155630111694 0.12035845965147018 0 0
10.95083999633789 -9.069140434265137 -1.7310153245925903 0.12035852670669556 0 0
10.910253524780273 -9.117910385131836 -1.7310147285461426 0.12035854160785675 0 0
10.8694429397583 -9.16650390625 -1.7310137748718262 0.12035860866308212 0 0
10.8284273147583 -9.214921951293945 -1.7310131788253784 0.12035860121250153 0 0
10.7871675491333 -9.263144493103027 -1.7310118675231934 0.12035880982875824 0 0
10.745732307434082 -9.31119155883789 -1.731011152267456 0.12035882472991943 0 0
10.704052925109863 -9.35904312133789 -1.731009840965271 0.12035900354385376 0 0
10.6621675491333 -9.406718254089355 -1.731008768081665 0.1203591525554657 0 0
10.620078086853027 -9.454179763793945 -1.7310072183609009 0.12035927921533585 0 0
10.577773094177246 -9.501483917236328 -1.7310051918029785 0.12035923451185226 0 0
10.535253524780273 -9.548593521118164 -1.7310030460357666 0.12035935372114182 0 0
10.492528915405273 -9.595507621765137 -1.7310012578964233 0.12035943567752838 0 0
10.449580192565918 -9.642226219177246 -1.73099946975708 0.12035961449146271 0 0
10.406435012817383 -9.688730239868164 -1.730997085571289 0.1203598752617836 0 0
10.363076210021973 -9.735077857971191 -1.7309948205947876 0.12035997956991196 0 0
10.319520950317383 -9.781210899353027 -1.7309921979904175 0.12036018818616867 0 0
10.275800704956055 -9.827167510986328 -1.730989694595337 0.12036024034023285 0 0
10.231825828552246 -9.87289047241211 -1.7309870719909668 0.12036053091287613 0 0
10.187675476074219 -9.918437004089355 -1.730983853340149 0.12036053836345673 0 0
10.143290519714355 -9.963788986206055 -1.730980396270752 0.12036068737506866 0 0
10.098711013793945 -10.008925437927246 -1.730977177619934 0.12036088854074478 0 0
9.556035041809082 9.55599594116211 -1.7016130685806274 0.12487240135669708 0 2
9.598759651184082 9.51351547241211 -1.7016427516937256 0.12487006932497025 0 2
9.64125919342041 9.4707612991333 -1.7016724348068237 0.12486779689788818 0 2
9.68359375 9.4277925491333 -1.7017022371292114 0.12486571818590164 0 2
9.72574234008789 9.384628295898438 -1.70173180103302 0.1248636394739151 0 2
9.767704963684082 9.34130859375 -1.7017614841461182 0.12486132234334946 0 2
9.809453010559082 9.297773361206055 -1.7017910480499268 0.12485924363136292 0 2
9.851015090942383 9.25406265258789 -1.7018206119537354 0.1248571127653122 0 2
9.8923921585083 9.210175514221191 -1.7018502950668335 0.1248549148440361 0 2
9.933564186096191 9.166093826293945 -1.701879858970642 0.1248527243733406 0 2
9.974540710449219 9.121835708618164 -1.7019094228744507 0.12485058605670929 0 2
10.015321731567383 9.077402114868164 -1.7019388675689697 0.12484834343194962 0 2
10.055908203125 9.0327730178833 -1.7019683122634888 0.1248462125658989 0 2
10.096298217773438 8.987968444824219 -1.701997995376587 0.12484396249055862 0 2
10.136474609375 8.942968368530273 -1.7020272016525269 0.12484191358089447 0 2
10.176465034484863 8.89779281616211 -1.702056884765625 0.12483973056077957 0 2
10.216259956359863 8.85244083404541 -1.702086091041565 0.1248374879360199 0 2
10.255829811096191 8.806894302368164 -1.702115535736084 0.12483552098274231 0 2
10.295214653015137 8.761210441589355 -1.7021450996398926 0.12483321130275726 0 2
10.33438491821289 8.71533203125 -1.7021743059158325 0.12483101338148117 0 2
10.3733491897583 8.66927719116211 -1.702203631401062 0.12482891231775284 0 2
10.412109375 8.623046875 -1.7022329568862915 0.1248268336057663 0 2
10.45068359375 8.576621055603027 -1.702262282371521 0.1248246282339096 0 2
10.488984107971191 8.530038833618164 -1.702291488647461 0.12482263147830963 0 2
10.527148246765137 8.483320236206055 -1.7023206949234009 0.12482013553380966 0 2
10.565068244934082 8.436386108398438 -1.7023500204086304 0.12481826543807983 0 2
10.602792739868164 8.389296531677246 -1.7023791074752808 0.12481611222028732 0 2
10.640312194824219 8.342031478881836 -1.7024083137512207 0.12481396645307541 0 2
10.677617073059082 8.294609069824219 -1.702437400817871 0.12481179088354111 0 2
10.714706420898438 8.247031211853027 -1.702466368675232 0.12480959296226501 0 2
10.751582145690918 8.199257850646973 -1.7024953365325928 0.1248076781630516 0 2
10.788261413574219 8.151328086853027 -1.7025245428085327 0.12480540573596954 0 2
10.824697494506836 8.103241920471191 -1.702553391456604 0.12480340898036957 0 2
10.860946655273438 8.054999351501465 -1.7025823593139648 0.12480117380619049 0 2
10.896963119506836 8.006582260131836 -1.7026113271713257 0.12479915469884872 0 2
10.932783126831055 7.9580078125 -1.702640175819397 0.12479688972234726 0 2
10.968368530273438 7.909276962280273 -1.7026690244674683 0.12479490786790848 0 2
11.00374984741211 7.860390663146973 -1.7026978731155396 0.12479265034198761 0 2
11.038896560668945 7.811425685882568 -1.7027267217636108 0.12479060143232346 0 2
11.073837280273438 7.76220703125 -1.7027554512023926 0.12478845566511154 0 2
11.10855484008789 7.712851524353027 -1.7027840614318848 0.12478634715080261 0 2
11.143046379089355 7.663320064544678 -1.7028127908706665 0.12478429824113846 0 2
11.17733383178711 7.613652229309082 -1.7028414011001587 0.12478213012218475 0 2
11.211377143859863 7.563827991485596 -1.7028701305389404 0.12478005886077881 0 2
11.24520492553711 7.513827800750732 -1.7028985023498535 0.12477805465459824 0 2
11.27880859375 7.463691234588623 -1.7029271125793457 0.12477599829435349 0 2
11.31215763092041 7.413417816162109 -1.7029556035995483 0.12477380782365799 0 2
11.345332145690918 7.362987995147705 -1.7029839754104614 0.12477168440818787 0 2
11.37826156616211 7.312382698059082 -1.7030123472213745 0.12476973235607147 0 2
11.410985946655273 7.261679649353027 -1.7030407190322876 0.12476740777492523 0 2
11.44344711303711 7.210800647735596 -1.7030690908432007 0.12476551532745361 0 2
11.475692749023438 7.159765243530273 -1.7030974626541138 0.1247635930776596 0 2
11.5066499710083 7.107929706573486 -1.7029643058776855 0.12476135790348053 0 2
11.538447380065918 7.056621074676514 -1.702992558479309 0.12475931644439697 0 2
11.570019721984863 7.005195140838623 -1.7030205726623535 0.12475712597370148 0 2
11.601357460021973 6.953593730926514 -1.7030487060546875 0.1247551366686821 0 2
11.632460594177246 6.90185546875 -1.703076720237732 0.12475308775901794 0 2
11.663349151611328 6.849999904632568 -1.703104853630066 0.12475097924470901 0 2
11.693984031677246 6.797987937927246 -1.7031327486038208 0.1247490644454956 0 2
11.724404335021973 6.745820045471191 -1.7031606435775757 0.12474700063467026 0 2
11.754579544067383 6.693554401397705 -1.7031885385513306 0.1247449442744255 0 2
11.784530639648438 6.641132831573486 -1.703216314315796 0.12474284321069717 0 2
11.814228057861328 6.588593482971191 -1.7032439708709717 0.12474099546670914 0 2
11.843710899353027 6.53591775894165 -1.703271746635437 0.12473884224891663 0 2
11.87295913696289 6.483085632324219 -1.7032995223999023 0.12473686784505844 0 2
11.901952743530273 6.430156230926514 -1.703326940536499 0.12473490089178085 0 2
11.930731773376465 6.37706995010376 -1.7033545970916748 0.12473279237747192 0 2
11.959277153015137 6.323886394500732 -1.7033822536468506 0.12473063915967941 0 2
11.987567901611328 6.270546913146973 -1.7034096717834473 0.124728724360466 0 2
12.01561450958252 6.21707010269165 -1.7034369707107544 0.12472682446241379 0 2
12.04344654083252 6.163496017456055 -1.7034645080566406 0.12472470104694366 0 2
12.071015357971191 6.10986328125 -1.7034916877746582 0.12472274899482727 0 2
12.098368644714355 6.056015491485596 -1.7035189867019653 0.1247207298874855 0 2
12.125410079956055 6.00206995010376 -1.7035460472106934 0.12471887469291687 0 2
12.152284622192383 5.947988033294678 -1.703573226928711 0.12471672892570496 0 2
12.211405754089355 5.909531116485596 -1.7081475257873535 0.43557119369506836 0 2
12.205273628234863 5.839491844177246 -1.7036272287368774 0.12471278011798859 0 2
12.231396675109863 5.785058498382568 -1.7036542892456055 0.12471089512109756 0 2
12.257294654846191 5.730507850646973 -1.7036813497543335 0.12470878660678864 0 2
12.345770835876465 5.704902172088623 -1.712421178817749 0.4244530200958252 0 2
12.473495483398438 5.696484088897705 -1.726594090461731 0.420771062374115 0 2
12.619159698486328 5.69509744644165 -1.7432198524475098 0.41675788164138794 0 2
12.76766586303711 5.693671703338623 -1.7602089643478394 0.4127357006072998 0 2
12.919120788574219 5.692206859588623 -1.7775667905807495 0.4087051749229431 0 2
13.073534965515137 5.690722465515137 -1.7953027486801147 0.4046671390533447 0 2
13.186386108398438 5.670000076293945 -1.807309865951538 0.12469510734081268 0 1
13.21175765991211 5.611171722412109 -1.807337760925293 0.12469328939914703 0 1
13.236865043640137 5.55224609375 -1.8073656558990479 0.12469135969877243 0 1
13.261728286743164 5.493203163146973 -1.8073937892913818 0.12468935549259186 0 1
13.28628921508789 5.434023380279541 -1.8074215650558472 0.12468768656253815 0 1
13.31063461303711 5.37478494644165 -1.8074493408203125 0.12468551844358444 0 1
13.334696769714355 5.315410137176514 -1.8074768781661987 0.12468359619379044 0 1
13.358495712280273 5.255937576293945 -1.8075045347213745 0.12468163669109344 0 1
13.382020950317383 5.196347713470459 -1.8075321912765503 0.12467976659536362 0 1
13.4052734375 5.136640548706055 -1.807559609413147 0.12467791885137558 0 1
13.428261756896973 5.076855182647705 -1.8075871467590332 0.12467604130506516 0 1
13.4509859085083 5.016933441162109 -1.8076144456863403 0.1246742457151413 0 1
13.473437309265137 4.956953048706055 -1.8076415061950684 0.12467236071825027 0 1
13.495634078979492 4.896835803985596 -1.807668924331665 0.12467047572135925 0 1
13.517539024353027 4.836640357971191 -1.807695984840393 0.12466871738433838 0 1
