ply
format ascii 1.0
element vertex 591
property float32 x
property float32 y
property float32 z
property float32 CosAngle
property uint32 ObjIdx
property uint32 ObjTag
end_header
17.434940338134766 5.976327896118164 -1.555291771888733 0.09204036742448807 0 25
14.531210899353027 4.908593654632568 -1.2942990064620972 0.47082120180130005 0 5
14.60179615020752 4.859980583190918 -1.2986395359039307 0.4692474901676178 0 5
14.672792434692383 4.811015605926514 -1.30303156375885 0.46766552329063416 0 5
14.744237899780273 4.761660099029541 -1.3074777126312256 0.4660758078098297 0 5
14.816171646118164 4.711953163146973 -1.3119738101959229 0.46447810530662537 0 5
14.85433578491211 4.651210784912109 -1.3135253190994263 0.9376600980758667 0 5
14.96126937866211 4.611464977264404 -1.321130633354187 0.461259126663208 0 5
15.0390625 4.562070369720459 -1.326183795928955 0.738662600517273 0 5
15.120702743530273 4.513320446014404 -1.3315954208374023 0.7356592416763306 0 5
15.203065872192383 4.464062213897705 -1.3370834589004517 0.7326411008834839 0 5
15.286112785339355 4.414394378662109 -1.3426400423049927 0.7296090126037598 0 5
15.369823455810547 4.364375114440918 -1.3482695817947388 0.7265628576278687 0 5
15.454257011413574 4.313984394073486 -1.3539724349975586 0.7235020399093628 0 5
15.540702819824219 4.263398170471191 -1.3598641157150269 0.7024152278900146 0 5
15.627948760986328 4.212421894073486 -1.365842580795288 0.6993406414985657 0 5
15.715995788574219 4.161054611206055 -1.3719042539596558 0.6962512135505676 0 5
15.804862976074219 4.109179496765137 -1.3780462741851807 0.6931486129760742 0 5
15.894550323486328 4.056855201721191 -1.3842720985412598 0.6900309324264526 0 5
15.997499465942383 4.007187366485596 -1.3916677236557007 0.28645047545433044 0 5
16.104354858398438 3.9576170444488525 -1.399407982826233 0.28486543893814087 0 5
16.212421417236328 3.9076170921325684 -1.4072729349136353 0.28327345848083496 0 5
16.321855545043945 3.85699200630188 -1.415265440940857 0.28167420625686646 0 5
18.289081573486328 4.235800743103027 -1.584187626838684 0.09036147594451904 0 25
18.322967529296875 4.157617092132568 -1.5854971408843994 0.09028684347867966 0 25
18.356504440307617 4.079160213470459 -1.586810827255249 0.09021223336458206 0 25
18.38980484008789 4.000507831573486 -1.588128924369812 0.09013719111680984 0 25
18.42281150817871 3.921699047088623 -1.589451551437378 0.09006231278181076 0 25
18.45552635192871 3.842656135559082 -1.590778112411499 0.08998706191778183 0 25
18.48792839050293 3.763359308242798 -1.5921090841293335 0.08991189301013947 0 25
18.520097732543945 3.6839451789855957 -1.5934442281723022 0.0898364707827568 0 25
17.234375 3.348281145095825 -1.4815304279327393 0.43451929092407227 0 5
17.218280792236328 3.265507698059082 -1.4788775444030762 0.8927066326141357 0 5
18.614727020263672 3.4443750381469727 -1.597475528717041 0.08960981667041779 0 25
18.64566421508789 3.364140510559082 -1.5988280773162842 0.08953410387039185 0 25
18.676328659057617 3.2836718559265137 -1.6001849174499512 0.08945798873901367 0 25
18.7066593170166 3.2029685974121094 -1.6015456914901733 0.08938217908143997 0 25
18.73677635192871 3.122148275375366 -1.6029107570648193 0.08930592238903046 0 25
18.766483306884766 3.0410547256469727 -1.6042803525924683 0.08922984451055527 0 25
18.795976638793945 2.959843635559082 -1.6056536436080933 0.08915342390537262 0 25
18.82515525817871 2.87841796875 -1.607031226158142 0.08907699584960938 0 25
18.85396385192871 2.796757698059082 -1.6084131002426147 0.08900053799152374 0 25
18.882537841796875 2.7149412631988525 -1.609798550605774 0.0889238566160202 0 25
18.91077995300293 2.632929563522339 -1.6111886501312256 0.08884713798761368 0 25
18.938730239868164 2.5507421493530273 -1.6125823259353638 0.08877027034759521 0 25
18.966327667236328 2.468320369720459 -1.6139812469482422 0.08869336545467377 0 25
18.99365234375 2.3857030868530273 -1.615383267402649 0.08861641585826874 0 25
18.986112594604492 2.298710823059082 -1.6138558387756348 0.08853933960199356 0 2
19.012752532958984 2.215878963470459 -1.6152642965316772 0.08846220374107361 0 2
19.039119720458984 2.1329100131988525 -1.6166759729385376 0.08838488906621933 0 2
19.06511688232422 2.0497264862060547 -1.6180920600891113 0.08830758184194565 0 2
19.0908203125 1.9663671255111694 -1.6195123195648193 0.08823002129793167 0 2
19.11617088317871 1.8828125 -1.6209362745285034 0.08815263211727142 0 2
19.1412296295166 1.7990233898162842 -1.6223647594451904 0.0880749449133873 0 2
19.166015625 1.71511709690094 -1.6237967014312744 0.08799725025892258 0 2
19.190370559692383 1.6310546398162842 -1.625232458114624 0.08791952580213547 0 2
19.21451187133789 1.5467967987060547 -1.626672625541687 0.08784174174070358 0 2
19.23824119567871 1.462304711341858 -1.628117322921753 0.08776392787694931 0 2
19.26171875 1.3776757717132568 -1.6295651197433472 0.08768582344055176 0 2
19.28484344482422 1.2928515672683716 -1.6310170888900757 0.08760780096054077 0 2
19.3076171875 1.2078124284744263 -1.632473111152649 0.08752970397472382 0 2
19.330078125 1.1226953268051147 -1.633932113647461 0.08745154738426208 0 2
19.35222625732422 1.0373437404632568 -1.6353957653045654 0.08737310022115707 0 2
19.374061584472656 0.9518359303474426 -1.636863350868225 0.08729486912488937 0 2
19.395526885986328 0.8661327958106995 -1.6383342742919922 0.08721636235713959 0 2
19.41666030883789 0.7802734375 -1.639809489250183 0.08713801950216293 0 2
19.437402725219727 0.6942187547683716 -1.6412889957427979 0.0870596393942833 0 2
19.457929611206055 0.6080468893051147 -1.6427712440490723 0.08698097616434097 0 2
19.478046417236328 0.5216405987739563 -1.6442580223083496 0.08690225332975388 0 2
19.497793197631836 0.43513670563697815 -1.6457479000091553 0.0868237167596817 0 2
19.517303466796875 0.3484765589237213 -1.647241473197937 0.08674480020999908 0 2
19.536367416381836 0.26158201694488525 -1.6487395763397217 0.08666607737541199 0 2
19.555156707763672 0.17457030713558197 -1.6502413749694824 0.08658723533153534 0 2
19.573593139648438 0.08738280832767487 -1.6517455577850342 0.08650828897953033 0 2
19.591678619384766 3.9062499126885086e-05 -1.6532546281814575 0.0864294171333313 0 2
19.609394073486328 -0.08749999850988388 -1.654767394065857 0.08635028451681137 0 2
19.626718521118164 -0.17515625059604645 -1.6562834978103638 0.08627140522003174 0 2
19.643808364868164 -0.26298826932907104 -1.6578030586242676 0.08619222790002823 0 2
19.66046905517578 -0.3509765565395355 -1.6593260765075684 0.0861130878329277 0 2
19.676776885986328 -0.4390820264816284 -1.6608532667160034 0.08603402227163315 0 2
19.692752838134766 -0.52734375 -1.6623834371566772 0.08595480769872665 0 2
19.708377838134766 -0.6157812476158142 -1.6639175415039062 0.08587558567523956 0 2
19.723651885986328 -0.7044140696525574 -1.6654555797576904 0.08579626679420471 0 2
19.738534927368164 -0.793164074420929 -1.666996717453003 0.08571705967187881 0 2
19.75310516357422 -0.8820507526397705 -1.6685409545898438 0.08563772588968277 0 2
19.767303466796875 -0.9710937142372131 -1.6700884103775024 0.08555824309587479 0 2
19.78107452392578 -1.0602734088897705 -1.6716406345367432 0.08547890186309814 0 2
19.79460906982422 -1.1496093273162842 -1.6731951236724854 0.08539942651987076 0 2
19.807674407958984 -1.2390819787979126 -1.6747534275054932 0.08531997352838516 0 2
19.820409774780273 -1.328710913658142 -1.6763153076171875 0.08524048328399658 0 2
19.83283233642578 -1.4184765815734863 -1.6778801679611206 0.08516091853380203 0 2
19.844823837280273 -1.50830078125 -1.6794488430023193 0.08508136123418808 0 2
19.856464385986328 -1.5983984470367432 -1.6810204982757568 0.0850018784403801 0 2
19.867694854736328 -1.6885546445846558 -1.6825957298278809 0.08492235839366913 0 2
19.878652572631836 -1.7788671255111694 -1.6841741800308228 0.08484254777431488 0 2
19.889141082763672 -1.8692967891693115 -1.6857556104660034 0.08476313203573227 0 2
19.899276733398438 -1.9598631858825684 -1.6873406171798706 0.08468343317508698 0 2
19.909082412719727 -2.0505664348602295 -1.6889281272888184 0.08460376411676407 0 2
19.918495178222656 -2.141425848007202 -1.69051992893219 0.08452410250902176 0 2
19.927459716796875 -2.232421875 -1.692114233970642 0.08444458246231079 0 2
19.9361515045166 -2.323496103286743 -1.6937121152877808 0.08436493575572968 0 2
19.944414138793945 -2.414726495742798 -1.695312738418579 0.08428514748811722 0 2
19.9522647857666 -2.506054639816284 -1.6969164609909058 0.08420556783676147 0 2
19.95976448059082 -2.597538948059082 -1.6985238790512085 0.08412597328424454 0 2
19.966894149780273 -2.689101457595825 -1.7001336812973022 0.08404627442359924 0 2
19.9736328125 -2.7808592319488525 -1.7017470598220825 0.08396653831005096 0 2
19.97998046875 -2.872695207595825 -1.7033629417419434 0.08388695120811462 0 2
20.051836013793945 -2.974375009536743 -1.710603952407837 0.3841482400894165 0 2
20.250917434692383 -3.096328020095825 -1.7287487983703613 0.38011687994003296 0 2
20.454315185546875 -3.2209179401397705 -1.7473223209381104 0.3760761320590973 0 2
20.665897369384766 -3.3487889766693115 -1.7666534185409546 0.36252301931381226 0 2
20.88945198059082 -3.4807422161102295 -1.7870757579803467 0.3583805561065674 0 2
21.118242263793945 -3.61578106880188 -1.8080084323883057 0.35423076152801514 0 2
21.22767448425293 -3.732128858566284 -1.818785309791565 0.08332934975624084 0 1
21.231054306030273 -3.830449104309082 -1.8205236196517944 0.08324982225894928 0 1
21.234081268310547 -3.9289257526397705 -1.822265625 0.08317016065120697 0 1
21.23661994934082 -4.027499675750732 -1.8240102529525757 0.08309078961610794 0 1
21.23876953125 -4.126132488250732 -1.8257577419281006 0.083011195063591 0 1
21.240488052368164 -4.224960803985596 -1.8275084495544434 0.08293168246746063 0 1
21.241777420043945 -4.323867321014404 -1.8292620182037354 0.08285213261842728 0 1
21.242656707763672 -4.422812461853027 -1.831018328666687 0.08277270942926407 0 1
21.243045806884766 -4.521953105926514 -1.8327773809432983 0.08269333839416504 0 1
21.24312400817871 -4.62109375 -1.8345385789871216 0.08261382579803467 0 1
21.24267578125 -4.720370769500732 -1.8363037109375 0.08253448456525803 0 1
17.921913146972656 -4.066504001617432 -1.5507946014404297 0.913898766040802 2872 18
17.87728500366211 -4.140351295471191 -1.5485161542892456 0.9152424931526184 2872 18
18.115116119384766 -4.280663967132568 -1.5707567930221558 0.29595711827278137 2872 18
18.310527801513672 -4.413241863250732 -1.5893911123275757 0.839313268661499 2872 18
18.637617111206055 -4.580117225646973 -1.6195452213287354 0.46537259221076965 2872 18
18.603729248046875 -4.659921646118164 -1.6183984279632568 0.2923509478569031 2872 18
18.998144149780273 -4.84890604019165 -1.6545662879943848 0.9535608887672424 2872 18
18.954315185546875 -4.927988052368164 -1.6526446342468262 0.27609795331954956 2872 18
19.464080810546875 -5.1533203125 -1.6990792751312256 0.2703929543495178 2872 18
19.75357437133789 -5.324394226074219 -1.7264117002487183 0.2661122679710388 2872 18
21.209257125854492 -5.818418025970459 -1.8558862209320068 0.08166364580392838 0 1
21.20357322692871 -5.918788909912109 -1.8576818704605103 0.08158466964960098 0 1
21.19744110107422 -6.019140720367432 -1.8594796657562256 0.08150582760572433 0 1
21.19087791442871 -6.119589805603027 -1.8612788915634155 0.08142697066068649 0 1
21.183847427368164 -6.220077991485596 -1.863080382347107 0.08134821057319641 0 1
21.176366806030273 -6.320663928985596 -1.8648852109909058 0.08126944303512573 0 1
21.16841697692871 -6.421328067779541 -1.8666918277740479 0.08119087666273117 0 1
21.160058975219727 -6.522011756896973 -1.8685003519058228 0.0811123475432396 0 1
21.151229858398438 -6.622812271118164 -1.8703114986419678 0.08103369176387787 0 1
21.141971588134766 -6.723711013793945 -1.8721249103546143 0.0809551477432251 0 1
21.132205963134766 -6.824570178985596 -1.8739395141601562 0.08087679743766785 0 1
21.121952056884766 -6.925448894500732 -1.8757561445236206 0.08079855889081955 0 1
21.111328125 -7.026464462280273 -1.8775752782821655 0.0807201936841011 0 1
21.100175857543945 -7.127500057220459 -1.879396915435791 0.08064203709363937 0 1
21.088613510131836 -7.228612899780273 -1.8812201023101807 0.08056387305259705 0 1
21.076562881469727 -7.329765319824219 -1.883044958114624 0.0804857686161995 0 1
21.064022064208984 -7.43093729019165 -1.8848718404769897 0.08040786534547806 0 1
21.05109405517578 -7.532187461853027 -1.886700987815857 0.0803297758102417 0 1
21.037654876708984 -7.63341760635376 -1.8885304927825928 0.08025208860635757 0 1
21.023788452148438 -7.734745979309082 -1.8903636932373047 0.08017411828041077 0 1
21.009374618530273 -7.83605432510376 -1.8921968936920166 0.08009655028581619 0 1
20.994569778442383 -7.937460899353027 -1.8940328359603882 0.08001882582902908 0 1
20.979257583618164 -8.038827896118164 -1.8958699703216553 0.07994135469198227 0 1
20.96355438232422 -8.140233993530273 -1.8977086544036865 0.07986374199390411 0 1
20.947284698486328 -8.241679191589355 -1.8995492458343506 0.07978640496730804 0 1
20.930585861206055 -8.343202590942383 -1.901391863822937 0.07970906794071198 0 1
20.91341781616211 -8.444647789001465 -1.903234839439392 0.07963191717863083 0 1
20.895742416381836 -8.546210289001465 -1.905079960823059 0.07955478131771088 0 1
20.87761688232422 -8.647695541381836 -1.906925916671753 0.07947779446840286 0 1
20.85902214050293 -8.749258041381836 -1.9087737798690796 0.07940076291561127 0 1
20.839921951293945 -8.850839614868164 -1.9106230735778809 0.07932402938604355 0 1
20.820369720458984 -8.952422142028809 -1.9124736785888672 0.07924725115299225 0 1
20.800312042236328 -9.054003715515137 -1.9143248796463013 0.0791705921292305 0 1
20.779804229736328 -9.155585289001465 -1.9161782264709473 0.0790940597653389 0 1
20.7587890625 -9.257147789001465 -1.9180315732955933 0.07901765406131744 0 1
20.737323760986328 -9.35873031616211 -1.9198873043060303 0.0789412409067154 0 1
20.715351104736328 -9.460311889648438 -1.9217437505722046 0.07886507362127304 0 1
20.692949295043945 -9.56191349029541 -1.9236010313034058 0.07878877967596054 0 1
20.669979095458984 -9.663515090942383 -1.925459861755371 0.07871273905038834 0 1
20.646562576293945 -9.76503849029541 -1.9273192882537842 0.07863691449165344 0 1
20.62271499633789 -9.866640090942383 -1.9291796684265137 0.0785609632730484 0 1
20.59830093383789 -9.968085289001465 -1.9310396909713745 0.07848536223173141 0 1
20.57341766357422 -10.069647789001465 -1.932902455329895 0.0784098282456398 0 1
20.548086166381836 -10.171171188354492 -1.9347655773162842 0.07833423465490341 0 1
20.522226333618164 -10.27261734008789 -1.936629295349121 0.07825887948274612 0 1
20.49591827392578 -10.3740816116333 -1.938493013381958 0.07818352431058884 0 1
20.46906280517578 -10.475546836853027 -1.9403588771820068 0.07810840010643005 0 1
20.44173812866211 -10.576913833618164 -1.9422240257263184 0.07803340256214142 0 1
20.413965225219727 -10.678300857543945 -1.9440908432006836 0.07795843482017517 0 1
20.385644912719727 -10.77962875366211 -1.9459573030471802 0.07788367569446564 0 1
20.356874465942383 -10.880898475646973 -1.9478243589401245 0.07780902087688446 0 1
20.327577590942383 -10.982187271118164 -1.9496923685073853 0.07773451507091522 0 1
20.297832489013672 -11.083358764648438 -1.951560616493225 0.07766000926494598 0 1
20.26753807067871 -11.1845703125 -1.9534295797348022 0.07758572697639465 0 1
20.236719131469727 -11.285663604736328 -1.9552980661392212 0.07751169055700302 0 1
20.205469131469727 -11.38671875 -1.9571672677993774 0.07743765413761139 0 1
20.173709869384766 -11.487772941589355 -1.9590368270874023 0.07736369222402573 0 1
20.141464233398438 -11.58871078491211 -1.9609063863754272 0.07728990912437439 0 1
20.10869026184082 -11.68960952758789 -1.9627758264541626 0.07721635699272156 0 1
20.075448989868164 -11.790468215942383 -1.9646456241607666 0.0771428719162941 0 1
20.04167938232422 -11.891249656677246 -1.9665160179138184 0.07706955075263977 0 1
20.007421493530273 -11.991952896118164 -1.9683855772018433 0.07699631154537201 0 1
19.97265625 -12.092557907104492 -1.9702553749084473 0.07692325115203857 0 1
19.937421798706055 -12.193124771118164 -1.9721245765686035 0.0768502801656723 0 1
18.76156234741211 -11.5894136428833 -1.8609139919281006 0.07677755504846573 0 2
18.72738265991211 -11.684101104736328 -1.8626763820648193 0.07670488208532333 0 2
18.692752838134766 -11.778691291809082 -1.864438772201538 0.0766322985291481 0 2
18.65755844116211 -11.873164176940918 -1.8661996126174927 0.0765601396560669 0 2
18.621973037719727 -11.967577934265137 -1.8679614067077637 0.07648785412311554 0 2
18.58589744567871 -12.061933517456055 -1.869722843170166 0.07641573995351791 0 2
18.549335479736328 -12.156171798706055 -1.8714834451675415 0.07634390890598297 0 2
18.5123233795166 -12.250370979309082 -1.8732433319091797 0.0762721449136734 0 2
18.474803924560547 -12.344433784484863 -1.8750035762786865 0.07620057463645935 0 2
18.436796188354492 -12.43837833404541 -1.87676203250885 0.07612912356853485 0 2
18.398359298706055 -12.532304763793945 -1.8785210847854614 0.07605782896280289 0 2
18.359375 -12.626093864440918 -1.8802785873413086 0.07598685473203659 0 2
18.3199405670166 -12.7197265625 -1.882035732269287 0.07591591775417328 0 2
18.280057907104492 -12.81332015991211 -1.8837924003601074 0.07584507018327713 0 2
10.983339309692383 -7.771992206573486 -1.135406494140625 0.10457612574100494 0 6
10.835331916809082 -7.740117073059082 -1.1236742734909058 0.8504566550254822 0 6
10.813163757324219 -7.79736328125 -1.1249706745147705 0.9929627180099487 0 6
10.774980545043945 -7.843144416809082 -1.1246289014816284 0.9308487176895142 0 6
18.0733585357666 -13.279491424560547 -1.8925615549087524 0.07549367100000381 0 2
18.030624389648438 -13.372421264648438 -1.8943129777908325 0.07542377710342407 0 2
17.987342834472656 -13.465155601501465 -1.8960626125335693 0.07535425573587418 0 2
17.943613052368164 -13.55777359008789 -1.8978112936019897 0.07528481632471085 0 2
17.899394989013672 -13.650273323059082 -1.899558663368225 0.07521551102399826 0 2
17.854705810546875 -13.742616653442383 -1.901304841041565 0.07514646649360657 0 2
17.809551239013672 -13.83486270904541 -1.9030495882034302 0.0750776156783104 0 2
17.763906478881836 -13.92691421508789 -1.904793381690979 0.0750088095664978 0 2
17.71773338317871 -14.018905639648438 -1.9065358638763428 0.07494033128023148 0 2
17.671133041381836 -14.110663414001465 -1.9082766771316528 0.0748719871044159 0 2
17.6240234375 -14.202342987060547 -1.9100158214569092 0.07480375468730927 0 2
17.57646369934082 -14.293828010559082 -1.911753535270691 0.07473575323820114 0 2
17.528398513793945 -14.385194778442383 -1.9134899377822876 0.07466796785593033 0 2
17.479862213134766 -14.476366996765137 -1.915224313735962 0.07460035383701324 0 2
17.430877685546875 -14.567401885986328 -1.9169570207595825 0.07453282177448273 0 2
17.381366729736328 -14.658242225646973 -1.9186880588531494 0.07446566224098206 0 2
17.33136749267578 -14.748906135559082 -1.9204168319702148 0.07439862191677094 0 2
13.656991958618164 -11.7275390625 -1.5190584659576416 0.974505603313446 0 6
13.602910041809082 -11.78695297241211 -1.5188796520233154 0.8382943868637085 0 6
17.17855453491211 -15.019999504089355 -1.9255934953689575 0.07419855892658234 0 2
17.126659393310547 -15.110018730163574 -1.9273149967193604 0.07413232326507568 0 2
17.074277877807617 -15.199843406677246 -1.9290341138839722 0.07406623661518097 0 2
17.254276275634766 -15.498671531677246 -1.9571707248687744 0.07400063425302505 0 0
17.200214385986328 -15.589316368103027 -1.9589083194732666 0.07393503189086914 0 0
17.14566421508789 -15.679804801940918 -1.9606454372406006 0.0738695040345192 0 0
17.090604782104492 -15.770116806030273 -1.9623790979385376 0.07380427420139313 0 0
17.035078048706055 -15.86019515991211 -1.9641107320785522 0.07373922318220139 0 0
16.979042053222656 -15.950057983398438 -1.9658397436141968 0.07367444783449173 0 0
16.922576904296875 -16.039764404296875 -1.9675668478012085 0.07360964268445969 0 0
16.86556625366211 -16.12919807434082 -1.9692901372909546 0.07354535162448883 0 0
16.808143615722656 -16.218496322631836 -1.9710118770599365 0.07348106801509857 0 0
16.75017547607422 -16.30757713317871 -1.9727306365966797 0.07341703027486801 0 0
16.69173812866211 -16.396406173706055 -1.9744470119476318 0.07335320860147476 0 0
16.632831573486328 -16.48503875732422 -1.9761608839035034 0.07328957319259644 0 0
11.716933250427246 11.71695327758789 -1.4668456315994263 0.10233841836452484 0 25
11.77464771270752 11.67007827758789 -1.4675414562225342 0.10229004919528961 0 25
11.832284927368164 11.62294864654541 -1.4682427644729614 0.10224127769470215 0 25
11.889765739440918 11.57558536529541 -1.4689477682113647 0.10219215601682663 0 25
11.947089195251465 11.528007507324219 -1.4696569442749023 0.10214266180992126 0 25
12.004218101501465 11.480195045471191 -1.4703723192214966 0.10209307819604874 0 25
12.061230659484863 11.43203067779541 -1.471091628074646 0.10204308480024338 0 25
12.118046760559082 11.383729934692383 -1.4718157052993774 0.10199302434921265 0 25
12.174745559692383 11.335136413574219 -1.4725451469421387 0.10194255411624908 0 25
12.231307983398438 11.28628921508789 -1.473278522491455 0.10189174860715866 0 25
12.28775405883789 11.237245559692383 -1.4740160703659058 0.10184057056903839 0 25
12.343964576721191 11.187910079956055 -1.4747592210769653 0.10178938508033752 0 25
12.400019645690918 11.138398170471191 -1.4755065441131592 0.1017378643155098 0 25
12.45595645904541 11.088574409484863 -1.4762591123580933 0.10168596357107162 0 25
12.511757850646973 11.038554191589355 -1.4770156145095825 0.10163390636444092 0 25
12.567323684692383 10.988261222839355 -1.4777777194976807 0.10158152878284454 0 25
12.622831344604492 10.937753677368164 -1.4785434007644653 0.10152888298034668 0 25
12.678144454956055 10.886953353881836 -1.479315161705017 0.10147595405578613 0 25
12.73324203491211 10.8359956741333 -1.4800900220870972 0.10142271220684052 0 25
12.788222312927246 10.7847261428833 -1.4808703660964966 0.10136917978525162 0 25
12.842967987060547 10.73324203491211 -1.481655240058899 0.10131556540727615 0 25
12.897636413574219 10.68148422241211 -1.4824450016021729 0.1012616977095604 0 25
12.952109336853027 10.629530906677246 -1.4832390546798706 0.10120741277933121 0 25
13.006386756896973 10.577323913574219 -1.4840383529663086 0.10115303844213486 0 25
13.060526847839355 10.524882316589355 -1.4848419427871704 0.10109825432300568 0 25
13.114511489868164 10.472187042236328 -1.4856503009796143 0.10104325413703918 0 25
13.16830062866211 10.41927719116211 -1.486462950706482 0.1009879931807518 0 25
13.22201156616211 10.366151809692383 -1.4872804880142212 0.10093231499195099 0 25
13.275409698486328 10.312734603881836 -1.4881030321121216 0.10087667405605316 0 25
13.328710556030273 10.259061813354492 -1.4889297485351562 0.1008206456899643 0 25
13.381796836853027 10.205156326293945 -1.4897613525390625 0.10076435655355453 0 25
13.43480396270752 10.15103530883789 -1.4905974864959717 0.10070779919624329 0 25
10.076171875 7.54296875 -1.114216923713684 0.7062878012657166 0 5
10.085390090942383 7.479863166809082 -1.111538052558899 0.994892954826355 0 5
10.144902229309082 7.4541015625 -1.114404320716858 0.6968522071838379 0 5
13.644784927368164 9.9321870803833 -1.493988275527954 0.10047925263643265 0 25
13.696874618530273 9.876874923706055 -1.4948474168777466 0.10042132437229156 0 25
13.748729705810547 9.821328163146973 -1.4957122802734375 0.10036344081163406 0 25
13.800410270690918 9.765546798706055 -1.4965804815292358 0.10030527412891388 0 25
13.851972579956055 9.709511756896973 -1.4974533319473267 0.10024663805961609 0 25
13.903300285339355 9.653242111206055 -1.4983313083648682 0.10018792748451233 0 25
13.954452514648438 9.596757888793945 -1.4992138147354126 0.10012895613908768 0 25
14.005410194396973 9.5400390625 -1.5001009702682495 0.10006982088088989 0 25
14.056171417236328 9.483105659484863 -1.5009926557540894 0.10001033544540405 0 25
14.106816291809082 9.425917625427246 -1.501888394355774 0.09995053708553314 0 25
14.157187461853027 9.368437767028809 -1.5027896165847778 0.09989073872566223 0 25
14.207402229309082 9.310820579528809 -1.503695011138916 0.09983061999082565 0 25
14.257441520690918 9.252890586853027 -1.5046054124832153 0.09977017343044281 0 25
14.30728530883789 9.194765090942383 -1.5055193901062012 0.09970951080322266 0 25
14.356972694396973 9.13638687133789 -1.506439208984375 0.09964867681264877 0 25
14.406425476074219 9.077812194824219 -1.5073626041412354 0.0995875671505928 0 25
14.455663681030273 9.019022941589355 -1.5082910060882568 0.09952622652053833 0 25
14.504745483398438 8.9599609375 -1.509224534034729 0.09946486353874207 0 25
14.553632736206055 8.900683403015137 -1.5101617574691772 0.099403016269207 0 25
14.60228443145752 8.841132164001465 -1.5111043453216553 0.09934111684560776 0 25
14.650702476501465 8.78140640258789 -1.512050747871399 0.0992790088057518 0 25
14.699081420898438 8.721386909484863 -1.5130020380020142 0.09921643882989883 0 25
14.7471284866333 8.661171913146973 -1.5139577388763428 0.09915388375520706 0 25
14.795019149780273 8.60074234008789 -1.5149182081222534 0.09909097850322723 0 25
14.84267520904541 8.540078163146973 -1.5158830881118774 0.09902802854776382 0 25
14.890175819396973 8.479140281677246 -1.5168529748916626 0.09896466881036758 0 25
14.937440872192383 8.418007850646973 -1.517826795578003 0.09890107065439224 0 25
14.984530448913574 8.356698989868164 -1.518804907798767 0.09883735328912735 0 25
15.031425476074219 8.29507827758789 -1.519788146018982 0.09877348691225052 0 25
15.07802677154541 8.233281135559082 -1.5207760334014893 0.0987093523144722 0 25
15.124472618103027 8.171210289001465 -1.5217684507369995 0.09864506125450134 0 25
15.17074203491211 8.108983993530273 -1.5227645635604858 0.09858031570911407 0 25
15.216815948486328 8.046464920043945 -1.5237661600112915 0.09851562976837158 0 25
15.26259708404541 7.983788967132568 -1.5247713327407837 0.09845057874917984 0 25
15.308183670043945 7.920800685882568 -1.5257818698883057 0.0983855202794075 0 25
15.353612899780273 7.857636451721191 -1.526796579360962 0.09832000732421875 0 25
15.398788452148438 7.794198989868164 -1.5278161764144897 0.09825452417135239 0 25
15.443730354309082 7.73058557510376 -1.5288397073745728 0.09818872809410095 0 25
15.488534927368164 7.666757583618164 -1.5298675298690796 0.09812275320291519 0 25
12.449198722839355 6.093320369720459 -1.2269738912582397 0.9769655466079712 0 5
12.503768920898438 6.051034927368164 -1.2296643257141113 0.556088387966156 0 5
15.621464729309082 7.473945140838623 -1.5329785346984863 0.09792347997426987 0 25
15.66537094116211 7.409140586853027 -1.5340251922607422 0.09785677492618561 0 25
15.708984375 7.344257831573486 -1.5350756645202637 0.09778989106416702 0 25
15.752460479736328 7.279062271118164 -1.5361303091049194 0.09772256016731262 0 25
15.795682907104492 7.213671684265137 -1.537189245223999 0.0976552739739418 0 25
15.838632583618164 7.148085594177246 -1.5382534265518188 0.09758783876895905 0 25
15.881425857543945 7.082226276397705 -1.5393218994140625 0.09752000123262405 0 25
15.923945426940918 7.016171932220459 -1.5403945446014404 0.0974520668387413 0 25
15.966249465942383 6.949921607971191 -1.5414714813232422 0.09738394618034363 0 25
16.008338928222656 6.88341760635376 -1.5425530672073364 0.09731580317020416 0 25
16.05013656616211 6.816699028015137 -1.5436391830444336 0.0972474068403244 0 25
13.36181640625 5.60460901260376 -1.2826650142669678 0.49820753931999207 0 5
13.425487518310547 5.561093807220459 -1.2863891124725342 0.49676549434661865 0 5
13.489550590515137 5.517187595367432 -1.290157437324524 0.4953147768974304 0 5
13.554003715515137 5.473085880279541 -1.293967843055725 0.4938552975654602 0 5
13.618788719177246 5.428671836853027 -1.2978267669677734 0.4923880696296692 0 5
13.683886528015137 5.384003639221191 -1.301727533340454 0.4909122884273529 0 5
13.749296188354492 5.339023113250732 -1.3056756258010864 0.48942846059799194 0 5
13.815155982971191 5.293769359588623 -1.3096675872802734 0.4879359006881714 0 5
13.881288528442383 5.248183250427246 -1.3137081861495972 0.48643532395362854 0 5
9.720878601074219 3.6257030963897705 -0.918426513671875 0.989884614944458 2771 6
9.74853515625 3.586542844772339 -0.9195202589035034 0.770659863948822 2771 6
14.100800514221191 5.11648416519165 -1.327878713607788 0.7736145853996277 0 5
14.175253868103027 5.072031021118164 -1.3327447175979614 0.7707917094230652 0 5
14.250253677368164 5.027226448059082 -1.3376693725585938 0.7679524421691895 0 5
14.325761795043945 4.982148170471191 -1.3426584005355835 0.7650982737541199 0 5
14.402362823486328 4.936816215515137 -1.3477587699890137 0.7432083487510681 0 5
14.480175018310547 4.89138650894165 -1.3529831171035767 0.7403390407562256 0 5
14.558573722839355 4.845585823059082 -1.3582763671875 0.7374542355537415 0 5
14.63759708404541 4.799452781677246 -1.3636400699615479 0.73455411195755 0 5
14.717265129089355 4.7529296875 -1.3690727949142456 0.7316392064094543 0 5
14.797577857971191 4.706035137176514 -1.3745757341384888 0.7287099361419678 0 5
14.85521411895752 4.651484489440918 -1.3779819011688232 0.9372748136520386 0 5
14.980917930603027 4.617578029632568 -1.387722134590149 0.30124175548553467 0 5
15.076308250427246 4.573398113250732 -1.3946486711502075 0.29974520206451416 0 5
15.172675132751465 4.528789043426514 -1.401684284210205 0.2982412278652191 0 5
17.053924560546875 5.007538795471191 -1.573400855064392 0.09540794044733047 0 25
17.08919906616211 4.935156345367432 -1.5746031999588013 0.09533488750457764 0 25
17.12415885925293 4.86257791519165 -1.5758092403411865 0.09526189416646957 0 25
17.15884780883789 4.789804458618164 -1.577020287513733 0.09518870711326599 0 25
17.19331932067871 4.716796875 -1.578235387802124 0.09511550515890121 0 25
17.227460861206055 4.643632888793945 -1.5794543027877808 0.09504209458827972 0 25
17.2613468170166 4.570234298706055 -1.580678105354309 0.0949687510728836 0 25
17.295000076293945 4.496640682220459 -1.581905484199524 0.09489487111568451 0 25
17.328397750854492 4.4228515625 -1.5831371545791626 0.09482107311487198 0 25
17.36150360107422 4.348866939544678 -1.584373116493225 0.09474708884954453 0 25
17.39435577392578 4.27468729019165 -1.5856130123138428 0.09467294812202454 0 25
17.42691421508789 4.200332164764404 -1.5868566036224365 0.09459878504276276 0 25
17.459218978881836 4.125741958618164 -1.5881048440933228 0.09452438354492188 0 25
17.4912109375 4.050995826721191 -1.5893566608428955 0.09445000439882278 0 25
17.522968292236328 3.9760546684265137 -1.590612769126892 0.09437532722949982 0 25
17.554393768310547 3.9008593559265137 -1.5918740034103394 0.09430073201656342 0 25
17.58558464050293 3.8255271911621094 -1.5931380987167358 0.09422581642866135 0 25
17.61650276184082 3.7500388622283936 -1.5944067239761353 0.09415100514888763 0 25
17.647167205810547 3.67431640625 -1.5956789255142212 0.09407570213079453 0 25
17.677518844604492 3.5983593463897705 -1.5969561338424683 0.09400063008069992 0 25
17.707538604736328 3.5222654342651367 -1.5982366800308228 0.0939253717660904 0 25
17.239316940307617 3.349238157272339 -1.5546133518218994 0.35126420855522156 0 5
17.220293045043945 3.265859365463257 -1.5515661239624023 0.7649345397949219 0 5
17.796092987060547 3.2928905487060547 -1.6021020412445068 0.09369863569736481 0 25
17.82499885559082 3.216015577316284 -1.6033990383148193 0.09362288564443588 0 25
17.8536319732666 3.1390233039855957 -1.6046996116638184 0.09354708343744278 0 25
17.88201141357422 3.061835765838623 -1.606003999710083 0.0934709832072258 0 25
17.910078048706055 2.9844141006469727 -1.6073123216629028 0.093394935131073 0 25
17.903573989868164 2.901249885559082 -1.6055529117584229 0.09331874549388885 0 2
17.931015014648438 2.8236327171325684 -1.6068670749664307 0.09324247390031815 0 2
17.95816421508789 2.7458202838897705 -1.6081844568252563 0.09316596388816833 0 2
17.9849796295166 2.667851448059082 -1.6095061302185059 0.0930895060300827 0 2
18.01156234741211 2.5897068977355957 -1.610831618309021 0.09301281720399857 0 2
18.037792205810547 2.511367082595825 -1.612160563468933 0.09293618053197861 0 2
18.063749313354492 2.432851552963257 -1.6134939193725586 0.0928594321012497 0 2
18.089414596557617 2.354179620742798 -1.6148308515548706 0.09278257191181183 0 2
18.11470603942871 2.2753515243530273 -1.6161718368530273 0.09270569682121277 0 2
18.1397647857666 2.1962890625 -1.6175163984298706 0.09262863546609879 0 2
18.16455078125 2.117070198059082 -1.6188644170761108 0.0925513282418251 0 2
18.188983917236328 2.0376951694488525 -1.6202166080474854 0.09247417747974396 0 2
18.21484375 1.958339810371399 -1.621726393699646 0.0923968106508255 0 2
18.238691329956055 1.8785936832427979 -1.6230862140655518 0.09231940656900406 0 2
18.262226104736328 1.7987109422683716 -1.6244500875473022 0.09224189817905426 0 2
18.28546905517578 1.7186328172683716 -1.6258171796798706 0.09216427057981491 0 2
18.308359146118164 1.6383593082427979 -1.6271880865097046 0.09208665043115616 0 2
18.330936431884766 1.558007836341858 -1.628562569618225 0.09200902283191681 0 2
18.353281021118164 1.4774218797683716 -1.6299407482147217 0.0919310599565506 0 2
18.375253677368164 1.3966991901397705 -1.6313228607177734 0.09185323119163513 0 2
18.396894454956055 1.315820336341858 -1.6327086687088013 0.0917753279209137 0 2
18.418241500854492 1.234765648841858 -1.6340978145599365 0.09169729053974152 0 2
18.43927764892578 1.1535155773162842 -1.6354906558990479 0.0916191041469574 0 2
18.4599609375 1.0721484422683716 -1.6368874311447144 0.0915411040186882 0 2
18.480371475219727 0.9905663728713989 -1.638287901878357 0.09146274626255035 0 2
18.50044822692871 0.9089062213897705 -1.6396914720535278 0.09138450771570206 0 2
18.52017593383789 0.8270312547683716 -1.6410986185073853 0.09130613505840302 0 2
18.539648056030273 0.7450390458106995 -1.64250910282135 0.09122765064239502 0 2
18.55875015258789 0.6628515720367432 -1.643923282623291 0.09114920347929001 0 2
18.577499389648438 0.5805468559265137 -1.6453417539596558 0.09107065200805664 0 2
18.59601593017578 0.49806639552116394 -1.6467629671096802 0.09099201112985611 0 2
18.614139556884766 0.41539061069488525 -1.6481878757476807 0.09091334044933319 0 2
18.631914138793945 0.3326367139816284 -1.6496163606643677 0.09083462506532669 0 2
18.64937400817871 0.2497265636920929 -1.651047945022583 0.09075593948364258 0 2
18.666522979736328 0.16664062440395355 -1.6524832248687744 0.09067714959383011 0 2
18.683340072631836 0.0834374949336052 -1.6539214849472046 0.09059815108776093 0 2
18.6998233795166 3.9062499126885086e-05 -1.6553640365600586 0.09051918983459473 0 2
18.7159366607666 -0.08347655832767487 -1.6568090915679932 0.09044031798839569 0 2
18.73175811767578 -0.16710937023162842 -1.6582579612731934 0.09036138653755188 0 2
18.74722671508789 -0.25095701217651367 -1.6597100496292114 0.09028218686580658 0 2
18.76234245300293 -0.33488279581069946 -1.6611651182174683 0.09020314365625381 0 2
18.77716827392578 -0.4189843535423279 -1.6626241207122803 0.09012395888566971 0 2
18.791601181030273 -0.5032421946525574 -1.6640859842300415 0.09004481881856918 0 2
18.805721282958984 -0.5876171588897705 -1.6655510663986206 0.0899655669927597 0 2
18.81947135925293 -0.6721093654632568 -1.6670193672180176 0.08988639712333679 0 2
18.832910537719727 -0.7567577958106995 -1.6684918403625488 0.08980707824230194 0 2
18.84599494934082 -0.8415234088897705 -1.6699663400650024 0.08972782641649246 0 2
18.85873031616211 -0.9264453053474426 -1.6714444160461426 0.08964836597442627 0 2
18.871112823486328 -1.0114648342132568 -1.6729257106781006 0.08956901729106903 0 2
18.883163452148438 -1.0966796875 -1.674410343170166 0.08948961645364761 0 2
18.89484405517578 -1.1819530725479126 -1.675897479057312 0.08941017836332321 0 2
18.906171798706055 -1.2673827409744263 -1.6773885488510132 0.08933073282241821 0 2
18.91716766357422 -1.352929711341858 -1.678882122039795 0.08925122022628784 0 2
18.927831649780273 -1.4386327266693115 -1.6803786754608154 0.08917158097028732 0 2
18.938085556030273 -1.524453043937683 -1.681878924369812 0.0890921950340271 0 2
18.947967529296875 -1.6104296445846558 -1.683382272720337 0.0890127643942833 0 2
18.957576751708984 -1.6964452266693115 -1.6848880052566528 0.08893313258886337 0 2
18.966796875 -1.7826170921325684 -1.6863967180252075 0.08885353058576584 0 2
18.975624084472656 -1.8689452409744263 -1.6879088878631592 0.08877403289079666 0 2
18.984121322631836 -1.9553320407867432 -1.6894234418869019 0.0886944830417633 0 2
18.992284774780273 -2.0418357849121094 -1.6909410953521729 0.08861478418111801 0 2
19.000019073486328 -2.128535032272339 -1.6924618482589722 0.08853521943092346 0 2
19.00745964050293 -2.215273380279541 -1.6939852237701416 0.088455431163311 0 2
19.01447296142578 -2.3021483421325684 -1.695512056350708 0.08837596327066422 0 2
19.074726104736328 -2.3958396911621094 -1.701820969581604 0.4049157202243805 0 2
19.25373077392578 -2.505664110183716 -1.7187756299972534 0.4009250998497009 0 2
19.436405181884766 -2.617617130279541 -1.7361010313034058 0.39692363142967224 0 2
19.623926162719727 -2.732109308242798 -1.7539260387420654 0.3829212486743927 0 2
19.824003219604492 -2.8501951694488525 -1.7729265689849854 0.37881720066070557 0 2
20.02845573425293 -2.970898389816284 -1.7923827171325684 0.37470555305480957 0 2
20.209394454956055 -3.089980363845825 -1.8097869157791138 0.0878184363245964 0 1
20.21369171142578 -3.1830272674560547 -1.8114287853240967 0.08773890137672424 0 1
20.217695236206055 -3.2761523723602295 -1.813073992729187 0.08765913546085358 0 1
20.22119140625 -3.3694140911102295 -1.8147222995758057 0.08757967501878738 0 1
20.224334716796875 -3.462773323059082 -1.8163726329803467 0.08749999105930328 0 1
20.227128982543945 -3.55621075630188 -1.818026065826416 0.0874202772974968 0 1
20.229413986206055 -3.6498045921325684 -1.8196825981140137 0.08734086155891418 0 1
20.231348037719727 -3.743398427963257 -1.8213409185409546 0.08726129680871964 0 1
20.232891082763672 -3.8371875286102295 -1.823002576828003 0.08718185126781464 0 1
20.2340030670166 -3.9309959411621094 -1.824666976928711 0.08710228651762009 0 1
20.234745025634766 -4.02490234375 -1.8263332843780518 0.08702278882265091 0 1
20.23503875732422 -4.118906021118164 -1.8280025720596313 0.08694335073232651 0 1
20.234960556030273 -4.213046550750732 -1.8296743631362915 0.08686386793851852 0 1
20.234453201293945 -4.307226657867432 -1.8313485383987427 0.08678444474935532 0 1
20.23353385925293 -4.401484489440918 -1.8330248594284058 0.0867050513625145 0 1
20.23224639892578 -4.495839595794678 -1.8347045183181763 0.08662570267915726 0 1
17.943281173706055 -4.071386814117432 -1.6287697553634644 0.739030659198761 2872 18
17.89665985107422 -4.14480447769165 -1.626200795173645 0.7401987314224243 2872 18
18.277910232543945 -4.319140434265137 -1.6625738143920898 0.6024192571640015 2872 18
18.29132843017578 -4.408574104309082 -1.6655700206756592 0.29153919219970703 2872 18
20.21939468383789 -4.968886375427246 -1.8431371450424194 0.0862293690443039 0 1
19.481874465942383 -4.8798828125 -1.777873158454895 0.45673543214797974 2872 18
19.427440643310547 -4.958535194396973 -1.7749093770980835 0.4574982523918152 2872 18
19.373260498046875 -5.036874771118164 -1.771994948387146 0.4582505226135254 2872 18
19.46892547607422 -5.154609203338623 -1.7828320264816284 0.2702294886112213 2872 18
20.196073532104492 -5.443671703338623 -1.8516262769699097 0.08583414554595947 0 1
20.190195083618164 -5.538808345794678 -1.8533300161361694 0.0857551246881485 0 1
20.183828353881836 -5.63406229019165 -1.8550366163253784 0.08567625284194946 0 1
20.17704963684082 -5.729374885559082 -1.8567456007003784 0.08559741824865341 0 1
20.169784545898438 -5.824687480926514 -1.858456015586853 0.08551869541406631 0 1
20.1622257232666 -5.920116901397705 -1.86016845703125 0.08543980866670609 0 1
20.15414047241211 -6.015546798706055 -1.8618831634521484 0.08536119759082794 0 1
20.1456241607666 -6.111054420471191 -1.8635995388031006 0.08528266847133636 0 1
20.136699676513672 -6.206601619720459 -1.865317940711975 0.08520415425300598 0 1
20.127382278442383 -6.302187442779541 -1.8670382499694824 0.08512554317712784 0 1
20.117578506469727 -6.397890567779541 -1.868760585784912 0.08504709601402283 0 1
20.10738182067871 -6.493535041809082 -1.8704842329025269 0.084968701004982 0 1
20.096736907958984 -6.589277267456055 -1.8722103834152222 0.08489038050174713 0 1
20.08560562133789 -6.685078144073486 -1.8739373683929443 0.08481219410896301 0 1
20.074100494384766 -6.780898094177246 -1.8756670951843262 0.08473388850688934 0 1
20.0621280670166 -6.87673807144165 -1.8773974180221558 0.08465585857629776 0 1
20.049745559692383 -6.97265625 -1.879130244255066 0.08457770943641663 0 1
20.03691291809082 -7.068554401397705 -1.8808642625808716 0.08449975401163101 0 1
20.02361297607422 -7.164511680603027 -1.8826000690460205 0.08442190289497375 0 1
20.0098819732666 -7.260488033294678 -1.884337067604065 0.0843440592288971 0 1
19.99574089050293 -7.356484413146973 -1.8860759735107422 0.08426624536514282 0 1
19.98109245300293 -7.452499866485596 -1.8878158330917358 0.08418871462345123 0 1
19.966054916381836 -7.548593521118164 -1.8895577192306519 0.08411100506782532 0 1
19.950565338134766 -7.644628524780273 -1.8913005590438843 0.08403348177671432 0 1
19.934648513793945 -7.740703105926514 -1.8930449485778809 0.08395611494779587 0 1
19.91826057434082 -7.836835861206055 -1.8947908878326416 0.08387865871191025 0 1
19.901386260986328 -7.932909965515137 -1.8965377807617188 0.08380141854286194 0 1
19.88408088684082 -8.029062271118164 -1.8982863426208496 0.08372437208890915 0 1
19.86638641357422 -8.125234603881836 -1.9000362157821655 0.08364716172218323 0 1
19.848182678222656 -8.221327781677246 -1.9017868041992188 0.0835702046751976 0 1
19.82954978942871 -8.317461013793945 -1.9035388231277466 0.08349321037530899 0 1
19.810468673706055 -8.413613319396973 -1.9052910804748535 0.08341645449399948 0 1
19.790918350219727 -8.509804725646973 -1.907045841217041 0.08333967626094818 0 1
19.770917892456055 -8.605917930603027 -1.9088006019592285 0.08326312899589539 0 1
19.750469207763672 -8.702070236206055 -1.9105565547943115 0.08318658173084259 0 1
19.7296085357666 -8.798202514648438 -1.912313461303711 0.08311005681753159 0 1
19.708242416381836 -8.894335746765137 -1.9140715599060059 0.08303382247686386 0 1
19.686405181884766 -8.990468978881836 -1.9158306121826172 0.08295752853155136 0 1
19.664140701293945 -9.086562156677246 -1.9175900220870972 0.08288151025772095 0 1
19.64140510559082 -9.182578086853027 -1.9193499088287354 0.08280547708272934 0 1
19.618202209472656 -9.278671264648438 -1.9211114645004272 0.08272957056760788 0 1
19.59457015991211 -9.374707221984863 -1.9228729009628296 0.08265373110771179 0 1
19.57048797607422 -9.470742225646973 -1.924635887145996 0.08257792890071869 0 1
19.545879364013672 -9.566757202148438 -1.9263988733291626 0.08250254392623901 0 1
19.520858764648438 -9.662734031677246 -1.9281634092330933 0.08242696523666382 0 1
19.495370864868164 -9.758671760559082 -1.9299273490905762 0.08235163986682892 0 1
19.469432830810547 -9.854589462280273 -1.9316924810409546 0.08227632939815521 0 1
19.4429874420166 -9.950429916381836 -1.933457612991333 0.0822012796998024 0 1
19.416112899780273 -10.04628849029541 -1.9352233409881592 0.08212629705667496 0 1
19.388769149780273 -10.142030715942383 -1.936989426612854 0.08205139636993408 0 1
19.3609561920166 -10.237812042236328 -1.9387561082839966 0.08197658509016037 0 1
19.33267593383789 -10.333515167236328 -1.9405230283737183 0.08190199732780457 0 1
19.303945541381836 -10.429140090942383 -1.9422893524169922 0.08182746917009354 0 1
19.27472686767578 -10.52474594116211 -1.9440569877624512 0.08175311982631683 0 1
19.245058059692383 -10.620312690734863 -1.9458242654800415 0.0816788524389267 0 1
19.214921951293945 -10.715800285339355 -1.9475923776626587 0.0816047191619873 0 1
19.184316635131836 -10.811249732971191 -1.949359655380249 0.08153070509433746 0 1
19.153223037719727 -10.906679153442383 -1.9511282444000244 0.08145676553249359 0 1
19.121639251708984 -11.001933097839355 -1.952895164489746 0.0813831239938736 0 1
19.08966827392578 -11.0972261428833 -1.9546630382537842 0.08130944520235062 0 1
19.057147979736328 -11.192421913146973 -1.9564306735992432 0.08123604208230972 0 1
19.024160385131836 -11.287519454956055 -1.9581981897354126 0.0811627060174942 0 1
18.990760803222656 -11.382577896118164 -1.9599651098251343 0.08108953386545181 0 1
18.95683479309082 -11.477499961853027 -1.9617321491241455 0.08101659268140793 0 1
18.922441482543945 -11.57242202758789 -1.9634990692138672 0.08094362169504166 0 1
18.185644149780273 -11.233593940734863 -1.892224669456482 0.039602164179086685 0 2
17.772342681884766 -11.08822250366211 -1.8543511629104614 0.08079804480075836 0 2
17.738554000854492 -11.177421569824219 -1.8560149669647217 0.08072583377361298 0 2
17.70439338684082 -11.266562461853027 -1.8576797246932983 0.08065333962440491 0 2
17.66974639892578 -11.355605125427246 -1.85934317111969 0.08058121800422668 0 2
17.634668350219727 -11.444550514221191 -1.8610063791275024 0.08050917834043503 0 2
17.599102020263672 -11.533417701721191 -1.862668752670288 0.08043736219406128 0 2
17.56312370300293 -11.622265815734863 -1.864331603050232 0.08036552369594574 0 2
17.52667999267578 -11.7109375 -1.8659930229187012 0.08029413223266602 0 2
17.489805221557617 -11.799511909484863 -1.867653489112854 0.0802227184176445 0 2
17.45244026184082 -11.887968063354492 -1.8693130016326904 0.08015158772468567 0 2
17.41470718383789 -11.976366996765137 -1.8709728717803955 0.08008035272359848 0 2
17.376483917236328 -12.064648628234863 -1.8726311922073364 0.08000946044921875 0 2
17.337772369384766 -12.152812004089355 -1.874288558959961 0.07993876188993454 0 2
10.8564453125 -7.68224573135376 -1.1773229837417603 0.8519604206085205 0 6
10.817304611206055 -7.727226257324219 -1.1768041849136353 0.9585661888122559 0 6
10.796894073486328 -7.78564453125 -1.1783545017242432 0.9955548048019409 0 6
10.758027076721191 -7.830820083618164 -1.1779162883758545 0.9119523167610168 0 6
10.734335899353027 -7.887070178985596 -1.179158329963684 0.7669060826301575 0 6
17.096250534057617 -12.679374694824219 -1.884212851524353 0.07951772212982178 0 2
17.054433822631836 -12.76675796508789 -1.8858639001846313 0.07944808155298233 0 2
17.01216697692871 -12.853944778442383 -1.8875128030776978 0.07937867939472198 0 2
16.969432830810547 -12.941015243530273 -1.88916015625 0.07930950075387955 0 2
16.926250457763672 -13.028007507324219 -1.890806794166565 0.07924032211303711 0 2
16.88263702392578 -13.114726066589355 -1.8924514055252075 0.07917151600122452 0 2
16.838573455810547 -13.201444625854492 -1.8940954208374023 0.0791027694940567 0 2
16.794042587280273 -13.287968635559082 -1.8957375288009644 0.07903417199850082 0 2
16.7490234375 -13.374335289001465 -1.897377610206604 0.07896599918603897 0 2
16.70361328125 -13.460585594177246 -1.899017572402954 0.07889772951602936 0 2
16.657695770263672 -13.546679496765137 -1.900654911994934 0.07882987707853317 0 2
16.611387252807617 -13.632596969604492 -1.9022903442382812 0.0787620097398758 0 2
16.56458854675293 -13.718398094177246 -1.9039244651794434 0.0786944255232811 0 2
16.517362594604492 -13.803983688354492 -1.9055569171905518 0.07862700521945953 0 2
16.469667434692383 -13.889413833618164 -1.9071871042251587 0.07855977863073349 0 2
16.421581268310547 -13.974687576293945 -1.908815622329712 0.07849274575710297 0 2
13.6558198928833 -11.726484298706055 -1.5933977365493774 0.9742438793182373 0 6
13.60238265991211 -11.78652286529541 -1.5932852029800415 0.8380295634269714 0 6
16.274473190307617 -14.229511260986328 -1.9136900901794434 0.07829275727272034 0 2
16.224512100219727 -14.314101219177246 -1.9153106212615967 0.07822668552398682 0 2
16.17414093017578 -14.398476600646973 -1.9169286489486694 0.0781605914235115 0 2
16.123319625854492 -14.482772827148438 -1.9185458421707153 0.07809465378522873 0 2
