ply
format ascii 1.0
element vertex 612
property float32 x
property float32 y
property float32 z
property float32 CosAngle
property uint32 ObjIdx
property uint32 ObjTag
end_header
16.77421760559082 11.055116653442383 7.501648426055908 0.7722604274749756 0 9
15.160722732543945 9.894082069396973 6.76007604598999 0.7747717499732971 0 9
15.18246078491211 9.811015129089355 6.749989032745361 0.7759298086166382 0 9
15.203984260559082 9.728144645690918 6.74001932144165 0.7770779132843018 0 9
18.102088928222656 11.467890739440918 8.001779556274414 0.988517701625824 0 9
18.159160614013672 11.389745712280273 8.004240989685059 0.9882139563560486 0 9
18.216190338134766 11.3115234375 8.006850242614746 0.9878917932510376 0 9
18.27326202392578 11.23324203491211 8.009610176086426 0.9875511527061462 0 9
18.330350875854492 11.1548433303833 8.012530326843262 0.9871918559074402 0 9
18.387460708618164 11.076425552368164 8.015592575073242 0.9868142604827881 0 9
11.784003257751465 11.78408145904541 5.909217357635498 0.7856404185295105 0 9
11.869062423706055 11.7626953125 5.925234317779541 0.7835162281990051 0 9
11.954511642456055 11.74111270904541 5.941430568695068 0.7813806533813477 0 9
12.040350914001465 11.719335556030273 5.957805156707764 0.7792332172393799 0 9
12.12662124633789 11.69742202758789 5.974358558654785 0.7770742177963257 0 9
12.21328067779541 11.675312042236328 5.99109411239624 0.7749032378196716 0 9
12.300371170043945 11.652968406677246 6.008017063140869 0.7727211713790894 0 9
12.38792896270752 11.630488395690918 6.025122165679932 0.7705270051956177 0 9
12.39810562133789 11.535429000854492 6.0047478675842285 0.47205591201782227 0 9
12.383925437927246 11.418574333190918 5.972898483276367 0.47457313537597656 0 9
12.369746208190918 11.302851676940918 5.941442012786865 0.4770856201648712 0 9
12.3555269241333 11.188202857971191 5.910367965698242 0.4795939326286316 0 9
12.341405868530273 11.07460880279541 5.879672527313232 0.4820977449417114 0 9
12.327245712280273 10.962089538574219 5.84935188293457 0.48459672927856445 0 9
13.01318359375 11.467499732971191 6.150261878967285 0.754849374294281 0 9
13.104374885559082 11.4434175491333 6.168933391571045 0.7525641918182373 0 9
12.861699104309082 11.129804611206055 6.03103494644165 0.14837531745433807 0 9
12.565234184265137 10.774648666381836 5.8691864013671875 0.15246737003326416 0 9
12.284276962280273 10.438085556030273 5.71594762802124 0.15655475854873657 0 9
13.233046531677246 11.142030715942383 6.134009838104248 0.9443264007568359 0 9
13.264238357543945 11.06656265258789 6.125280857086182 0.945671796798706 0 9
13.29525375366211 10.9912109375 6.1166863441467285 0.9470006227493286 0 9
13.326190948486328 10.916112899780273 6.108224391937256 0.9483127593994141 0 9
13.356952667236328 10.841191291809082 6.09989070892334 0.9496084451675415 0 9
13.387617111206055 10.766425132751465 6.091686248779297 0.9508874416351318 0 9
13.418163299560547 10.69179630279541 6.0836100578308105 0.9521501064300537 0 9
13.448593139648438 10.617362976074219 6.075659275054932 0.9533956050872803 0 9
13.478866577148438 10.54312515258789 6.067837238311768 0.9546246528625488 0 9
13.509100914001465 10.468984603881836 6.060141563415527 0.955837070941925 0 9
13.539159774780273 10.395058631896973 6.05256986618042 0.9570326805114746 0 9
13.569159507751465 10.321210861206055 6.0451250076293945 0.9582116007804871 0 9
13.599003791809082 10.247577667236328 6.037802696228027 0.9593737125396729 0 9
13.628729820251465 10.174081802368164 6.030604839324951 0.9605187773704529 0 9
13.658378601074219 10.100722312927246 6.023525714874268 0.9616472125053406 0 9
13.687910079956055 10.027539253234863 6.016572952270508 0.9627588987350464 0 9
13.7173433303833 9.95443344116211 6.009739398956299 0.9638535976409912 0 9
14.897558212280273 10.708749771118164 6.505600452423096 0.6155874133110046 0 9
14.864999771118164 10.584159851074219 6.470513820648193 0.6189249157905579 0 9
14.025038719177246 9.891230583190918 6.085440158843994 0.12970088422298431 0 9
14.800917625427246 10.338886260986328 6.401816368103027 0.6255666613578796 0 9
14.769335746765137 10.21816349029541 6.368184566497803 0.6288703680038452 0 9
14.738046646118164 10.098651885986328 6.335022449493408 0.6321624517440796 0 9
14.7070894241333 9.980390548706055 6.302317142486572 0.6354433298110962 0 9
14.676386833190918 9.863320350646973 6.270063400268555 0.6387120485305786 0 9
16.633983612060547 11.07046890258789 7.085007667541504 0.7811641693115234 0 9
16.72671890258789 11.02382755279541 7.103291034698486 0.7791534066200256 0 9
16.81998062133789 10.976933479309082 7.121826171875 0.7771257758140564 0 9
16.91374969482422 10.929823875427246 7.140615463256836 0.775081217288971 0 9
17.008047103881836 10.882421493530273 7.159648895263672 0.7730204463005066 0 9
19.49915885925293 12.352910041809082 8.184797286987305 0.7334762215614319 0 9
18.23080062866211 11.434687614440918 7.630712032318115 0.9903031587600708 0 9
18.288124084472656 11.356152534484863 7.6332106590271 0.9899790287017822 0 9
18.345449447631836 11.277597427368164 7.635854721069336 0.9896363019943237 0 9
18.402772903442383 11.198925971984863 7.63864278793335 0.9892750382423401 0 9
18.46011734008789 11.120195388793945 7.641580581665039 0.988895058631897 0 9
11.945918083190918 11.946015357971191 5.676115989685059 0.7794513702392578 0 9
12.032577514648438 11.924784660339355 5.69171667098999 0.7773147821426392 0 9
12.1196870803833 11.903359413146973 5.707491874694824 0.7751665115356445 0 9
12.207206726074219 11.88173770904541 5.7234368324279785 0.7730065584182739 0 9
12.29507827758789 11.859941482543945 5.739562034606934 0.7708356976509094 0 9
12.383476257324219 11.837987899780273 5.755862712860107 0.7686518430709839 0 9
12.472304344177246 11.81581974029541 5.77234411239624 0.7664571404457092 0 9
12.561542510986328 11.793476104736328 5.789013385772705 0.7642508745193481 0 9
12.651288986206055 11.770936965942383 5.805866718292236 0.7620322108268738 0 9
12.741425514221191 11.748242378234863 5.822897911071777 0.7598027586936951 0 9
12.731054306030273 11.632987976074219 5.794151306152344 0.4662138521671295 0 9
12.714530944824219 11.513261795043945 5.762967586517334 0.4687364101409912 0 9
12.698026657104492 11.394628524780273 5.732176303863525 0.4712543785572052 0 9
12.681581497192383 11.277167320251465 5.701761245727539 0.47376811504364014 0 9
12.665156364440918 11.160859107971191 5.67172908782959 0.47627705335617065 0 9
12.928027153015137 11.289413452148438 5.766599655151367 0.14788417518138885 0 9
12.627031326293945 10.926737785339355 5.61033296585083 0.15200303494930267 0 9
12.341972351074219 10.583222389221191 5.462447166442871 0.1561184525489807 0 9
13.29872989654541 11.300116539001465 5.863318920135498 0.941477358341217 0 9
13.330097198486328 11.223769187927246 5.854800701141357 0.9428471326828003 0 9
13.361367225646973 11.147597312927246 5.846409320831299 0.9442000985145569 0 9
13.392460823059082 11.071640014648438 5.8381476402282715 0.9455366134643555 0 9
13.423476219177246 10.995840072631836 5.830008506774902 0.9468564987182617 0 9
13.45433521270752 10.920233726501465 5.821997165679932 0.9481596350669861 0 9
13.485116958618164 10.844804763793945 5.8141069412231445 0.9494460821151733 0 9
13.515742301940918 10.769570350646973 5.806342124938965 0.9507156014442444 0 9
13.546269416809082 10.69449234008789 5.798700332641602 0.9519685506820679 0 9
13.57666015625 10.619569778442383 5.7911810874938965 0.953204870223999 0 9
13.60693359375 10.544843673706055 5.783782958984375 0.9544239044189453 0 9
13.637128829956055 10.470253944396973 5.77650785446167 0.9556265473365784 0 9
13.667186737060547 10.395800590515137 5.769349098205566 0.9568121433258057 0 9
13.697148323059082 10.321542739868164 5.762308597564697 0.9579809904098511 0 9
13.726991653442383 10.247421264648438 5.7553863525390625 0.9591328501701355 0 9
13.75673770904541 10.173457145690918 5.748586177825928 0.9602677822113037 0 9
13.786347389221191 10.099609375 5.7419023513793945 0.9613857865333557 0 9
13.815897941589355 10.025957107543945 5.73533296585083 0.962486743927002 0 9
14.974531173706055 10.764101028442383 6.196131229400635 0.615946352481842 0 9
14.941445350646973 10.63857364654541 6.162540912628174 0.6193038821220398 0 9
14.908652305603027 10.514374732971191 6.129429340362549 0.6226493120193481 0 9
15.044355392456055 10.508925437927246 6.165688991546631 0.6023954749107361 0 9
16.119413375854492 11.15218734741211 6.58563756942749 0.6234561204910278 0 9
16.23957061767578 11.1274995803833 6.614182472229004 0.6207654476165771 0 9
16.360820770263672 11.1025972366333 6.643126487731934 0.6180605888366699 0 9
16.483144760131836 11.07753849029541 6.672473430633545 0.6153422594070435 0 9
16.587675094604492 11.039648056030273 6.694587707519531 0.7878537178039551 0 9
16.68001937866211 10.993046760559082 6.711816787719727 0.7858311533927917 0 9
16.772930145263672 10.946210861206055 6.729280471801758 0.7837917804718018 0 9
16.866270065307617 10.899160385131836 6.746982097625732 0.7817356586456299 0 9
16.960174560546875 10.851835250854492 6.7649149894714355 0.7796629071235657 0 9
17.054569244384766 10.804277420043945 6.783099174499512 0.7775734066963196 0 9
19.459394454956055 12.205253601074219 7.71761417388916 0.741306483745575 0 9
19.447851181030273 12.076308250427246 7.69138240814209 0.7438344955444336 0 9
19.436386108398438 11.9482421875 7.665493488311768 0.7463462352752686 0 9
19.425039291381836 11.82103443145752 7.639936447143555 0.7488430142402649 0 9
18.532480239868164 11.163788795471191 7.269034385681152 0.9907026290893555 0 9
12.473163604736328 12.473241806030273 5.602097034454346 0.9919246435165405 0 9
12.52855396270752 12.416288375854492 5.601809024810791 0.9919761419296265 0 9
12.583945274353027 12.359315872192383 5.601625919342041 0.9920085072517395 0 9
12.376776695251465 12.046815872192383 5.485197067260742 0.7665674686431885 0 9
12.466425895690918 12.025195121765137 5.5008649826049805 0.7643839120864868 0 9
12.556503295898438 12.003397941589355 5.516707420349121 0.7621889114379883 0 9
12.647069931030273 11.981386184692383 5.532725811004639 0.7599819302558899 0 9
12.73812484741211 11.959238052368164 5.548926830291748 0.757763147354126 0 9
12.829569816589355 11.936894416809082 5.565305709838867 0.7555328607559204 0 9
12.921581268310547 11.914316177368164 5.58186674118042 0.7532910108566284 0 9
13.01400375366211 11.891581535339355 5.598615646362305 0.7510379552841187 0 9
13.081913948059082 11.84593677520752 5.604805946350098 0.9914453625679016 0 9
13.071561813354492 11.72982406616211 5.577680587768555 0.4602813124656677 0 9
13.052597045898438 11.60708999633789 5.547224998474121 0.4628084897994995 0 9
12.998339653015137 11.45443344116211 5.502191066741943 0.14730162918567657 0 9
12.69261646270752 11.08382797241211 5.351586818695068 0.1514468491077423 0 9
12.40322208404541 10.733046531677246 5.2091288566589355 0.15558843314647675 0 9
13.364433288574219 11.4599609375 5.59109354019165 0.9383365511894226 0 9
13.200878143310547 11.216894149780273 5.5014567375183105 0.025427550077438354 0 9
13.42747974395752 11.305761337280273 5.5746331214904785 0.9411073327064514 0 9
13.45882797241211 11.228944778442383 5.566586971282959 0.9424679279327393 0 9
13.490038871765137 11.152265548706055 5.558661460876465 0.9438117742538452 0 9
13.521113395690918 11.075819969177246 5.550856590270996 0.9451385140419006 0 9
13.55208969116211 10.9995698928833 5.5431742668151855 0.9464486837387085 0 9
13.58290958404541 10.92349624633789 5.535611629486084 0.9477421045303345 0 9
13.613632202148438 10.847578048706055 5.528163433074951 0.9490187168121338 0 9
13.644257545471191 10.77187442779541 5.5208306312561035 0.9502785205841064 0 9
13.674765586853027 10.6962890625 5.5136213302612305 0.9515213966369629 0 9
13.7051362991333 10.620917320251465 5.506528854370117 0.9527475833892822 0 9
13.735390663146973 10.545702934265137 5.499548435211182 0.9539566040039062 0 9
13.765565872192383 10.470624923706055 5.492684841156006 0.9551485180854797 0 9
13.795624732971191 10.395722389221191 5.485933303833008 0.9563238024711609 0 9
13.825546264648438 10.320996284484863 5.479301452636719 0.9574819207191467 0 9
13.855390548706055 10.246405601501465 5.472777366638184 0.958622932434082 0 9
13.885116577148438 10.171953201293945 5.466367244720459 0.9597470760345459 0 9
13.914726257324219 10.097675323486328 5.4600725173950195 0.9608539938926697 0 9
15.747206687927246 11.319550514221191 6.159058094024658 0.4893617331981659 0 9
15.678789138793945 11.163593292236328 6.112563133239746 0.49308404326438904 0 9
15.611347198486328 11.009961128234863 6.0668840408325195 0.4967968761920929 0 9
15.544960975646973 10.858593940734863 6.021996974945068 0.5005001425743103 0 9
15.479472160339355 10.70947265625 5.977888584136963 0.504193127155304 0 9
16.129745483398438 11.052265167236328 6.2097320556640625 0.628395140171051 0 9
16.24968719482422 11.027226448059082 6.236725330352783 0.6256757974624634 0 9
16.37074089050293 11.001972198486328 6.264093399047852 0.622941792011261 0 9
16.49285125732422 10.976542472839355 6.291840076446533 0.6201944947242737 0 9
16.616132736206055 10.950918197631836 6.319988250732422 0.6174324154853821 0 9
16.726621627807617 10.916015625 6.3432512283325195 0.7902411818504333 0 9
16.81962776184082 10.86898422241211 6.359887599945068 0.7881739735603333 0 9
16.913124084472656 10.821738243103027 6.376748085021973 0.7860900163650513 0 9
17.00714874267578 10.774218559265137 6.393832206726074 0.7839893698692322 0 9
19.4317569732666 12.187910079956055 7.2846550941467285 0.7464037537574768 0 9
19.420351028442383 12.059199333190918 7.259932041168213 0.7489454746246338 0 9
19.40900421142578 11.931406021118164 7.235537052154541 0.7514709830284119 0 9
19.397733688354492 11.804413795471191 7.211446762084961 0.753980815410614 0 9
19.386581420898438 11.678261756896973 7.1876654624938965 0.7564756274223328 0 9
12.512578010559082 12.512656211853027 5.297673225402832 0.9938822984695435 0 9
12.568163871765137 12.455507278442383 5.297398567199707 0.9939340949058533 0 9
12.623710632324219 12.398378372192383 5.297221660614014 0.993966817855835 0 9
12.6792573928833 12.341230392456055 5.297151565551758 0.9939804673194885 0 9
12.734785079956055 12.284042358398438 5.297180652618408 0.9939746856689453 0 9
12.790311813354492 12.226874351501465 5.297308921813965 0.9939501285552979 0 9
12.845800399780273 12.16966724395752 5.297544479370117 0.9939062595367432 0 9
12.901308059692383 12.11246109008789 5.297882556915283 0.9938433766365051 0 9
13.17105484008789 12.254570007324219 5.385929584503174 0.9229655861854553 0 9
13.20394515991211 12.174667358398438 5.376895427703857 0.9245158433914185 0 9
13.19921875 12.06078052520752 5.3528056144714355 0.7443066239356995 0 9
13.26927661895752 12.015604972839355 5.35921049118042 0.9275668859481812 0 9
13.301737785339355 11.93636703491211 5.350555896759033 0.9290674924850464 0 9
13.072733879089355 11.625 5.2373151779174805 0.1466304212808609 0 9
12.761972427368164 11.246132850646973 5.092471122741699 0.15080101788043976 0 9
13.398320198059082 11.700117111206055 5.325320720672607 0.933470606803894 0 9
13.377167701721191 11.57583999633789 5.29612922668457 0.4593137502670288 0 9
13.462050437927246 11.543671607971191 5.309095859527588 0.9363224506378174 0 9
13.493691444396973 11.465781211853027 5.3011674880981445 0.9377233982086182 0 9
13.525273323059082 11.388066291809082 5.29335355758667 0.9391077756881714 0 9
13.556659698486328 11.310565948486328 5.285653591156006 0.9404752254486084 0 9
13.587968826293945 11.233222007751465 5.278077125549316 0.9418256282806396 0 9
13.619159698486328 11.156112670898438 5.270613670349121 0.9431594610214233 0 9
13.650175094604492 11.079179763793945 5.26326322555542 0.9444764852523804 0 9
13.681113243103027 11.002460479736328 5.256027698516846 0.9457765817642212 0 9
13.711953163146973 10.925917625427246 5.248906135559082 0.9470597505569458 0 9
13.742636680603027 10.849531173706055 5.241898536682129 0.948326051235199 0 9
13.773241996765137 10.773320198059082 5.235001564025879 0.9495754837989807 0 9
13.803690910339355 10.697304725646973 5.228216648101807 0.9508074522018433 0 9
13.8340425491333 10.621464729309082 5.221545696258545 0.9520227909088135 0 9
13.864296913146973 10.54574203491211 5.214979648590088 0.9532209634780884 0 9
13.89443302154541 10.470194816589355 5.208524703979492 0.9544022083282471 0 9
13.92447280883789 10.394843101501465 5.202180862426758 0.9555661678314209 0 9
13.954413414001465 10.319628715515137 5.19594669342041 0.9567131996154785 0 9
13.984237670898438 10.244589805603027 5.189813137054443 0.957843005657196 0 9
14.013983726501465 10.169668197631836 5.1837921142578125 0.9589559435844421 0 9
14.043574333190918 10.094941139221191 5.177877902984619 0.960051417350769 0 9
15.717324256896973 11.19107437133789 5.776360988616943 0.4944024980068207 0 9
15.6494722366333 11.036855697631836 5.733091354370117 0.49813416600227356 0 9
15.582616806030273 10.884902000427246 5.6905694007873535 0.5018564462661743 0 9
15.516698837280273 10.735234260559082 5.648782730102539 0.50556880235672 0 9
19.06916046142578 13.066367149353027 6.92055082321167 0.8812928795814514 0 9
19.10986328125 12.968124389648438 6.9140496253967285 0.8821214437484741 0 9
19.1505069732666 12.8701171875 6.907708168029785 0.8829314112663269 0 9
19.19107437133789 12.772284507751465 6.901527404785156 0.883722186088562 0 9
19.23160171508789 12.67464828491211 6.895498275756836 0.8844944834709167 0 9
19.2720890045166 12.577167510986328 6.88962984085083 0.8852480053901672 0 9
19.312519073486328 12.479902267456055 6.883922100067139 0.8859822750091553 0 9
19.352909088134766 12.382792472839355 6.878366947174072 0.8866977095603943 0 9
19.393260955810547 12.285820007324219 6.872963905334473 0.8873944282531738 0 9
19.404510498046875 12.170820236206055 6.857459545135498 0.7512943148612976 0 9
19.3931827545166 12.042363166809082 6.834221839904785 0.7538488507270813 0 9
19.381933212280273 11.91478443145752 6.81128454208374 0.7563875913619995 0 9
19.370800018310547 11.788007736206055 6.788633346557617 0.7589110732078552 0 9
19.359745025634766 11.662128448486328 6.766281604766846 0.761418342590332 0 9
12.551875114440918 12.551933288574219 4.994359016418457 0.9955655336380005 0 9
12.607597351074219 12.49462890625 4.99409818649292 0.9956175088882446 0 9
12.663358688354492 12.437304496765137 4.993932247161865 0.9956502914428711 0 9
12.71908187866211 12.379961013793945 4.993863582611084 0.9956639409065247 0 9
13.09609317779541 12.63255786895752 5.119503021240234 0.9430292248725891 0 9
13.142168045043945 12.56322193145752 5.1153435707092285 0.943795919418335 0 9
13.188163757324219 12.494023323059082 5.111295223236084 0.9445433616638184 0 9
13.234101295471191 12.424921989440918 5.107358932495117 0.9452716112136841 0 9
13.279979705810547 12.355897903442383 5.1035308837890625 0.9459805488586426 0 9
13.325761795043945 12.28701114654541 5.099810600280762 0.9466702342033386 0 9
13.371503829956055 12.218222618103027 5.096203327178955 0.9473408460617065 0 9
13.417186737060547 12.149492263793945 5.092703342437744 0.9479921460151672 0 9
13.151093482971191 11.801191329956055 4.97147798538208 0.1458735167980194 0 9
12.8350191116333 11.413613319396973 4.832507133483887 0.15006834268569946 0 9
13.525996208190918 11.919394493103027 5.072397232055664 0.9405086040496826 0 9
13.559648513793945 11.840995788574219 5.064970016479492 0.9418880343437195 0 9
13.593183517456055 11.762773513793945 5.057656764984131 0.9432501792907715 0 9
13.626601219177246 11.684765815734863 5.050453186035156 0.9445951581001282 0 9
13.659862518310547 11.606952667236328 5.043364524841309 0.9459229111671448 0 9
13.693065643310547 11.5293550491333 5.036384105682373 0.9472338557243347 0 9
13.726113319396973 11.451874732971191 5.029518127441406 0.9485272169113159 0 9
13.75902271270752 11.37466812133789 5.022757530212402 0.949803352355957 0 9
13.791854858398438 11.297577857971191 5.016110897064209 0.9510623812675476 0 9
13.824530601501465 11.220703125 5.009570598602295 0.9523038268089294 0 9
15.403593063354492 12.387656211853027 5.561485290527344 0.8776146769523621 0 9
15.480663299560547 12.335253715515137 5.569205284118652 0.8763984441757202 0 9
15.557988166809082 12.282675743103027 5.577064514160156 0.8751636147499084 0 9
15.635526657104492 12.230019569396973 5.585060119628906 0.8739102482795715 0 9
15.713339805603027 12.177186965942383 5.593201637268066 0.8726384043693542 0 9
15.791386604309082 12.124218940734863 5.601482391357422 0.8713480234146118 0 9
15.869668006896973 12.071093559265137 5.6099090576171875 0.8700392842292786 0 9
15.948203086853027 12.017831802368164 5.6184844970703125 0.8687120676040649 0 9
16.02701187133789 11.9644136428833 5.627198219299316 0.86736661195755 0 9
16.039628982543945 11.86171817779541 5.61281681060791 0.48048970103263855 0 9
15.967011451721191 11.69710922241211 5.56891393661499 0.4842779040336609 0 9
15.8955078125 11.53505802154541 5.525800704956055 0.48805615305900574 0 9
15.825136184692383 11.375527381896973 5.483453273773193 0.49182507395744324 0 9
15.755742073059082 11.218379020690918 5.4418559074401855 0.49558424949645996 0 9
15.68740177154541 11.063593864440918 5.4009904861450195 0.49933454394340515 0 9
15.620078086853027 10.911073684692383 5.360835552215576 0.5030744075775146 0 9
15.553730010986328 10.760839462280273 5.321376800537109 0.5068047642707825 0 9
15.488359451293945 10.612753868103027 5.282596111297607 0.5105254054069519 0 9
18.811445236206055 12.765644073486328 6.3963236808776855 0.08059492707252502 0 9
19.040117263793945 12.7958984375 6.454408645629883 0.48860955238342285 0 9
19.131269454956055 12.732500076293945 6.465816974639893 0.8907729983329773 0 9
19.171756744384766 12.635175704956055 6.460190773010254 0.8915490508079529 0 9
19.212127685546875 12.5380859375 6.454708576202393 0.892305850982666 0 9
19.252498626708984 12.441113471984863 6.449376583099365 0.8930439352989197 0 9
19.29281234741211 12.344335556030273 6.444193363189697 0.8937628865242004 0 9
19.333086013793945 12.247734069824219 6.439144134521484 0.8944627046585083 0 9
19.373319625854492 12.151249885559082 6.434245586395264 0.8951437473297119 0 9
19.36638641357422 12.025702476501465 6.413890838623047 0.7585446834564209 0 9
19.355253219604492 11.898359298706055 6.392395496368408 0.7610957622528076 0 9
19.34419822692871 11.771835327148438 6.371170997619629 0.7636310458183289 0 9
19.333221435546875 11.64615249633789 6.350221633911133 0.7661505341529846 0 9
12.590995788574219 12.591113090515137 4.691986083984375 0.9969736933708191 0 9
12.900605201721191 12.784979820251465 4.785836696624756 0.8991252779960632 0 9
12.953495979309082 12.722285270690918 4.784162521362305 0.8994404077529907 0 9
13.0064058303833 12.659608840942383 4.782586574554443 0.8997366428375244 0 9
13.05923843383789 12.597030639648438 4.7811150550842285 0.9000133275985718 0 9
13.112128257751465 12.534491539001465 4.779746055603027 0.9002711772918701 0 9
13.16494083404541 12.472030639648438 4.778481960296631 0.9005095362663269 0 9
13.217753410339355 12.40956974029541 4.77731990814209 0.900728702545166 0 9
13.2705659866333 12.347187042236328 4.776261329650879 0.9009284973144531 0 9
13.322265625 12.283769607543945 4.774895668029785 0.9512175917625427 0 9
13.367968559265137 12.214980125427246 4.771515846252441 0.9518910050392151 0 9
13.413652420043945 12.146307945251465 4.768240451812744 0.9525452256202698 0 9
12.911835670471191 11.586464881896973 4.571252822875977 0.14925166964530945 0 9
13.504804611206055 12.009218215942383 4.761989593505859 0.9537953734397888 0 9
13.550312042236328 11.940800666809082 4.759018898010254 0.9543912410736084 0 9
14.708749771118164 12.844413757324219 5.145508766174316 0.8217877149581909 0 9
14.755097389221191 12.768241882324219 5.1415557861328125 0.8930816650390625 0 9
14.830272674560547 12.716894149780273 5.147734642028809 0.8920095562934875 0 9
14.905624389648438 12.665468215942383 5.15403413772583 0.8909189105033875 0 9
14.981171607971191 12.613905906677246 5.160464286804199 0.8898090720176697 0 9
15.056913375854492 12.562226295471191 5.167018890380859 0.8886805772781372 0 9
15.132890701293945 12.510429382324219 5.173693656921387 0.8875336050987244 0 9
15.209062576293945 12.458515167236328 5.180498123168945 0.8863677382469177 0 9
15.285449028015137 12.406464576721191 5.1874308586120605 0.8851832747459412 0 9
15.362070083618164 12.354276657104492 5.194494724273682 0.8839799761772156 0 9
15.438886642456055 12.301972389221191 5.201683044433594 0.8827581405639648 0 9
15.51595687866211 12.24951171875 5.20900297164917 0.8815176486968994 0 9
15.593241691589355 12.196913719177246 5.216455459594727 0.8802585601806641 0 9
15.670761108398438 12.144160270690918 5.224038124084473 0.8789809346199036 0 9
15.748515129089355 12.09130859375 5.231750965118408 0.8776849508285522 0 9
15.826542854309082 12.038300514221191 5.23960018157959 0.8763699531555176 0 9
15.904804229736328 11.98509693145752 5.247582912445068 0.875036895275116 0 9
15.98330020904541 11.93179702758789 5.255702495574951 0.873685359954834 0 9
16.062089920043945 11.878300666809082 5.263957500457764 0.8723151683807373 0 9
16.00663948059082 11.726113319396973 5.228423118591309 0.4852715730667114 0 9
15.934667587280273 11.563495635986328 5.187851905822754 0.4890669882297516 0 9
15.863788604736328 11.4033203125 5.1479949951171875 0.492853045463562 0 9
15.793925285339355 11.245585441589355 5.108847618103027 0.49662965536117554 0 9
15.7251558303833 11.090214729309082 5.070394039154053 0.5003961324691772 0 9
15.657402038574219 10.93716812133789 5.032604694366455 0.5041533708572388 0 9
15.590643882751465 10.786347389221191 4.995477199554443 0.5079006552696228 0 9
15.52480411529541 10.6377534866333 4.958987712860107 0.5116378664970398 0 9
15.4599609375 10.491289138793945 4.923120021820068 0.5153654217720032 0 9
17.862285614013672 12.00439453125 5.6708664894104 0.9021931886672974 0 9
19.07242202758789 12.693300247192383 6.036832332611084 0.8975775241851807 0 9
19.11279296875 12.59634780883789 6.031595230102539 0.8983569741249084 0 9
19.15312385559082 12.499550819396973 6.02649450302124 0.8991173505783081 0 9
19.193416595458984 12.402929306030273 6.021533489227295 0.8998586535453796 0 9
19.233652114868164 12.306464195251465 6.016700267791748 0.9005809426307678 0 9
19.273828506469727 12.210214614868164 6.012009143829346 0.9012839198112488 0 9
19.313983917236328 12.114042282104492 6.007448196411133 0.9019678831100464 0 9
19.339900970458984 12.00927734375 5.9986252784729 0.7630303502082825 0 9
19.328866958618164 11.882128715515137 5.978542804718018 0.7655934691429138 0 9
19.317949295043945 11.755839347839355 5.958719730377197 0.7681403756141663 0 9
19.30708885192871 11.630390167236328 5.939154624938965 0.7706708908081055 0 9
12.801836013793945 12.80191421508789 4.450088977813721 0.9058334827423096 0 9
12.854589462280273 12.739394187927246 4.44843864440918 0.9061694741249084 0 9
12.907343864440918 12.676933288574219 4.446884632110596 0.9064862132072449 0 9
12.960058212280273 12.614511489868164 4.445423603057861 0.9067836403846741 0 9
13.0127534866333 12.552186965942383 4.444063186645508 0.9070615768432617 0 9
13.065409660339355 12.489882469177246 4.44279670715332 0.9073202610015869 0 9
13.11806583404541 12.42763614654541 4.441625118255615 0.9075597524642944 0 9
13.170722007751465 12.365409851074219 4.440547466278076 0.9077798128128052 0 9
13.22337818145752 12.303261756896973 4.439568996429443 0.9079805612564087 0 9
13.275976181030273 12.241132736206055 4.43867826461792 0.908161997795105 0 9
13.328632354736328 12.179022789001465 4.437885761260986 0.9083242416381836 0 9
13.381269454956055 12.116952896118164 4.437190055847168 0.9084669351577759 0 9
13.455741882324219 12.07455062866211 4.4438157081604 0.9574727416038513 0 9
13.501288414001465 12.006073951721191 4.440949440002441 0.9580906629562378 0 9
13.546737670898438 11.937695503234863 4.438180446624756 0.9586889147758484 0 9
13.59218692779541 11.869394302368164 4.4354987144470215 0.9592679142951965 0 9
14.7998628616333 12.806991577148438 4.810736656188965 0.8234085440635681 0 9
14.791093826293945 12.683320045471191 4.789257526397705 0.8981645703315735 0 9
14.8662109375 12.63199234008789 4.795107364654541 0.8970692753791809 0 9
14.941523551940918 12.580507278442383 4.801074504852295 0.8959547877311707 0 9
15.017030715942383 12.528925895690918 4.807153224945068 0.8948215246200562 0 9
15.092734336853027 12.477226257324219 4.813350677490234 0.8936695456504822 0 9
15.168651580810547 12.425390243530273 4.819664001464844 0.8924988508224487 0 9
15.244784355163574 12.37343692779541 4.8260979652404785 0.8913093209266663 0 9
15.321112632751465 12.321367263793945 4.83264684677124 0.8901009559631348 0 9
15.397714614868164 12.269140243530273 4.839317321777344 0.8888736963272095 0 9
15.47451114654541 12.216757774353027 4.846110820770264 0.8876281380653381 0 9
15.551523208618164 12.164277076721191 4.853024005889893 0.8863637447357178 0 9
15.628768920898438 12.111639976501465 4.860060691833496 0.8850806355476379 0 9
15.706269264221191 12.058847427368164 4.867218017578125 0.8837790489196777 0 9
15.784003257751465 12.005937576293945 4.874499320983887 0.8824586868286133 0 9
15.861991882324219 11.952851295471191 4.881906032562256 0.8811199069023132 0 9
15.940214157104492 11.899628639221191 4.889439582824707 0.8797626495361328 0 9
16.01871109008789 11.846230506896973 4.897098064422607 0.8783865571022034 0 9
15.992342948913574 11.71566390991211 4.872859477996826 0.5456971526145935 0 9
15.973651885986328 11.591776847839355 4.851201057434082 0.4899425804615021 0 9
15.902304649353027 11.431015014648438 4.813847541809082 0.493744432926178 0 9
15.832011222839355 11.272675514221191 4.7771501541137695 0.497537225484848 0 9
15.7627534866333 11.116718292236328 4.741099834442139 0.5013201832771301 0 9
15.694550514221191 10.963105201721191 4.705685138702393 0.5050930976867676 0 9
15.627363204956055 10.811758041381836 4.670887470245361 0.5088562965393066 0 9
15.561113357543945 10.662636756896973 4.636689186096191 0.5126092433929443 0 9
15.49583911895752 10.515625 4.603077411651611 0.5163524746894836 0 9
17.79949188232422 11.962167739868164 5.27131986618042 0.9092183113098145 0 9
17.850605010986328 11.880194664001465 5.270569324493408 0.9093483686447144 0 9
17.901758193969727 11.798222541809082 5.269924640655518 0.9094592332839966 0 9
17.95294952392578 11.716249465942383 5.2693986892700195 0.9095505475997925 0 9
19.135194778442383 12.3652925491333 5.600002765655518 0.9064247012138367 0 9
19.175350189208984 12.26919937133789 5.595530033111572 0.9071500897407532 0 9
18.274980545043945 11.577402114868164 5.317516803741455 0.16692176461219788 0 9
18.50732421875 11.608105659484863 5.369850158691406 0.7695688605308533 0 9
18.591659545898438 11.54466724395752 5.37919282913208 0.7682325839996338 0 9
18.67626953125 11.48095703125 5.388649940490723 0.7668843269348145 0 9
18.76107406616211 11.416972160339355 5.398224830627441 0.7655240297317505 0 9
18.846094131469727 11.352714538574219 5.407918453216553 0.7641515135765076 0 9
12.756698608398438 12.756776809692383 4.117672443389893 0.9126262664794922 0 9
12.809296607971191 12.694511413574219 4.116152286529541 0.9129634499549866 0 9
12.861894607543945 12.632285118103027 4.114718914031982 0.9132813811302185 0 9
12.914413452148438 12.570096969604492 4.113376140594482 0.9135798811912537 0 9
12.966933250427246 12.50796890258789 4.112117767333984 0.9138591289520264 0 9
13.01943302154541 12.445918083190918 4.110947608947754 0.9141190052032471 0 9
13.07193374633789 12.383906364440918 4.10986852645874 0.9143593907356262 0 9
13.124394416809082 12.32193374633789 4.108876705169678 0.914580225944519 0 9
13.176875114440918 12.259980201721191 4.107970714569092 0.9147817492485046 0 9
13.229276657104492 12.198104858398438 4.107154369354248 0.9149639010429382 0 9
13.281757354736328 12.13623046875 4.106423377990723 0.9151265025138855 0 9
16.97314453125 15.369491577148438 5.226256370544434 0.8996920585632324 0 9
17.028026580810547 15.280156135559082 5.221911907196045 0.9004408717155457 0 9
14.4995698928833 12.893827438354492 4.42866849899292 0.8338375091552734 0 9
14.596757888793945 12.862968444824219 4.440609455108643 0.8315949440002441 0 9
14.694472312927246 12.831953048706055 4.452708721160889 0.8293356895446777 0 9
14.79271411895752 12.80078125 4.464962005615234 0.8270595669746399 0 9
14.752480506896973 12.650195121765137 4.435571670532227 0.9040713310241699 0 9
14.827342987060547 12.59896469116211 4.440973281860352 0.9029716849327087 0 9
14.902421951293945 12.547558784484863 4.446481227874756 0.9018528461456299 0 9
14.977656364440918 12.496073722839355 4.4520978927612305 0.9007152915000916 0 9
15.05312442779541 12.444472312927246 4.457820892333984 0.8995586633682251 0 9
15.128788948059082 12.39273452758789 4.463654041290283 0.8983832597732544 0 9
15.204668045043945 12.3408784866333 4.469595909118652 0.8971889615058899 0 9
15.280780792236328 12.288866996765137 4.475645065307617 0.8959759473800659 0 9
15.357069969177246 12.236757278442383 4.481809616088867 0.8947440385818481 0 9
15.433612823486328 12.184492111206055 4.488083362579346 0.8934932351112366 0 9
15.510371208190918 12.132089614868164 4.4944682121276855 0.8922240138053894 0 9
15.587363243103027 12.079550743103027 4.500964164733887 0.8909358978271484 0 9
15.664569854736328 12.026874542236328 4.5075788497924805 0.889629065990448 0 9
15.742050170898438 11.974042892456055 4.514304161071777 0.8883035182952881 0 9
15.819746017456055 11.921034812927246 4.52114725112915 0.886959433555603 0 9
15.897733688354492 11.86790943145752 4.528102874755859 0.885596513748169 0 9
15.975936889648438 11.81460952758789 4.535178184509277 0.8842151165008545 0 9
16.054412841796875 11.76113224029541 4.542369842529297 0.8828152418136597 0 9
16.01251983642578 11.619979858398438 4.515661716461182 0.4906824231147766 0 9
15.94066333770752 11.458593368530273 4.4808030128479 0.49449995160102844 0 9
15.869921684265137 11.299687385559082 4.446566104888916 0.4983071982860565 0 9
15.800253868103027 11.143144607543945 4.412933826446533 0.5021050572395325 0 9
15.731581687927246 10.988965034484863 4.379889965057373 0.5058932900428772 0 9
15.663945198059082 10.837109565734863 4.347426891326904 0.5096706748008728 0 9
15.597304344177246 10.68740177154541 4.315517902374268 0.5134390592575073 0 9
15.531620979309082 10.539921760559082 4.284168720245361 0.5171968340873718 0 9
15.466835975646973 10.39453125 4.253349304199219 0.5209442377090454 0 9
17.78857421875 11.8388671875 4.877101421356201 0.9161227941513062 0 9
17.458417892456055 11.50601577758789 4.772329807281494 0.17338836193084717 0 9
17.890506744384766 11.675565719604492 4.876023292541504 0.9163256287574768 0 9
17.9415225982666 11.593945503234863 4.875634670257568 0.9163979887962341 0 9
17.992538452148438 11.512343406677246 4.875354290008545 0.9164509773254395 0 9
18.725000381469727 11.862519264221191 5.0593061447143555 0.7614591121673584 0 9
18.811092376708984 11.798651695251465 5.068153381347656 0.7601295709609985 0 9
18.897401809692383 11.734492301940918 5.077113628387451 0.758787989616394 0 9
18.983924865722656 11.67007827758789 5.086187839508057 0.7574346661567688 0 9
18.643339157104492 11.345312118530273 4.981196403503418 0.3505561351776123 0 9
18.869022369384766 11.366522789001465 5.027764320373535 0.3473091721534729 0 9
13.618242263793945 13.618300437927246 4.060200214385986 0.8672053217887878 0 9
13.67056655883789 13.548046112060547 4.057563781738281 0.7689106464385986 0 9
13.777772903442383 13.531835556030273 4.071253776550293 0.8122843503952026 0 9
14.000136375427246 13.62685489654541 4.11877965927124 0.6346296668052673 0 9
14.034296989440918 13.537558555603027 4.11085319519043 0.6358532309532166 0 9
14.946542739868164 14.288125038146973 4.35917329788208 0.9310193061828613 0 9
15.051424980163574 14.259218215942383 4.370985507965088 0.9274997115135193 0 9
16.960214614868164 15.780038833618164 4.883820533752441 0.4768800139427185 0 9
15.850936889648438 14.615351676940918 4.5453972816467285 0.41480308771133423 0 9
15.814159393310547 14.450156211853027 4.516133785247803 0.4174906611442566 0 9
17.051795959472656 15.440702438354492 4.8496623039245605 0.6768144965171814 0 9
17.23029327392578 15.461679458618164 4.8805766105651855 0.5556289553642273 0 9
14.49267578125 12.887675285339355 4.088644981384277 0.8372846841812134 0 9
14.589765548706055 12.85683536529541 4.0996623039245605 0.8350344300270081 0 9
14.687440872192383 12.825819969177246 4.1108269691467285 0.8327666521072388 0 9
14.785605430603027 12.794648170471191 4.122136116027832 0.8304821848869324 0 9
14.884355545043945 12.763261795043945 4.133593559265137 0.8281802535057068 0 9
14.788945198059082 12.566328048706055 4.091337203979492 0.9086245894432068 0 9
14.86376953125 12.51503849029541 4.096402645111084 0.9075018167495728 0 9
14.938788414001465 12.463651657104492 4.101560592651367 0.9063600301742554 0 9
15.01400375366211 12.412128448486328 4.106820106506348 0.9051992297172546 0 9
15.089433670043945 12.36050796508789 4.112180709838867 0.9040195345878601 0 9
15.165058135986328 12.308730125427246 4.11763858795166 0.9028207659721375 0 9
15.240878105163574 12.2568359375 4.123199939727783 0.9016034603118896 0 9
15.3169527053833 12.204804420471191 4.12886381149292 0.9003669619560242 0 9
15.393241882324219 12.152597427368164 4.1346259117126465 0.8991117477416992 0 9
15.469745635986328 12.100293159484863 4.140495300292969 0.8978376388549805 0 9
15.546464920043945 12.0478515625 4.146465301513672 0.8965447545051575 0 9
15.623417854309082 11.995253562927246 4.152540683746338 0.8952333331108093 0 9
15.700644493103027 11.942519187927246 4.158721923828125 0.8939028978347778 0 9
15.77806568145752 11.889628410339355 4.165004730224609 0.8925539255142212 0 9
15.855761528015137 11.83658218383789 4.171398162841797 0.8911861777305603 0 9
15.933691024780273 11.783378601074219 4.177898406982422 0.8897996544837952 0 9
16.01189422607422 11.729999542236328 4.184505939483643 0.888394832611084 0 9
16.051250457763672 11.648085594177246 4.181036949157715 0.4912874102592468 0 9
15.978925704956055 11.486112594604492 4.148684501647949 0.4951188266277313 0 9
15.907733917236328 11.326601028442383 4.116910457611084 0.49894043803215027 0 9
15.837596893310547 11.169511795043945 4.085697650909424 0.5027514696121216 0 9
15.768534660339355 11.014765739440918 4.055034160614014 0.5065537691116333 0 9
15.700448989868164 10.862323760986328 4.024905681610107 0.510345458984375 0 9
15.6333589553833 10.712148666381836 3.995307445526123 0.5141264200210571 0 9
15.567265510559082 10.564101219177246 3.9662084579467773 0.5178983211517334 0 9
15.502089500427246 10.418241500854492 3.937610387802124 0.5216593742370605 0 9
17.15572166442871 11.417675971984863 4.3445281982421875 0.528954803943634 0 9
17.1749210357666 11.319198608398438 4.336437225341797 0.5299413204193115 0 9
17.193944931030273 11.220975875854492 4.32843542098999 0.530921220779419 0 9
17.212753295898438 11.123046875 4.320522785186768 0.5318940877914429 0 9
17.9306640625 11.472792625427246 4.487704277038574 0.9229733347892761 0 9
17.981523513793945 11.39150333404541 4.487541198730469 0.9230069518089294 0 9
18.03240203857422 11.310194969177246 4.487475395202637 0.9230210185050964 0 9
18.77458953857422 11.658242225646973 4.659067153930664 0.34744858741760254 0 9
19.00470733642578 11.682831764221191 4.703062057495117 0.34419816732406616 0 9
19.167909622192383 11.664530754089355 4.730396747589111 0.3477746844291687 0 9
19.477245330810547 11.73291015625 4.793649196624756 0.7450220584869385 0 9
13.136171340942383 13.136249542236328 3.5950512886047363 0.6932051777839661 0 9
13.660292625427246 13.537851333618164 3.721763849258423 0.7720792293548584 0 9
13.750585556030273 13.505136489868164 3.729755163192749 0.8694774508476257 0 9
13.788945198059082 13.421308517456055 3.723722457885742 0.6465181112289429 0 9
14.8355073928833 14.310429573059082 3.988908529281616 0.9370827674865723 0 9
14.94710922241211 14.288652420043945 4.001558780670166 0.9331101775169373 0 9
15.005742073059082 14.215917587280273 4.000077247619629 0.9334555864334106 0 9
20.507205963134766 19.253280639648438 5.4434380531311035 0.9341408610343933 0 9
16.93244171142578 15.75423812866211 4.475668430328369 0.4792700707912445 0 9
16.34859275817871 15.074198722839355 4.303351402282715 0.40353015065193176 0 9
16.307342529296875 14.900800704956055 4.274782180786133 0.40622684359550476 0 9
17.045488357543945 15.43496036529541 4.450003623962402 0.6793450117111206 0 9
17.22230339050293 15.454472541809082 4.4779486656188965 0.5577580332756042 0 9
21.221620559692383 18.871347427368164 5.495647430419922 0.925266444683075 0 9
21.341991424560547 18.806991577148438 5.5048346519470215 0.923721969127655 0 9
17.713319778442383 15.468202590942383 4.5508646965026855 0.5778188705444336 0 9
14.778573989868164 12.788535118103027 3.782027006149292 0.833674967288971 0 9
14.877225875854492 12.75716781616211 3.792534589767456 0.831365704536438 0 9
14.976425170898438 12.7256441116333 3.8031742572784424 0.8290395140647888 0 9
14.825624465942383 12.48291015625 3.7505571842193604 0.9129000306129456 0 9
14.900409698486328 12.431601524353027 3.75527024269104 0.911754310131073 0 9
14.975351333618164 12.380194664001465 3.7600719928741455 0.9105897545814514 0 9
15.05052661895752 12.328652381896973 3.7649693489074707 0.9094060659408569 0 9
15.125937461853027 12.276972770690918 3.769954204559326 0.9082032442092896 0 9
15.20150375366211 12.2251558303833 3.775031566619873 0.906981885433197 0 9
15.27734375 12.173202514648438 3.780202627182007 0.9057411551475525 0 9
15.353339195251465 12.1211519241333 3.7854669094085693 0.9044817090034485 0 9
15.429570198059082 12.068886756896973 3.7908244132995605 0.9032034277915955 0 9
15.506073951721191 12.016542434692383 3.7962779998779297 0.9019060134887695 0 9
15.58275318145752 11.964042663574219 3.8018267154693604 0.900590181350708 0 9
15.659707069396973 11.911386489868164 3.8074662685394287 0.8992552757263184 0 9
15.736894607543945 11.858593940734863 3.813206195831299 0.8979018330574036 0 9
15.814315795898438 11.805624961853027 3.8190441131591797 0.8965293765068054 0 9
15.891972541809082 11.752519607543945 3.8249785900115967 0.8951384425163269 0 9
15.969902038574219 11.699237823486328 3.8310155868530273 0.8937286734580994 0 9
16.048086166381836 11.645800590515137 3.837148427963257 0.892300009727478 0 9
16.017148971557617 11.51357364654541 3.817308187484741 0.49560025334358215 0 9
15.945467948913574 11.353456497192383 3.78800106048584 0.49943476915359497 0 9
16.284238815307617 11.484511375427246 3.856147289276123 0.8879033327102661 0 9
16.363475799560547 11.430371284484863 3.862685441970825 0.8864005208015442 0 9
16.44302749633789 11.376093864440918 3.8693292140960693 0.8848792314529419 0 9
16.522851943969727 11.321581840515137 3.876072406768799 0.8833394646644592 0 9
17.565799713134766 11.92031192779541 4.108098030090332 0.9286274909973145 0 9
17.616445541381836 11.839159965515137 4.1074323654174805 0.9287786483764648 0 9
17.667070388793945 11.75804615020752 4.106847286224365 0.9289100766181946 0 9
17.68910026550293 11.658065795898438 4.09971809387207 0.5162692070007324 0 9
17.707714080810547 11.556249618530273 4.091927528381348 0.5172523260116577 0 9
17.726133346557617 11.454765319824219 4.084221839904785 0.5182282328605652 0 9
17.744375228881836 11.3535737991333 4.076601505279541 0.5191973447799683 0 9
17.762401580810547 11.252695083618164 4.069057941436768 0.5201593637466431 0 9
17.780292510986328 11.152109146118164 4.061601638793945 0.5211141705513 0 9
17.79798698425293 11.0518159866333 4.054229736328125 0.5220621824264526 0 9
18.07242202758789 11.109785079956055 4.105312347412109 0.9292581081390381 0 9
19.71415901184082 11.99697208404541 4.465926647186279 0.7365347743034363 0 9
19.51154327392578 11.753554344177246 4.407981872558594 0.23065564036369324 0 9
13.537303924560547 13.537402153015137 3.375718832015991 0.8780206441879272 0 9
13.623339653015137 13.501230239868164 3.3819706439971924 0.8763967156410217 0 9
13.70970630645752 13.464980125427246 3.3883213996887207 0.8747544884681702 0 9
14.72548770904541 14.33285140991211 3.6233716011047363 0.9428686499595642 0 9
14.792089462280273 14.268495559692383 3.6239073276519775 0.9427288770675659 0 9
14.902109146118164 14.245644569396973 3.635118246078491 0.9388071298599243 0 9
18.86945343017578 17.876249313354492 4.583195686340332 0.6969202756881714 0 9
19.514999389648438 18.321718215942383 4.719894886016846 0.9777820110321045 0 9
16.90494155883789 15.728612899780273 4.071449279785156 0.48152801394462585 0 9
16.835918426513672 15.523534774780273 4.0379509925842285 0.43839484453201294 0 9
16.828807830810547 15.377304077148438 4.019589900970459 0.3948511481285095 0 9
17.039159774780273 15.4292573928833 4.053192615509033 0.6816879510879517 0 9
17.21431541442871 15.447343826293945 4.078269004821777 0.5597339272499084 0 9
18.52312469482422 16.471776962280273 4.3707170486450195 0.9698597192764282 0 9
18.58134651184082 16.374258041381836 4.367003917694092 0.9706845879554749 0 9
18.639413833618164 16.276874542236328 4.363379955291748 0.9714909195899963 0 9
18.6973819732666 16.179628372192383 4.359846115112305 0.9722787141799927 0 9
18.755233764648438 16.08251953125 4.356399059295654 0.9730480313301086 0 9
18.81294822692871 15.985566139221191 4.353042125701904 0.9737984538078308 0 9
18.87060546875 15.8887300491333 4.349771499633789 0.9745303392410278 0 9
18.928125381469727 15.792011260986328 4.346590995788574 0.9752437472343445 0 9
18.98552703857422 15.6953706741333 4.343497276306152 0.9759385585784912 0 9
19.042831420898438 15.598905563354492 4.340489864349365 0.9766143560409546 0 9
19.10005760192871 15.502538681030273 4.337570667266846 0.9772716760635376 0 9
19.148143768310547 15.399062156677246 4.332695007324219 0.9558978080749512 0 9
19.193613052368164 15.29378890991211 4.327362060546875 0.9570767879486084 0 9
19.239023208618164 15.188769340515137 4.322119235992432 0.9582374095916748 0 9
19.284236907958984 15.083964347839355 4.31697416305542 0.9593795537948608 0 9
19.329336166381836 14.979413986206055 4.311922073364258 0.960503101348877 0 9
16.748144149780273 12.858808517456055 3.72316575050354 0.2380121350288391 0 9
16.899765014648438 12.854628562927246 3.7439520359039307 0.9312885999679565 0 9
16.950468063354492 12.773046493530273 3.742399215698242 0.9316751956939697 0 9
17.00111198425293 12.69156265258789 3.740928888320923 0.9320421814918518 0 9
17.051738739013672 12.610156059265137 3.7395317554473877 0.9323897957801819 0 9
17.102323532104492 12.528827667236328 3.7382140159606934 0.9327178001403809 0 9
17.152929306030273 12.447558403015137 3.7369823455810547 0.933026134967804 0 9
16.356855392456055 11.757773399353027 3.551971912384033 0.18179413676261902 0 9
16.75452995300293 11.929511070251465 3.6266229152679443 0.1780519336462021 0 9
17.169042587280273 12.108515739440918 3.7045042514801025 0.1743086874485016 0 9
17.3550968170166 12.123026847839355 3.7328312397003174 0.9340638518333435 0 9
17.40560531616211 12.0420503616333 3.73199200630188 0.9342741370201111 0 9
17.456092834472656 11.961073875427246 3.7312304973602295 0.9344650506973267 0 9
17.506601333618164 11.880155563354492 3.7305424213409424 0.9346362948417664 0 9
17.557069778442383 11.799257278442383 3.729940176010132 0.9347878098487854 0 9
17.60755729675293 11.71841812133789 3.7294139862060547 0.9349197745323181 0 9
17.65804672241211 11.63759708404541 3.7289671897888184 0.935032069683075 0 9
17.708515167236328 11.55679702758789 3.7285947799682617 0.9351248741149902 0 9
17.759002685546875 11.475996017456055 3.7283055782318115 0.9351978898048401 0 9
17.809511184692383 11.39525318145752 3.728090763092041 0.9352512955665588 0 9
17.85999870300293 11.314531326293945 3.727956533432007 0.9352851510047913 0 9
17.91048812866211 11.233808517456055 3.7278997898101807 0.9352993965148926 0 9
17.961015701293945 11.15306568145752 3.7279210090637207 0.9352939128875732 0 9
18.01154327392578 11.072362899780273 3.728022336959839 0.9352688789367676 0 9
