ply
format ascii 1.0
element vertex 568
property float32 x
property float32 y
property float32 z
property float32 CosAngle
property uint32 ObjIdx
property uint32 ObjTag
end_header
1.2832812070846558 -0.2791503965854645 -0.42075881361961365 0.1994391679763794 2915 14
1.2822167873382568 -0.2849218547344208 -0.42082518339157104 0.1994076669216156 2915 14
1.2811230421066284 -0.2906835973262787 -0.42088720202445984 0.19937850534915924 2915 14
1.2799901962280273 -0.2964453101158142 -0.42094510793685913 0.19935113191604614 2915 14
1.27880859375 -0.3021875023841858 -0.4209986925125122 0.19932639598846436 2915 14
1.2776074409484863 -0.3079296946525574 -0.4210474193096161 0.19930101931095123 2915 14
1.2763574123382568 -0.3136621117591858 -0.42109206318855286 0.19928008317947388 2915 14
1.2750682830810547 -0.31938475370407104 -0.42113226652145386 0.19926121830940247 2915 14
1.2737303972244263 -0.3250976502895355 -0.42116865515708923 0.1992449164390564 2915 14
1.272363305091858 -0.33080077171325684 -0.4212002456188202 0.19923044741153717 2915 14
1.2709569931030273 -0.33650389313697815 -0.42122724652290344 0.1992175132036209 2915 14
1.2695116996765137 -0.3421874940395355 -0.4212498366832733 0.19920724630355835 2915 14
1.2680370807647705 -0.3478710949420929 -0.42126837372779846 0.19919680058956146 2915 14
1.266503930091858 -0.35353514552116394 -0.42128226161003113 0.1991909146308899 2915 14
1.2649413347244263 -0.3591894507408142 -0.4212920367717743 0.19918733835220337 2915 14
1.2633495330810547 -0.3648339807987213 -0.42129722237586975 0.19918370246887207 2915 14
1.2617089748382568 -0.3704589903354645 -0.42129796743392944 0.19918428361415863 2915 14
1.2600293159484863 -0.37608397006988525 -0.42129477858543396 0.19918526709079742 2915 14
1.2583105564117432 -0.38169920444488525 -0.4212867021560669 0.19919002056121826 2915 14
1.2565624713897705 -0.3873046934604645 -0.421274334192276 0.199194997549057 2915 14
1.2547754049301147 -0.392890602350235 -0.42125770449638367 0.19920286536216736 2915 14
1.2529394626617432 -0.3984667956829071 -0.42123687267303467 0.1992129534482956 2915 14
1.251074194908142 -0.40403318405151367 -0.421211302280426 0.19922497868537903 2915 14
1.2491796016693115 -0.4095800817012787 -0.42118170857429504 0.19923792779445648 2915 14
1.2472362518310547 -0.41511717438697815 -0.4211472272872925 0.19925479590892792 2915 14
1.2452539205551147 -0.42064452171325684 -0.42110878229141235 0.1992739737033844 2915 14
1.2432421445846558 -0.4261523485183716 -0.4210681915283203 0.19966907799243927 2915 14
1.2412011623382568 -0.4316503703594208 -0.4210260808467865 0.19969026744365692 2915 14
1.2391308546066284 -0.4371386766433716 -0.4209795296192169 0.19971159100532532 2915 14
1.2370214462280273 -0.44260740280151367 -0.42092856764793396 0.19973509013652802 2915 14
1.23486328125 -0.448066383600235 -0.42087364196777344 0.1997615396976471 2915 14
1.2326855659484863 -0.45350584387779236 -0.42081397771835327 0.19978860020637512 2915 14
1.2304589748382568 -0.45893552899360657 -0.42075011134147644 0.1998199224472046 2915 14
1.2282030582427979 -0.46434569358825684 -0.4206816852092743 0.19985203444957733 2915 14
1.2259081602096558 -0.4697363078594208 -0.42060941457748413 0.199887216091156 2915 14
1.223574161529541 -0.47511717677116394 -0.420532763004303 0.1999225616455078 2915 14
1.2212011814117432 -0.48048827052116394 -0.4204515814781189 0.19996188580989838 2915 14
1.2187987565994263 -0.48583006858825684 -0.42036643624305725 0.20000314712524414 2915 14
1.2163671255111694 -0.49116209149360657 -0.4202767014503479 0.2000444531440735 2915 14
1.2138867378234863 -0.49647459387779236 -0.42018285393714905 0.2000906765460968 2915 14
1.2113769054412842 -0.501757800579071 -0.42008453607559204 0.20013576745986938 2915 14
1.208828091621399 -0.5070409774780273 -0.41998228430747986 0.20018532872200012 2915 14
1.2062499523162842 -0.5122948884963989 -0.4198756217956543 0.20023643970489502 2915 14
1.2036328315734863 -0.5175390243530273 -0.4197646379470825 0.20028971135616302 2915 14
1.2009862661361694 -0.5227636694908142 -0.41964957118034363 0.20034407079219818 2915 14
1.1983007192611694 -0.5279687643051147 -0.41953009366989136 0.20040136575698853 2915 14
1.1955761909484863 -0.533154308795929 -0.4194062650203705 0.20045959949493408 2915 14
1.1928222179412842 -0.5383203029632568 -0.41927841305732727 0.20052094757556915 2915 14
1.190029263496399 -0.5434668064117432 -0.4191465675830841 0.2005854845046997 2915 14
1.1872069835662842 -0.548583984375 -0.41901037096977234 0.20065096020698547 2915 14
1.1843554973602295 -0.5537011623382568 -0.41886991262435913 0.20071671903133392 2915 14
1.1814550161361694 -0.5587792992591858 -0.4187251329421997 0.2007870376110077 2915 14
1.1785351037979126 -0.5638574361801147 -0.4185766577720642 0.20085714757442474 2915 14
1.175576090812683 -0.568896472454071 -0.418423593044281 0.20093172788619995 2915 14
1.1725878715515137 -0.573925793170929 -0.4182668924331665 0.2010069191455841 2915 14
1.1695703268051147 -0.5789257884025574 -0.4181056022644043 0.20108380913734436 2915 14
1.1665136814117432 -0.5839160084724426 -0.4179404377937317 0.2011631578207016 2915 14
1.163417935371399 -0.5888671875 -0.4177710711956024 0.2012445032596588 2915 14
1.1602929830551147 -0.5938085913658142 -0.41759756207466125 0.20132902264595032 2915 14
1.1571483612060547 -0.5987304449081421 -0.4174201190471649 0.20141282677650452 2915 14
1.153964877128601 -0.6036230325698853 -0.41723868250846863 0.2015007883310318 2915 14
1.1507421731948853 -0.6084960699081421 -0.41705322265625 0.20159202814102173 2915 14
1.147499918937683 -0.6133496165275574 -0.41686370968818665 0.20168252289295197 2915 14
1.1442186832427979 -0.6181738376617432 -0.4166698455810547 0.20177693665027618 2915 14
1.1408984661102295 -0.6229687333106995 -0.41647255420684814 0.2018730342388153 2915 14
1.1375585794448853 -0.6277539134025574 -0.41627106070518494 0.20197036862373352 2915 14
1.134189486503601 -0.6325097680091858 -0.41606542468070984 0.20206987857818604 2915 14
1.1307811737060547 -0.6372460722923279 -0.4158560037612915 0.20217280089855194 2915 14
1.127353549003601 -0.6419628858566284 -0.4156426191329956 0.20227518677711487 2915 14
1.1238867044448853 -0.6466503739356995 -0.4154253304004669 0.20238184928894043 2915 14
1.120400309562683 -0.6513085961341858 -0.41520431637763977 0.20248906314373016 2915 14
1.1168651580810547 -0.6559472680091858 -0.4149792492389679 0.20259955525398254 2915 14
1.1133105754852295 -0.6605566143989563 -0.4147501289844513 0.20271143317222595 2915 14
1.1097363233566284 -0.6651464700698853 -0.41451743245124817 0.20282398164272308 2915 14
1.1061229705810547 -0.6697070002555847 -0.4142807722091675 0.20294085144996643 2915 14
1.1024901866912842 -0.6742480397224426 -0.4140404462814331 0.2030574381351471 2915 14
1.098818302154541 -0.678759753704071 -0.4137963056564331 0.20317840576171875 2915 14
1.095126986503601 -0.6832519173622131 -0.4135483503341675 0.20329907536506653 2915 14
1.091396450996399 -0.6877050399780273 -0.41329658031463623 0.20342427492141724 2915 14
1.0876367092132568 -0.692138671875 -0.41304129362106323 0.20355020463466644 2915 14
1.0838574171066284 -0.6965526938438416 -0.41278213262557983 0.2036777138710022 2915 14
1.0800487995147705 -0.7009375095367432 -0.4125191271305084 0.20380792021751404 2915 14
1.0762206315994263 -0.7052929401397705 -0.41225287318229675 0.2039390504360199 2915 14
1.073154330253601 -0.710156261920929 -0.4122876524925232 0.27939945459365845 2915 14
1.0724023580551147 -0.7165625095367432 -0.41322454810142517 0.23988783359527588 2915 14
1.0717577934265137 -0.7230663895606995 -0.4142140746116638 0.239315465092659 2915 14
1.0710742473602295 -0.7295800447463989 -0.41520607471466064 0.2387448102235794 2915 14
1.0703710317611694 -0.7361132502555847 -0.41620078682899475 0.23817402124404907 2915 14
1.0696288347244263 -0.7426562309265137 -0.4171977937221527 0.23760485649108887 2915 14
1.0688672065734863 -0.749218761920929 -0.41819754242897034 0.23703545331954956 2915 14
1.068056583404541 -0.7557812333106995 -0.419199675321579 0.2364688515663147 2915 14
1.067236304283142 -0.7623632550239563 -0.42020416259765625 0.23590263724327087 2915 14
1.0663671493530273 -0.7689550518989563 -0.42121124267578125 0.23533912003040314 2915 14
1.065468668937683 -0.7755566239356995 -0.422220915555954 0.23477724194526672 2915 14
1.064550757408142 -0.782177746295929 -0.4232330322265625 0.23421481251716614 2915 14
1.0635839700698853 -0.7888085842132568 -0.42424774169921875 0.23365512490272522 2915 14
1.062597632408142 -0.7954491972923279 -0.4252646565437317 0.2330966591835022 2915 14
1.0615819692611694 -0.8020995855331421 -0.42628416419029236 0.2325386106967926 2915 14
1.0605273246765137 -0.8087597489356995 -0.42730575799942017 0.23198388516902924 2915 14
1.0594335794448853 -0.8154394626617432 -0.4283297657966614 0.23142847418785095 2915 14
1.0583105087280273 -0.8221191167831421 -0.42935606837272644 0.23087626695632935 2915 14
1.057167887687683 -0.8288183212280273 -0.43038466572761536 0.23032325506210327 2915 14
1.0559765100479126 -0.8355273008346558 -0.4314156174659729 0.22977258265018463 2915 14
1.0547655820846558 -0.8422460556030273 -0.4324488043785095 0.22922298312187195 2915 14
1.053505778312683 -0.8489648103713989 -0.43348410725593567 0.22867728769779205 2915 14
1.0522265434265137 -0.8557031154632568 -0.43452179431915283 0.2281307876110077 2915 14
1.0508984327316284 -0.8624511361122131 -0.4355614483356476 0.22758615016937256 2915 14
1.0495507717132568 -0.8692089915275574 -0.4366036057472229 0.22704268991947174 2915 14
1.0481542348861694 -0.8759765625 -0.43764761090278625 0.22650092840194702 2915 14
1.046728491783142 -0.8827441334724426 -0.4386940598487854 0.22596213221549988 2915 14
1.0452831983566284 -0.8895312547683716 -0.4397422671318054 0.2254219651222229 2915 14
1.0437792539596558 -0.8963183164596558 -0.4407922923564911 0.22488632798194885 2915 14
1.0422558784484863 -0.9031152129173279 -0.4418444037437439 0.22434954345226288 2915 14
1.0406932830810547 -0.9099218249320984 -0.44289901852607727 0.22381563484668732 2915 14
1.0390918254852295 -0.9167382717132568 -0.4439552128314972 0.22328314185142517 2915 14
1.0374609231948853 -0.9235644340515137 -0.4450133442878723 0.22275198996067047 2915 14
1.0357812643051147 -0.9303905963897705 -0.446073442697525 0.22222429513931274 2915 14
1.034082055091858 -0.9372363090515137 -0.44713515043258667 0.22169508039951324 2915 14
1.0323339700698853 -0.9440820217132568 -0.44819900393486023 0.22116927802562714 2915 14
1.0305663347244263 -0.9509374499320984 -0.4492648243904114 0.22064387798309326 2915 14
1.028749942779541 -0.9577929377555847 -0.45033201575279236 0.22012154757976532 2915 14
1.026894450187683 -0.9646582007408142 -0.4514012038707733 0.21960043907165527 2915 14
1.0250097513198853 -0.9715331792831421 -0.45247185230255127 0.21908029913902283 2915 14
1.0230761766433716 -0.9784179329872131 -0.45354461669921875 0.21856153011322021 2915 14
1.0211230516433716 -0.9853026866912842 -0.4546186625957489 0.21804463863372803 2915 14
1.0191112756729126 -0.9921875 -0.4556943476200104 0.21753136813640594 2915 14
1.0170702934265137 -0.999072253704071 -0.4567718505859375 0.21701836585998535 2915 14
1.0149999856948853 -1.0059765577316284 -0.4578506350517273 0.2165060192346573 2915 14
3.9504880905151367 3.9504880905151367 -1.8152680397033691 0.3071568012237549 0 1
3.9681737422943115 3.93291974067688 -1.8153164386749268 0.30714893341064453 0 1
3.985790967941284 3.915283203125 -1.8153645992279053 0.3071407079696655 0 1
4.003329753875732 3.8975584506988525 -1.8154125213623047 0.3071328103542328 0 1
4.020791053771973 3.879755735397339 -1.815460205078125 0.3071244955062866 0 1
4.038164138793945 3.861884593963623 -1.8155077695846558 0.3071165084838867 0 1
4.055459022521973 3.843925714492798 -1.8155549764633179 0.30710849165916443 0 1
4.072685241699219 3.8258886337280273 -1.8156020641326904 0.30710041522979736 0 1
4.089824199676514 3.8077635765075684 -1.8156489133834839 0.30709266662597656 0 1
4.106874942779541 3.7895896434783936 -1.8156954050064087 0.3070845305919647 0 1
4.123847484588623 3.771308422088623 -1.8157418966293335 0.3070770502090454 0 1
4.140751838684082 3.7529685497283936 -1.8157880306243896 0.3070688843727112 0 1
4.157558441162109 3.734550714492798 -1.8158340454101562 0.3070613145828247 0 1
4.174286842346191 3.716054677963257 -1.8158795833587646 0.3070533871650696 0 1
4.190927505493164 3.6974804401397705 -1.815925121307373 0.3070458173751831 0 1
4.207499980926514 3.678837776184082 -1.8159704208374023 0.30703815817832947 0 1
4.223974704742432 3.660107374191284 -1.8160154819488525 0.3070308566093445 0 1
4.240371227264404 3.641308546066284 -1.816060185432434 0.30702313780784607 0 1
4.256679534912109 3.622441291809082 -1.8161046504974365 0.3070157468318939 0 1
4.272910118103027 3.6034960746765137 -1.816149115562439 0.3070079982280731 0 1
4.289052486419678 3.584482431411743 -1.8161932229995728 0.30700063705444336 0 1
4.305117130279541 3.5654003620147705 -1.816236972808838 0.3069928288459778 0 1
4.321084022521973 3.5462303161621094 -1.8162806034088135 0.3069857060909271 0 1
4.336962699890137 3.526992082595825 -1.81632399559021 0.30697858333587646 0 1
4.352763652801514 3.507695198059082 -1.8163671493530273 0.30697110295295715 0 1
4.368486404418945 3.4883105754852295 -1.8164100646972656 0.3069639205932617 0 1
4.384101390838623 3.4688572883605957 -1.8164526224136353 0.30695709586143494 0 1
4.399648189544678 3.449355363845825 -1.8164951801300049 0.306949257850647 0 1
4.415097713470459 3.429755687713623 -1.8165372610092163 0.3069423735141754 0 1
4.430459022521973 3.410097599029541 -1.8165792226791382 0.30693522095680237 0 1
4.445732116699219 3.390380859375 -1.816620945930481 0.30692845582962036 0 1
4.460927486419678 3.3705761432647705 -1.8166624307632446 0.30692118406295776 0 1
4.476015567779541 3.350712776184082 -1.81670343875885 0.30691444873809814 0 1
4.491025447845459 3.3307812213897705 -1.8167444467544556 0.306907594203949 0 1
4.505947113037109 3.310781240463257 -1.816785216331482 0.3069004416465759 0 1
4.52078104019165 3.290722608566284 -1.8168256282806396 0.3068936765193939 0 1
4.535527229309082 3.270585775375366 -1.8168659210205078 0.30688658356666565 0 1
4.550175666809082 3.250380754470825 -1.8169059753417969 0.30687981843948364 0 1
4.56472635269165 3.230117082595825 -1.8169455528259277 0.30687347054481506 0 1
4.579189300537109 3.209784984588623 -1.816985011100769 0.3068668246269226 0 1
4.593564510345459 3.189384698867798 -1.8170242309570312 0.30686047673225403 0 1
4.607851505279541 3.1689257621765137 -1.8170632123947144 0.3068535625934601 0 1
4.622050762176514 3.148388624191284 -1.8171018362045288 0.30684730410575867 0 1
4.636152267456055 3.127802610397339 -1.8171403408050537 0.30684080719947815 0 1
4.650166034698486 3.1071484088897705 -1.8171786069869995 0.30683398246765137 0 1
4.664082050323486 3.086435556411743 -1.817216396331787 0.306827574968338 0 1
4.677900314331055 3.0656542778015137 -1.8172541856765747 0.3068212568759918 0 1
4.691630840301514 3.044814348220825 -1.817291498184204 0.306814968585968 0 1
4.705273151397705 3.0239062309265137 -1.8173288106918335 0.3068087697029114 0 1
4.718818187713623 3.002939462661743 -1.8173656463623047 0.30680230259895325 0 1
4.732265472412109 2.9819140434265137 -1.8174022436141968 0.30679622292518616 0 1
4.745625019073486 2.960820198059082 -1.8174387216567993 0.3067898750305176 0 1
4.758876800537109 2.9396777153015137 -1.8174749612808228 0.306784063577652 0 1
4.772040843963623 2.918466806411743 -1.8175106048583984 0.3067779242992401 0 1
4.785107135772705 2.897207021713257 -1.8175463676452637 0.3067719638347626 0 1
4.798085689544678 2.875869035720825 -1.8175815343856812 0.30676597356796265 0 1
4.810966491699219 2.8544921875 -1.8176167011260986 0.3067602515220642 0 1
4.823750019073486 2.8330469131469727 -1.8176515102386475 0.3067542314529419 0 1
4.836435317993164 2.8115527629852295 -1.8176860809326172 0.30674833059310913 0 1
4.849023342132568 2.789990186691284 -1.8177202939987183 0.3067426085472107 0 1
4.861513614654541 2.768378734588623 -1.8177542686462402 0.3067369759082794 0 1
4.873915672302246 2.746699094772339 -1.8177882432937622 0.30673107504844666 0 1
4.886210918426514 2.724980354309082 -1.8178216218948364 0.3067254424095154 0 1
4.898407936096191 2.703193187713623 -1.8178547620773315 0.30671995878219604 0 1
4.910517692565918 2.6813573837280273 -1.817887783050537 0.30671414732933044 0 1
4.922519207000732 2.6594629287719727 -1.817920446395874 0.3067086935043335 0 1
4.934433460235596 2.637519359588623 -1.8179528713226318 0.3067033290863037 0 1
4.946239948272705 2.6155176162719727 -1.817984938621521 0.30669787526130676 0 1
4.957949161529541 2.5934667587280273 -1.818016767501831 0.30669254064559937 0 1
4.969560623168945 2.571357250213623 -1.818048357963562 0.3066870868206024 0 1
4.981064319610596 2.549199104309082 -1.8180795907974243 0.30668219923973083 0 1
4.992480278015137 2.526982307434082 -1.8181105852127075 0.3066766858100891 0 1
5.003788948059082 2.5047264099121094 -1.8181414604187012 0.3066715896129608 0 1
5.014999866485596 2.482412099838257 -1.8181719779968262 0.30666637420654297 0 1
5.026113033294678 2.4600486755371094 -1.8182021379470825 0.3066612482070923 0 1
5.037118911743164 2.437636613845825 -1.8182320594787598 0.30665624141693115 0 1
5.048027038574219 2.415175676345825 -1.8182616233825684 0.30665135383605957 0 1
5.058837890625 2.392656087875366 -1.8182910680770874 0.30664634704589844 0 1
5.069560527801514 2.3700976371765137 -1.8183202743530273 0.30664125084877014 0 1
5.080156326293945 2.3474998474121094 -1.818349003791809 0.30663666129112244 0 1
5.090663909912109 2.324833869934082 -1.8183774948120117 0.30663177371025085 0 1
5.101064205169678 2.302138566970825 -1.8184057474136353 0.3066270053386688 0 1
5.111367225646973 2.279374837875366 -1.8184337615966797 0.30662232637405396 0 1
5.121572017669678 2.256582021713257 -1.8184614181518555 0.3066173493862152 0 1
5.131659984588623 2.2337303161621094 -1.8184888362884521 0.30661311745643616 0 1
5.141650199890137 2.2108495235443115 -1.8185158967971802 0.3066085875034332 0 1
5.151542663574219 2.187919855117798 -1.818542718887329 0.30660393834114075 0 1
5.161327838897705 2.164931535720825 -1.818569302558899 0.30659961700439453 0 1
5.171015739440918 2.141914129257202 -1.8185956478118896 0.30659499764442444 0 1
5.180595397949219 2.118847608566284 -1.8186216354370117 0.3065904974937439 0 1
5.190077781677246 2.0957422256469727 -1.8186473846435547 0.3065858781337738 0 1
5.199443340301514 2.072587728500366 -1.818672776222229 0.3065820336341858 0 1
5.208710670471191 2.049384832382202 -1.8186978101730347 0.3065779209136963 0 1
5.217880725860596 2.0261523723602295 -1.8187228441238403 0.3065734803676605 0 1
5.226933479309082 2.002871036529541 -1.8187471628189087 0.3065696060657501 0 1
5.235898494720459 1.9795604944229126 -1.8187716007232666 0.30656498670578003 0 1
5.244746208190918 1.9562010765075684 -1.8187954425811768 0.306561142206192 0 1
5.253486156463623 1.932802677154541 -1.818819284439087 0.3065572679042816 0 1
5.262138366699219 1.909365177154541 -1.8188425302505493 0.30655327439308167 0 1
5.270673751831055 1.8858885765075684 -1.8188656568527222 0.30654940009117126 0 1
5.279101371765137 1.8623632192611694 -1.818888545036316 0.3065456748008728 0 1
5.287431716918945 1.8388183116912842 -1.818911075592041 0.30654147267341614 0 1
5.295644283294678 1.8152343034744263 -1.8189332485198975 0.3065378665924072 0 1
5.303759574890137 1.791591763496399 -1.8189551830291748 0.30653414130210876 0 1
5.311757564544678 1.7679296731948853 -1.818976879119873 0.30653083324432373 0 1
5.319658279418945 1.744238257408142 -1.8189982175827026 0.3065270483493805 0 1
1.4316015243530273 0.4623339772224426 -0.4888094961643219 0.1657077670097351 2915 14
1.42947256565094 0.45460936427116394 -0.48738837242126465 0.16619297862052917 2915 14
1.4273144006729126 0.4469335973262787 -0.48596784472465515 0.1666780710220337 2915 14
1.4251171350479126 0.4392675757408142 -0.4845477044582367 0.1671670824289322 2915 14
1.42288076877594 0.43163084983825684 -0.4831276535987854 0.16765865683555603 2915 14
1.4206151962280273 0.42403319478034973 -0.48170843720436096 0.16815200448036194 2915 14
1.418310523033142 0.41645506024360657 -0.48028960824012756 0.16864782571792603 2915 14
1.415956974029541 0.4089062511920929 -0.478871613740921 0.16914834082126617 2915 14
1.41357421875 0.4013964831829071 -0.47745460271835327 0.16964927315711975 2915 14
1.4111523628234863 0.39390623569488525 -0.4760381877422333 0.17015458643436432 2915 14
1.40869140625 0.38645505905151367 -0.4746229350566864 0.17066211998462677 2915 14
1.4062011241912842 0.3790332078933716 -0.47320884466171265 0.17117150127887726 2915 14
1.4036718606948853 0.371650367975235 -0.4717956483364105 0.17168432474136353 2915 14
1.4011132717132568 0.3642871081829071 -0.47038358449935913 0.17219911515712738 2915 14
1.3985155820846558 0.35695311427116394 -0.4689730703830719 0.17271776497364044 2915 14
1.3958886861801147 0.34965819120407104 -0.4675642251968384 0.17323759198188782 2915 14
1.3932225704193115 0.34239256381988525 -0.46615660190582275 0.1737612634897232 2915 14
1.3905370235443115 0.33515623211860657 -0.4647504389286041 0.17428730428218842 2915 14
1.3878124952316284 0.3279492259025574 -0.4633459448814392 0.17481571435928345 2915 14
1.3850585222244263 0.32078123092651367 -0.46194297075271606 0.17534543573856354 2915 14
1.382265567779541 0.31364256143569946 -0.4605419933795929 0.17587967216968536 2915 14
1.3794530630111694 0.3065429627895355 -0.45914289355278015 0.1764148622751236 2915 14
1.3766015768051147 0.2994628846645355 -0.4577454924583435 0.17695453763008118 2915 14
1.373720645904541 0.2924218773841858 -0.4563503861427307 0.17749610543251038 2915 14
1.3708105087280273 0.28541991114616394 -0.45495709776878357 0.17803922295570374 2915 14
1.3678808212280273 0.2784472703933716 -0.4535660445690155 0.1785837709903717 2915 14
1.3649120330810547 0.27150389552116394 -0.4521771967411041 0.17913320660591125 2915 14
1.3619335889816284 0.2645898461341858 -0.45079055428504944 0.17968417704105377 2915 14
1.3589160442352295 0.2577148377895355 -0.4494064152240753 0.1802373230457306 2915 14
1.355859398841858 0.2508886754512787 -0.44802436232566833 0.18079432845115662 2915 14
1.3527929782867432 0.24407225847244263 -0.44664496183395386 0.18135255575180054 2915 14
1.3496874570846558 0.2373046875 -0.4452677071094513 0.1819135844707489 2915 14
1.3465722799301147 0.23056639730930328 -0.4438934922218323 0.1824747771024704 2915 14
1.3434178829193115 0.22385741770267487 -0.4425215721130371 0.183041512966156 2915 14
1.3402440547943115 0.21718749403953552 -0.44115257263183594 0.18360912799835205 2915 14
1.3371288776397705 0.21055664122104645 -0.4398142099380493 0.20451980829238892 2915 14
1.337646484375 0.2045312523841858 -0.43968039751052856 0.20458267629146576 2915 14
1.3381249904632568 0.19849608838558197 -0.43954184651374817 0.20464733242988586 2915 14
1.3385741710662842 0.19246093928813934 -0.43939924240112305 0.20471183955669403 2915 14
1.338964819908142 0.18641601502895355 -0.43925216794013977 0.2047824263572693 2915 14
1.3393163681030273 0.18038085103034973 -0.43910109996795654 0.20485244691371918 2915 14
1.339638590812683 0.1743457019329071 -0.4389457702636719 0.20492422580718994 2915 14
1.3399120569229126 0.1683007776737213 -0.43878600001335144 0.2050001174211502 2915 14
1.3401561975479126 0.16225585341453552 -0.43862196803092957 0.20507565140724182 2915 14
1.3403515815734863 0.1562207043170929 -0.4384538233280182 0.20515474677085876 2915 14
1.3405077457427979 0.1501757800579071 -0.43828168511390686 0.20523416996002197 2915 14
1.3406249284744263 0.1441308557987213 -0.4381049871444702 0.20531713962554932 2915 14
1.3407031297683716 0.1380957067012787 -0.437924325466156 0.20540174841880798 2915 14
1.3407421112060547 0.1320507824420929 -0.4377395510673523 0.2054886519908905 2915 14
1.3407421112060547 0.12601561844348907 -0.4375503361225128 0.20557692646980286 2915 14
1.3406835794448853 0.11998046934604645 -0.43735724687576294 0.2056693136692047 2915 14
1.3406054973602295 0.11394531279802322 -0.43715986609458923 0.2057614028453827 2915 14
1.3404881954193115 0.10791015625 -0.4369586110115051 0.20585566759109497 2915 14
1.3403222560882568 0.10187499970197678 -0.43675291538238525 0.20595374703407288 2915 14
1.340126872062683 0.09584961086511612 -0.4365431070327759 0.206051304936409 2915 14
1.3398730754852295 0.08982421457767487 -0.4363294839859009 0.20615315437316895 2915 14
1.3395898342132568 0.08379882574081421 -0.43611159920692444 0.20625686645507812 2915 14
1.3392772674560547 0.07778320461511612 -0.4358900487422943 0.20636042952537537 2915 14
1.3389159440994263 0.07176757603883743 -0.4356643557548523 0.20646809041500092 2915 14
1.3385156393051147 0.06576171517372131 -0.4354345500469208 0.20657747983932495 2915 14
1.338076114654541 0.05975585803389549 -0.435200959444046 0.20668697357177734 2915 14
1.3375976085662842 0.05374999716877937 -0.4349631369113922 0.20680055022239685 2915 14
1.3370800018310547 0.04775390401482582 -0.4347222149372101 0.2064020335674286 2915 14
1.3365429639816284 0.04175781086087227 -0.4344799816608429 0.20651596784591675 2915 14
1.3359570503234863 0.03578124940395355 -0.434233695268631 0.20663350820541382 2915 14
1.3353320360183716 0.029794922098517418 -0.4339834451675415 0.20675352215766907 2915 14
1.3346679210662842 0.02382812462747097 -0.43372923135757446 0.20687299966812134 2915 14
1.3339648246765137 0.01787109300494194 -0.43347129225730896 0.20699703693389893 2915 14
1.3332324028015137 0.011904296465218067 -0.4332093596458435 0.20712104439735413 2915 14
1.3324511051177979 0.0059570311568677425 -0.4329436421394348 0.20724919438362122 2915 14
1.331640601158142 9.765624781721272e-06 -0.4326738715171814 0.20737725496292114 2915 14
1.3307812213897705 -0.005927734076976776 -0.4324008822441101 0.20750997960567474 2915 14
1.3298827409744263 -0.01186523400247097 -0.43212348222732544 0.20764252543449402 2915 14
1.328955054283142 -0.01778320223093033 -0.43184271454811096 0.20777729153633118 2915 14
1.3279882669448853 -0.023701170459389687 -0.4315579831600189 0.2079142928123474 2915 14
1.3269823789596558 -0.029609374701976776 -0.4312695860862732 0.2080536186695099 2915 14
1.3259375095367432 -0.03550781309604645 -0.43097755312919617 0.20819509029388428 2915 14
1.3248631954193115 -0.04139648377895355 -0.43068191409111023 0.2083369791507721 2915 14
1.32373046875 -0.04727539047598839 -0.43038246035575867 0.20848309993743896 2915 14
1.3225780725479126 -0.05314452946186066 -0.43007948994636536 0.2086295634508133 2915 14
1.321386694908142 -0.05900390446186066 -0.4297727048397064 0.20877833664417267 2915 14
1.320156216621399 -0.06485351175069809 -0.4294627904891968 0.20892971754074097 2915 14
1.3188964128494263 -0.07069335877895355 -0.42914879322052 0.20908117294311523 2915 14
1.3175878524780273 -0.07652343809604645 -0.42883139848709106 0.20923727750778198 2915 14
1.3162401914596558 -0.08234374970197678 -0.4285105764865875 0.20939379930496216 2915 14
1.3148632049560547 -0.08814452588558197 -0.4281860888004303 0.20955267548561096 2915 14
1.3134570121765137 -0.09394530951976776 -0.4278582036495209 0.20971211791038513 2915 14
1.31201171875 -0.09972655773162842 -0.4275270700454712 0.20987427234649658 2915 14
1.3105273246765137 -0.1054980456829071 -0.4271923005580902 0.21003884077072144 2915 14
1.3090038299560547 -0.11124999821186066 -0.4268540143966675 0.2102060317993164 2915 14
1.3074511289596558 -0.11699218302965164 -0.42651259899139404 0.2103738635778427 2915 14
1.305849552154541 -0.12272460758686066 -0.4261678159236908 0.2105444371700287 2915 14
1.3042285442352295 -0.1284472644329071 -0.4258195459842682 0.21071550250053406 2915 14
1.3025585412979126 -0.1341601461172104 -0.42546820640563965 0.2108916938304901 2915 14
1.300869107246399 -0.13985350728034973 -0.4251132905483246 0.21106615662574768 2915 14
1.2991405725479126 -0.1455371081829071 -0.4247554540634155 0.21124370396137238 2915 14
1.2973730564117432 -0.15120117366313934 -0.4243939220905304 0.21142378449440002 2915 14
1.2955663204193115 -0.15685546398162842 -0.42402952909469604 0.21160705387592316 2915 14
1.293740153312683 -0.16249999403953552 -0.4236620366573334 0.21178902685642242 2915 14
1.2918554544448853 -0.1681250035762787 -0.4232911467552185 0.21197593212127686 2915 14
1.2899608612060547 -0.17373046278953552 -0.4229173958301544 0.21216171979904175 2915 14
1.2880175113677979 -0.1793261617422104 -0.42253997921943665 0.21235236525535583 2915 14
1.2860546112060547 -0.1849023401737213 -0.4221596419811249 0.21254195272922516 2915 14
1.2840429544448853 -0.1904589831829071 -0.42177656292915344 0.21273696422576904 2915 14
1.2820117473602295 -0.1960156261920929 -0.4213903844356537 0.21293073892593384 2915 14
1.2799413204193115 -0.2015429586172104 -0.42100128531455994 0.21312782168388367 2915 14
1.2778418064117432 -0.2070605456829071 -0.4206090569496155 0.2133258730173111 2915 14
1.2756932973861694 -0.21256835758686066 -0.4202139973640442 0.21352732181549072 2915 14
1.273525357246399 -0.2180468738079071 -0.41981589794158936 0.2137298434972763 2915 14
1.271328091621399 -0.2235156148672104 -0.4194149672985077 0.21393361687660217 2915 14
1.2690917253494263 -0.22896483540534973 -0.4190111458301544 0.21414068341255188 2915 14
1.2668261528015137 -0.2344042956829071 -0.41860443353652954 0.21434906125068665 2915 14
1.2645312547683716 -0.23982422053813934 -0.4181951880455017 0.21455888450145721 2915 14
1.26220703125 -0.24521483480930328 -0.417782723903656 0.21476975083351135 2915 14
1.2600195407867432 -0.25062498450279236 -0.41742339730262756 0.20360693335533142 2915 14
1.259121060371399 -0.25629881024360657 -0.4175048768520355 0.20356842875480652 2915 14
1.258203148841858 -0.261962890625 -0.4175819158554077 0.20353002846240997 2915 14
1.2572362422943115 -0.26761719584465027 -0.4176548719406128 0.2034963071346283 2915 14
1.256250023841858 -0.27327147126197815 -0.41772398352622986 0.20346051454544067 2915 14
1.2551952600479126 -0.27891600131988525 -0.41778838634490967 0.2034311592578888 2915 14
1.2541210651397705 -0.28456053137779236 -0.4178486466407776 0.2034015953540802 2915 14
1.253017544746399 -0.2901953160762787 -0.417904794216156 0.20337240397930145 2915 14
1.2518651485443115 -0.29582029581069946 -0.41795697808265686 0.20334796607494354 2915 14
1.2506639957427979 -0.30143553018569946 -0.41800421476364136 0.2033255249261856 2915 14
1.2494432926177979 -0.30705076456069946 -0.41804778575897217 0.20330321788787842 2915 14
1.2481738328933716 -0.3126464784145355 -0.4180871546268463 0.20328597724437714 2915 14
1.2468749284744263 -0.3182421922683716 -0.41812169551849365 0.20326818525791168 2915 14
1.2455272674560547 -0.3238281309604645 -0.4181526005268097 0.20325320959091187 2915 14
1.2441504001617432 -0.3294042944908142 -0.418178915977478 0.20324037969112396 2915 14
1.2427343130111694 -0.3349706828594208 -0.41820111870765686 0.2032300978899002 2915 14
1.2412890195846558 -0.34052732586860657 -0.4182189702987671 0.20321998000144958 2915 14
1.239785075187683 -0.3460742235183716 -0.41823264956474304 0.20321446657180786 2915 14
1.2382616996765137 -0.35161131620407104 -0.41824209690093994 0.20320932567119598 2915 14
1.2366992235183716 -0.35712888836860657 -0.41824713349342346 0.20320644974708557 2915 14
1.2350976467132568 -0.3626464903354645 -0.4182479679584503 0.20320606231689453 2915 14
1.2334569692611694 -0.36815428733825684 -0.41824454069137573 0.20320802927017212 2915 14
1.2317675352096558 -0.3736523389816284 -0.4182369112968445 0.20321246981620789 2915 14
1.2300585508346558 -0.37913084030151367 -0.41822487115859985 0.20321765542030334 2915 14
1.228310465812683 -0.38459959626197815 -0.41820868849754333 0.20322537422180176 2915 14
1.2265233993530273 -0.39005857706069946 -0.4181882441043854 0.2032354772090912 2915 14
1.2246874570846558 -0.3955078125 -0.41816359758377075 0.2032480239868164 2915 14
1.222841739654541 -0.400947242975235 -0.41813817620277405 0.2036435306072235 2915 14
1.2209570407867432 -0.4063769578933716 -0.4181099534034729 0.20365776121616364 2915 14
1.2190428972244263 -0.41178709268569946 -0.4180773198604584 0.20367279648780823 2915 14
1.217079997062683 -0.41718748211860657 -0.41804039478302 0.20369230210781097 2915 14
1.215087890625 -0.42256835103034973 -0.417999804019928 0.2037111073732376 2915 14
1.2130565643310547 -0.42793944478034973 -0.4179544746875763 0.2037333846092224 2915 14
1.2109960317611694 -0.4332910180091858 -0.41790518164634705 0.20375755429267883 2915 14
1.2088963985443115 -0.43864256143569946 -0.41785162687301636 0.20378336310386658 2915 14
1.2067480087280273 -0.4439648389816284 -0.4177936315536499 0.2038128525018692 2915 14
1.2045800685882568 -0.449287086725235 -0.41773155331611633 0.2038421481847763 2915 14
1.2023730278015137 -0.45458006858825684 -0.4176653325557709 0.20387521386146545 2915 14
1.200136661529541 -0.4598632752895355 -0.4175949692726135 0.2039087861776352 2915 14
1.1978613138198853 -0.46513670682907104 -0.41752028465270996 0.20394465327262878 2915 14
1.1955370903015137 -0.4703906178474426 -0.41744154691696167 0.20398372411727905 2915 14
1.1931933164596558 -0.4756249785423279 -0.41735854744911194 0.20402389764785767 2915 14
1.1908105611801147 -0.48084959387779236 -0.4172716438770294 0.20406672358512878 2915 14
1.1883983612060547 -0.48603513836860657 -0.41718024015426636 0.20411112904548645 2915 14
1.1859471797943115 -0.49123045802116394 -0.41708463430404663 0.2041572630405426 2915 14
1.1834570169448853 -0.4963964819908142 -0.41698524355888367 0.20420756936073303 2915 14
1.1809277534484863 -0.5015527009963989 -0.4168814718723297 0.20425818860530853 2915 14
1.1783788204193115 -0.5066796541213989 -0.41677358746528625 0.20431073009967804 2915 14
1.1757910251617432 -0.5117968916893005 -0.41666144132614136 0.20436573028564453 2915 14
1.1731737852096558 -0.516894519329071 -0.4165455400943756 0.20442217588424683 2915 14
1.1705175638198853 -0.5219824314117432 -0.41642531752586365 0.20448094606399536 2915 14
1.167822241783142 -0.5270410180091858 -0.41630104184150696 0.20454174280166626 2915 14
1.1650975942611694 -0.5320702791213989 -0.4161726236343384 0.2046058475971222 2915 14
1.1623437404632568 -0.5370995998382568 -0.41604018211364746 0.20467038452625275 2915 14
1.1595605611801147 -0.5420995950698853 -0.415903776884079 0.20473721623420715 2915 14
1.15673828125 -0.5470898151397705 -0.4157632291316986 0.20480644702911377 2915 14
1.1538866758346558 -0.552050769329071 -0.4156184196472168 0.20487770438194275 2915 14
1.1509863138198853 -0.5570019483566284 -0.4154699742794037 0.20495179295539856 2915 14
1.1480664014816284 -0.5619238018989563 -0.4153175354003906 0.20502808690071106 2915 14
1.145117163658142 -0.5668359398841858 -0.41516074538230896 0.20510463416576385 2915 14
1.1421386003494263 -0.5717187523841858 -0.41500023007392883 0.20518358051776886 2915 14
1.1391308307647705 -0.5765722393989563 -0.414835661649704 0.20526395738124847 2915 14
1.136083960533142 -0.5814160108566284 -0.4146668016910553 0.20534758269786835 2915 14
1.132997989654541 -0.586230456829071 -0.4144943952560425 0.20543377101421356 2915 14
1.1298925876617432 -0.5910351276397705 -0.41431793570518494 0.20552048087120056 2915 14
1.126747965812683 -0.5958105325698853 -0.41413742303848267 0.20561149716377258 2915 14
1.1235839128494263 -0.6005663871765137 -0.41395309567451477 0.20570209622383118 2915 14
1.1203808784484863 -0.6053026914596558 -0.41376495361328125 0.2057962417602539 2915 14
1.1171483993530273 -0.6100097298622131 -0.41357290744781494 0.20589283108711243 2915 14
1.1138964891433716 -0.6146875023841858 -0.41337692737579346 0.20598895847797394 2915 14
1.110595703125 -0.6193554401397705 -0.413176953792572 0.20608852803707123 2915 14
1.107275366783142 -0.6240038871765137 -0.41297316551208496 0.20618975162506104 2915 14
1.1039257049560547 -0.6286230087280273 -0.4127660393714905 0.20629379153251648 2915 14
1.1005468368530273 -0.6332226395606995 -0.41255462169647217 0.20639920234680176 2915 14
1.0971386432647705 -0.6377929449081421 -0.4123394787311554 0.20650728046894073 2915 14
1.0937011241912842 -0.6423437595367432 -0.4121208190917969 0.2066170871257782 2915 14
1.090234398841858 -0.6468554735183716 -0.4118981957435608 0.20672953128814697 2915 14
1.0867382287979126 -0.6513574123382568 -0.4116716682910919 0.20684358477592468 2915 14
1.0832128524780273 -0.6558398008346558 -0.4114416539669037 0.20695744454860687 2915 14
1.0796581506729126 -0.6602929830551147 -0.41120773553848267 0.2070760428905487 2915 14
1.0762012004852295 -0.664794921875 -0.41101422905921936 0.2164939045906067 2915 14
1.0727148056030273 -0.6692773103713989 -0.4108221232891083 0.2165970802307129 2915 14
1.0692187547683716 -0.6737402081489563 -0.41062697768211365 0.21669839322566986 2915 14
1.0656836032867432 -0.6781640648841858 -0.41042816638946533 0.21680426597595215 2915 14
1.0624511241912842 -0.6827929615974426 -0.4103533923625946 0.28431257605552673 2915 14
1.0606151819229126 -0.6883202791213989 -0.41082823276519775 0.2839841842651367 2915 14
1.0587596893310547 -0.69384765625 -0.41130363941192627 0.2836562991142273 2915 14
1.0568749904632568 -0.6993749737739563 -0.4117797017097473 0.2833288908004761 2915 14
1.0549609661102295 -0.7049023509025574 -0.41225576400756836 0.28300026059150696 2915 14
1.0530272722244263 -0.7104198932647705 -0.4127325415611267 0.2826738953590393 2915 14
1.0522558689117432 -0.7167675495147705 -0.413684606552124 0.24269120395183563 2915 14
1.0515234470367432 -0.7231543064117432 -0.4146581292152405 0.24212107062339783 2915 14
1.0507519245147705 -0.7295507788658142 -0.41563376784324646 0.24155235290527344 2915 14
1.049951195716858 -0.7359570264816284 -0.41661229729652405 0.24098679423332214 2915 14
1.0491210222244263 -0.742382824420929 -0.4175929129123688 0.24041928350925446 2915 14
1.0482616424560547 -0.7488183379173279 -0.41857603192329407 0.2398545742034912 2915 14
1.04736328125 -0.75526362657547 -0.4195616841316223 0.23929142951965332 2915 14
1.0464354753494263 -0.76171875 -0.42054876685142517 0.23872920870780945 2915 14
1.0454882383346558 -0.7681835889816284 -0.42153897881507874 0.23816882073879242 2915 14
1.0445019006729126 -0.774658203125 -0.42253148555755615 0.23760977387428284 2915 14
1.0434863567352295 -0.7811328172683716 -0.42352592945098877 0.23705294728279114 2915 14
1.0424413681030273 -0.7876366972923279 -0.4245226979255676 0.2364942580461502 2915 14
1.0413671731948853 -0.7941503524780273 -0.4255218505859375 0.23593804240226746 2915 14
1.0402441024780273 -0.8006640672683716 -0.4265231192111969 0.23538604378700256 2915 14
1.0391112565994263 -0.8071972727775574 -0.4275267720222473 0.2348320633172989 2915 14
1.037929654121399 -0.8137304782867432 -0.42853233218193054 0.23428219556808472 2915 14
1.036718726158142 -0.8202831745147705 -0.4295402467250824 0.23373258113861084 2915 14
1.0354784727096558 -0.8268359303474426 -0.430550217628479 0.23318487405776978 2915 14
1.0341992378234863 -0.8334081768989563 -0.43156179785728455 0.23263677954673767 2915 14
1.0328905582427979 -0.83998042345047 -0.4325759708881378 0.23209305107593536 2915 14
1.0315428972244263 -0.84657222032547 -0.43359190225601196 0.23154795169830322 2915 14
1.030175805091858 -0.85316401720047 -0.43461012840270996 0.23100581765174866 2915 14
1.0287597179412842 -0.8597655892372131 -0.43563011288642883 0.23046541213989258 2915 14
1.0273241996765137 -0.8663769364356995 -0.43665212392807007 0.22992567718029022 2915 14
1.0258495807647705 -0.8729979991912842 -0.43767622113227844 0.22938674688339233 2915 14
1.0243358612060547 -0.8796191215515137 -0.43870216608047485 0.22885140776634216 2915 14
1.022792935371399 -0.8862597346305847 -0.4397297501564026 0.22831545770168304 2915 14
1.0212109088897705 -0.8929003477096558 -0.44075942039489746 0.2277822345495224 2915 14
1.0195995569229126 -0.89955073595047 -0.4417908489704132 0.22725048661231995 2915 14
1.0179492235183716 -0.9061914086341858 -0.4428241550922394 0.2267211675643921 2915 14
1.016269564628601 -0.9128515124320984 -0.44385915994644165 0.2261931300163269 2915 14
1.0145410299301147 -0.9195214509963989 -0.44489577412605286 0.22566631436347961 2915 14
1.012783169746399 -0.9262011647224426 -0.4459342062473297 0.22513994574546814 2915 14
1.0109961032867432 -0.9328808188438416 -0.44697433710098267 0.2246166318655014 2915 14
1.0091699361801147 -0.9395703077316284 -0.448015958070755 0.2240935117006302 2915 14
1.0073144435882568 -0.9462597370147705 -0.44905927777290344 0.22357353568077087 2915 14
1.005410075187683 -0.9529589414596558 -0.45010411739349365 0.22305446863174438 2915 14
1.0034765005111694 -0.9596679210662842 -0.45115065574645996 0.22253650426864624 2915 14
1.001503825187683 -0.9663769602775574 -0.4521985650062561 0.2220204472541809 2915 14
0.9994921684265137 -0.9730859398841858 -0.45324790477752686 0.22150719165802002 2915 14
0.99745112657547 -0.9798046946525574 -0.4542987048625946 0.22099468111991882 2915 14
0.995361328125 -0.9865233898162842 -0.455351322889328 0.22048509120941162 2915 14
3.895634651184082 3.895644426345825 -1.81511652469635 0.311062753200531 0 1
3.913095712661743 3.8783299922943115 -1.8151640892028809 0.31105437874794006 0 1
3.9304587841033936 3.8609275817871094 -1.8152116537094116 0.31104642152786255 0 1
3.94775390625 3.843456983566284 -1.8152588605880737 0.3110377788543701 0 1
3.964970588684082 3.8258984088897705 -1.8153059482574463 0.31103023886680603 0 1
3.982109308242798 3.8082616329193115 -1.8153527975082397 0.3110220432281494 0 1
3.999160051345825 3.7905566692352295 -1.815399408340454 0.31101393699645996 0 1
4.016132831573486 3.77276349067688 -1.8154457807540894 0.3110061585903168 0 1
4.033046722412109 3.7549121379852295 -1.815492033958435 0.31099775433540344 0 1
4.049853324890137 3.7369627952575684 -1.815537929534912 0.31099042296409607 0 1
4.066591739654541 3.718945264816284 -1.8155837059020996 0.31098246574401855 0 1
4.083241939544678 3.700859308242798 -1.815629243850708 0.3109748959541321 0 1
4.099833965301514 3.682695150375366 -1.8156745433807373 0.3109666705131531 0 1
4.116328239440918 3.664443254470825 -1.8157196044921875 0.310959130525589 0 1
4.132734298706055 3.6461424827575684 -1.8157644271850586 0.3109513819217682 0 1
4.149062633514404 3.62774395942688 -1.8158090114593506 0.31094396114349365 0 1
4.165322303771973 3.6092772483825684 -1.8158533573150635 0.31093630194664 0 1
4.181484222412109 3.590751886367798 -1.8158974647521973 0.31092867255210876 0 1
4.197568416595459 3.572138547897339 -1.8159414529800415 0.3109210729598999 0 1
4.213564395904541 3.5534472465515137 -1.8159852027893066 0.3109138607978821 0 1
4.2294921875 3.5347070693969727 -1.8160287141799927 0.3109060525894165 0 1
4.245322227478027 3.515878915786743 -1.81607186794281 0.31089863181114197 0 1
4.261064529418945 3.4969725608825684 -1.816114902496338 0.31089162826538086 0 1
4.276728630065918 3.4780077934265137 -1.8161576986312866 0.3108842968940735 0 1
4.292304515838623 3.458974599838257 -1.8162002563476562 0.310876727104187 0 1
4.307802677154541 3.4398534297943115 -1.8162424564361572 0.31086990237236023 0 1
4.323212623596191 3.4206836223602295 -1.8162845373153687 0.3108624219894409 0 1
4.338525295257568 3.401435375213623 -1.816326379776001 0.3108554482460022 0 1
4.353769302368164 3.3821287155151367 -1.8163678646087646 0.31084775924682617 0 1
4.368916034698486 3.362734317779541 -1.8164094686508179 0.3108408749103546 0 1
4.383984088897705 3.3432812690734863 -1.8164504766464233 0.31083375215530396 0 1
4.39895486831665 3.3237597942352295 -1.8164913654327393 0.31082701683044434 0 1
4.413837909698486 3.3041698932647705 -1.8165318965911865 0.3108200430870056 0 1
4.428632736206055 3.2845115661621094 -1.8165721893310547 0.31081318855285645 0 1
4.443349361419678 3.2647948265075684 -1.8166124820709229 0.310806006193161 0 1
4.457978248596191 3.244999885559082 -1.8166522979736328 0.3107993006706238 0 1
4.472509860992432 3.2251462936401367 -1.8166919946670532 0.3107926845550537 0 1
4.486953258514404 3.2052245140075684 -1.816731333732605 0.31078583002090454 0 1
4.501308441162109 3.185234308242798 -1.8167705535888672 0.31077903509140015 0 1
4.515566349029541 3.1651854515075684 -1.8168095350265503 0.31077274680137634 0 1
4.529755592346191 3.145068407058716 -1.8168481588363647 0.3107658624649048 0 1
4.543838024139404 3.124892473220825 -1.8168865442276 0.31075945496559143 0 1
4.557831764221191 3.1046483516693115 -1.8169246912002563 0.31075283885002136 0 1
4.571728229522705 3.084345579147339 -1.8169625997543335 0.3107466995716095 0 1
4.585546970367432 3.063974618911743 -1.8170002698898315 0.3107399344444275 0 1
4.599267482757568 3.0435447692871094 -1.817037582397461 0.3107333779335022 0 1
4.612890720367432 3.0230565071105957 -1.8170748949050903 0.3107272982597351 0 1
4.626435279846191 3.00249981880188 -1.8171117305755615 0.3107210099697113 0 1
4.639882564544678 2.981884717941284 -1.8171484470367432 0.3107147812843323 0 1
4.653232097625732 2.9612011909484863 -1.8171846866607666 0.31070879101753235 0 1
4.666493892669678 2.940478563308716 -1.81722092628479 0.31070226430892944 0 1
4.679657936096191 2.919677734375 -1.8172566890716553 0.31069624423980713 0 1
4.692734241485596 2.8988280296325684 -1.8172924518585205 0.3106900155544281 0 1
4.705712795257568 2.8779101371765137 -1.817327857017517 0.3106839954853058 0 1
4.718603610992432 2.856923818588257 -1.817362904548645 0.3106784522533417 0 1
4.731406211853027 2.8359081745147705 -1.8173977136611938 0.31067171692848206 0 1
4.744101524353027 2.814814329147339 -1.8174324035644531 0.31066590547561646 0 1
4.756699085235596 2.7936718463897705 -1.8174667358398438 0.31066033244132996 0 1
4.769208908081055 2.7724609375 -1.8175007104873657 0.31065449118614197 0 1
4.781620979309082 2.751210927963257 -1.8175344467163086 0.3106486201286316 0 1
4.793935298919678 2.7298924922943115 -1.817568063735962 0.31064295768737793 0 1
4.806161880493164 2.7085254192352295 -1.8176013231277466 0.31063708662986755 0 1
4.818290710449219 2.687089681625366 -1.8176342248916626 0.31063181161880493 0 1
4.830322265625 2.6656150817871094 -1.817667007446289 0.3106261193752289 0 1
4.842255592346191 2.6440820693969727 -1.8176995515823364 0.31062036752700806 0 1
4.854091644287109 2.622490167617798 -1.8177317380905151 0.31061506271362305 0 1
4.865829944610596 2.6008496284484863 -1.8177636861801147 0.31060948967933655 0 1
4.87747049331665 2.579160213470459 -1.8177953958511353 0.3106040954589844 0 1
4.889023303985596 2.5574023723602295 -1.817826747894287 0.3105984926223755 0 1
4.900468826293945 2.5356054306030273 -1.8178579807281494 0.31059327721595764 0 1
4.911816120147705 2.513749837875366 -1.8178887367248535 0.3105880618095398 0 1
4.923076152801514 2.4918553829193115 -1.817919373512268 0.31058281660079956 0 1
4.934228420257568 2.469912052154541 -1.8179497718811035 0.31057748198509216 0 1
4.945282936096191 2.4479002952575684 -1.8179796934127808 0.31057238578796387 0 1
4.956230163574219 2.425849437713623 -1.818009614944458 0.310567706823349 0 1
4.967089653015137 2.403740167617798 -1.818039059638977 0.31056252121925354 0 1
4.977841854095459 2.381591796875 -1.8180681467056274 0.3105577826499939 0 1
4.988505840301514 2.3593945503234863 -1.8180972337722778 0.3105522692203522 0 1
4.999062538146973 2.337148427963257 -1.81812584400177 0.31054747104644775 0 1
5.009511470794678 2.3148436546325684 -1.818154215812683 0.3105430603027344 0 1
5.019873142242432 2.2925097942352295 -1.8181824684143066 0.3105379641056061 0 1
5.030136585235596 2.2701268196105957 -1.818210244178772 0.3105328381061554 0 1
5.040283203125 2.247685432434082 -1.8182379007339478 0.31052857637405396 0 1
5.050351619720459 2.2252049446105957 -1.8182651996612549 0.3105238378047943 0 1
5.060302734375 2.2026758193969727 -1.8182921409606934 0.3105193078517914 0 1
5.070156097412109 2.180107355117798 -1.8183188438415527 0.3105147182941437 0 1
5.079912185668945 2.1575000286102295 -1.8183454275131226 0.31050989031791687 0 1
5.089560508728027 2.134834051132202 -1.8183716535568237 0.3105055093765259 0 1
